# .PCD v0.7 - Point Cloud Data file format
VERSION 0.7
FIELDS x y z
SIZE 4 4 4
TYPE F F F
COUNT 1 1 1
WIDTH 1
HEIGHT 256
VIEWPOINT 0 0 0 1 0 0 0
POINTS 256
DATA ascii
0.38004392 -0.57052565 0.22698402
0.36875892 -0.69633055 0.2249012
0.35803992 -0.61549461 0.3068471
0.3496089 -0.43588257 0.16204786
0.35192692 -0.4045496 0.12244797
0.34306791 -0.43261564 0.17558908
0.33316591 -0.48709154 0.24875689
0.33655491 -0.42936361 0.18907404
0.3387849 -0.39812458 0.14980316
0.31501791 -0.48186255 0.26902914
0.32521892 -0.30058658 0.080665112
0.29698691 -0.47667563 0.28917694
0.3034769 -0.33133161 0.16324806
0.28978592 -0.22331464 0.090203285
0.28691792 -0.28573561 0.14883518
0.2778779 -0.73064661 0.095965862
0.26421592 -0.59302163 0.38567591
0.28657892 -0.071839571 -0.088535786
0.2620329 -0.47045958 0.31275415
0.2581909 -0.40858364 0.27357197
0.24718089 -0.59063458 0.39380121
0.26569191 -0.060121536 -0.021832943
0.26817992 -0.014007568 -0.077711105
0.25513291 -0.31942761 0.21525717
0.24276789 -0.53236461 0.36772919
0.24760188 -0.37255657 0.25702906
0.25062791 -0.10711157 0.05380106
0.23494689 -0.40484357 0.28847885
0.23594989 -0.37072563 0.26453209
0.2511349 0.042970419 -0.097764015
0.2385139 -0.73898959 0.064105034
0.22459491 -0.14744163 0.12126017
0.22818188 -0.81423557 0.029952049
0.22786389 -0.049474597 0.038053036
0.23140089 0.050253391 -0.051960945
0.2104719 -0.46364164 0.33829308
0.21529989 -0.2715646 0.2126193
0.2111419 -0.20634663 0.17140388
0.2062179 -0.40126657 0.30256701
0.1934979 -0.46219754 0.34353304
0.1967759 -0.31086755 0.251966
0.18546189 -0.58467162 0.41360092
0.1984209 0.16553938 -0.12939405
0.1821999 -0.4612416 0.34702396
0.1941769 0.19790542 -0.18238497
0.18727989 -0.81508255 0.025519848
0.1777959 -0.39895356 0.31140423
0.18308289 0.098165393 -0.02623415
0.18756789 0.20021939 -0.16508484
0.17455989 0.20435339 -0.13420105
0.1665529 -0.093054533 0.1278553
0.1632119 -0.26597154 0.23721695
0.16175589 -0.039235592 0.094868183
0.14747189 -0.52593362 0.38921928
0.15586789 0.20762342 -0.10999393
0.14438389 -0.36162257 0.3011179
0.14601789 -0.2647146 0.24264812
0.1440199 -0.037093639 0.10672617
0.1298499 -0.19832861 0.20880699
0.13437389 -0.81332457 0.030098915
0.1245639 -0.58309758 0.41763687
0.1225979 -0.81257963 0.032409191
0.12024489 0.25667441 -0.12201214
0.12285389 0.3193714 -0.23695803
0.1120759 -0.8793546 -0.022225857
0.10561189 -0.30545354 0.27402925
0.10380089 0.01472342 0.090918064
0.10589489 0.36090541 -0.30265284
0.10003389 -0.87588561 -0.010700703
0.0920109 -0.52565062 0.38896322
0.097663894 0.32429039 -0.19423914
0.086488903 -0.52593255 0.38776112
0.091546893 -0.03383255 0.12432814
0.092845902 0.36531043 -0.26166677
0.082469895 -0.3605386 0.3044219
0.083801895 0.2602914 -0.093754768
0.084463894 0.2906884 -0.13165808
0.081476897 0.10839343 0.039469242
0.076847896 -0.36046255 0.30465126
0.080445901 0.016053438 0.098522186
0.076055899 0.1485284 0.013505936
0.076483905 0.18210739 -0.012294769
0.072671905 -0.19632256 0.21760225
0.073215902 -0.13455856 0.18474293
0.070927903 -0.39566958 0.32271814
0.0748339 0.39470339 -0.28254604
0.068787903 0.016712427 0.10232019
0.069291905 0.070061445 0.070273876
0.065711901 0.26193643 -0.080863953
0.064638898 0.18264538 -0.0085759163
0.058261897 -0.63862765 0.42122889
0.063440904 0.070375443 0.072188854
0.060755897 -0.26210356 0.25314093
0.060841899 0.32841939 -0.15855694
0.062319901 0.39658242 -0.26436186
0.048802901 -0.36116755 0.30114317
0.051368896 0.017215371 0.10511494
0.051749896 0.070999384 0.076020241
0.038240898 0.43897438 -0.30055285
0.033140901 -0.13413155 0.18644285
0.034275901 -0.79904962 0.078052044
0.025919899 -0.46144354 0.34279394
0.023288898 0.18450642 0.0044331551
0.020087898 -0.52995753 0.37123108
0.017023899 0.1105864 0.053278923
0.017219901 0.15076244 0.028363228
0.0176339 0.21927243 -0.02432394
0.016832899 0.071310401 0.077637196
0.013453901 0.44179839 -0.27129269
0.011158898 -0.85545063 0.057473183
0.0098439008 -0.26354158 0.24580526
0.0060529001 0.26444238 -0.061411858
0.0058168992 0.2194674 -0.022926807
0.0045538992 -0.13457954 0.18385506
0.0037958995 -0.39893961 0.30804586
0.0017528981 0.5163244 -0.37402487
-0.0011611022 -0.13481462 0.18258524
-0.002287101 -0.64500654 0.3976059
-0.0018091016 -0.39935553 0.30624819
-0.0049661007 0.44312143 -0.25757885
-0.005990101 0.2194894 -0.022825718
-0.011662101 0.29593343 -0.08884716
-0.012349101 0.017760396 0.10788822
-0.012884101 -0.30793762 0.26120424
-0.0176981 0.26464343 -0.05990696
-0.0174051 0.37505043 -0.17163515
-0.0182631 -0.087341547 0.1561203
-0.024036102 -0.77211154 0.17155123
-0.0244081 -0.6485846 0.38462305
-0.029687101 0.071345448 0.077661991
-0.035504099 0.33254039 -0.12300491
-0.035504099 0.44441938 -0.24409008
-0.035504099 0.21953338 -0.022561073
-0.035504099 -0.13624763 0.17496729
-0.035504099 -0.59674358 0.36473513
-0.035504099 -0.40331757 0.28930521
-0.041340102 0.11053836 0.052754879
-0.041815102 0.63507843 -0.49184275
-0.041209102 -0.19904757 0.20313406
-0.041113101 -0.46876955 0.31274128
-0.041136101 -0.40398455 0.28647327
-0.046840101 -0.31131554 0.24577808
-0.052634101 -0.20017362 0.19754601
-0.052454099 -0.3690716 0.26609516
-0.052562103 -0.26791453 0.22503901
-0.059617102 0.37557238 -0.16673183
-0.058612101 -0.03414464 0.12134886
-0.0647121 0.10967338 0.047048092
-0.066306099 0.52102041 -0.31810904
-0.063438103 -0.72401357 0.33917809
-0.064281099 -0.089214563 0.14588785
-0.063717097 -0.40666461 0.27513027
-0.063961104 -0.26914763 0.21926498
-0.071447104 0.33247042 -0.12353086
-0.0694521 -0.37104559 0.25753689
-0.078424096 0.49219239 -0.2850337
-0.079326101 0.63898742 -0.43260574
-0.075053096 -0.40863955 0.26678705
-0.075379103 -0.27038658 0.21348
-0.082267106 0.10901737 0.042769909
-0.082775101 0.21853238 -0.029963017
-0.084750101 0.52145439 -0.31283474
-0.093164101 0.84250343 -0.60017109
-0.086262099 -0.4772346 0.2785449
-0.086819097 -0.2716316 0.20768785
-0.099433094 0.84308141 -0.58445883
-0.092240095 -0.37512958 0.23985815
-0.1000721 0.14883041 0.014996052
-0.1051141 0.76280737 -0.51022005
-0.1101511 0.60556442 -0.3869009
-0.1050231 -0.037424564 0.1027503
-0.1118511 0.14834142 0.011707306
-0.11880711 0.26245743 -0.076931
-0.11749411 0.10713446 0.030549049
-0.12536409 0.92769742 -0.61361504
-0.1164071 -0.094112635 0.1194582
-0.11503109 -0.41688359 0.23208809
-0.1172491 0.067028403 0.050551891
-0.1216791 -0.20817757 0.15821695
-0.1219641 -0.14367962 0.13648605
-0.1203611 -0.5590086 0.25893927
-0.13027111 0.21639639 -0.045631886
-0.13691109 0.8112554 -0.52113295
-0.1261341 -0.5611726 0.25062895
-0.1432161 0.81134343 -0.51891804
-0.14321209 0.2926904 -0.11513615
-0.1447431 0.40186042 -0.21261215
-0.1453611 0.44358742 -0.25192213
-0.14645711 0.52065039 -0.32170773
-0.1377701 -0.69132555 0.23123217
-0.1377231 -0.63195956 0.2342391
-0.1383141 -0.38514757 0.19666529
-0.1497961 0.32921243 -0.15131283
-0.15045211 0.37289339 -0.19089794
-0.1474421 0.14525038 -0.0093488693
-0.15088309 0.40141642 -0.2168498
-0.1537751 0.60521042 -0.39127302
-0.15420111 0.63996744 -0.41693592
-0.1453561 -0.14756155 0.1164341
-0.14562809 -0.097733617 0.10002518
-0.1565761 0.37243444 -0.19509077
-0.15770011 0.44284743 -0.25943995
-0.1538001 0.17882442 -0.035999775
-0.16138211 0.72931039 -0.4703927
-0.1588701 0.52023143 -0.3265028
-0.1496471 -0.49629056 0.20192099
-0.15151609 -0.098697543 0.094836235
-0.15216111 0.0093333721 0.057851315
-0.1631851 0.4005264 -0.22533798
-0.16466011 0.49026442 -0.30577993
-0.16721411 0.68363541 -0.4451251
-0.15806711 0.0086643696 0.053906918
-0.15614811 -0.33066654 0.15865421
-0.1669531 0.25888944 -0.10476875
-0.16808611 0.32775843 -0.16376305
-0.17432711 0.76379538 -0.48878288
-0.1720141 0.56176043 -0.36834192
-0.16367911 -0.043992639 0.065732002
-0.17130111 0.14313638 -0.023656845
-0.18034011 0.7291044 -0.47391081
-0.18031611 0.32678443 -0.17208576
-0.18390611 0.51876843 -0.3434577
-0.1878261 0.8450194 -0.53062773
-0.1852251 0.60408944 -0.4064188
-0.17516111 -0.10258055 0.073992252
-0.17555411 -0.045853615 0.055233955
-0.17413111 -0.28981459 0.12316895
-0.18433711 0.21175939 -0.079751015
-0.1942001 0.84497237 -0.53177309
-0.1824141 0.060258389 0.0083708763
-0.1912861 0.25647938 -0.12357378
-0.1959911 0.48798639 -0.33090973
-0.20136611 0.4391734 -0.29690504
-0.19210111 -0.44914162 0.096237183
-0.2076931 0.4384464 -0.30435181
-0.2130131 0.81115842 -0.52201271
-0.1981211 -0.29752564 0.087329865
-0.2104671 0.28584844 -0.1709218
-0.20818411 0.17250139 -0.080695152
-0.2258791 0.81085539 -0.52897406
-0.2269941 0.43541539 -0.33550406
-0.2288731 0.51351839 -0.40494871
-0.21702911 -0.1637826 0.032755852
-0.21765511 -0.05393064 0.0096430779
-0.2283971 0.25125641 -0.16449213
-0.23673311 0.3183884 -0.24449492
-0.2447461 0.72642243 -0.52269506
-0.2453801 0.81017941 -0.54468489
-0.2457051 0.84403241 -0.5559597
-0.24662711 0.92828238 -0.58798409
-0.25313309 0.92818844 -0.59152699
-0.25163808 0.35746741 -0.33295679
-0.24398011 0.089808464 -0.082305908
-0.25403309 0.24517238 -0.21249771
-0.27222911 0.84282637 -0.58781576
-0.27912509 0.84226942 -0.60269976
