# .PCD v0.7 - Point Cloud Data file format
VERSION 0.7
FIELDS x y z
SIZE 4 4 4
TYPE F F F
COUNT 1 1 1
WIDTH 1
HEIGHT 256
VIEWPOINT 0 0 0 1 0 0 0
POINTS 256
DATA ascii
1.1243342 0.15132743 -0.044644356
1.0882902 0.31285441 -0.093633175
1.0744883 0.11211944 -0.08229208
1.0710733 0.31222242 -0.10260725
1.0569942 0.15265143 -0.04272604
1.0552562 0.11324042 -0.075784206
1.0493872 0.19506943 -0.031206131
1.0505142 0.24213642 -0.03976202
1.0488572 0.11361241 -0.073620319
1.0468363 0.27140844 -0.05816412
1.0385933 0.15306544 -0.041653156
1.0372742 0.1952154 -0.031498909
1.0409082 0.27135342 -0.059481144
1.0206603 0.24208444 -0.044116974
0.9651652 0.19557142 -0.037328243
0.96118921 0.11727542 -0.054965019
0.95315421 0.19562244 -0.03829813
0.93650323 0.11804342 -0.051647186
0.93562824 0.26882142 -0.097240925
0.91122019 0.19568145 -0.042572021
0.89038324 0.24053741 -0.073998928
0.89439625 0.059971452 -0.11124229
0.8743422 0.062401414 -0.094887257
0.82771623 0.19530642 -0.054666042
0.82068825 0.15565342 -0.04472208
0.82569921 0.2389254 -0.095827103
0.81578022 0.19524342 -0.056392193
0.78471619 0.15571743 -0.047617912
0.79082423 0.23740345 -0.11346436
0.75659221 0.23488945 -0.14018297
0.72672725 0.19396341 -0.075755119
0.7302112 0.02143842 -0.11724615
0.70649123 0.12101942 -0.050241947
0.69450819 0.12102044 -0.051204205
0.64977825 0.19199443 -0.099133968
0.6354652 0.15470845 -0.068285942
0.62249726 0.12117743 -0.05529213
0.62351424 0.15460044 -0.070027351
0.58736122 0.15478444 -0.070881367
0.59024322 0.1905334 -0.1160593
0.57521921 0.15502644 -0.069620132
0.56586921 -0.1049996 -0.11455202
0.54298323 0.12453943 -0.033342361
0.50909024 0.045196414 0.040265083
0.49339622 0.16378045 -0.00098323822
0.50141025 0.23474342 -0.1591773
0.48423725 -0.032986581 0.063241005
0.48262626 0.20161444 -0.024577141
0.46982825 0.20369244 -0.0069112778
0.46566325 0.013962448 0.081419945
0.46857321 -0.14300555 0.019711018
0.46097422 0.1361444 0.055504799
0.46653825 0.24500245 -0.064717293
0.45360821 0.014924407 0.087569714
0.44427222 -0.14080757 0.03192997
0.40742922 0.17213041 0.065006733
0.40621221 0.092096448 0.096680641
0.41143322 -0.20840853 -0.039218903
0.40430725 0.25123245 -0.0089530945
0.40529722 -0.20769054 -0.035310268
0.38569325 0.31195045 -0.16270924
0.37859422 -0.13809258 0.045820713
0.36670625 -0.13771862 0.047691822
0.34831724 0.17294842 0.069835663
0.34147525 0.054772437 0.10288
0.33658522 0.17277545 0.068048954
0.33562523 0.054731429 0.10241508
0.33367324 0.27878541 -0.04207325
0.31967622 0.20940143 0.037863731
0.31275922 0.13968945 0.078683853
0.31378824 0.20927542 0.036606789
0.28296223 0.054328442 0.098227024
0.27703524 0.017753422 0.10160685
0.27722722 0.091913402 0.091577053
0.27204123 0.17131245 0.054332733
0.26616222 0.17117542 0.053085804
0.25481322 0.20798141 0.024045944
0.25561124 0.24975842 -0.026710987
0.23606123 0.017382443 0.098354816
0.22586823 0.24874145 -0.036632061
0.20683323 -0.071207583 0.089185715
0.20249924 0.27242941 -0.10648918
0.20114723 -0.13419062 0.065732956
0.19529124 0.13770342 0.060921669
0.18922724 -0.071238577 0.088860989
0.18447623 0.27058041 -0.12467813
0.18341224 0.090327442 0.078432083
0.17787324 0.20538241 0.00042963028
0.17169423 -0.13390559 0.067291737
0.15400924 0.016532421 0.091856003
0.15401223 -0.071321547 0.088203907
0.14814124 0.24474043 -0.074531078
0.14225523 -0.13364261 0.068840027
0.13637424 0.089470446 0.071865082
0.13053823 0.016263425 0.089998722
0.12983224 0.26495641 -0.1797061
0.12443523 0.16771042 0.023151875
0.12429823 0.20350045 -0.016137123
0.11877123 0.052448452 0.08330965
0.11822923 -0.26950258 -0.040947914
0.11879023 -0.071434557 0.087543964
0.11197923 0.2428534 -0.092106342
0.11294924 -0.027257621 0.093173981
0.10663323 0.16725242 0.019407749
0.10708123 -0.027332604 0.092711926
0.10705324 0.015982449 0.088141918
0.10694723 -0.13335854 0.070683002
0.088405237 -0.26767761 -0.030744076
0.07772623 -0.027716577 0.09039402
0.077688232 -0.071603596 0.086769104
0.065976232 -0.027875602 0.089466095
0.060041234 0.015385449 0.084430695
0.059893236 -0.13303155 0.073118687
0.053640231 -0.19275862 0.046658039
0.041120231 0.16505843 0.0017929077
0.042396232 0.015149415 0.083038807
0.041853234 -0.19247955 0.048442841
0.036104232 0.0875054 0.057915688
0.035954237 -0.19241863 0.048891068
0.030192234 0.087383449 0.057096958
0.020255238 0.23513645 -0.16326332
0.0078272372 0.23380941 -0.17545033
0.01235424 -0.19228357 0.05009985
-0.0060727596 0.13224542 0.018774986
-0.0045947731 -0.02889353 0.083908081
-0.0046977699 0.014487445 0.079325676
-0.0053237677 0.086583436 0.051753044
-0.023968771 0.1317274 0.015052795
-0.022201762 -0.072181523 0.084856987
-0.054919764 0.16130042 -0.027431011
-0.051935762 0.013415396 0.073084831
-0.057848766 0.013273418 0.072271824
-0.06581077 0.13049543 0.0063648224
-0.06941776 -0.029924572 0.078809738
-0.069681764 0.012986422 0.070645809
-0.075166762 -0.072735608 0.0828619
-0.091165766 0.15984541 -0.038418293
-0.098761767 -0.073153555 0.081010818
-0.11579876 -0.32800263 -0.056153297
-0.11664777 -0.030733526 0.075101852
-0.12753876 0.15836644 -0.049417973
-0.12764977 -0.32733363 -0.052173138
-0.12480976 -0.25964457 0.018524647
-0.12326775 -0.19180959 0.056919098
-0.12916277 -0.19180053 0.057209969
-0.13505678 -0.19179255 0.057501793
-0.14577578 0.15761745 -0.054924011
-0.14081977 0.011206448 0.060896873
-0.14139776 0.046649396 0.047383785
-0.14009775 -0.073917568 0.077769756
-0.15188976 0.15728945 -0.05740118
-0.14675976 0.011053443 0.060085773
-0.18751876 0.18466944 -0.17363024
-0.17791276 -0.25864261 0.026366711
-0.17568778 -0.13429052 0.072688103
-0.18171577 -0.031927526 0.070003033
-0.19266976 0.12512743 -0.031522274
-0.19495578 0.15465242 -0.07744503
-0.19930376 -0.13456255 0.072216034
-0.21092577 0.12433141 -0.036977291
-0.20517875 -0.075196564 0.072679996
-0.21448477 0.079852402 0.0087389946
-0.21111478 -0.13470358 0.07198
-0.21732076 -0.032750547 0.066341877
-0.21758176 -0.19178158 0.061531067
-0.22922577 -0.033090532 0.064725876
-0.23859276 0.079027414 0.0038156509
-0.23686476 -0.25776857 0.034255028
-0.24803276 0.0083343983 0.046277046
-0.24667777 -0.076061547 0.069438934
-0.25901979 -0.033954561 0.060687065
-0.25839674 -0.13530356 0.071025848
-0.27567178 0.14964443 -0.11486721
-0.28192079 0.14925343 -0.11775494
-0.27075577 -0.19219655 0.06222105
-0.30573076 -0.13596052 0.070062637
-0.32757676 0.040240407 0.01132679
-0.32567877 -0.25802463 0.038477898
-0.33363175 0.040013433 0.010102749
-0.34618479 -0.31945652 0.0015888214
-0.3588928 0.11655742 -0.090071201
-0.35180575 0.03932941 0.0064368248
-0.34782577 -0.19337362 0.060636997
-0.37306881 -0.25825459 0.040690899
-0.37708879 -0.13757354 0.065448761
-0.38757581 -0.31892759 0.0075068474
-0.39084679 -0.25835854 0.04151392
-0.38939381 -0.19407254 0.059772015
-0.4004038 0.0374704 -0.0033450127
-0.40530378 -0.31871861 0.010027885
-0.41348076 -0.080074608 0.055527687
-0.41948676 -0.080278575 0.054724693
-0.44244277 -0.40740854 -0.074440002
-0.43484277 -0.31839257 0.014209747
-0.44291276 -0.19503957 0.058649063
-0.45308781 0.0010964274 0.010735989
-0.45917976 0.00084644556 0.0095219612
-0.46142077 0.035077453 -0.015584946
-0.46522278 0.068671405 -0.058187962
-0.4666968 -0.13996154 0.058505058
-0.4751128 -0.04076153 0.031602859
-0.4836328 -0.40547663 -0.061117172
-0.49538076 -0.40493757 -0.057333946
-0.48571479 -0.082570612 0.045888901
-0.4975878 -0.25917155 0.046373844
-0.52633178 0.10233241 -0.19024134
-0.50535977 -0.041789591 0.027560711
-0.52353776 -0.042416632 0.02513504
-0.53406179 -0.084302604 0.039460659
-0.54011577 -0.084523618 0.038656712
-0.54789978 -0.043397605 0.021013737
-0.55400378 -0.40233654 -0.038566113
-0.54523778 -0.25991458 0.046998024
-0.56917077 -0.26046056 0.046478748
-0.56873077 -0.14290959 0.050621986
-0.59884679 -0.14382559 0.048300743
-0.60422879 -0.19866759 0.053648949
-0.62149876 -0.046733558 0.0065717697
-0.63628078 0.057717443 -0.12418795
-0.6310578 -0.0065025687 -0.024521351
-0.65461481 0.024754405 -0.070957184
-0.6434288 -0.088400543 0.024987698
-0.66091579 0.024407446 -0.072751045
-0.65912378 -0.2626546 0.044504642
-0.68616879 0.023011446 -0.079935074
-0.67395777 -0.089588583 0.020965099
-0.7000128 -0.010407567 -0.043745041
-0.69230878 -0.090311587 0.018550873
-0.7217688 0.050421417 -0.1696229
-0.71430278 -0.40079862 -0.012520313
-0.7203818 -0.051373541 -0.012716293
-0.7309708 0.020058453 -0.095950127
-0.74257278 0.047779441 -0.18714809
-0.72025579 -0.40078956 -0.011721134
-0.71906376 -0.20255059 0.044836044
-0.73786777 -0.012601554 -0.054387093
-0.74958777 -0.50702256 -0.14525032
-0.73726678 -0.20319563 0.043441772
-0.75146478 -0.052869618 -0.018753052
-0.76347077 0.017569423 -0.1099453
-0.74462581 -0.14919657 0.033191681
-0.78304881 0.016063452 -0.118361
-0.76751679 -0.26558656 0.04208374
-0.76764679 -0.20428854 0.041119099
-0.78263676 -0.054387629 -0.024793148
-0.78859878 -0.015579581 -0.06860733
-0.78572977 -0.40077454 -0.0029983521
-0.80924678 0.014040411 -0.12960196
-0.79890579 -0.32261163 0.03290987
-0.80981278 -0.26681656 0.041124821
-0.83323377 -0.018232584 -0.081075191
-0.82247579 -0.20631856 0.0369277
-0.85535383 0.010457397 -0.1493392
-0.83066177 -0.15296763 0.022013664
-0.84079278 -0.20701259 0.035531998
-0.84698981 -0.20734757 0.034489632
