# .PCD v0.7 - Point Cloud Data file format
VERSION 0.7
FIELDS x y z
SIZE 4 4 4
TYPE F F F
COUNT 1 1 1
WIDTH 1
HEIGHT 256
VIEWPOINT 0 0 0 1 0 0 0
POINTS 256
DATA ascii
0.51426905 0.28847212 -0.29022884
0.51763505 0.53382516 -0.33959961
0.48952505 0.42594516 -0.19280195
0.47074103 0.50162113 -0.1818738
0.46409506 0.30144614 -0.1717906
0.45744705 0.30260015 -0.161376
0.45643905 0.43035817 -0.14488268
0.45777604 0.50285512 -0.16674471
0.42959306 0.084316134 -0.19920158
0.41546506 0.089590132 -0.1616869
0.40154004 0.54955816 -0.1254549
0.39768305 0.0063661337 -0.16567755
0.38934705 0.095471144 -0.12036371
0.38866305 0.13626415 -0.1070919
0.38721505 0.43652117 -0.078976631
0.38914806 0.55024111 -0.11650085
0.38110805 0.43686914 -0.075354576
0.37540305 0.22450417 -0.079642773
0.37148604 0.58486015 -0.12064886
0.36307704 0.46788913 -0.069643974
0.38037705 0.94911814 -0.42981577
0.35644504 0.34496212 -0.054396629
0.34440005 0.38971013 -0.048931599
0.35282704 0.70068312 -0.2345109
0.34461704 0.43893611 -0.0537076
0.33315504 0.022456169 -0.061353683
0.33273005 0.46951717 -0.051627636
0.31439704 0.44063514 -0.035779953
0.30863103 0.02601409 -0.038630962
0.30295303 -0.077389836 -0.043811798
0.29643404 0.027780175 -0.027329922
0.30111405 0.67133117 -0.14915276
0.30610505 0.74567515 -0.27907562
0.29102406 -0.13168788 -0.039592743
0.29052305 -0.015328884 -0.026255608
0.29706004 0.77532715 -0.36459398
0.27842507 0.39309317 -0.016256809
0.27928105 0.51333714 -0.040159702
0.27066004 0.67228013 -0.13241196
0.27461004 0.74699813 -0.24842691
0.26089105 0.44241714 -0.017593861
0.26045206 -0.070623875 -0.0043706894
0.25429204 0.15184313 0.0052380562
0.24926904 0.47236913 -0.02075386
0.24459304 0.58922815 -0.059604645
0.24384604 0.74767715 -0.23306179
0.23946504 0.63048816 -0.085459709
0.23080504 0.27549613 0.0097270012
0.22532104 0.39453512 -0.0028877258
0.22458805 -0.12040389 0.0233531
0.21866305 0.036328137 0.027157307
0.22003604 0.51476514 -0.023610592
0.21755804 0.70486313 -0.15286684
0.22174305 0.77732915 -0.3127079
0.21513005 -0.55173385 -0.060151577
0.20727505 0.7482121 -0.22119856
0.20122305 -0.30236685 0.026432037
0.20258905 -0.54444587 -0.029461861
0.19592005 0.39531714 0.0045161247
0.18340504 -0.29895389 0.043025017
0.18325704 -0.11564291 0.049798012
0.17753905 0.082774162 0.045988083
0.17835304 0.39560813 0.0071663857
0.17925504 0.55652314 -0.035906792
0.17216904 0.27733415 0.024461269
0.17271304 0.44394815 -0.002623558
0.17337604 0.55654812 -0.035669804
0.16632205 0.27751416 0.025929451
0.16750005 0.55657315 -0.035434723
0.16563104 -0.22597682 0.061877251
0.16236804 0.63117915 -0.075758934
0.14871804 0.23911315 0.034937382
0.14987305 0.55664611 -0.034727573
0.14872205 -0.60259485 0.034674168
0.14378005 0.51512712 -0.020564556
0.14317206 -0.68576491 0.01813221
0.13738304 0.35283715 0.015797138
0.13754004 -0.75742686 0.0051670074
0.13587604 0.77810013 -0.29353476
0.13075905 -0.47945988 0.072955132
0.12535205 0.20636314 0.044751167
0.12573105 0.35285217 0.015788078
0.12584504 0.39568913 0.0071153641
0.11990406 0.35285914 0.015782356
0.11940905 0.12101215 0.056313038
0.11907604 -0.10960484 0.083536148
0.11771005 0.77771211 -0.30427599
0.10883605 0.55632114 -0.039845943
0.10898705 0.58976513 -0.054268837
0.10785206 -0.74420381 0.054096222
0.10763405 -0.67101181 0.074857235
0.10195605 0.085655153 0.06492424
0.10164005 -0.28768885 0.097859383
0.096344054 0.20648414 0.045403004
0.09585505 -0.5132668 0.10140324
0.090367049 0.086086154 0.067829132
0.087323055 0.77699411 -0.32399178
0.078945048 0.20649815 0.045387268
0.078986049 0.23965514 0.038674355
0.078717053 -0.79589891 0.082717419
0.078531049 -0.4069519 0.11310339
0.072779045 -0.5824939 0.11551523
0.072763048 -0.50918889 0.11859226
0.072919048 -0.054632902 0.088842392
0.061547048 0.20650715 0.045375347
0.061487049 0.12192816 0.062498093
0.061363049 -0.10702682 0.097956181
0.05560505 -0.85582185 0.099746227
0.05554305 -0.6583389 0.12363625
0.05552705 -0.57903087 0.12951803
0.05553405 -0.46696281 0.12691307
0.049932048 0.15888011 0.055010319
0.049837049 -0.85307384 0.10930824
0.038349051 0.51382917 -0.038127899
0.038349051 -0.35431886 0.13292027
0.026752049 0.20650816 0.045352459
0.02666105 0.39443111 -0.0065779686
0.02685805 -0.1055268 0.1065774
0.02690905 -0.35371685 0.13576841
0.020880049 -0.92991984 0.017435074
0.015117049 0.23927116 0.035383224
0.01521205 0.12192416 0.062470436
0.0098350495 -0.65004182 0.15583944
0.0034860484 0.23890913 0.03240633
0.0016960502 0.74461913 -0.30950785
0.0039720498 -0.21371889 0.12514925
-0.0032559521 0.62858617 -0.12011576
-0.0015329495 -0.6484828 0.1619401
-0.001553949 -0.49981391 0.15849924
-0.0016489513 -0.35223389 0.14287901
-0.0075229518 -0.16232491 0.12001228
-0.01468695 0.51196814 -0.061900616
-0.01285895 -0.77147484 0.17090321
-0.01960595 0.15814912 0.049717426
-0.018666949 -0.83936691 0.15730429
-0.018992949 -0.16234183 0.12000608
-0.01870795 -0.39830482 0.15265131
-0.026909951 0.5862571 -0.10735798
-0.024192948 -0.71158791 0.1756382
-0.032470953 0.51117712 -0.071938992
-0.033168953 0.62747115 -0.13851261
-0.03090195 -0.91220689 0.077904224
-0.030811954 0.0029921532 0.086518288
-0.037044954 0.15753812 0.04527235
-0.035840947 -0.35049081 0.15139627
-0.041806947 -0.2128309 0.13021421
-0.041140947 -0.70919788 0.18473625
-0.042340953 0.0029711723 0.086514473
-0.050093953 0.46884614 -0.065463543
-0.050862949 0.58512819 -0.12416172
-0.054506954 0.15692115 0.040821075
-0.056037951 0.46855813 -0.068811893
-0.060844954 0.27517015 0.0048260689
-0.061529953 0.39102912 -0.041361809
-0.064200953 0.66771317 -0.22134876
-0.067459956 0.39070213 -0.044684887
-0.067943946 0.46798116 -0.075511932
-0.063644946 -0.76408589 0.19815922
-0.073113948 0.34801817 -0.031102657
-0.070949957 -0.90604389 0.099371433
-0.069261953 -0.76327491 0.20117521
-0.070799947 -0.10536087 0.108428
-0.087785959 0.62426317 -0.19136763
-0.091233954 0.38938713 -0.058002949
-0.095135957 0.11879915 0.041109085
-0.09243995 -0.83447385 0.17541647
-0.093820959 -0.10574985 0.10661125
-0.097293958 -0.75953186 0.21520519
-0.10025296 0.00086009502 0.07397604
-0.11784895 0.58054113 -0.19232178
-0.11116396 -0.10656881 0.10225105
-0.11449096 -0.6377418 0.20525217
-0.11730595 -0.055425882 0.085786343
-0.12078795 -0.45541286 0.17928028
-0.12811795 -0.16371489 0.11433744
-0.13744895 0.23204714 -0.0227108
-0.13208695 -0.83282983 0.18206024
-0.13661195 -0.75709486 0.22494411
-0.14053495 -0.056488872 0.079938412
-0.14899296 0.19850314 -0.016170979
-0.15232696 0.43208116 -0.13551569
-0.14917095 -0.83326888 0.18100214
-0.15125795 -0.16488481 0.10854626
-0.14983796 -0.34961283 0.15782833
-0.17773196 0.11296016 0.00091314316
-0.19453095 0.53544617 -0.3293128
-0.17694196 -0.56233585 0.20089102
-0.18964395 0.11200213 -0.0056409836
-0.18728995 -0.059439898 0.063494205
-0.18804295 -0.0046128035 0.041385174
-0.20360495 0.45407212 -0.23784876
-0.19069095 -0.28158689 0.13195133
-0.18876696 -0.49400687 0.18704224
-0.20047896 0.034766197 0.01858139
-0.19836895 -0.11129284 0.077542305
-0.20642896 0.034246087 0.015323162
-0.21406895 0.37612814 -0.19304562
-0.20102495 -0.39700782 0.16269922
-0.21614197 0.22393316 -0.088020802
-0.21912196 0.33367014 -0.16741991
-0.21016595 -0.11247683 0.071142197
-0.23099595 0.30307013 -0.16448879
-0.22431594 0.032677174 0.0055332184
-0.21605596 -0.63585782 0.21574926
-0.22279695 -0.0628438 0.044173241
-0.24060196 0.37015015 -0.25448179
-0.22700596 -0.16983187 0.084011078
-0.24344996 0.070844173 -0.032747746
-0.23489195 -0.4580729 0.17144203
-0.25378796 0.21789712 -0.13697386
-0.23838195 -0.75858986 0.22310305
-0.24018297 -0.49589288 0.18101215
-0.26023996 0.21654117 -0.14803076
-0.24775195 -0.35456491 0.1380024
-0.25081396 -0.56377983 0.19789314
-0.25659695 -0.17297184 0.068029404
-0.25354496 -0.35492182 0.13657045
-0.27972496 0.21244413 -0.1814208
-0.26705396 -0.63668489 0.21474314
-0.29706594 0.24054813 -0.29216385
-0.28546494 0.02386117 -0.050643921
-0.30847996 0.20096517 -0.27604771
-0.28335795 -0.6994549 0.22857809
-0.29670197 -0.017957807 -0.039458752
-0.29262596 -0.46192789 0.15726137
-0.30599195 -0.12401187 0.0088100433
-0.31893495 0.056889117 -0.12660265
-0.32054594 0.09032315 -0.15733671
-0.32713094 0.088744164 -0.16845989
-0.31517395 -0.2286638 0.055948257
-0.31984395 -0.076105833 -0.031700611
-0.33009595 0.01427412 -0.1123786
-0.31973895 -0.29338491 0.078872204
-0.34214094 0.081121147 -0.22301054
-0.33367595 -0.46655989 0.13920641
-0.33959296 -0.46735287 0.13607645
-0.34988895 -0.29786384 0.058227062
-0.35055095 -0.50570583 0.14485741
-0.35223794 -0.70491886 0.21196747
-0.37059295 -0.23901582 0.0046401024
-0.36239895 -0.50734091 0.13860416
-0.37796694 -0.090545893 -0.11593199
-0.36665696 -0.57400084 0.16248035
-0.38898596 -0.41665387 0.08255434
-0.40301195 -0.37589884 0.045769215
-0.40621796 -0.65037084 0.1696372
-0.41226196 -0.71855283 0.16491032
-0.41214997 -0.65127182 0.16654015
-0.43593895 -0.65490186 0.15412331
-0.46055496 -0.3912518 -0.022781849
-0.47206795 -0.52818084 0.057325363
-0.49412793 -0.59826791 0.072723389
-0.50454795 -0.53845084 0.016075134
-0.50721598 -0.50491881 -0.016729832
-0.52480894 -0.54628289 -0.015678883
-0.53585893 -0.51908886 -0.076450825
