# .PCD v0.7 - Point Cloud Data file format
VERSION 0.7
FIELDS x y z
SIZE 4 4 4
TYPE F F F
COUNT 1 1 1
WIDTH 1
HEIGHT 256
VIEWPOINT 0 0 0 1 0 0 0
POINTS 256
DATA ascii
0.93882918 0.14158291 -0.12633848
0.9240222 0.011049867 -0.15242529
0.89821416 -0.10351408 -0.095345497
0.8759222 -0.060224116 -0.11062336
0.87790519 -0.024309099 -0.12621021
0.86991721 -0.060187101 -0.11112642
0.85258621 0.10862988 -0.069408417
0.85712916 0.14509189 -0.10587931
0.8420552 0.19574487 -0.081832409
0.81650519 -0.039226115 0.0295434
0.81897318 0.18968689 -0.14173746
0.78784019 -0.11212707 0.1213026
0.80532521 0.27239287 -0.077343464
0.7960282 0.2702319 -0.10114861
0.82265317 -0.30373311 -0.33125639
0.7575292 0.12138289 0.026621819
0.75232321 0.0050299168 0.073035717
0.78824121 -0.29812706 -0.30262041
0.72569317 0.20499188 -0.00806427
0.70810419 -0.070809126 0.10175753
0.72486317 0.3254959 -0.056367397
0.74737221 -0.2915231 -0.26874256
0.70700121 0.041877866 0.056575775
0.73385018 -0.28935111 -0.25756454
0.67831117 0.20530987 -0.0099682808
0.6771462 0.32575989 -0.058261395
0.67234617 0.3554849 -0.07035017
0.63978916 -0.028958082 0.082430363
0.63842118 0.089451909 0.034946442
0.64551818 0.27755088 -0.040135384
0.63254517 0.089491904 0.034711361
0.64406419 0.39763391 -0.088294506
0.63096821 0.20559388 -0.01185751
0.61645317 -0.028781116 0.081485748
0.61159819 0.3260749 -0.060846329
0.5984602 0.12251788 0.020202637
0.58851516 0.0063579082 0.066362381
0.58978719 0.042739868 0.051834583
0.58146518 -0.028536081 0.080075741
0.59206021 0.27781188 -0.042245388
0.57873821 0.23512787 -0.02564764
0.58182418 0.3262009 -0.062012196
0.56704217 -0.11005509 0.11218882
0.56514817 0.00650388 0.06542778
0.57827216 0.39788687 -0.090862274
0.56316316 0.1227119 0.018802643
0.56831318 0.27791488 -0.043177605
0.57293016 -0.37583911 -0.40044355
0.51736116 -0.028152108 0.077518463
0.5282582 0.32639891 -0.064100266
0.53035319 -0.25746214 -0.091316223
0.5131712 -0.16449416 0.13197851
0.51865321 0.20613188 -0.016284466
0.51259619 0.0067958832 0.06333971
0.52448416 0.39805788 -0.092947483
0.51362419 0.2353999 -0.028196335
0.51490718 0.27811891 -0.045261383
0.49711317 0.27817887 -0.04595232
0.49030414 0.043268919 0.047893524
0.48745614 0.35618687 -0.077563286
0.47472414 0.3265599 -0.066173553
0.47554216 0.35621792 -0.07802248
0.46118414 -0.16420913 0.12991381
0.46106416 0.043389916 0.046749592
0.46958515 0.35623288 -0.078251362
0.47072914 0.39819789 -0.095019341
0.42798814 0.12325889 0.013514519
0.43007916 0.2064209 -0.019721508
0.42419216 -0.027744114 0.073860645
0.42130315 0.090501904 0.026385784
0.41429317 0.043548882 0.044931412
0.40958017 0.090534866 0.025932789
0.39190215 -0.16392815 0.12720156
0.39318216 -0.10918307 0.10532045
0.39234316 -0.23673511 0.019221783
0.36669415 0.27848387 -0.050965309
0.36169216 0.04367888 0.042907715
0.35243315 0.1616019 -0.004679203
0.34945115 -0.23044813 0.053194523
0.34572914 -0.16380215 0.12541962
0.34395215 0.32680488 -0.071173191
0.33527717 -0.10904109 0.10309172
0.32663015 0.043736875 0.04156971
0.32369617 -0.10902107 0.10265064
0.31944415 -0.027495086 0.069833755
0.30409616 0.090720892 0.021902561
0.30536017 0.1616559 -0.0064663887
0.29956415 -0.16372716 0.12365866
0.29486015 0.23586088 -0.036583424
0.29097316 0.35648692 -0.085050583
0.29255816 -0.43368006 -0.42134857
0.26894116 0.090739906 0.020576477
0.26674616 -0.42934513 -0.39954948
0.24063717 0.16167188 -0.0088982582
0.23609117 -0.16370511 0.1212697
0.22730517 0.043774903 0.037829399
0.24109817 -0.42507017 -0.37796831
0.23250116 -0.32105207 -0.11879635
0.21955018 0.35648191 -0.087726593
0.20488018 0.12348288 0.0050587654
0.20729516 0.32683086 -0.076307297
0.20086817 -0.21432614 0.14022875
0.19679517 -0.0686571 0.081722736
0.18936117 -0.21434307 0.1398015
0.18600917 0.0073938966 0.050855637
0.18105218 0.090689898 0.017301559
0.17838517 -0.1637671 0.11913061
0.16414016 0.16160291 -0.011739254
0.16539018 -0.31085408 -0.064751625
0.16107117 -0.16380107 0.11849451
0.15761118 0.090653896 0.016436577
0.15718517 0.04369092 0.035233498
0.14952917 -0.16382706 0.11807346
0.13907917 -0.027590096 0.063107491
0.12924616 -0.3054471 -0.035855293
0.11658417 0.090566874 0.014933586
0.11579917 -0.027650118 0.062260628
0.11524516 -0.40454817 -0.27319145
0.10644016 0.3563509 -0.091909409
0.098737165 0.043550909 0.033098698
0.093745165 0.20643789 -0.032338619
0.081937164 0.20640689 -0.032769203
0.081542164 -0.29840708 0.0020465851
0.080503166 -0.10930109 0.093643665
0.069685161 0.090430915 0.01322937
0.069072165 -0.068987131 0.077064514
0.070593163 0.32662189 -0.08135128
0.068917163 -0.10934711 0.093227386
0.064227164 0.20635688 -0.03341341
0.063123167 -0.10937214 0.093019485
0.057694167 0.0070579052 0.046178818
0.046512168 0.20630288 -0.034055233
0.045838166 -0.069084108 0.076233387
0.028276166 -0.16429412 0.11371374
0.0051661665 -0.069283128 0.07478857
0.0051661665 0.32643992 -0.083731174
-0.00065883389 -0.028119087 0.058080673
-0.012347834 0.0067389011 0.043679714
-0.024027834 0.006675899 0.043266773
-0.030190835 0.16100389 -0.018785477
-0.030898834 -0.38170612 -0.15394926
-0.029622836 -0.10986006 0.089736462
-0.035395831 -0.28161716 0.093812466
-0.054031834 0.23515791 -0.049385548
-0.059520829 0.12265289 -0.0045232773
-0.065752834 0.20584691 -0.0380826
-0.069750838 -0.21557009 0.13057756
-0.070230834 -0.11013305 0.088324547
-0.077359833 0.1607669 -0.020459175
-0.078168839 0.32612991 -0.086727619
-0.084124833 0.32610387 -0.086939335
-0.081292838 -0.27521312 0.12937069
-0.089571834 0.23498791 -0.050650597
-0.095321834 0.20569491 -0.039130211
-0.093682833 -0.069911122 0.071332455
-0.11977184 -0.36835814 -0.082767487
-0.12827983 -0.11058807 0.086330414
-0.14570382 -0.11073911 0.085736752
-0.15340483 0.089250863 0.0053367615
-0.15960683 0.1220299 -0.0080242157
-0.16396382 -0.029239118 0.052405357
-0.18382983 -0.35899913 -0.032102585
-0.18732683 -0.029443085 0.051611423
-0.21266083 0.12163091 -0.0098552704
-0.22923882 0.041574895 0.021591663
-0.24630783 0.0049788952 0.035611629
-0.26758584 0.23385888 -0.056871414
-0.26407385 -0.34759605 0.030574799
-0.27623484 0.04112792 0.020008564
-0.29015383 -0.1671561 0.10291958
-0.30190685 0.1591469 -0.028229237
-0.29804385 -0.3428781 0.056841373
-0.30430585 -0.030633092 0.047701359
-0.31000784 0.2763589 -0.075487614
-0.31302986 0.1207459 -0.013264179
-0.31082684 0.0043058991 0.033461571
-0.33431184 0.0040408969 0.03268671
-0.35088083 0.23317289 -0.059720516
-0.34682485 0.040377915 0.017661572
-0.35775283 0.27597487 -0.077123642
-0.35860085 0.040243864 0.01727438
-0.36810383 0.20367187 -0.048547268
-0.37897184 0.15840489 -0.030822277
-0.37544185 0.0035508871 0.031339645
-0.38662985 0.23284888 -0.060931206
-0.39259085 0.23279291 -0.061132431
-0.39853585 -0.32930815 0.13358974
-0.43358785 0.20301992 -0.050742626
-0.46016085 0.086197913 -0.0049414635
-0.45747283 -0.2204771 0.11800337
-0.47998685 0.15728891 -0.034162521
-0.47657385 0.038759887 0.013444424
-0.48687184 -0.45227015 -0.13022327
-0.46609485 -0.32521415 0.15963554
-0.47056884 -0.16982412 0.097223759
-0.47187385 -0.32532609 0.15946341
-0.49322385 0.20237088 -0.052718639
-0.48807484 -0.1701231 0.096686363
-0.49680284 -0.074611068 0.058099747
-0.50559282 -0.17043006 0.096151829
-0.52896482 -0.17084908 0.095442772
-0.5529688 0.20166689 -0.054675579
-0.54131079 -0.32673812 0.15742445
-0.57980579 -0.22278309 0.11434078
-0.5936538 0.00040787458 0.0244174
-0.58564383 -0.22290206 0.1141696
-0.60261184 0.0842219 -0.0094914436
-0.60858381 -0.076519132 0.054672718
-0.60708278 -0.11716413 0.071008682
-0.61090684 -0.17241907 0.092999458
-0.62766284 0.11687791 -0.023512363
-0.62627381 -0.076844096 0.054139614
-0.6439448 0.2299729 -0.06942749
-0.65596581 0.22981489 -0.069815636
-0.64772081 -0.2800101 0.13471651
-0.65416181 -0.11808109 0.069611549
-0.69629782 -0.58117414 -0.35629845
-0.6740098 0.22957492 -0.070393562
-0.65355283 -0.28014517 0.13455248
-0.67105782 -0.28055513 0.13405943
-0.6870448 -0.036447108 0.035679817
-0.70287281 0.19966787 -0.059497356
-0.69297183 -0.036560118 0.03550148
-0.6909318 -0.22519112 0.11113739
-0.70991379 0.082500875 -0.012825489
-0.71296579 0.15409887 -0.041621208
-0.72364283 -0.28183508 0.13260174
-0.74043679 -0.037490129 0.03409338
-0.75499582 0.15343189 -0.042930603
-0.7463758 -0.0376091 0.033919811
-0.7592538 -0.41601312 0.076505661
-0.75784481 -0.17562008 0.088772774
-0.79107881 0.15283787 -0.044045448
-0.79394382 -0.038591087 0.032529831
-0.81353682 -0.0036811233 0.017810822
-0.80790383 -0.41006017 0.11214638
-0.83551079 0.1976229 -0.063650608
-0.82372284 -0.039229095 0.031667709
-0.8356778 0.080230892 -0.016633511
-0.82403481 -0.40812314 0.12387466
-0.8266468 -0.33387709 0.14958572
-0.87323982 -0.55649614 -0.21924162
-0.83789283 -0.22882807 0.10708475
-0.8572588 0.03222692 0.0017867088
-0.83836484 -0.33421612 0.14928246
-0.88448179 -0.55500507 -0.21072245
-0.85082984 -0.40494311 0.14326143
-0.88552779 0.11248189 -0.031421185
-0.88339883 -0.040559113 0.02996254
-0.91249883 -0.55133116 -0.18959332
-0.89906281 -0.08268714 0.046251774
-0.89976382 -0.28662515 0.12791538
-0.93256879 -0.12448013 0.06173563
-0.98632079 0.077156901 -0.021050453
-0.9767558 -0.084630132 0.044115543
-1.0105239 0.07662791 -0.021745205
