# .PCD v0.7 - Point Cloud Data file format
VERSION 0.7
FIELDS x y z
SIZE 4 4 4
TYPE F F F
COUNT 1 1 1
WIDTH 1
HEIGHT 256
VIEWPOINT 0 0 0 1 0 0 0
POINTS 256
DATA ascii
0.96454746 -0.10840982 0.060163498
0.97559947 0.27308518 -0.099565506
0.96249944 0.27413017 -0.090391636
0.94829541 -0.28676277 0.011318207
0.93581444 -0.065746844 0.059409142
0.97016644 0.34529316 -0.18814993
0.95813346 0.31873316 -0.14427376
0.92477542 0.093279183 0.013504505
0.92653143 0.12538218 0.00060224533
0.93138844 0.20653218 -0.035086632
0.93142647 -0.4341808 -0.12238264
0.89741343 -0.067121804 0.044944286
0.89844543 -0.28879887 -0.0067129135
0.90773141 -0.43351287 -0.12216663
0.89733046 -0.34819382 -0.042622566
0.88603747 -0.10928887 0.043735504
0.87459344 -0.02410382 0.043073177
0.88975346 -0.43266982 -0.12025881
0.86666346 0.09438616 0.014802456
0.84244144 -0.42170578 -0.071136475
0.82086241 0.052494168 0.058801174
0.82439041 0.20976019 -0.018331528
0.79622543 -0.41155285 -0.025698662
0.80371642 0.35093516 -0.14150381
0.77978843 -0.27283186 0.066884518
0.76251245 0.13579416 0.067882538
0.75891542 -0.20812184 0.099943161
0.74477345 -0.052450836 0.12495422
0.75728047 0.24330318 0.011666298
0.73466444 0.061003149 0.1137085
0.79056746 0.45359418 -0.40088654
0.75355744 -0.49212879 -0.060203552
0.71792245 -0.26357979 0.11109734
0.69749343 -0.090267837 0.14410925
0.69060445 0.14063615 0.10088253
0.68069744 0.17747915 0.086389065
0.66365343 0.17765015 0.086224079
0.67045242 0.28756517 0.016256332
0.68836641 0.43515816 -0.16809654
0.71178544 0.49783117 -0.40911579
0.65504044 -0.26142079 0.11663914
0.63281143 0.10968417 0.1123805
0.63029146 -0.0064888597 0.1395483
0.64739943 0.39739114 -0.10795879
0.62685442 -0.26112384 0.11562538
0.63042843 0.28773218 0.014243126
0.62227345 0.24767017 0.041018486
0.61273444 0.1779182 0.083841324
0.61967146 0.35939217 -0.058919907
0.59901845 0.10986614 0.11079836
0.64435947 0.49830118 -0.40745449
0.59868544 -0.26084977 0.11460447
0.57936645 -0.047412813 0.1425643
0.57980841 -0.0061628222 0.13734818
0.56628442 0.14147919 0.096530437
0.50786746 0.064762175 0.12161636
0.51942444 0.33235419 -0.035758495
0.52935743 0.46495017 -0.25217152
0.50300044 -0.26009887 0.11108208
0.51238543 -0.47865885 -0.018257618
0.50419444 0.35964519 -0.065088749
0.49608344 -0.39092988 0.049474239
0.5062924 -0.54368478 -0.094721794
0.49143544 0.24807715 0.034533501
0.48050344 -0.25996178 0.11024237
0.49466944 -0.54354781 -0.094909668
0.47082043 -0.3157168 0.086567402
0.46767944 -0.3906948 0.048696518
0.46517643 -0.3156808 0.086377144
0.46379644 0.35969615 -0.067215919
0.44052044 0.064982176 0.11869335
0.43755943 0.17850214 0.075744152
0.43451244 0.029052138 0.12484741
0.43396544 -0.14492184 0.13367128
0.42778844 0.22083515 0.049977303
0.42748344 0.33246714 -0.040591717
0.41657946 -0.39034778 0.047237396
0.41218045 -0.19913286 0.12239122
0.39955243 -0.39025289 0.046735287
0.39617944 -0.25958186 0.10706043
0.38244644 0.22087717 0.047788143
0.35415843 0.35973918 -0.072882652
0.35960644 0.43556017 -0.1862998
0.34157145 0.17860317 0.071389198
0.34551144 0.46484917 -0.26454878
0.32248244 -0.19892687 0.11895847
0.32635844 -0.54224581 -0.098445892
0.29957643 -0.088004887 0.12991047
0.29017645 0.14197415 0.083909512
0.29176444 0.22086418 0.043476105
0.29444343 -0.47744578 -0.024712563
0.27809444 0.33242816 -0.04820776
0.28616843 0.46475616 -0.26839066
0.26607043 -0.14469689 0.12682247
0.26156545 0.11051518 0.09536314
0.26942742 0.39755619 -0.12977266
0.27429444 0.46473417 -0.26915169
0.25649142 -0.31508487 0.079032421
0.25572044 -0.25941688 0.10165024
0.25983143 0.43545416 -0.19183493
0.23858243 0.065095186 0.11003208
0.22996044 0.24813116 0.022042274
0.22717345 0.029138148 0.11596346
0.23634642 0.43541518 -0.19311571
0.20459342 -0.0054978132 0.12118053
0.20986444 0.35958016 -0.080122471
0.19884044 -0.54211086 -0.10217381
0.16366345 0.35947818 -0.082388878
0.15161344 0.33217919 -0.054442883
0.15411143 0.43523917 -0.19753456
0.13803142 0.14167118 0.077189445
0.13508344 -0.54231483 -0.10435247
0.12065943 0.028832197 0.11146641
0.11134043 0.33205914 -0.056384563
0.10383343 0.028761148 0.1107583
0.10609743 -0.54246682 -0.10541677
0.089446433 0.43505517 -0.20093775
0.075998433 0.14143014 0.074502468
0.070141435 -0.0060068369 0.11551619
0.070560433 -0.3905248 0.035329342
0.0084814336 -0.047468841 0.11926031
0.0081044324 -0.39102584 0.032809258
0.0021724328 0.28746015 -0.015481472
-0.026185565 0.24720818 0.010457516
-0.026640564 -0.47902077 -0.036903858
-0.037899569 0.28725815 -0.01725769
-0.058807567 -0.047980845 0.11649609
-0.065817565 0.21958619 0.027296066
-0.064419568 -0.048027813 0.1162653
-0.065204568 -0.31694084 0.066335201
-0.071506567 0.21954918 0.027049065
-0.080245569 0.39638817 -0.14788151
-0.08372657 0.28700018 -0.019269466
-0.086991563 -0.0071008205 0.10898209
-0.10398956 -0.20104986 0.10187912
-0.10871557 -0.54477483 -0.11471653
-0.11177056 0.24668515 0.0067281723
-0.12435257 -0.48028988 -0.041230679
-0.12890458 0.24656719 0.0059914589
-0.15465456 -0.20164388 0.099760532
-0.15998757 -0.1474008 0.1093483
-0.16976756 0.28643018 -0.023083687
-0.17462456 0.24623317 0.0040354729
-0.17697656 -0.007968843 0.10528421
-0.19020957 0.17635018 0.048359394
-0.20227057 0.46288916 -0.29702187
-0.19750255 0.24605417 0.0030651093
-0.20669356 0.13946915 0.062562466
-0.21293658 0.17614818 0.047415257
-0.21125156 0.062406182 0.091263294
-0.21620256 -0.09124583 0.1087575
-0.22228557 0.026230156 0.097241402
-0.23689157 -0.54713184 -0.12144089
-0.23880556 -0.14841586 0.10608912
-0.24650955 -0.31946379 0.058458328
-0.25775355 0.13896519 0.060465336
-0.27417356 0.10723215 0.072591305
-0.27248657 -0.050305843 0.10769749
-0.27254757 -0.091993868 0.10642719
-0.29415256 0.43311816 -0.22024775
-0.28577757 -0.48319083 -0.049003601
-0.31615755 0.46217418 -0.30292368
-0.30702257 -0.20385879 0.093291283
-0.32763755 0.32945716 -0.076219559
-0.33179456 -0.32101685 0.054568291
-0.32965055 -0.20424289 0.092318535
-0.33782756 -0.48433977 -0.051677704
-0.34020555 -0.051265836 0.1048975
-0.34814155 0.28493416 -0.030691624
-0.35942456 0.43264118 -0.22344589
-0.35684657 -0.39679784 0.01584053
-0.37257856 -0.48516279 -0.053504467
-0.36928955 -0.2049498 0.090602398
-0.38286856 0.13753718 0.055402279
-0.38772357 0.10585916 0.068023205
-0.41253555 -0.55154282 -0.13206053
-0.40431857 -0.26646584 0.074272156
-0.42848456 0.35597116 -0.10916185
-0.41569257 -0.26669985 0.073771477
-0.41394055 -0.15124089 0.098831177
-0.43811956 0.32843119 -0.080842495
-0.43640655 -0.48679489 -0.056951523
-0.43116957 -0.011368811 0.094985485
-0.43276355 -0.26705784 0.073019505
-0.44016656 -0.32332689 0.049461365
-0.45554057 -0.26754886 0.072009087
-0.48440158 0.43162417 -0.22928286
-0.47128958 -0.48775178 -0.058886528
-0.47315657 0.10467219 0.064643383
-0.47263658 -0.26792783 0.071250439
-0.48326457 -0.39992183 0.009083271
-0.47632855 -0.15243584 0.096242428
-0.49469656 0.21547419 0.009575367
-0.50622457 -0.48875684 -0.06085968
-0.50621057 0.21532619 0.009124279
-0.50776857 0.24287415 -0.0096225739
-0.50551158 0.022235155 0.085794449
-0.51120257 0.022138178 0.085567474
-0.51689655 0.022040188 0.085339069
-0.53866553 0.39295119 -0.16858482
-0.54458559 0.3928932 -0.16882992
-0.52970356 -0.26925284 0.068702221
-0.52732754 -0.096336782 0.095855236
-0.53843653 0.17231417 0.034276485
-0.54705155 -0.48998886 -0.063212872
-0.54417855 0.17223018 0.034050465
-0.53912455 -0.013232827 0.090678215
-0.56235057 0.39271516 -0.16956472
-0.56003356 0.1350472 0.048406124
-0.56972957 -0.27023786 0.066900253
-0.60137457 -0.55779487 -0.14529657
-0.61896259 -0.014770806 0.087521076
-0.65187854 0.43004918 -0.23652887
-0.62951154 -0.32825786 0.04010725
-0.63908756 0.1019882 0.058231354
-0.64672059 0.24100018 -0.015006542
-0.65749955 0.35352916 -0.11842251
-0.65252757 0.24091518 -0.015229702
-0.70281553 0.45896217 -0.3208437
-0.66988659 -0.32945782 0.038029194
-0.69896358 0.39124417 -0.17504358
-0.66994655 -0.09944886 0.089912415
-0.69111854 0.21266514 0.0020694733
-0.68125355 -0.05771184 0.090711117
-0.69395953 0.16986519 0.02823925
-0.72038853 -0.5625388 -0.15463352
-0.71067357 0.24004418 -0.017430782
-0.71729958 -0.49623281 -0.075591564
-0.70808458 0.10072714 0.055620193
-0.71598357 -0.15794379 0.086241245
-0.73350453 -0.33145183 0.034705162
-0.74683958 -0.49745482 -0.07796669
-0.73320258 -0.15839583 0.085517406
-0.74998957 -0.40838784 -0.0066657066
-0.75000054 0.13177615 0.04114151
-0.74432158 -0.059195817 0.088069439
-0.77990556 -0.33298582 0.032243252
-0.77948654 -0.018274844 0.081224442
-0.81136453 0.35155314 -0.12432671
-0.79607058 -0.060481846 0.085898399
-0.81910056 0.21052617 -0.0026168823
-0.82148254 0.16756415 0.023404121
-0.86987156 0.45611918 -0.34414387
-0.82935953 0.098304152 0.051113129
-0.82885158 -0.27773887 0.054919243
-0.85085654 0.23774618 -0.022595882
-0.84674454 0.097936153 0.050476074
-0.84420258 -0.21680087 0.069148064
-0.85209358 -0.27855688 0.053537369
-0.86761355 -0.33656877 0.024840355
-0.88668054 -0.22044784 0.053821087
-0.90565753 0.090962172 0.0023131371
-0.93310255 0.087008178 -0.025700569
-0.94975054 0.1984672 -0.098349571
-0.93454254 -0.032271802 0.0040202141
-0.94306958 0.039497197 -0.014028549
