# .PCD v0.7 - Point Cloud Data file format
VERSION 0.7
FIELDS x y z
SIZE 4 4 4
TYPE F F F
COUNT 1 1 1
WIDTH 1
HEIGHT 256
VIEWPOINT 0 0 0 1 0 0 0
POINTS 256
DATA ascii
0.46663105 -0.89245224 -0.18382835
0.44503206 -0.8078512 -0.13941622
0.42716905 -0.88285124 -0.15054131
0.41749907 -0.71249616 -0.094546318
0.41419306 -0.8800782 -0.14098549
0.40622005 -0.79999518 -0.1113472
0.40468106 -0.71016121 -0.08582449
0.39828405 -0.70899725 -0.081471443
0.39189705 -0.70783615 -0.077123165
0.39068505 -0.62556815 -0.056422234
0.38695505 -0.79618919 -0.097706318
0.38551804 -0.70667922 -0.072785378
0.38193506 -0.87328517 -0.11751938
0.38158605 -0.96548522 -0.2215271
0.37415704 -0.79367018 -0.088653088
0.35524005 -0.79094315 -0.079097271
0.35217106 -0.57422316 -0.021502495
0.33332005 -0.57118917 -0.0092124939
0.33264306 -0.5015732 0.004160881
0.33217004 -0.44861817 0.013494492
0.32849005 -0.69639015 -0.033985138
0.32127905 -0.6140182 -0.010956287
0.32783204 -0.91434824 -0.27365923
0.31392005 -0.49878526 0.015964508
0.30832204 -0.56729817 0.0065798759
0.30209306 -0.56633115 0.01051569
0.30661505 -0.82719016 -0.22216511
0.28817305 -0.36277318 0.051656723
0.28288206 -0.49425423 0.035220623
0.28986904 -0.8390162 -0.26878643
0.28493506 -0.72527623 -0.1534853
0.27760205 -0.56439221 0.017905712
0.27943805 -0.72925317 -0.16989231
0.27052504 -0.49248719 0.042751789
0.26355305 -0.35966218 0.066110611
0.27855304 -0.84678519 -0.29940033
0.25741404 -0.35888922 0.069717884
0.25128406 -0.35811722 0.073319912
0.25095105 -0.2850492 0.081785679
0.25072306 -0.2294172 0.087580681
0.23944108 -0.43579817 0.069932938
0.23243807 -0.2274642 0.097604752
0.23608808 -0.50198317 -0.0019221306
0.23065707 -0.50574315 -0.019271374
0.22011307 -0.16398919 0.10900259
0.23059806 -0.65547717 -0.19125319
0.21464306 -0.35353017 0.094842911
0.21922606 -0.66286922 -0.22310019
0.21725607 -0.60542524 -0.16372633
0.20248507 -0.35203326 0.10189867
0.20224206 -0.27946222 0.10941553
0.20295906 -0.52384424 -0.10276937
0.20061907 -0.45632422 -0.028286457
0.19508407 -0.46000719 -0.045834064
0.17452006 -0.54180026 -0.18549109
0.16098706 -0.28211522 0.094263554
0.15968007 -0.10213518 0.14417791
0.15549406 -0.28561223 0.075742722
0.15375006 -0.15746725 0.14464283
0.16113707 -0.48128116 -0.14717436
0.14768706 -0.10103524 0.15053082
0.14694206 -0.3859632 -0.068731308
0.12969306 0.0039697886 0.16230774
0.13131706 -0.2286942 0.087897778
0.12980206 -0.15516925 0.15733671
0.12383006 -0.15459824 0.16050386
0.12180006 -0.30606818 -0.032526493
0.11778506 -0.038740158 0.16749191
0.10878206 -0.24185026 0.015286922
0.10307606 -0.24520123 -0.0031914711
0.082962058 -0.10419714 0.13011265
0.06818606 0.31610781 0.35321951
0.07039506 0.088708818 0.18442965
0.061796062 0.35114282 0.40681267
0.05759006 0.26172078 0.27637291
0.050661057 0.31943482 0.3841629
0.052930057 0.1250658 0.16750288
0.049427062 0.4501428 0.5019927
0.048765063 0.52460879 0.56522369
0.046603061 0.21469879 0.21256971
0.038118064 0.45119882 0.51382494
0.036999062 0.60247183 0.64205265
0.035541065 0.1700778 0.12970161
0.033340059 0.3222158 0.41003656
0.03540206 0.0019397736 0.14737463
0.031473063 0.60284877 0.64771652
0.029617062 0.17001879 0.12918282
0.028222064 0.26773781 0.32898855
0.029637063 -0.0012022257 0.12637854
0.025711061 0.64506876 0.68877983
0.023693061 0.1699568 0.1286478
0.021734061 0.35552382 0.44926262
0.020849062 0.52686977 0.59413576
0.02023706 0.64540482 0.69435692
0.017044062 0.2211448 0.26620293
0.018390061 -0.063299179 0.0091938972
0.011509063 0.17927778 0.20326281
0.010825062 0.27129179 0.36013174
0.011551062 0.090059817 0.19371748
0.011651061 0.12553978 0.17078352
0.010026062 0.45381278 0.54320288
0.0095970612 0.57035482 0.64156961
0.0053520612 0.22368681 0.28738976
0.0059450623 0.042021811 0.11767769
0.0057370625 0.08777982 0.17715979
0.0038580615 0.68726981 0.71543455
-0.00042993762 0.22334582 0.28452682
-0.0015219375 0.64584678 0.70165682
-0.006624938 0.4513858 0.51570368
-0.011983939 0.21926677 0.25042248
-0.012391938 0.68737984 0.71745968
-0.012205938 0.45040679 0.5046339
-0.012265937 0.52524781 0.57310581
-0.017807938 0.31599081 0.35156584
-0.017807938 0.48078883 0.52275181
-0.023473937 0.39594382 0.4290719
-0.023270939 0.64342976 0.66121292
-0.029603938 0.17426181 0.16302586
-0.029435938 0.25979382 0.25902176
-0.029166937 0.39445782 0.41356993
-0.029691938 0.11783779 0.11245394
-0.029069938 0.4472208 0.46860266
-0.031280939 -0.53199518 -0.79807138
-0.035419937 0.21253282 0.19419479
-0.034883939 0.3930788 0.39918661
-0.036423936 0.03723979 -0.1893692
-0.034733936 0.4461478 0.45647955
-0.034540936 0.52191484 0.53017759
-0.034436937 0.56525183 0.56991863
-0.041160937 0.2567268 0.23209572
-0.043022938 -0.065346241 -0.30149746
-0.042795938 -0.0087752342 -0.23652124
-0.043541938 -0.19994318 -0.45020723
-0.049005941 -0.0075422525 -0.22789812
-0.047760937 0.11054778 0.057349682
-0.051381938 -0.52689517 -0.77260542
-0.050278939 -0.27229524 -0.51981211
-0.049937941 -0.19852221 -0.44157934
-0.049564935 -0.12043619 -0.3561635
-0.058052935 -0.52520621 -0.76415825
-0.057171941 -0.35312021 -0.59594107
-0.059521936 0.16554677 0.093317509
-0.059242941 0.20591581 0.13901091
-0.061775938 -0.061478257 -0.27561712
-0.057984941 0.38787979 0.34501171
-0.061040938 0.041931808 -0.15523815
-0.057117939 0.51854682 0.48686457
-0.064708941 -0.52352226 -0.75573349
-0.070688941 -0.42385626 -0.65260553
-0.072045937 -0.62920523 -0.84701109
-0.069670938 0.38535982 0.31877756
-0.07723394 -0.42224026 -0.64406443
-0.076906934 0.24735779 0.14996147
-0.076530941 0.2990368 0.19311285
-0.083494939 0.19875079 0.079344749
-0.086573943 -0.056380153 -0.24141932
-0.082952939 0.36782682 0.13583994
-0.084861942 0.094599783 -0.06305027
-0.090275943 -0.41902423 -0.6270504
-0.088753939 -0.26344717 -0.46850348
-0.092145942 -0.62389219 -0.8217783
-0.089576937 0.19747877 0.068781853
-0.088837937 0.36816281 0.13940859
-0.091474943 0.047807813 -0.11236715
-0.090868942 0.095709801 -0.054592133
-0.09881594 -0.62213218 -0.81341124
-0.095721938 0.19576782 0.054556847
-0.098886937 -0.053854227 -0.22444916
-0.098146938 0.0022457838 -0.15926027
-0.10052394 0.41918582 0.15205574
-0.10656094 0.2935648 0.14220762
-0.11074094 -0.00033223629 -0.1770854
-0.11710594 -0.0020822287 -0.18920422
-0.12340894 -0.42167115 -0.64056826
-0.11994894 -0.19056118 -0.3927474
-0.11874094 0.36617082 0.11899567
-0.11809694 0.4200778 0.1623807
-0.11775494 0.45241278 0.18539953
-0.12904494 -0.34952724 -0.57551622
-0.12529494 -0.11533415 -0.32281637
-0.12497394 0.28905678 0.10026979
-0.12434294 0.3238498 0.14043951
-0.12910694 0.040781796 -0.16283131
-0.13442093 -0.26919425 -0.50107718
-0.13314994 -0.19512618 -0.42019033
-0.13349494 0.1469928 -0.054514408
-0.13736093 -0.063412189 -0.28765631
-0.13633594 -0.0073752403 -0.22581816
-0.13737693 0.28601277 0.071973801
-0.13623294 0.41785479 0.13753176
-0.15093493 -0.43396926 -0.70475817
-0.14789093 -0.27431321 -0.53038931
-0.14645094 -0.19973016 -0.44784546
-0.14519393 0.18576878 -0.028252125
-0.14287093 0.31952381 0.098466873
-0.14198093 0.4491598 0.14703751
-0.15313894 -0.20204723 -0.46175432
-0.14720993 0.49486578 0.18278456
-0.15875193 0.14136982 -0.099108219
-0.15631494 0.28066677 0.0222826
-0.15439594 0.3660078 0.11790562
-0.16511694 0.13995081 -0.11034727
-0.17022693 -0.073497176 -0.35430527
-0.16776393 0.030497789 -0.23671436
-0.15952994 0.44991279 0.15635252
-0.16959094 0.22626579 -0.034024239
-0.17305394 0.077279806 -0.19272137
-0.16521193 0.49358582 0.16665888
-0.18416193 -0.37273526 -0.7017951
-0.17681994 0.17890579 -0.084952354
-0.17585294 0.22530377 -0.042348385
-0.19314493 -0.45307922 -0.80433512
-0.18901393 -0.2903862 -0.62229109
-0.18436994 0.13548881 -0.14567327
-0.17683193 0.49414879 0.17417479
-0.17745093 0.5350498 0.1479187
-0.19597493 -0.29315615 -0.63811541
-0.19179094 -0.13707316 -0.46056032
-0.18962294 0.17610079 -0.10809135
-0.19696693 -0.081730247 -0.4086113
-0.19399393 0.023492813 -0.28693628
-0.18381193 0.56846082 0.12964678
-0.21044293 -0.56497622 -0.96001434
-0.19050293 0.41440278 0.099648476
-0.18841493 0.49474281 0.18211555
-0.18925993 0.61264879 0.14872694
-0.21038193 0.12930179 -0.19460106
-0.21396793 0.017877817 -0.32715416
-0.20107694 0.53510278 0.14926052
-0.22407293 -0.30410326 -0.7005682
-0.21911994 -0.1460892 -0.51753426
-0.22414993 -0.090295196 -0.46504116
-0.23298793 -0.15089226 -0.54787016
-0.24272694 -0.038381219 -0.43956709
-0.22270294 0.66049379 0.21583271
-0.24991894 -0.23764718 -0.67496014
-0.25706095 -0.24033618 -0.69102335
-0.23424493 0.69365478 0.22125053
-0.23425794 0.73886383 0.22086573
-0.24510993 0.48593181 0.070179939
-0.24182793 0.57095981 0.16912794
-0.25150993 0.69403881 0.22978163
-0.25725594 0.69416583 0.23262262
-0.25726995 0.73930478 0.23223877
-0.26096693 0.56825984 0.12894058
-0.26299694 0.69429278 0.2354598
-0.26301095 0.7394138 0.23507547
-0.28296995 0.65811777 0.17330551
-0.28770596 0.69264376 0.2022686
-0.28593296 0.73984778 0.24640179
-0.29205096 0.73955178 0.23950958
-0.29737794 0.7714408 0.25178576
-0.30984694 0.77074182 0.23334885
-0.31640795 0.77014077 0.2173419
-0.33162895 0.90270078 0.26758385
-0.33732796 0.93677378 0.27010584
