# .PCD v0.7 - Point Cloud Data file format
VERSION 0.7
FIELDS x y z
SIZE 4 4 4
TYPE F F F
COUNT 1 1 1
WIDTH 1
HEIGHT 256
VIEWPOINT 0 0 0 1 0 0 0
POINTS 256
DATA ascii
0.28657764 -0.81099617 0.06639576
0.27254564 -0.80060816 0.10448456
0.27576262 -0.74693513 0.037500381
0.26173663 -0.73686719 0.075903416
0.25832462 -0.66866922 0.016922474
0.26169363 -0.6085192 -0.057271481
0.24515064 -0.78142118 0.17483139
0.24790664 -0.72716022 0.11294174
0.24106465 -0.72245514 0.13089466
0.24755765 -0.59910715 -0.017828465
0.23174165 -0.77248514 0.20759344
0.22665264 -0.58519518 0.040513515
0.22832464 -0.55156815 -0.000228405
0.21421464 -0.70491922 0.19780159
0.21293564 -0.57622313 0.078156471
0.21448965 -0.54256117 0.038586617
0.20361866 -0.63235819 0.16227961
0.16581765 -0.78279722 0.38990545
0.16722764 -0.73406422 0.3484664
0.17094465 -0.61312318 0.23929548
0.17928965 -0.48468614 -0.0058102608
0.15960965 -0.7794162 0.40190077
0.16257265 -0.67483819 0.31258249
0.16453464 -0.60959613 0.25341845
0.16646965 -0.54835212 0.19510365
0.15342265 -0.77604723 0.4138546
0.15999465 -0.54471612 0.21036768
0.16216464 -0.36199415 -0.048535347
0.14726664 -0.77275622 0.42553663
0.14852564 -0.72398114 0.38546658
0.15000065 -0.66803622 0.33855438
0.15988365 -0.54544723 0.024040699
0.15373065 -0.54522121 0.024839401
0.15422864 -0.48136222 0.0085396767
0.15061365 -0.29332018 -0.076583385
0.13920665 -0.59603322 0.30775356
0.14392965 -0.29018819 -0.06031847
0.13007064 -0.71436715 0.42077351
0.13137564 -0.65836716 0.3754878
0.13448864 -0.53112519 0.26742458
0.14223364 -0.43163216 -0.001458168
0.13749565 -0.28858614 -0.05207634
0.12672065 -0.58956122 0.33370161
0.11908464 -0.65210724 0.39941978
0.12926365 -0.54542017 0.023263454
0.12368865 -0.43076122 0.0021424294
0.11996464 -0.17530513 -0.093539238
0.10950164 -0.51865113 0.31982374
0.099820644 -0.69941413 0.47573948
0.11106965 -0.54709518 0.015478611
0.10602565 -0.28437722 -0.030765533
0.09482564 -0.64032316 0.44449568
0.096024647 -0.57462013 0.3936305
0.097186655 -0.51282918 0.34429741
0.10785764 -0.11937523 -0.10849953
0.10528165 -0.43094516 0.00081777573
0.099448651 -0.35452414 -0.013012409
0.087078646 -0.74277413 0.53210545
0.088824645 -0.63753414 0.45516968
0.10016665 -0.23049319 -0.044649601
0.10066465 -0.17055321 -0.066582203
0.09917064 -0.43125117 -0.00076818466
0.081941649 -0.69088721 0.50712585
0.082844645 -0.63477719 0.46572447
0.094872653 -0.11552918 -0.085507393
0.096036643 -0.061223149 -0.13885927
0.077904642 -0.5661732 0.42755651
0.088078648 -0.16904724 -0.058169365
0.086938649 -0.4836762 -0.0037431717
0.069442645 -0.73455024 0.56140375
0.070941642 -0.62929022 0.48674965
0.071911648 -0.5634762 0.43839169
0.081828654 -0.16858613 -0.05563736
0.075106651 -0.28375721 -0.028169155
0.063604638 -0.7318902 0.5708847
0.074888647 -0.48648512 -0.016794205
0.074832648 -0.43391919 -0.013864517
0.068950653 -0.28387713 -0.028914452
0.069373652 -0.16791618 -0.052009583
0.053252641 -0.62143517 0.51686859
0.062955648 -0.22932923 -0.039012432
0.063167647 -0.16775417 -0.051187515
0.063408643 -0.1120342 -0.064961433
0.062746644 -0.43666112 -0.027022362
0.056676645 -0.28464222 -0.033149242
0.048157644 -0.55298221 0.48059845
0.05142064 -0.0077431202 -0.091557503
0.05052964 -0.35872114 -0.034862518
0.040437642 -0.7216022 0.60759974
0.050966647 -0.11162114 -0.06266737
0.051209647 -0.051595211 -0.078128338
0.045910645 0.11275482 -0.13975334
0.044754643 -0.11147022 -0.061845303
0.039995644 0.16246283 -0.16498232
0.038898643 -0.0069482327 -0.086443424
0.039089646 0.037716866 -0.10011244
0.038310643 -0.28671515 -0.044321537
0.033512641 0.16432583 -0.15013838
0.032979641 0.075856805 -0.1094346
0.033182647 0.11473781 -0.12492132
0.032204647 -0.23129022 -0.050234318
0.032268647 -0.16836119 -0.055156231
0.026425641 -0.0065461397 -0.083925247
0.026560646 0.038475871 -0.094983578
0.026702646 0.076266825 -0.10654116
0.026867647 0.1153838 -0.12011337
0.026110645 -0.28931415 -0.058140278
0.017936643 -0.66275513 0.61093569
0.026103642 -0.16876221 -0.057552338
0.020198647 -0.0064111948 -0.083096504
0.020571645 0.1159398 -0.11598539
0.01994564 -0.16931117 -0.060792446
0.017256644 -0.55201221 0.17621183
0.020105641 -0.051025152 -0.074908257
0.0062026419 -0.70704019 0.65968847
0.011686642 -0.56142724 0.13610172
0.013827641 -0.11248612 -0.068387508
0.013903644 -0.051132202 -0.075659275
0.008179646 0.16733479 -0.12632036
0.0084776469 0.24291384 -0.15739441
0.0077746473 -0.006537199 -0.084070206
0.00085264444 -0.65573514 0.63692665
0.001198642 -0.59956014 0.60096264
0.0076506473 -0.11294413 -0.071226597
0.0021396466 0.24366581 -0.15084743
0.0015636422 -0.0066411495 -0.084822178
0.0016966425 0.077184796 -0.1001482
-0.0050763562 -0.70248318 0.67601776
-0.0048103556 -0.6534102 0.64554453
-0.0041273572 -0.53150713 0.56719255
0.0014986433 -0.17216623 -0.077446461
0.0015186444 -0.051747203 -0.079707146
-0.0040163547 0.2920028 -0.16631126
-0.0045373552 0.077217817 -0.099960327
-0.010952357 -0.75321317 0.71681166
-0.010179356 -0.59504318 0.61837244
-0.0098493546 -0.5292362 0.57637358
-0.010630358 0.16816884 -0.11978722
-0.010038357 0.3678968 -0.20458555
-0.010714356 0.11706084 -0.10778618
-0.016299356 -0.69795918 0.69225264
-0.016662356 0.29318982 -0.15529156
-0.021494355 -0.59055519 0.63568783
-0.017056357 -0.053454161 -0.090763569
-0.023136355 0.16838783 -0.11811018
-0.023039356 0.24529785 -0.13667917
-0.023236357 0.037957788 -0.099029541
-0.023214355 0.076794803 -0.10314751
-0.023183357 0.11689985 -0.10908031
-0.026910357 -0.52274013 0.6026535
-0.023247357 -0.054403186 -0.096861362
-0.029251356 0.29388881 -0.14880657
-0.029209357 0.32524383 -0.15836239
-0.029421356 0.1168018 -0.10985231
-0.029023357 0.42154485 -0.20096636
-0.028917357 0.45207083 -0.22528458
-0.032568358 -0.52058816 0.61136961
-0.035574354 0.24555284 -0.1344924
-0.035372354 0.4222948 -0.19250822
-0.035313357 0.4534148 -0.20929956
-0.038208358 -0.51844323 0.62006044
-0.041808356 0.29429382 -0.1450634
-0.041700356 0.42284381 -0.1863184
-0.048106357 -0.013278127 -0.12933922
-0.048067357 0.32593882 -0.15162134
-0.054357357 0.24549884 -0.13500357
-0.054344356 0.3260268 -0.15077543
-0.054368354 0.11515683 -0.12236547
-0.054294355 0.49949479 -0.20755243
-0.055038355 -0.51232123 0.64489841
-0.060621355 0.29439181 -0.14416647
-0.060621355 0.073019803 -0.13062143
-0.060621355 0.42385381 -0.17492247
-0.060621355 -0.51030016 0.65310764
-0.066881359 0.2031008 -0.13383722
-0.06688536 0.2451238 -0.13830233
-0.066891357 0.29430979 -0.14493036
-0.066187359 -0.50828516 0.66129351
-0.07316336 0.29419482 -0.14599848
-0.073207356 0.42418283 -0.1711936
-0.073221356 0.45593584 -0.17928839
-0.07330136 0.5813148 -0.22495937
-0.079426356 0.20201582 -0.1428833
-0.079517357 0.45605981 -0.17779827
-0.079550356 0.50083685 -0.19024324
-0.085716352 0.24395084 -0.14857244
-0.085789353 0.42432284 -0.16957235
-0.085943356 0.58206379 -0.21360159
-0.092090353 0.16170579 -0.1716814
-0.092025355 0.32540584 -0.15677547
-0.092110358 0.45619982 -0.17609024
-0.092208356 0.5460608 -0.1985836
-0.098740354 0.67409778 -0.23961258
-0.098381355 0.42418182 -0.17111158
-0.098513357 0.54621881 -0.19632339
-0.098644361 0.62756681 -0.22135258
-0.10463436 0.32461184 -0.16446543
-0.10468136 0.4240768 -0.17226458
-0.10476036 0.50122583 -0.18511629
-0.11097436 0.29140085 -0.17199516
-0.11147235 0.70962679 -0.2434082
-0.11127636 0.62792283 -0.21532917
-0.11735235 0.29027081 -0.1825242
-0.11770035 0.67477179 -0.2268362
-0.11779135 0.70986581 -0.23843718
-0.11794236 0.75817084 -0.25761032
-0.11738536 0.50109881 -0.18666124
-0.11759135 0.62806582 -0.21288538
-0.12364236 0.4233008 -0.18090439
-0.12439236 0.7921418 -0.26685238
-0.12391336 0.62811381 -0.21202135
-0.13001236 0.36946684 -0.18803453
-0.13043636 0.71016383 -0.23215246
-0.12998836 0.42288882 -0.18550444
-0.13070935 0.7923708 -0.26059818
-0.13643436 0.36842281 -0.19887638
-0.13723436 0.8411808 -0.27525949
-0.13743035 0.8766008 -0.29399633
-0.14302036 0.36616582 -0.22236156
-0.14299835 0.6751008 -0.22040749
-0.14309235 0.71032679 -0.22865534
-0.14271936 0.45450884 -0.19584131
-0.14323735 0.75883281 -0.2414794
-0.14335436 0.79269278 -0.25173426
-0.14273135 0.50029182 -0.1968255
-0.14277035 0.54591185 -0.20027161
-0.14373535 0.87681884 -0.28531837
-0.15004435 0.87698984 -0.27844715
-0.14923735 0.62807584 -0.21239042
-0.15558936 0.62797183 -0.21405935
-0.16211736 0.71034181 -0.22809744
-0.16847235 0.71029985 -0.22887945
-0.16887435 0.84175181 -0.25592232
-0.17505535 0.7929678 -0.24387455
-0.17523035 0.84177583 -0.25504827
-0.17473435 0.62739283 -0.22346354
-0.18760036 0.67433983 -0.23406219
-0.18762435 0.70996785 -0.23544216
-0.18794535 0.84180582 -0.25384951
-0.18833035 0.93537784 -0.27589226
-0.18852735 0.97263682 -0.28714848
-0.19432735 0.8417778 -0.25463533
-0.20053436 0.67368382 -0.24612522
-0.20122635 0.97269481 -0.28216743
-0.20698835 0.70920885 -0.25076437
-0.20698035 0.75842083 -0.25038242
-0.20711635 0.84169483 -0.25714445
-0.20742536 0.93542886 -0.27256918
-0.21382135 0.93541783 -0.27311516
-0.21993536 0.79231584 -0.26069736
-0.22005235 0.8772738 -0.26604223
-0.22022335 0.9354018 -0.27390528
-0.23953035 0.9352898 -0.27990961
-0.25284436 0.84036779 -0.3001132
-0.25907835 0.93504483 -0.29357243
-0.27243537 0.9347108 -0.31254721
