# .PCD v0.7 - Point Cloud Data file format
VERSION 0.7
FIELDS x y z
SIZE 4 4 4
TYPE F F F
COUNT 1 1 1
WIDTH 1
HEIGHT 256
VIEWPOINT 0 0 0 1 0 0 0
POINTS 256
DATA ascii
1.1345997 -0.012374759 -0.0071988106
1.1255347 -0.060722709 -0.029041767
1.1193756 -0.060553789 -0.02878952
1.1076397 0.11382025 -0.032362461
1.1040087 -0.011678755 -0.0066885948
1.0856746 -0.011270761 -0.0063858032
1.0860476 0.066145241 -0.0090737343
1.0819067 0.14553821 -0.067836761
1.0578966 -0.058919787 -0.026316643
1.0551527 -0.010607779 -0.0058865547
1.0598786 -0.1130228 -0.086913586
1.0226576 0.11467922 -0.036905766
1.0121787 0.028745234 -0.0027604103
1.0000336 0.028954208 -0.0027775764
0.9949466 0.067520261 -0.01061964
0.9888826 0.067606211 -0.010721684
0.98437762 -0.057079792 -0.02342844
0.9845826 -0.10962474 -0.074658394
0.9699046 -0.0088597536 -0.0045228004
0.96969658 0.029464245 -0.0028214455
0.96604061 -0.056639791 -0.022721767
0.95252061 0.068107247 -0.011329651
0.94544959 0.029858232 -0.0028557777
0.94223762 0.1462872 -0.0792346
0.9274286 -0.0080937743 -0.0041885376
0.92137259 -0.0079957843 -0.0041985512
0.9118976 0.14641321 -0.081650734
0.90992558 -0.10661781 -0.064069748
0.90582961 0.14643621 -0.082130432
0.89103061 0.030619204 -0.0035204887
0.89206958 0.068808258 -0.012932777
0.8849926 0.030697227 -0.0036196709
0.88066959 -0.054698825 -0.019492626
0.86084861 0.030999243 -0.0040163994
0.85483462 -0.0069667697 -0.004298687
0.85586363 0.069169223 -0.014091492
0.82571161 0.069451213 -0.015045643
0.80762762 0.069613218 -0.015613556
0.80271959 0.14675325 -0.090168476
0.79557657 0.069717228 -0.015991688
0.7834996 -0.052717805 -0.016083717
0.77645659 0.031967223 -0.0053825378
0.77043563 0.032031238 -0.0054798126
0.7413736 0.070155203 -0.017669678
0.72933459 0.070245206 -0.01803875
0.72620362 0.11676621 -0.051906586
0.72612059 -0.10174382 -0.05093956
0.70205259 0.1168732 -0.053070545
0.6992476 0.070459247 -0.018955708
0.65305859 -0.10005581 -0.045987606
0.63483059 -0.09965682 -0.04477644
0.62613064 0.033351243 -0.0077385902
0.62875664 -0.099525809 -0.04437542
0.60448062 -0.099011779 -0.042780399
0.59945959 0.11722523 -0.057915688
0.57210863 0.033742249 -0.0085597038
0.56205159 -0.098151803 -0.040032387
0.54834861 -0.049507737 -0.012816429
0.54524463 0.11718321 -0.061686516
0.53697562 0.07133323 -0.02374649
0.53783864 -0.097682714 -0.038488388
0.51829863 -0.049188733 -0.012425423
0.51812762 0.03407526 -0.0093655586
0.51852661 0.14508426 -0.12564659
0.50033861 0.14494026 -0.1278286
0.49427462 -0.048947811 -0.012118816
0.4949466 0.071482241 -0.024947643
0.48815364 0.034236252 -0.0098075867
0.48216063 0.034266233 -0.0098967552
0.4701786 0.14426023 -0.13502884
0.46541661 -0.096672773 -0.035880566
0.46089262 0.11701024 -0.067570686
0.44883859 0.11697626 -0.068397522
0.4413116 -0.096381783 -0.035129547
0.43425661 -0.04840374 -0.011367798
0.40989465 0.14229226 -0.15411568
0.38628763 -0.048027754 -0.010784626
0.37648761 0.11672926 -0.07328558
0.37508464 -0.095654726 -0.033109665
0.3683396 0.034705222 -0.011533737
0.36906862 -0.09559381 -0.032928467
0.36442462 0.1166802 -0.074089527
0.35016763 -0.0021627545 -0.0051517487
0.33891562 0.071759224 -0.029250622
0.32219061 0.11649126 -0.076874733
0.32044062 0.034814239 -0.012207508
0.31491461 0.071763217 -0.029891491
0.31495261 -0.095090747 -0.031336784
0.30248064 0.034843206 -0.012459755
0.2909146 0.071757257 -0.030527592
0.2789036 -0.09479475 -0.03029871
0.27389663 0.11624324 -0.080003738
0.26091361 0.07173425 -0.031314373
0.25491363 0.07172823 -0.031469822
0.25488061 -0.094616771 -0.029619694
0.24847561 -0.0018407702 -0.0053415298
0.24860561 0.034892261 -0.013202667
0.24262062 0.034895241 -0.013284683
0.21259761 -0.0017787814 -0.0054116249
0.21290562 0.071664214 -0.032554626
0.20661861 -0.0017707944 -0.0054244995
0.18870562 -0.047032714 -0.0085496902
0.18874861 0.034881234 -0.014013767
0.18289962 0.071551204 -0.033682823
0.14684562 0.034813225 -0.014708519
0.12889062 -0.046907783 -0.0079274178
0.11671462 0.11519223 -0.089799404
0.11094762 -0.046886802 -0.0077466965
0.11088461 -0.093853712 -0.025749683
0.098833621 0.071125209 -0.036985397
0.092955619 0.034614205 -0.016040802
0.087031618 -0.0019507408 -0.0068864822
0.068996616 0.034507215 -0.01662159
0.062206618 0.11474025 -0.093058586
0.05114162 -0.0020657778 -0.0073466301
0.044745617 0.070786238 -0.039050579
0.044941619 -0.093679786 -0.024084568
0.033194616 -0.0021337867 -0.0075736046
0.033047616 0.034328222 -0.017485619
0.027210616 -0.0021577477 -0.007648468
0.020965613 -0.093643785 -0.023497581
0.0089786202 -0.093630791 -0.023206711
-0.014679387 -0.0023457408 -0.0081725121
-0.034998387 -0.16767073 -0.10493755
-0.038896382 0.033896208 -0.019173622
-0.053119376 -0.16720772 -0.1016674
-0.068565384 -0.0026387572 -0.0088348389
-0.092525378 -0.0027887821 -0.0091238022
-0.095456377 -0.16672182 -0.097450733
-0.09851639 -0.0028277636 -0.0091967583
-0.11044039 -0.047522783 -0.0076365471
-0.12241839 -0.047592759 -0.0076637268
-0.12292139 0.033269227 -0.02107954
-0.13240339 0.11182225 -0.11168671
-0.17034937 -0.047902822 -0.007771492
-0.17045037 -0.0033547878 -0.010048389
-0.17644839 -0.0034037828 -0.010117531
-0.18844737 -0.0035027862 -0.010258675
-0.2010534 0.03256923 -0.022788525
-0.23689739 -0.094340801 -0.018843651
-0.24859239 0.10984123 -0.12214851
-0.2445844 0.068129241 -0.049312592
-0.2585274 -0.16543078 -0.082292557
-0.26123536 0.031952202 -0.024062634
-0.2705974 -0.16537178 -0.0812397
-0.2826674 -0.16531777 -0.080195427
-0.29032338 -0.048901796 -0.0080447197
-0.29096937 -0.094769716 -0.018446445
-0.3160944 0.10861224 -0.1279726
-0.3083424 -0.049078822 -0.0080857277
-0.32636636 -0.049262762 -0.0081295967
-0.35299039 0.10791624 -0.13107538
-0.34904337 -0.16511178 -0.074626446
-0.35068536 -0.0051337481 -0.012079716
-0.35712337 -0.09538877 -0.017990589
-0.36874539 -0.0053477883 -0.012273788
-0.37921441 -0.16506875 -0.072190762
-0.39251238 -0.049999714 -0.0082864761
-0.39853042 -0.050071716 -0.0083017349
-0.41544843 -0.16510677 -0.069630623
-0.42261237 -0.050366759 -0.0083584785
-0.4264124 0.065733254 -0.055084705
-0.43856943 0.065553248 -0.055451393
-0.44670743 -0.050674796 -0.0084176064
-0.45072937 0.065370262 -0.05581665
-0.45179439 -0.16539073 -0.068370819
-0.44747138 -0.096401811 -0.017416477
-0.47766042 0.10364723 -0.15557766
-0.46478939 -0.050913811 -0.0084614754
-0.48393041 0.10341823 -0.1568675
-0.51326537 0.19427526 -0.48882961
-0.47506541 0.064997256 -0.056540489
-0.5063284 0.16017121 -0.33881664
-0.4772864 -0.0067737699 -0.013416767
-0.5262894 0.19400823 -0.49017859
-0.48946637 -0.22498381 -0.081609726
-0.48816341 -0.16571379 -0.067150593
-0.48366141 -0.09686172 -0.017204762
-0.50276142 0.10273021 -0.16071177
-0.48891139 -0.051244736 -0.0085215569
-0.48936743 -0.0069467425 -0.013540745
-0.52546638 0.15975922 -0.34071445
-0.5523634 0.19346821 -0.49285746
-0.5034914 0.075919211 0.029024601
-0.49477541 -0.12438273 0.18473053
-0.5293144 0.10800123 -0.11581755
-0.49934042 -0.020501733 0.1983552
-0.5816794 0.21582621 -0.5959816
-0.50043339 -0.0042097569 0.30760431
-0.50743538 0.028374255 0.23553562
-0.58830142 0.21569121 -0.59667063
-0.55802739 0.13087022 -0.22105265
-0.57658839 0.15864223 -0.34570551
-0.51292539 -0.27152073 0.29778957
-0.5102914 -0.15524578 0.3244133
-0.59807438 0.19250625 -0.49748278
-0.52505237 0.027923226 0.23410654
-0.53512043 0.050616205 0.13323355
-0.54268438 0.027467251 0.23269129
-0.56409037 0.074445248 0.023759365
-0.53472441 -0.21717882 0.31038141
-0.53659737 0.0012792349 0.34802055
-0.53629941 -0.040348768 0.35090828
-0.59125239 0.1065402 -0.12139845
-0.55053139 -0.15593576 0.32451534
-0.62096441 0.12941223 -0.2268424
-0.6160804 0.1059432 -0.12358379
-0.67011541 0.19094926 -0.50459576
-0.60683638 0.048780203 0.12738562
-0.64094037 0.1053372 -0.12574244
-0.59816641 -0.2183888 0.31051254
-0.6651364 0.12836421 -0.23079681
-0.60603142 -0.00061476231 0.34285927
-0.6118294 -0.00077575445 0.34244061
-0.61657542 -0.04168272 0.35112143
-0.68451941 0.10425824 -0.12945843
-0.63693941 -0.15756774 0.3246994
-0.68583637 0.071349204 0.013739586
-0.65017539 -0.21946681 0.31060123
-0.6788094 0.046873212 0.12179136
-0.65104741 -0.042303801 0.35120058
-0.76218939 0.18888724 -0.51337576
-0.7687844 0.18873626 -0.51399374
-0.66407943 -0.0022477508 0.33876133
-0.6783694 0.023819208 0.22237539
-0.68734437 -0.0029147863 0.33717537
-0.70798939 0.02299124 0.22025919
-0.7139194 0.022824228 0.21984243
-0.70389438 -0.27556181 0.29809618
-0.69883341 -0.10301077 0.33760023
-0.71037841 -0.10325181 0.3376193
-0.7213214 -0.27598476 0.29811144
-0.72940338 -0.15953779 0.32484436
-0.7387594 -0.27641678 0.29812431
-0.80330539 0.10121024 -0.13912153
-0.7554754 0.021640241 0.21697044
-0.73742342 -0.043987751 0.35137224
-0.7899214 0.068563223 0.0057764053
-0.7573114 -0.0049657822 0.33259439
-0.76785243 -0.27715778 0.29814148
-0.84922737 0.12376726 -0.24632454
-0.79936039 0.043536246 0.11304426
-0.7699644 -0.16047478 0.32489347
-0.84097242 0.10021025 -0.14204359
-0.8054074 0.043364227 0.11262751
-0.77949941 -0.27746177 0.2981472
-0.79712439 0.020432234 0.21418953
-0.82356137 0.042845249 0.11138344
-0.82692939 0.019553244 0.21225929
-0.8417334 0.042321205 0.11015558
-0.8301214 -0.22379076 0.31077337
-0.84760737 -0.22425973 0.31077719
-0.85534942 -0.27953672 0.29816246
-0.85344142 -0.22441781 0.31077957
-0.85687238 -0.0079957843 0.32656622
-0.85711741 -0.16263771 0.32495928
