# .PCD v0.7 - Point Cloud Data file format
VERSION 0.7
FIELDS x y z
SIZE 4 4 4
TYPE F F F
COUNT 1 1 1
WIDTH 1
HEIGHT 256
VIEWPOINT 0 0 0 1 0 0 0
POINTS 256
DATA ascii
0.68281549 0.2702741 -0.033273697
0.70047843 0.33546108 -0.19586468
0.64620346 0.2343691 0.037855148
0.63892949 0.34725511 -0.061040878
0.61019248 0.35201907 -0.0068688393
0.58669949 0.2074191 0.056818485
0.57035547 0.35685211 0.047186375
0.55510348 0.39684111 0.024947166
0.55174744 0.11634409 -0.0020976067
0.55122644 0.46653709 -0.061752796
0.52548444 0.2485671 0.16567039
0.51710749 0.63273013 -0.0033335686
0.50405645 0.40175408 0.084074497
0.49774542 0.40235913 0.091386318
0.48096243 0.085396111 0.014807224
0.47256544 0.47424209 0.048597336
0.44572443 0.26526707 0.32286739
0.46251744 0.6651901 0.029844284
0.43482444 0.23698711 0.32165337
0.44885242 0.40603709 0.13508224
0.44781443 0.55591708 -0.0048727989
0.43417844 0.3689751 0.18080139
0.43362543 0.4453871 0.11101913
0.42213944 0.13129711 0.11284542
0.42647243 0.5161671 0.051655293
0.41976744 0.09228611 0.065617561
0.40159544 0.23765308 0.32548857
0.41306645 0.40827909 0.16145611
0.39488843 0.26771712 0.34316111
0.40282443 0.34448212 0.22822332
0.41466042 0.66631109 0.056817532
0.40811443 -0.097121954 -0.10309076
0.37358943 0.34653813 0.24956322
0.36939543 0.37332308 0.2282815
0.36410242 0.48038509 0.1341033
0.36327443 0.55941606 0.05526638
0.36539942 0.6341781 0.020528316
0.35412145 0.41194409 0.20492411
0.34456542 0.34856808 0.27075815
0.33110043 0.26493812 0.31188154
0.32870743 0.3760311 0.25813532
0.34883443 -0.13782287 -0.090927601
0.33615944 0.002546072 0.029384136
0.33269244 0.048205078 0.090446472
0.32980844 0.59087706 0.040319443
0.30577645 0.1887151 0.27256346
0.32112843 0.63297808 -0.010906696
0.31012642 0.45172009 0.1922431
0.31173444 0.0065441132 0.057081223
0.30033344 0.48270911 0.16565752
0.30641642 0.6621961 -0.061393738
0.29814643 -0.082655907 -0.012893677
0.28521943 0.4151361 0.24227715
0.28720543 0.45257708 0.20308924
0.29720142 -0.19925284 -0.10984468
0.27420342 0.1476301 0.2406764
0.26349443 0.14670712 0.23244524
0.25686744 0.4162761 0.25561237
0.25116643 0.34799212 0.25929356
0.25298342 0.45384711 0.21929216
0.24771744 0.11182612 0.21257544
0.24748743 0.14503711 0.21774054
0.24645042 0.29967511 0.24103117
0.24847645 0.59238911 0.067577362
0.23553842 0.29931808 0.23682833
0.23484543 0.3475011 0.25301933
0.24642244 -0.12555993 -0.017567635
0.23110244 0.2263791 0.21026516
0.23278242 0.022641122 0.17018747
0.23524344 0.56275606 0.11146545
0.22864544 0.41740209 0.26889324
0.23326543 0.52320707 0.15865946
0.22629544 0.1093331 0.19166327
0.22075343 0.17984509 0.1905055
0.22012943 0.22597408 0.20602036
0.22115344 0.060812116 0.18053341
0.21609342 0.52374113 0.1668973
0.20318744 0.48605511 0.2119174
0.19636545 0.45592311 0.24612617
0.19519845 0.5635041 0.12396145
0.19501045 0.6634481 -0.032254696
0.18765345 0.52449208 0.17841148
0.18719643 0.63481808 0.027463436
0.18917844 0.66351211 -0.030725479
0.18054944 0.4868221 0.22271013
0.17475343 0.34566009 0.22990417
0.15829545 0.34514707 0.22357035
0.16859645 -0.31407094 -0.11358166
0.16358545 0.70483208 -0.14183187
0.16907543 -0.48013687 -0.32683659
0.15762845 0.70492309 -0.13897085
0.14813343 0.52529907 0.19065237
0.14152843 0.37410712 0.2271843
0.13741645 0.22285211 0.17400455
0.13674745 0.29600108 0.19872713
0.13433644 -0.068111897 0.077868462
0.12694943 0.56475109 0.14529514
0.12319244 -0.0694139 0.068898201
0.11953145 0.37344611 0.21872616
0.10826945 -0.23890591 -0.029196739
0.091794439 0.37329012 0.21625614
0.091572441 0.4872871 0.22733212
0.10208344 -0.60168886 -0.29633188
0.088990442 -0.026121914 0.072780132
0.089372434 0.63598514 0.052909374
0.076378442 0.17504013 0.14410114
0.075357437 0.34346807 0.20259523
0.066280439 -0.026291907 0.071195126
0.064248443 0.52600312 0.20055056
0.067634441 -0.23630595 -0.014959812
0.06678544 -0.11588085 0.039089203
0.063039437 0.70635808 -0.093479633
0.055148438 -0.071412921 0.054262161
0.058704443 -0.53055787 -0.20040274
0.048299439 0.17486811 0.14215422
0.047964439 0.2512331 0.16776037
0.052776441 0.73643613 -0.19987059
0.051303439 -0.36199784 -0.087287903
0.042855442 0.13492811 0.12746048
0.040194437 -0.44103086 -0.13465071
0.031068437 0.37006712 0.17691517
0.02012144 0.22050309 0.14991426
0.020017441 0.48302209 0.16182232
0.01445144 0.4826881 0.15672731
0.01603644 -0.30104589 -0.045077801
0.017614439 -0.69788492 -0.24596167
0.017167442 -0.57790089 -0.18906689
0.008821439 0.29249012 0.15988731
0.0033904389 0.17368108 0.13128853
0.0038824417 -0.071876884 0.050654411
0.0046714395 -0.3602469 -0.078538895
-0.0021225587 0.099653125 0.10881853
-0.0022305585 0.17346412 0.12935638
-0.0023265593 0.33868611 0.14763021
-0.0077665597 0.09941411 0.10687113
-0.0079165604 0.36709809 0.14125252
-0.0072625596 -0.23508096 -0.0086426735
-0.01332356 0.63715011 0.079742432
-0.019113559 0.17281109 0.12354517
-0.019002561 0.63721311 0.08122921
-0.01887656 -0.11670387 0.033044338
-0.02401156 -0.86813891 -0.2999835
-0.024294559 -0.51713192 -0.13772345
-0.030391559 0.21809709 0.12714434
-0.03036356 0.59400213 0.094711304
-0.030176559 -0.4377799 -0.11888647
-0.030289561 -0.17804193 0.010273457
-0.041818559 0.70758212 -0.053616524
-0.047318559 0.1716851 0.11363554
-0.053023562 0.097468078 0.091245174
-0.053160559 0.59130108 0.03889513
-0.05325656 0.63391811 0.0020542145
-0.053439558 -0.35816395 -0.06769371
-0.06437356 0.096974075 0.087324142
-0.065169558 -0.4330399 -0.095214844
-0.065344557 -0.56606495 -0.13525057
-0.081421562 0.096227109 0.08143425
-0.087130561 0.16752511 0.077263355
-0.088400558 0.63031006 -0.084463596
-0.09473756 -0.63260984 -0.14375687
-0.09861856 0.24059212 0.06351757
-0.11595656 0.35871607 0.041816235
-0.12159156 0.1253441 0.047471523
-0.12572557 -0.9918009 -0.26834345
-0.12948257 -0.56044996 -0.10906649
-0.13464156 0.46811211 -0.06310463
-0.13614656 -0.75336289 -0.16452169
-0.14123656 0.50721812 -0.1135006
-0.14243656 -0.83994794 -0.18988657
-0.14476356 0.12276912 0.026308537
-0.15281355 0.46519411 -0.10693789
-0.15129057 -0.18316293 -0.019721508
-0.15632257 -0.033637881 0.020276546
-0.15651056 0.23503113 0.0099773407
-0.15633956 0.040039122 0.019305229
-0.16001657 -0.83781493 -0.1813159
-0.15770656 -0.30307186 -0.055277824
-0.16211155 -0.034086883 0.017252445
-0.16214156 0.0019400716 0.015647411
-0.16975656 -0.42984986 -0.078045845
-0.17049456 -0.62623286 -0.1148119
-0.18141356 -0.36065686 -0.079229832
-0.18556255 -0.0010738969 -0.0057258606
-0.18698356 0.31944609 -0.068333626
-0.18922457 -0.8342979 -0.16708565
-0.19144356 -0.0018318892 -0.011091709
-0.19346955 -0.55808091 -0.097062588
-0.20087555 -0.83290589 -0.16141176
-0.19863456 -0.30585992 -0.069696903
-0.20469856 -0.43034995 -0.079744816
-0.20541957 -0.6249119 -0.10824871
-0.20936355 0.1544351 -0.035723686
-0.21038556 -0.35993493 -0.07474184
-0.21536255 0.19958311 -0.043745518
-0.21620956 -0.3600179 -0.075024605
-0.22210655 -0.30748093 -0.077971458
-0.22700155 0.031196117 -0.045948505
-0.23303556 0.078961074 -0.054137707
-0.23984155 -0.5070709 -0.087161541
-0.24684656 -0.74417186 -0.1246109
-0.25267157 -0.74394786 -0.12351465
-0.25684255 -0.24679887 -0.072637558
-0.25798255 -0.66603088 -0.10699844
-0.25660056 -0.13265991 -0.065345764
-0.25747657 -0.55731595 -0.091758728
-0.26333457 -0.31036484 -0.092517853
-0.26250055 -0.19161093 -0.068017483
-0.26319057 -0.50747192 -0.088301659
-0.26959857 -0.66561186 -0.10481787
-0.27487156 -0.50767994 -0.088873863
-0.28290957 -0.89923191 -0.14907265
-0.28238156 -0.82665396 -0.13467789
-0.31108057 -0.098083854 -0.11859369
-0.30993056 -0.50832784 -0.09058857
-0.31613958 -0.6237669 -0.099524498
-0.32913956 0.12769312 -0.26677084
-0.32339057 -0.05625689 -0.13240051
-0.33285555 0.058475077 -0.21471643
-0.34247658 -0.023730874 -0.16477346
-0.34142858 -0.20429194 -0.1417079
-0.36946356 -0.36855888 -0.11404181
-0.37522656 -1.0502329 -0.22981262
-0.36886957 -0.51133692 -0.10211563
-0.40029356 -0.95940793 -0.14222145
-0.40258858 -0.21187091 -0.1846056
-0.42186457 -0.66798294 -0.10786772
-0.43053758 -0.32332885 -0.15594053
-0.44600257 -0.56529295 -0.11926985
-0.45171157 -0.62929392 -0.11664772
-0.47516358 -0.74481392 -0.11615562
-0.49875656 -0.33282185 -0.20378065
-0.50875956 -0.17920387 -0.35050869
-0.50542754 -0.89702487 -0.12897968
-0.50506055 -0.82688785 -0.1237216
-0.50555456 -0.63333786 -0.13079786
-0.52020055 -0.45167685 -0.17078257
-0.51891154 -0.52399194 -0.15280676
-0.54742754 -0.67729187 -0.13915443
-0.55869353 -0.83010387 -0.1322608
-0.58532351 -0.24866688 -0.39569283
-0.57757753 -0.6796999 -0.1470685
-0.59810156 -0.39779484 -0.2528758
-0.59181654 -0.5800879 -0.17643452
-0.62024856 -0.30257392 -0.37353373
-0.62145853 -0.35488594 -0.31573486
-0.64020956 -0.27262485 -0.53672171
-0.63365555 -0.46876585 -0.24714565
-0.63956952 -0.84380388 -0.17878771
-0.65506655 -0.36208296 -0.35242558
-0.65264553 -0.84742785 -0.19171476
-0.68687356 -0.32531095 -0.49933386
-0.72608656 -0.48700392 -0.32972956
-0.73137653 -0.60154092 -0.2618165
-0.74663156 -0.49182296 -0.35178089
-0.74245554 -0.78371894 -0.25219059
-0.77084553 -0.79421592 -0.2920866
