# .PCD v0.7 - Point Cloud Data file format
VERSION 0.7
FIELDS x y z
SIZE 4 4 4
TYPE F F F
COUNT 1 1 1
WIDTH 1
HEIGHT 256
VIEWPOINT 0 0 0 1 0 0 0
POINTS 256
DATA ascii
0.83025432 0.05095619 -0.15957832
0.81599033 0.094065189 -0.094038486
0.80402434 0.059479237 -0.094035149
0.80071735 0.097468197 -0.067295551
0.78313833 0.18988121 -0.020809174
0.76711231 0.067330182 -0.035159111
0.75704336 0.26640421 -0.00012111664
0.72369134 0.22643924 0.034220695
0.72825933 -0.023345768 -0.057959557
0.72135437 -0.022052765 -0.04929924
0.69816834 0.19880021 0.053369522
0.71201533 -0.12298375 -0.18145132
0.67298436 0.20094019 0.070786476
0.68829232 -0.11470777 -0.12849045
0.66109234 0.23111522 0.073341846
0.65710735 0.32163221 0.055856705
0.64887536 0.23183721 0.079155445
0.65143633 0.43150219 -0.0024504662
0.64205235 0.39182419 0.032125473
0.63126135 0.11740524 0.081291676
0.64593834 -0.16666383 -0.18423653
0.63511336 0.54496717 -0.13530636
0.61459035 -0.048628807 0.014324665
0.60695237 0.27680624 0.092924595
0.60251933 0.32414418 0.078928471
0.61540031 0.50522822 -0.054845333
0.59493136 0.11978722 0.097727776
0.59358835 -0.0065057874 0.050833702
0.59356934 0.3936522 0.051039696
0.57450634 0.4666892 0.004942894
0.55410832 0.08716023 0.10236549
0.55719233 -0.093295753 0.0022258759
0.56011635 0.50696021 -0.03085947
0.54592937 0.39499319 0.064055443
0.54209435 0.4353472 0.041415691
0.54800034 0.50726616 -0.026782513
0.52773035 -0.0025637746 0.073632717
0.52185637 -0.0023548007 0.074655533
0.51242232 0.12315321 0.11859179
0.51477033 0.35547423 0.090326786
0.50889635 -0.089922786 0.020703793
0.49124634 0.038593233 0.095990658
0.48780137 -0.13699681 -0.0077934265
0.48703235 0.54891717 -0.073827267
0.47758633 0.43625522 0.048929691
0.47666836 0.50829923 -0.015264511
0.48245937 -0.20945781 -0.091396332
0.46061733 0.12384921 0.12032652
0.46990335 -0.20772475 -0.081814289
0.44868535 0.16352218 0.12661076
0.44294634 0.16358519 0.12674952
0.43226135 0.09005022 0.11584568
0.43110335 -0.0846048 0.05038166
0.42246634 0.35616523 0.09156847
0.41502634 0.090252221 0.11626673
0.41079333 0.0014522076 0.093941689
0.42212033 0.54913819 -0.074366093
0.42643335 0.57912922 -0.13845634
0.42006636 -0.20088774 -0.043853283
0.39722735 0.16379023 0.1254015
0.40770435 -0.19920284 -0.0344491
0.39205834 0.090511203 0.11682463
0.39223135 0.28049123 0.11414957
0.38631734 0.090575218 0.11696482
0.38598636 0.12468618 0.12214375
0.38852534 -0.036303818 0.082341671
0.38366833 0.39624119 0.067991734
0.38543734 0.4360702 0.0398736
0.37678733 0.35593921 0.085870743
0.37990636 -0.12905079 0.035594463
0.35193735 0.20870018 0.11711979
0.35646334 0.57809424 -0.16426039
0.32395735 0.0037271976 0.10519648
0.31735733 -0.19060975 0.012332439
0.32248935 0.57645118 -0.20011854
0.31499735 0.50655919 -0.054733276
0.28887033 0.091552198 0.11931944
0.29578933 0.46618721 -0.022152424
0.28460935 0.27866119 0.088945866
0.28378233 0.0041431785 0.10616779
0.27777234 0.042505205 0.11212683
0.29489136 0.5740642 -0.25088549
0.27590436 0.39366323 0.028829575
0.27593136 -0.18764979 0.028230667
0.26084334 0.004366219 0.10672188
0.26413834 -0.1868158 0.032749653
0.26166335 0.4648962 -0.043266296
0.26021335 -0.24841279 -0.010037422
0.25815234 0.5041272 -0.098109245
0.25428635 -0.24797279 -0.0077514648
0.25061235 0.54283524 -0.20214748
0.23744035 0.43210322 -0.023490429
0.24115434 0.50310218 -0.11596632
0.23062435 -0.24622482 0.0013694763
0.21504533 0.16270721 0.10648251
0.21879834 0.39211923 0.0065188408
0.20374033 -0.032100797 0.10247946
0.20353934 0.0048732162 0.10809755
0.19760934 0.043194234 0.11404753
0.18103135 -0.075803816 0.096362591
0.18536934 -0.31299883 -0.037926197
0.18237633 -0.38366479 -0.12877846
0.16918734 0.0051422119 0.10891581
0.17313135 0.39016819 -0.020196438
0.15710732 0.42878121 -0.072881222
0.15334833 -0.18137485 0.061693668
0.14077833 0.12357622 0.10183764
0.14291534 0.32144123 0.02021265
0.12358534 0.09022522 0.1026907
0.12824234 0.4272652 -0.094903469
0.11467334 0.34853619 -0.013374329
0.10513934 0.42561021 -0.11864328
0.095644332 0.20449722 0.067800522
0.094902329 0.005058229 0.10645866
0.096873336 -0.30497783 0.0037975311
0.089207336 -0.031266809 0.10520172
0.083604336 0.089811206 0.09855175
0.073830336 0.31905919 -0.0081825256
0.066590339 0.12206519 0.087687492
0.070504338 -0.46343082 -0.17614937
0.063299336 0.38515818 -0.087215424
0.058452338 0.4222492 -0.1665864
0.044877335 -0.36240882 -0.020018101
0.038744338 0.27170819 0.009144783
0.032072335 -0.074807763 0.099885464
0.015166335 -0.23479277 0.062338829
0.010644335 0.38114518 -0.13946819
0.0092183352 -0.11796778 0.09385252
0.0035453364 0.088064194 0.083648682
-0.0019126646 0.22929519 0.019352436
-0.007758664 0.20109522 0.034780502
-0.0079606641 0.040917218 0.092876434
-0.013669664 -0.17703575 0.085407734
-0.019372664 0.1197722 0.067826748
-0.019089663 0.34183621 -0.094790459
-0.019419663 -0.11784583 0.094519615
-0.025151664 -0.074706793 0.10026169
-0.024975663 0.3413412 -0.10069132
-0.030874664 0.11945623 0.065172672
-0.030874664 -0.074794769 0.099670887
-0.042320665 -0.074973822 0.098490715
-0.042341664 -0.17692381 0.086075783
-0.048053663 -0.032641768 0.094530582
-0.048424661 -0.43741184 -0.047273159
-0.048109666 -0.2328828 0.073216438
-0.059933662 0.22702223 -0.0028662682
-0.059525661 0.0030162334 0.090503693
-0.060942665 0.37380123 -0.2341795
-0.059831664 -0.35465485 0.02035284
-0.059704661 -0.29641885 0.049565792
-0.065663666 0.19872719 0.012663841
-0.065226659 -0.075339794 0.096128464
-0.071197659 0.11832821 0.05587244
-0.072664663 -0.54186577 -0.18433619
-0.079278663 0.37050623 -0.27653933
-0.088696659 0.15463018 0.031121731
-0.089955665 0.30982924 -0.11312056
-0.10667666 0.22477221 -0.024480343
-0.10556266 0.038331211 0.073692799
-0.12492467 0.26328319 -0.078519344
-0.13993466 -0.2318688 0.079944611
-0.15275767 0.15176523 0.0068078041
-0.16845366 -0.17668277 0.088963509
-0.17757866 0.22035718 -0.066456318
-0.17966267 -0.58762783 -0.16194153
-0.18469766 0.25906318 -0.12148333
-0.18584567 -0.23184782 0.080991745
-0.19271767 0.081726193 0.034749508
-0.19483066 -0.51414984 -0.051724434
-0.20553666 0.1493572 -0.013185501
-0.20880565 -0.077903807 0.081347466
-0.21792167 -0.51168078 -0.039465427
-0.22127366 0.034522235 0.047192574
-0.23834565 -0.002306819 0.055096626
-0.24606165 0.1106112 -0.0052423477
-0.24327165 -0.12047476 0.081128597
-0.25539267 -0.037771821 0.062562466
-0.25480166 -0.12071985 0.079946518
-0.26204067 0.033035219 0.037233829
-0.28135267 -0.50692981 -0.014970303
-0.30080265 0.14325523 -0.063693523
-0.29857966 -0.50566679 -0.0083384514
-0.31634966 0.2416302 -0.2993722
-0.32156265 -0.64848274 -0.13694239
-0.32969564 0.20750219 -0.18717337
-0.32729965 -0.64748079 -0.13231134
-0.33594766 0.2068572 -0.19320345
-0.34588066 0.073871195 -0.022735119
-0.34268466 -0.42034978 0.045042515
-0.34629765 -0.56030577 -0.031575203
-0.35042664 0.028195202 0.0042476654
-0.35635367 0.027865231 0.0020399094
-0.37100765 0.17774421 -0.17539644
-0.35838965 -0.23344785 0.078080654
-0.37729067 0.1770702 -0.1814003
-0.36551765 -0.083361804 0.05101347
-0.36562267 -0.41979474 0.048929691
-0.37136465 -0.083604813 0.049690723
-0.38179466 0.071618199 -0.039020538
-0.41524965 0.17293918 -0.21809816
-0.39999464 -0.41899675 0.054742813
-0.40453365 -0.29341179 0.076593876
-0.40755364 -0.50006181 0.023412704
-0.44302964 -0.046103776 0.013412476
-0.43979967 -0.18241876 0.065471649
-0.45478565 0.065873206 -0.080921173
-0.44680667 -0.12749285 0.045900822
-0.46935266 0.09516418 -0.1236062
-0.47318867 0.064411223 -0.091473103
-0.47712764 -0.088119805 0.025807858
-0.48032567 -0.014533818 -0.021725178
-0.47498867 -0.18409377 0.057582855
-0.48950267 -0.67676383 -0.070457458
-0.48604465 -0.23701674 0.06504488
-0.52744865 -0.78043479 -0.18686819
-0.53252769 -0.62340873 -0.014815331
-0.53199667 -0.34898084 0.069135666
-0.57100463 -0.76736873 -0.13031912
-0.56115568 -0.34997576 0.066171646
-0.60715067 0.075479209 -0.27831221
-0.58471566 -0.4202438 0.061433792
-0.60205865 -0.35141176 0.062015533
-0.60439664 -0.54950374 0.035021782
-0.60888565 -0.49745685 0.050253868
-0.61998767 -0.30000681 0.056066513
-0.63133168 -0.35246879 0.059045792
-0.64067364 -0.19236284 0.020555496
-0.65530264 -0.49814779 0.051202774
-0.66111565 -0.30157381 0.051229477
-0.66110766 -0.49823982 0.051319599
-0.67015463 -0.61866778 0.017767906
-0.66764963 -0.54885381 0.043782711
-0.66691267 -0.49833184 0.051438808
-0.68872464 -0.19527477 0.0074357986
-0.70119166 -0.10355681 -0.058764458
-0.69086963 -0.30329484 0.044656754
-0.71473366 -0.30468982 0.03938961
-0.72668463 -0.30539376 0.036753654
-0.77357566 -0.015265763 -0.29267311
-0.76906866 -0.071754813 -0.13823938
-0.75970167 -0.14693481 -0.052015305
-0.76586968 -0.14738685 -0.054245472
-0.76862764 -0.30789179 0.027511597
-0.77156663 -0.50019079 0.0535326
-0.79891664 -0.20371181 -0.032156467
-0.82884663 -0.31155282 0.014269829
-0.84222263 -0.20709485 -0.047672272
-0.84295964 -0.42924482 0.043055534
-0.84698266 -0.31267279 0.010286808
-0.84223068 -0.50289577 0.048985481
-0.90607768 -0.092957795 -0.27100039
-0.89227468 -0.21133882 -0.067325115
-0.90024668 -0.26170582 -0.036846161
-0.93732464 -0.21629184 -0.091654301
-0.96618068 -0.16933578 -0.17095137
-0.99587566 -0.22282881 -0.12350512
