# .PCD v0.7 - Point Cloud Data file format
VERSION 0.7
FIELDS x y z
SIZE 4 4 4
TYPE F F F
COUNT 1 1 1
WIDTH 1
HEIGHT 256
VIEWPOINT 0 0 0 1 0 0 0
POINTS 256
DATA ascii
0.9286288 -0.25507742 -0.086428642
0.89722872 -0.16266948 -0.030510902
0.8762747 0.15162551 0.069547176
0.87098479 0.15153754 0.067806244
0.84981477 0.15117949 0.06084013
0.83949077 0.33754951 0.055501938
0.81292176 0.10914552 0.047094345
0.82368672 -0.12562746 -0.028542042
0.81274569 -0.037311494 0.0090589523
0.8360498 -0.45500952 -0.27968979
0.78923273 0.41705453 0.017507076
0.78428876 -0.20170248 -0.028090954
0.77077377 -0.1573205 -0.011054039
0.75954974 0.14956754 0.031123161
0.7435087 0.56115055 -0.059835911
0.73474979 0.59208953 -0.07951498
0.72947872 0.59203154 -0.082481861
0.70807672 0.081857502 0.043103218
0.71135473 -0.08117348 0.016971111
0.69767678 0.037644506 0.037687302
0.69579577 0.1524145 0.052893162
0.70354271 0.37469253 -0.009750843
0.70835376 0.5917995 -0.094371796
0.68639171 0.037995517 0.039412975
0.68602169 0.11037451 0.042448044
0.68761468 0.37441251 -0.016416073
0.6689527 0.082721531 0.046466351
0.70543778 -0.44831246 -0.25951004
0.66385579 0.038690507 0.04285717
0.65923572 0.30559751 0.035140038
0.64916873 -0.078935504 0.026525974
0.65000474 0.48759553 -0.07799387
0.6259917 0.2261675 0.035765171
0.62146473 0.44715151 -0.023314953
0.62241471 -0.24026948 -0.031919956
0.60219169 0.08406055 0.05147934
0.59715772 0.0028065443 0.047080994
0.59090972 0.040878534 0.053996086
0.59138274 0.11219853 0.049562931
0.58651268 -0.02957046 0.043563366
0.58170569 -0.076597452 0.036877155
0.5756247 0.1989255 0.0423069
0.60887074 0.74938554 -0.33273602
0.56241477 0.30454451 0.0096592903
0.56500077 0.37526053 -0.015805721
0.59428573 0.79342753 -0.42057276
0.56998777 -0.43069047 -0.17713594
0.54121876 0.085220516 0.056064129
0.54581869 0.30465552 0.0095729828
0.54540372 0.41539451 -0.042620659
0.53988373 0.41539153 -0.043204784
0.52454472 0.005009532 0.058172226
0.50784671 0.005502522 0.060722351
0.55632579 0.7939865 -0.52095079
0.49232677 -0.073643506 0.05056715
0.48621574 0.11406052 0.057485104
0.48105273 0.15468854 0.053915024
0.49109975 0.51670253 -0.1218257
0.46551874 -0.14475846 0.043345928
0.45833072 -0.025609493 0.063155174
0.48139676 0.5895915 -0.2058959
0.45346573 0.15511751 0.055999279
0.45391676 -0.10901546 0.050686359
0.44883475 -0.14418948 0.045905113
0.44836172 -0.10883451 0.051537037
0.46463075 0.58951855 -0.21020889
0.44766274 0.44555151 -0.073276997
0.41954175 0.044436514 0.069423199
0.42942974 0.41529351 -0.054823875
0.42920873 -0.3484655 -0.052043915
0.44318774 0.63998252 -0.30041409
0.41430074 0.33680153 -0.0035557747
0.41436473 0.67281449 -0.3804369
0.38453373 -0.22787547 0.025784969
0.37677875 -0.14180547 0.05694294
0.38027373 0.30560753 0.0087790489
0.37195975 -0.18397748 0.04789114
0.37528375 -0.47538251 -0.1561718
0.35371274 0.045554519 0.07438612
0.33816773 0.15655655 0.062355042
0.33737773 -0.068917453 0.074241161
0.38430473 0.71175754 -0.72481489
0.32634273 0.045996547 0.076452255
0.33073974 0.30582651 0.0084643364
0.32087174 0.04608351 0.076865196
0.30886975 0.30576253 0.006193161
0.29891074 -0.067822456 0.080104351
0.31187674 0.48645353 -0.13496065
0.33359674 0.67148453 -0.49523592
0.30175275 -0.40537745 -0.059263706
0.28363875 0.15685552 0.062098026
0.28966674 0.37497753 -0.042458057
0.27909875 0.20135951 0.046056271
0.28757575 -0.46427351 -0.10324383
0.26564974 -0.55390543 -0.21861982
0.25254375 -0.2807675 0.031466961
0.25331473 -0.46135944 -0.089768887
0.24145773 -0.28023344 0.034138203
0.24803174 -0.55156344 -0.20783567
0.22014174 0.26747951 0.022068977
0.24377474 0.63711655 -0.47907686
0.21218672 -0.17842847 0.075537205
0.21699074 -0.3989175 -0.02826786
0.21886075 0.51482153 -0.19107294
0.19512573 -0.01977247 0.092987061
0.19099173 -0.45644742 -0.06684494
0.17351773 0.01185751 0.091562271
0.17029274 0.22905552 0.035778999
0.14475974 0.48502651 -0.17716694
0.12998573 -0.018845499 0.097916126
0.13052873 -0.21705151 0.081545353
0.12456274 -0.018772483 0.09832716
0.12498374 0.091248512 0.085299015
0.11487673 0.15750152 0.061406136
0.09774074 0.41333553 -0.10929489
0.094413742 0.48432252 -0.19561195
0.097929731 0.55452353 -0.32985067
0.077492744 0.22909951 0.033345222
0.089914739 0.58334649 -0.47492504
0.076112732 -0.21550947 0.089841366
0.059727743 0.049603522 0.096656322
0.050241739 0.22891849 0.030582905
0.049573734 0.48338452 -0.2191577
0.040268734 0.30455652 -0.021416664
0.035770737 -0.52433354 -0.079274654
0.016258739 -0.13167447 0.11187935
0.011183739 -0.26990253 0.089262962
0.005540736 -0.17279249 0.10700226
-0.0045242608 0.20193952 0.042961121
-0.0089262649 -0.51978153 -0.057221889
-0.015092261 -0.44116145 0.0081820488
-0.015926264 -0.26889151 0.095061302
-0.020484261 0.26613653 -0.001967907
-0.021338262 -0.26874751 0.095885277
-0.026921261 -0.13066548 0.11842489
-0.030216262 -0.61730653 -0.18088388
-0.037484262 0.091523528 0.084758282
-0.046420261 0.50922954 -0.34919167
-0.05921226 -0.016629457 0.11228704
-0.075383261 0.50778353 -0.38841486
-0.075383261 -0.43697244 0.029900074
-0.08079426 -0.32088548 0.08699894
-0.092408262 0.43974552 -0.21478271
-0.091681264 -0.3810665 0.062879086
-0.10286726 0.26550752 -0.01025486
-0.11386727 0.26541752 -0.011356831
-0.11321926 -0.31956953 0.094700336
-0.11982127 0.33321252 -0.076693058
-0.11896726 -0.43402547 0.045536041
-0.12016426 -0.60563344 -0.12582397
-0.12660027 0.43888253 -0.23245001
-0.14241627 -0.60283452 -0.11242485
-0.14545727 0.014863491 0.11207724
-0.14815727 0.37058952 -0.12593699
-0.15672627 0.11835754 0.074757099
-0.15839025 0.30239052 -0.052325726
-0.16201426 0.091437519 0.084445
-0.16683027 -0.060506463 0.12486315
-0.17330426 0.15712053 0.055289268
-0.18653625 0.47526452 -0.41457605
-0.18302625 -0.015565455 0.121737
-0.18319626 0.014789522 0.11200094
-0.19215426 -0.59665948 -0.082581997
-0.19897926 -0.20888549 0.13158321
-0.23077926 0.30104953 -0.069797039
-0.23145626 -0.015561461 0.12280226
-0.23646227 -0.2081365 0.13724422
-0.25783426 0.40619051 -0.24321985
-0.24740426 -0.2634415 0.1301713
-0.25299627 -0.015638471 0.12277031
-0.25780028 -0.16781849 0.14234734
-0.27386725 -0.16770846 0.14357519
-0.28531325 -0.015769482 0.12273121
-0.28481826 -0.094475508 0.13727713
-0.29108226 0.014431536 0.11183596
-0.32398027 0.049483538 0.099110126
-0.33003625 0.090828538 0.083355904
-0.33480126 0.049431503 0.099100113
-0.34405226 0.19849652 0.0093712807
-0.34638026 0.090586543 0.081789017
-0.36727625 0.049263537 0.099068165
-0.36902428 0.11639953 0.062005997
-0.37080628 -0.059580505 0.13827801
-0.38255227 0.29806152 -0.10625505
-0.39223126 0.15438449 0.033977032
-0.39739725 0.26039851 -0.068005085
-0.40206626 -0.63816744 -0.050685883
-0.40947726 -0.57690245 0.018442154
-0.41679326 -0.4930535 0.084952354
-0.43636826 -0.57519454 0.027998924
-0.45590127 -0.73672253 -0.21205187
-0.43954328 -0.2600475 0.15912724
-0.47384328 0.22165453 -0.044702053
-0.46613526 -0.25965852 0.16312122
-0.48023927 0.013281524 0.11171818
-0.47849825 -0.060388505 0.1382761
-0.50195128 0.32284951 -0.2195487
-0.49402627 0.088217497 0.067765236
-0.48756626 -0.20582551 0.16376591
-0.51714426 -0.71408445 -0.10907698
-0.51196027 -0.017261505 0.12263918
-0.50983626 -0.36749548 0.15263605
-0.51452625 -0.31055945 0.16227913
-0.51961327 -0.20578951 0.16623592
-0.52551222 -0.12718147 0.15903711
-0.53796124 -0.56902045 0.063887119
-0.54155624 -0.12717545 0.16027403
-0.54660827 -0.16680145 0.16452312
-0.55032122 -0.4885475 0.11625814
-0.5679853 -0.16680646 0.16617298
-0.56915325 -0.41757447 0.15164804
-0.56836724 -0.36670345 0.16141891
-0.58203721 0.086642504 0.059524059
-0.59470522 -0.62141746 0.038803101
-0.59858632 0.086333513 0.057984352
-0.60962629 0.086124539 0.056958199
-0.6366303 -0.77492553 -0.1915617
-0.61827528 0.045561492 0.083352089
-0.62282729 -0.56420249 0.093592167
-0.62754226 -0.12792248 0.16219711
-0.62643421 -0.20585746 0.17448616
-0.65325928 -0.61805743 0.059327126
-0.66493523 0.08504951 0.051836014
-0.66419327 -0.16696548 0.17361212
-0.68727326 0.18973452 -0.066080093
-0.68156123 0.084716499 0.050302982
-0.70519626 0.2489695 -0.19292688
-0.70414722 0.0094815493 0.098570347
-0.70934224 0.084117532 0.047429085
-0.69884729 -0.48430246 0.15074205
-0.71138728 -0.25924248 0.18624115
-0.72619426 0.0089735389 0.096579075
-0.71726632 -0.20614249 0.18152428
-0.74998724 -0.67594451 0.078804016
-0.78410625 0.041961491 0.068251133
-0.76960027 -0.30889648 0.19556999
-0.77250922 -0.55127043 0.17003727
-0.81171227 0.1834625 -0.12426805
-0.78419328 -0.41071349 0.20904303
-0.79212129 -0.20653349 0.18733835
-0.80488729 -0.30610448 0.2159152
-0.82335627 -0.02282548 0.1077199
-0.80898523 -0.35929447 0.22647715
-0.8490293 0.10467249 -0.012199879
-0.82899022 -0.098446488 0.15100718
-0.86765921 0.1402815 -0.072131634
-0.94676328 -0.70955151 -0.56096077
-0.87058926 -0.48524445 0.16588926
-0.86745524 -0.35973245 0.23141623
-0.88379323 -0.064340472 0.14816332
-0.88876021 -0.12773949 0.19266415
-0.89068925 -0.095808506 0.17820215
-0.93380332 0.13659555 -0.10237074
-0.95197928 0.13557452 -0.11066484
-1.0472813 -0.47163349 -0.715446
-1.0560802 0.098306537 -0.04626894
