# .PCD v0.7 - Point Cloud Data file format
VERSION 0.7
FIELDS x y z
SIZE 4 4 4
TYPE F F F
COUNT 1 1 1
WIDTH 1
HEIGHT 256
VIEWPOINT 0 0 0 1 0 0 0
POINTS 256
DATA ascii
0.96607256 -0.30327684 -0.030738354
1.0024446 -0.070939839 -0.39415455
0.92134464 -0.33955485 0.079692364
0.98036754 -0.1689809 -0.42061043
0.9076556 -0.52182382 0.093498707
0.95646656 -0.031933844 -0.38357544
0.87685764 -0.37830788 0.19624472
0.93698764 -0.031259835 -0.3803463
0.92276156 0.095725179 -0.36797953
0.91711164 0.012610137 -0.3736372
0.91864657 0.22692418 -0.38623047
0.91159856 0.19499218 -0.38049221
0.91016161 -0.20797187 -0.42137432
0.90363562 -0.20769185 -0.42018938
0.82868063 -0.37503785 0.20839977
0.87337959 -0.25678378 -0.43443251
0.79869258 -0.37301785 0.2160387
0.82999456 -0.30472487 -0.056582451
0.85277963 0.14395016 -0.36519241
0.85718262 0.31779218 -0.40413666
0.84151959 0.10145217 -0.32117748
0.8588326 0.48010817 -0.47552156
0.84883463 0.27335417 -0.38638639
0.81502962 -0.3656798 -0.085015297
0.82969463 0.27360219 -0.38528919
0.82520556 0.31817317 -0.40229034
0.83124959 -0.52865583 -0.63902044
0.76899755 -0.25127083 -0.10910654
0.77774763 -0.020921826 -0.31157255
0.7452426 -0.10791582 -0.29942656
0.76091254 0.44572616 -0.45781136
0.75980663 0.52836215 -0.51166439
0.72405553 0.27799618 -0.33918238
0.72149062 0.61026919 -0.58448362
0.68448853 0.029491186 -0.24919653
0.69357753 0.32287914 -0.3490653
0.67791164 0.030041158 -0.24493361
0.67998958 0.15488619 -0.26798534
0.70220661 0.52846915 -0.51449728
0.61741853 -0.52089888 0.42625761
0.67152655 -0.011498868 -0.24272346
0.67190957 -0.10011184 -0.24702263
0.59110153 -0.43952185 0.47163677
0.64851761 0.20772916 -0.26288462
0.63633156 0.36043617 -0.34004021
0.63655353 0.44838616 -0.41893148
0.63966656 -0.50652081 -0.53505564
0.62789559 0.53063017 -0.46872854
0.55034757 -0.50514883 0.49509954
0.6157726 -0.41614681 -0.39651632
0.6157676 0.53034216 -0.47662354
0.59262955 0.56351417 -0.50825644
0.57768154 0.36275917 -0.30945349
0.56330562 0.16230917 -0.19982529
0.56812453 -0.40729684 -0.34896564
0.54410362 0.16351515 -0.18860722
0.54843354 0.40640616 -0.33620358
0.56469262 0.70295817 -0.75267124
0.52067858 -0.2627148 -0.20404625
0.51297355 -0.2139799 -0.18068266
0.53901559 0.61121213 -0.56765461
0.50425559 -0.12423587 -0.14141464
0.48096958 -0.21019679 -0.15749025
0.48213658 -0.25794882 -0.17603159
0.49364558 0.53139216 -0.45991325
0.49751657 0.64596117 -0.62702227
0.4893176 0.61037117 -0.59878349
0.41983059 -0.59678584 0.55382156
0.44711459 -0.027615845 -0.098910332
0.4503966 0.21850914 -0.15496445
0.44215357 0.12568516 -0.11747551
0.42965057 0.12650317 -0.11017656
0.43092659 0.36776817 -0.24312162
0.43328759 0.40983415 -0.28602743
0.38224658 -0.47178382 0.64144373
0.41288957 0.22040015 -0.13564444
0.40894458 0.29242814 -0.17600441
0.39127058 0.052442133 -0.067769527
0.3934176 0.48763117 -0.35698938
0.38660058 0.56510818 -0.47758245
0.3614226 -0.19625586 -0.070913315
0.3721616 0.45545617 -0.30292845
0.3702966 -0.45380884 -0.26264048
0.37136358 0.53324318 -0.42195129
0.32339758 -0.57720882 0.63434553
0.37265959 0.61074018 -0.59264565
0.32973158 -0.14532685 -0.030423641
0.32625458 0.22470617 -0.09098053
0.33071458 0.37095815 -0.19965935
0.30513859 -0.10483783 -0.010993481
0.30784658 0.22560918 -0.081483364
0.31369859 0.41328716 -0.23381042
0.30658257 -0.23665184 -0.048591614
0.26803258 -0.56697887 0.67678881
0.26856059 -0.012165844 0.016810417
0.26270759 -0.13848984 0.014796734
0.26004758 -0.35946685 -0.088894367
0.25766659 -0.23084182 -0.013126373
0.26280758 0.61104119 -0.5867362
0.23858559 -0.13614184 0.030442715
0.24076658 0.45805317 -0.25902748
0.19733559 -0.55493087 0.72724342
0.20885058 -0.17891484 0.039403439
0.21057758 0.23031819 -0.031263351
0.19788158 0.18344617 0.0033173561
0.19068658 -0.13151383 0.061507702
0.18525659 0.11249214 0.040305614
0.19927458 0.60981715 -0.62892342
0.16996959 -0.48712689 0.77010059
0.17280759 -0.092484832 0.074808598
0.17378059 -0.28415984 0.024173737
0.16716757 0.06816417 0.062755585
0.16797459 0.18497819 0.018707752
0.14804059 0.60859919 -0.6702075
0.11966459 -0.00022786856 0.10916281
0.12607858 0.5661782 -0.45621729
0.11729258 0.46019715 -0.22113132
0.11464758 -0.33807689 0.031460762
0.10973158 0.34478515 -0.070813656
0.10207258 -0.086025834 0.1206665
0.09771359 0.34516415 -0.065598488
0.084551588 -0.12143183 0.13033247
0.084530585 -0.046097815 0.1337986
0.074403584 0.46091715 -0.20792961
0.049768586 -0.39884287 0.031234741
0.038054585 0.12183517 0.12629747
0.037880585 0.37978017 -0.072165489
0.031668585 -0.56980687 -0.20097923
0.028265584 -0.53102487 0.82973146
0.014903584 0.078388155 0.15155745
0.0092245862 0.0078331828 0.17340374
0.0089715831 0.15166217 0.12500763
-0.00073941424 0.56411314 -0.51249361
-0.0022194162 -0.076689839 0.18827534
0.0022195838 -0.56893688 0.82406855
-0.025211416 0.010300159 0.19344664
-0.026281416 0.24130416 0.09130764
-0.033684418 0.38149416 -0.045818329
-0.036539413 -0.11022484 0.20884371
-0.045063414 0.34956017 -0.0035333633
-0.076390415 -0.19270188 0.22848558
-0.075784415 -0.63373989 0.82940578
-0.093224421 -0.031542838 0.24523735
-0.098850414 -0.10458386 0.2492404
-0.099437416 -0.25147682 0.22234678
-0.10457042 -0.18961281 0.2488184
-0.11006242 -0.067278862 0.25817347
-0.12800641 0.49347016 -0.24269724
-0.12372142 0.19929814 0.16919136
-0.13900942 0.53292316 -0.43475628
-0.13000342 0.42272517 -0.078990459
-0.12731041 0.017487168 0.25290537
-0.12752941 0.049907148 0.24456644
-0.12063442 -0.5152958 0.90070248
-0.14376141 -0.14348084 0.27638674
-0.15738541 -0.36810082 0.20288849
-0.16230041 0.13252717 0.22962046
-0.17704241 -0.061561823 0.30158138
-0.18818241 -0.096651852 0.30714655
-0.19417341 0.27517319 0.13978958
-0.19514741 0.091566145 0.27169466
-0.19365641 -0.060158849 0.31234646
-0.17300741 -0.55775183 0.87547159
-0.17261441 -0.51900381 0.88617849
-0.20470442 -0.059237838 0.31944656
-0.19066042 -0.39283687 0.6850338
-0.22486642 0.42429116 -0.049738407
-0.23237041 -0.13534683 0.33383656
-0.2117134 -0.57193786 0.81662273
-0.22227341 -0.39122587 0.69436073
-0.24528041 0.094259143 0.29742146
-0.24147642 -0.31340688 0.50621557
-0.25470141 -0.01984787 0.33919239
-0.2784844 0.42440817 -0.045454502
-0.26435742 -0.3461948 0.59861135
-0.28402442 0.096311152 0.31732035
-0.29256243 -0.052749813 0.37053347
-0.3022044 0.27869517 0.18655539
-0.32617241 0.42443416 -0.0426054
-0.33232242 0.063066185 0.36325645
-0.35059041 0.38717517 0.051172733
-0.32315442 -0.36176282 0.51988268
-0.35690641 0.14225918 0.32991076
-0.36420742 -0.27760285 0.39291763
-0.36795041 -0.12327582 0.4217248
-0.38170841 -0.33733588 0.3826375
-0.41474143 0.38768017 0.062887669
-0.39526841 -0.045380831 0.43030977
-0.40124542 -0.009703815 0.42457867
-0.41731542 -0.0086188316 0.43394852
-0.43137941 -0.46904188 0.31836462
-0.43326741 0.14591014 0.36936378
-0.45923641 0.21258515 0.32533646
-0.4561564 -0.32850188 0.43660736
-0.47897443 -0.56356388 0.21998358
-0.52005446 0.32141417 0.21213961
-0.53808343 0.38757017 0.070756435
-0.51622438 0.17609316 0.3881278
-0.51136243 -0.3165738 0.50685835
-0.52492642 0.15016216 0.41679573
-0.52399242 -0.25253886 0.55027866
-0.54182947 0.0034241676 0.53572559
-0.57776344 0.35861516 0.15200758
-0.55952537 0.17759317 0.40678358
-0.59683645 0.38747317 0.074630737
-0.56901944 0.04977113 0.53929758
-0.58465743 0.050673187 0.54811859
-0.58613837 -0.36316687 0.53341579
-0.59012544 -0.31037885 0.54846144
-0.6168654 0.26044816 0.34119749
-0.59875441 -0.028391838 0.57148647
-0.65762138 0.38606417 0.059294701
-0.61152744 0.051103175 0.55434179
-0.66398442 0.38575417 0.055248737
-0.61555636 -0.36703581 0.51600552
-0.63036847 -0.5812369 0.3750844
-0.80509245 -0.41851085 -0.38280344
-0.82386744 -0.00012385845 -0.48703146
-0.71375942 0.15511519 0.48317671
-0.85458338 -0.13384384 -0.47485924
-0.76735544 -0.60601383 0.2771244
-0.86498344 0.091659188 -0.40428925
-0.83064342 -0.56709379 -0.13245821
-0.81056345 -0.61157578 0.026490688
-0.86942339 -0.41239482 -0.33933544
-0.88757944 0.14558518 -0.33305454
-0.79824138 0.26318413 0.39356565
-0.81201446 0.26143718 0.37547159
-0.85903347 0.36262515 0.2411828
-0.88846838 -0.64500481 0.11383438
-0.96290934 -0.069211841 -0.37357759
-0.94223237 -0.45840782 -0.22645044
-0.96815944 -0.20275182 -0.36561728
-0.95205843 -0.5034278 -0.16420841
-0.98543143 -0.067043841 -0.3528204
-0.96900439 0.15346515 -0.23882961
-0.94440842 -0.5573588 -0.068146229
-0.91837442 0.35870817 0.19408369
-0.97836637 0.21490514 -0.13253927
-1.0052294 0.07103014 -0.27180719
-0.97259235 -0.55499488 -0.052118301
-1.0118334 -0.39735478 -0.23192549
-0.98501539 0.25620216 -0.01315546
-1.0319704 0.073898137 -0.24061823
-1.0414534 -0.11467183 -0.30259228
-1.0195384 -0.49681181 -0.11904335
-1.0528353 -0.19440681 -0.29425144
-1.0803064 -0.15183586 -0.26786852
-1.0848614 0.079525173 -0.17897224
-1.0969454 -0.18963581 -0.25358152
-1.0816264 0.16658014 -0.082962513
-1.1130774 -0.10753882 -0.23657036
-1.1349003 -0.10538983 -0.21645641
-1.1413504 -0.012670815 -0.18041849
-1.1567854 -0.14396685 -0.19736719
-1.1684254 -0.33693284 -0.19208145
