# .PCD v0.7 - Point Cloud Data file format
VERSION 0.7
FIELDS x y z
SIZE 4 4 4
TYPE F F F
COUNT 1 1 1
WIDTH 1
HEIGHT 256
VIEWPOINT 0 0 0 1 0 0 0
POINTS 256
DATA ascii
0.97447044 0.10514325 -0.32665205
0.95351535 0.18592525 -0.2297802
0.84629536 0.35569727 -0.093152046
0.85306638 0.062954247 -0.26572084
0.86932337 -0.080322742 -0.47017193
0.81945741 0.1189943 -0.19090986
0.8218224 0.016725242 -0.29560709
0.7937094 0.35651428 -0.084909916
0.77327836 -0.063211739 -0.33109903
0.75345039 0.12131625 -0.17303419
0.73545939 0.50813627 -0.029611111
0.7309624 0.27358127 -0.084557056
0.7185294 0.50819826 -0.029654026
0.7276634 0.027811289 -0.19837713
0.72395539 -0.054995716 -0.26437521
0.67926341 -0.13003373 -0.28253889
0.66386437 0.033966243 -0.14525604
0.64876139 0.39031428 -0.061047077
0.63374037 0.15985328 -0.078916073
0.6306414 -0.041548729 -0.15598488
0.6115464 0.50855726 -0.029914856
0.58728337 0.43604627 -0.012507915
0.5662424 0.62389928 -0.026267052
0.56089836 0.36089927 -0.028983116
0.56095737 0.39227027 -0.029582977
0.56147641 0.53999025 -0.03487587
0.56414741 -0.07520771 -0.12016296
0.57379138 -0.31391972 -0.40278006
0.53894937 0.13559526 -0.034182072
0.5313254 0.43626526 -0.012704849
0.5317924 0.24676526 -0.017690182
0.52623039 0.36165327 -0.018064022
0.51463437 0.32020625 -0.013638973
0.50017536 0.73903525 -0.039776802
0.5132044 -0.23803174 -0.18720913
0.4918744 0.13818628 -0.0090460777
0.48819041 0.018620253 -0.030970097
0.49826741 -0.28468472 -0.21384287
0.4678964 -0.099367738 -0.056334019
0.46147639 0.59101528 -0.046613216
0.44799036 -0.024030745 -0.018455029
0.45040238 0.59099925 -0.048441887
0.43441138 0.093757272 0.012143135
0.4354544 0.39417627 -0.0011081696
0.4400754 -0.27174574 -0.1320281
0.41976139 0.46655428 -0.014385223
0.44077539 -0.3967697 -0.2906332
0.41891339 -0.22121674 -0.077277184
0.41742137 -0.18295175 -0.057445049
0.41143039 -0.18219173 -0.052366257
0.40403038 0.54050326 -0.027987003
0.37767538 0.28333426 0.029349804
0.37540638 0.50953829 -0.017933846
0.36606237 0.096646249 0.037356853
0.37447238 -0.30564576 -0.086002827
0.36168939 -0.056473732 0.020205975
0.33918139 -0.087980747 0.025691986
0.33973438 0.36429226 0.017022133
0.33918038 0.32336226 0.025695801
0.3479144 0.81735528 -0.11120987
0.33009538 0.69710326 -0.097100258
0.30409238 0.029539287 0.058143139
0.30192539 -0.25054371 0.00032377243
0.30018938 0.32378626 0.030433178
0.30831039 -0.49467176 -0.20988083
0.27841538 0.36488128 0.024486065
0.27618238 0.54047126 -0.037362099
0.27194539 0.28461027 0.042165756
0.26490837 -0.012461722 0.071280003
0.26683637 0.32413825 0.034485817
0.26348138 -0.47734779 -0.11715508
0.2482304 0.031736255 0.07571888
0.2491484 -0.16571575 0.057269096
0.2524204 -0.34829277 -0.0084581375
0.23728538 0.14715528 0.075357914
0.24141139 0.46710327 -0.010537148
0.22591639 -0.047900736 0.084232807
0.22730339 0.25339428 0.054254055
0.22131038 -0.19911772 0.065165043
0.21447638 0.50945723 -0.029688835
0.20414838 -0.16208673 0.081526756
0.20094937 0.36523026 0.027319908
0.19272739 0.033869267 0.093183041
0.19382039 0.21458226 0.066558838
0.19782239 0.50943929 -0.03098011
0.19473639 0.62340426 -0.092837811
0.18458837 -0.39441568 0.02233696
0.18537739 0.69707525 -0.14193392
0.1871084 -0.60963875 -0.1870122
0.17051238 -0.12320071 0.10309982
0.17389539 0.39559028 0.012988091
0.16658339 0.25409827 0.061623096
0.17005739 0.50940728 -0.033133984
0.17772937 0.85590124 -0.24236012
0.16184938 0.32477728 0.040555954
0.16179839 -0.39086574 0.04197216
0.15556237 0.25422227 0.062963009
0.16151837 0.89718825 -0.27305603
0.15552038 -0.59132975 -0.096896172
0.14340436 -0.23471075 0.098807812
0.13230938 -0.23375875 0.10479975
0.13198239 -0.12142473 0.11521816
0.14378437 0.81984329 -0.26033115
0.13031536 0.77723527 -0.19505215
0.11746738 0.28573325 0.052814007
0.11595338 -0.27378672 0.10536909
0.12523237 -0.68894368 -0.2167511
0.11617637 0.59046328 -0.097611904
0.10480038 0.036519289 0.11501694
0.10544238 0.14900029 0.091286182
0.11181238 0.6625973 -0.14413309
0.10141038 0.69704926 -0.18063211
0.09386038 0.59034926 -0.10475016
0.08875338 0.62303126 -0.12683821
0.088448383 0.89975828 -0.362216
0.073613383 0.28558427 0.049453735
0.068129383 0.28556427 0.049034119
0.077107377 0.90026325 -0.37955999
0.060858376 -0.11822772 0.13758707
0.063992374 0.43712527 -0.018574238
0.062391378 0.25427726 0.061182022
0.05576238 0.037272274 0.12092781
0.057460375 0.32446927 0.032538891
0.051159374 0.21563226 0.075863838
0.044523381 -0.11750776 0.14272308
0.042959377 0.53936529 -0.089304924
0.03363838 -0.15240175 0.14680481
0.03376738 -0.32283372 0.13856602
0.023845375 0.21550527 0.073784828
0.01736138 -0.11632472 0.15126276
0.0049703792 0.66219229 -0.21310806
0.0018133745 -0.55345875 0.088355064
-0.0042456239 -0.070765734 0.15107107
-0.0097406209 -0.22478175 0.16182709
-0.015136622 -0.15020776 0.16213894
-0.023511622 0.66207826 -0.23217726
-0.025127623 -0.68200177 0.032381058
-0.028331622 0.82241225 -0.40720892
-0.030676622 -0.68015474 0.0407691
-0.041286625 0.46517327 -0.070116997
-0.047497623 -0.11436373 0.16559076
-0.047042623 0.36361825 -0.0084681511
-0.047243625 0.21513227 0.068389893
-0.052834623 -0.54383069 0.13598299
-0.052882623 -0.42464668 0.16357183
-0.052447625 -0.80910474 -0.086007118
-0.063665621 -0.22220373 0.17877817
-0.063665621 0.43550426 -0.058792114
-0.063665621 0.21503726 0.067145824
-0.069059625 -0.069755733 0.1588788
-0.069116622 0.14936829 0.093160152
-0.07978262 -0.22144771 0.183846
-0.090932623 0.14921826 0.091519833
-0.090573624 -0.4719457 0.17385197
-0.091073625 -0.73645169 0.059220791
-0.10343662 0.53734928 -0.16987324
-0.10683562 -0.03840971 0.15697384
-0.10658962 -0.22020274 0.19227314
-0.11384662 0.39283228 -0.048306942
-0.11846262 0.21459326 0.061660767
-0.11727762 -0.31303173 0.19737196
-0.12350762 0.10468227 0.1069088
-0.12484862 0.36230826 -0.032775879
-0.13323063 0.62091529 -0.30200911
-0.13470662 -0.77041775 0.07894516
-0.14019762 0.17605829 0.076859951
-0.13931662 -0.65650171 0.14897108
-0.14494362 0.038507283 0.13187885
-0.14719063 0.36192426 -0.039744854
-0.15073963 0.10445625 0.10487413
-0.16064063 -0.65246075 0.16769505
-0.17135462 -0.068327725 0.17125893
-0.17953062 0.25128525 0.01899004
-0.18348862 0.50456125 -0.19697094
-0.17590663 -0.36004871 0.21673012
-0.19315463 -0.038305759 0.15904188
-0.19996363 -0.8360247 0.094321728
-0.21010062 0.037864268 0.12705088
-0.22489864 0.61847425 -0.50087881
-0.21728563 0.17411029 0.055058956
-0.24552661 0.43077326 -0.16993904
-0.24676162 0.45976329 -0.21415806
-0.25269863 0.45948428 -0.22153902
-0.24601462 -0.14577675 0.19678783
-0.25092164 -0.70215577 0.21181202
-0.26578161 -0.52199775 0.24807882
-0.27830961 0.17239726 0.036426067
-0.28270862 -0.73776871 0.22133398
-0.30059963 0.17176026 0.029632092
-0.30111262 -0.89398676 0.1598568
-0.30839363 0.035932243 0.11204481
-0.31557462 0.27740827 -0.070709229
-0.30264062 -0.4567197 0.25848198
-0.30254564 -0.58810169 0.26089811
-0.31390461 0.035732269 0.11039114
-0.31651062 -0.11319876 0.17956877
-0.33580562 0.20785627 -0.019580841
-0.34152162 0.20756027 -0.023155212
-0.34353262 -0.11360973 0.17762184
-0.35037363 -0.040466726 0.14626503
-0.3525196 -0.94284171 0.21566772
-0.35975963 -0.11386371 0.17645597
-0.38300362 -0.30610174 0.24745512
-0.42278263 0.37541828 -0.39902782
-0.41393161 -1.1571937 -0.12670517
-0.39675462 -0.86203474 0.28830385
-0.39773762 -0.40683168 0.27044296
-0.40184063 -0.58249575 0.29209614
-0.4069356 -0.68454474 0.29560709
-0.42023963 -0.30615968 0.24916697
-0.44925863 0.16404027 -0.055189133
-0.4609116 0.16337425 -0.062417984
-0.43855461 -0.51364678 0.29794407
-0.48320261 0.05406028 0.024356842
-0.50119364 0.19621724 -0.16069603
-0.50738662 0.19562429 -0.16794491
-0.51951164 -1.1560488 -0.345788
-0.52710861 -1.1026318 -0.37091684
-0.48211363 -0.40591472 0.28071308
-0.50633866 0.052460253 0.010262966
-0.51039064 -0.18346775 0.18401003
-0.50024462 -0.62151068 0.323843
-0.50511962 -0.67830068 0.3293252
-0.54362166 0.12913924 -0.11780119
-0.5339576 -0.048986733 0.086112976
-0.54125965 0.050032258 -0.010995865
-0.54982764 0.12846828 -0.12495327
-0.55092061 0.086497247 -0.064721107
-0.51965964 -0.6746847 0.3462491
-0.54355764 -0.18520075 0.17438507
-0.53420961 -0.77433068 0.36197805
-0.61688364 -1.0587318 -0.46080685
-0.58411461 -0.15583676 0.14294004
-0.59761363 -0.054137707 0.048043728
-0.5852586 -0.35681468 0.25667095
-0.61263561 -0.084333718 0.066041946
-0.59072262 -0.51220673 0.31650972
-0.65501159 0.070806265 -0.2204442
-0.70560461 -0.36285478 0.23315477
-0.71427059 -0.31786972 0.20223379
-0.77861559 -0.10498571 -0.083730221
-0.75683564 -0.23798573 0.11198902
-0.74784863 -0.3200267 0.19274712
-0.85423261 -0.88502473 -0.54448891
-0.76878059 -0.51147074 0.33843994
-0.81703764 -0.21067971 0.022838116
-0.93102062 -0.81621772 -0.52502823
-0.9425326 -0.81540579 -0.51983309
-0.86712062 -0.4620437 0.27883291
-0.88264859 -0.42007273 0.2434001
-0.88844061 -0.42071372 0.24063778
-0.90421361 -0.37878269 0.16457081
-0.9149316 -0.34094471 0.085818768
-0.91782361 -0.42437071 0.22443008
-0.97935164 -0.31456977 -0.093150139
-1.0886086 -0.58054274 -0.31836081
