# .PCD v0.7 - Point Cloud Data file format
VERSION 0.7
FIELDS x y z
SIZE 4 4 4
TYPE F F F
COUNT 1 1 1
WIDTH 1
HEIGHT 256
VIEWPOINT 0 0 0 1 0 0 0
POINTS 256
DATA ascii
0.9008323 0.15516216 0.017925739
0.88212234 -0.10675186 0.14019251
0.86437738 -0.2708568 0.21910858
0.84978336 -0.18078184 0.1648407
0.87178534 0.11214912 0.016732693
0.86282533 0.034411132 -0.0018091202
0.86278737 0.23256415 -0.0015482903
0.82915938 -0.19443786 0.069801807
0.84036833 0.23225915 -0.0084652901
0.84039134 0.14959311 -0.049764156
0.80406433 0.22627217 -0.08556509
0.80328733 -0.018379867 -0.12355232
0.79702836 0.094729125 -0.16572237
0.78769934 0.26819617 -0.095806122
0.77954537 0.34921613 -0.034694195
0.75588834 0.39170113 -0.033039093
0.75349635 -0.015491843 -0.10577536
0.72686833 -0.046503842 -0.081967354
0.72609335 0.34385014 -0.12335539
0.71638137 -0.013364851 -0.092519283
0.72946435 0.21762812 -0.1990695
0.71468437 0.30578014 -0.17595816
0.71297234 0.26002812 -0.21139526
0.70971137 0.30523613 -0.18425035
0.67916638 -0.24111289 0.021784782
0.68252635 0.51222217 -0.055540085
0.70043033 0.26049614 -0.20680618
0.67327833 -0.12570083 -0.026686192
0.67521334 -0.089895844 -0.043158531
0.65817237 -0.29354483 0.052852631
0.66105533 -0.23979586 0.02812767
0.66415834 0.51259518 -0.048685074
0.65079433 0.028057158 -0.085654259
0.65678537 0.14337415 -0.13865328
0.64584136 0.51296413 -0.041849136
0.64273334 -0.0092068315 -0.066198349
0.63827038 0.14421016 -0.13193846
0.60859936 -0.44148582 0.1368165
0.62431133 0.51237416 -0.058499336
0.59585238 0.030965149 -0.065932274
0.59028834 -0.084690869 -0.012985229
0.58414537 0.62128514 -0.065881252
0.57048434 0.58919615 -0.04654932
0.55669034 0.10588616 -0.083885193
0.56072736 0.19515616 -0.12468243
0.53225237 -0.43498987 0.16314173
0.54736233 0.033495128 -0.048510075
0.51750737 0.62208211 -0.040754318
0.47406036 -0.43013781 0.18324947
0.50131935 0.38431713 -0.18509722
0.47434735 -0.27987689 0.11711168
0.47843134 -0.032213867 0.0067105293
0.47659433 -0.077917874 0.027498722
0.47750735 0.67491317 -0.048682213
0.46770436 0.15170914 -0.070007324
0.44867533 -0.18563485 0.08550787
0.46168536 0.15196615 -0.067821503
0.44471538 0.34426513 -0.1458745
0.42417234 0.11198115 -0.035914421
0.43136436 0.31131715 -0.12628651
0.41030335 -0.10934985 0.066649914
0.43227237 0.50674212 -0.21248913
0.40970337 0.040482163 0.0010347366
0.41750336 0.58802617 -0.09920311
0.37024435 -0.49855191 0.5080595
0.39110634 -0.32286483 0.16781855
0.39280635 -0.27405185 0.14572048
0.40166932 0.50731415 -0.20104313
0.32484034 -0.41808885 0.23500347
0.33856836 0.62207818 -0.05523634
0.29954034 -0.49233586 0.53235483
0.33607435 0.34744015 -0.10572529
0.32314536 0.31470415 -0.086387157
0.30487335 -0.67094582 0.20004988
0.30266535 0.0088811517 0.055835724
0.29359934 -0.31578583 0.20197392
0.29981536 0.11748016 0.009200573
0.30131736 0.38962916 -0.11098528
0.28143036 -0.66630584 0.21889687
0.28163034 0.67643917 0.025520802
0.26567936 0.16010112 0.003516674
0.26844937 0.50974214 -0.15120125
0.25239936 0.67665917 0.036599636
0.22301334 -0.17137885 0.16549969
0.23675334 0.43385816 -0.1057415
0.21819034 -0.13165486 0.14988661
0.22576836 0.20814312 -0.0023374557
0.21738935 0.092931151 0.051495552
0.22231334 0.31775513 -0.049179077
0.22696236 0.58703315 -0.14422321
0.20987436 0.013489127 0.089277744
0.20179737 -0.36211985 0.25744867
0.21053436 0.31810513 -0.044830322
0.19942036 -0.20852983 0.19083977
0.18961936 -0.4076739 0.28212786
0.20079935 -0.74616081 0.040569782
0.19561535 0.16288614 0.029075623
0.18766934 0.35160315 -0.050811291
0.17692035 0.67721617 0.06521368
0.16491234 0.39306414 -0.060331345
0.15502536 0.16446912 0.043895721
0.16033736 0.46749714 -0.091309071
0.14854234 -0.20536387 0.2088995
0.12449735 0.43633714 -0.063904285
0.10517335 -0.092005849 0.17565966
0.10063435 -0.012477875 0.14244556
0.099527344 -0.091701865 0.17768478
0.10378034 0.21253014 0.04236269
0.098945349 0.28106713 0.014090538
0.10252735 0.58842117 -0.10314226
0.087294355 -0.16331887 0.21383667
0.080533355 -0.25314587 0.25591373
0.077962354 -0.011373878 0.15062761
0.085829347 -0.91261381 -0.34716845
0.054135352 -0.12237883 0.20851851
0.055178344 0.51341414 -0.071285248
0.050835356 0.67811513 0.1130147
0.043621346 -0.05426687 0.18260288
0.042165354 -0.19893187 0.24675274
0.031048357 -0.19827384 0.25071478
0.019943349 -0.19761986 0.25467491
0.012408353 -0.57082289 0.36517859
0.0080873519 -0.29638284 0.30261469
0.0043743551 -0.052296877 0.19673586
0.012370348 -0.89703888 -0.28547812
-0.00052765012 0.62773311 0.15482473
-0.00017464906 0.67846614 0.13236094
-0.021028645 -0.50954491 0.4384079
-0.017727651 -0.89302391 -0.26959848
-0.035356648 -0.19440585 0.27440691
-0.040402647 -0.084373832 0.22796488
-0.041286647 -0.29323488 0.32010794
-0.045562647 0.59721315 0.18544769
-0.041467648 -0.89646691 -0.28383446
-0.073435649 0.026646137 0.19178772
-0.073454648 0.59753615 0.19596767
-0.08046665 -0.34357291 0.61222553
-0.084481649 0.10549617 0.16135979
-0.090074651 0.10571617 0.16340065
-0.10125165 -0.0029708743 0.21544456
-0.10125165 -0.081310868 0.24988985
-0.10125165 0.55494016 0.20615292
-0.10125165 -0.43160182 0.48291254
-0.12377664 0.24813813 0.1136899
-0.13319264 -1.0988908 -0.75381851
-0.13426265 -0.07968086 0.26179552
-0.13501665 0.24848217 0.11783648
-0.13982265 0.5269531 0.25234365
-0.14092964 0.36007315 0.071059704
-0.13775165 -0.24618083 0.59134579
-0.14502065 -0.15044987 0.2970109
-0.14624265 0.24882412 0.12197685
-0.15251565 0.44203714 0.039469719
-0.15091164 0.55631816 0.24368382
-0.14830865 -0.20001984 0.57509375
-0.16246465 0.10851014 0.1898427
-0.16154164 -0.11103588 0.28600454
-0.16765064 0.030711174 0.22602987
-0.17799865 0.48592013 0.2849679
-0.18606165 0.36115316 0.087833881
-0.19824764 -0.92020684 -0.37987041
-0.20197564 0.22268516 0.15476847
-0.20687965 -0.7912609 -0.1574235
-0.21287164 -0.79302782 -0.16484547
-0.21445966 0.40176815 0.080841541
-0.21797064 0.13795614 0.1981225
-0.21065365 -0.19647688 0.59736061
-0.22885065 -0.73213488 -0.078909397
-0.22728765 -0.073376834 0.54962683
-0.22679465 -0.20052785 0.57315159
-0.24866165 0.48713815 0.31143856
-0.25924265 -0.0079988837 0.53309155
-0.26365566 0.37935215 0.36453772
-0.26126865 -0.2700389 0.4557147
-0.25823367 -0.14818883 0.57162666
-0.27016163 -0.39879781 0.32432079
-0.27484265 0.41789216 0.35187149
-0.28475863 -0.48972088 0.19605255
-0.29501063 -0.7510249 -0.15984535
-0.28867066 0.24703717 0.43224287
-0.28956765 -0.27933186 0.40288877
-0.29194564 0.099005163 0.49855566
-0.33638665 -0.95586687 -0.5215292
-0.30816764 -0.12213886 0.4891777
-0.31446964 0.20452714 0.46079683
-0.31836963 -0.2888158 0.34909964
-0.32438865 0.16661817 0.48124981
-0.32830665 0.034326136 0.51853752
-0.34883863 0.36311314 0.12165356
-0.34033263 0.096874118 0.48152781
-0.34055364 0.16600913 0.47590685
-0.34617466 0.059187174 0.46849775
-0.38885164 -0.78280383 -0.29540825
-0.36451164 0.13185412 0.41371489
-0.39554864 -0.44506782 0.085608482
-0.38864866 0.013883173 0.35712957
-0.38876966 0.045336127 0.35451651
-0.38847464 -0.031363845 0.36088753
-0.39571065 -0.31439787 0.20455647
-0.40138665 0.077993155 0.31808281
-0.40326166 -0.15420783 0.27904558
-0.42372364 -0.3929798 0.088969707
-0.44136864 -0.71078581 -0.26546335
-0.44127765 0.23520517 -0.031690121
-0.47580266 -1.0016189 -0.70166206
-0.43837264 0.33073413 0.13388491
-0.43921164 -0.32977682 0.11788273
-0.47171065 -0.47340387 -0.059598446
-0.50149167 -0.82672685 -0.48191118
-0.46764064 -0.22102886 0.11423159
-0.49234164 0.18895614 -0.21619225
-0.49130565 -0.35047787 0.0012044907
-0.52094764 -0.74014086 -0.39510727
-0.51880664 -0.19383186 0.020864487
-0.52598065 -0.15417683 -0.0013852119
-0.52286863 0.40417615 0.13391685
-0.55059963 -0.58955783 -0.28919029
-0.53373665 0.59285712 0.055155754
-0.57387066 0.056817174 -0.27805948
-0.57514066 -0.2596609 -0.12642431
-0.56484365 0.51989114 0.099111557
-0.58998168 -0.2229858 -0.16915417
-0.59026766 -0.17937583 -0.17309332
-0.59786665 -0.14531684 -0.19606829
-0.62647665 -0.074552834 -0.33812046
-0.63041162 -0.40603381 -0.31050348
-0.64296466 -0.16235483 -0.31655121
-0.65433067 -0.13176686 -0.38343239
-0.66820365 -0.092612863 -0.47999716
-0.69639266 -0.045509875 -0.75047827
-0.69408762 -0.10382283 -0.56799841
-0.71877766 -0.041267872 -0.71120214
-0.72593665 -0.76069981 -0.72009325
-0.76276362 0.13806713 -0.77320814
-0.77895766 -0.34704286 -0.67023611
-0.78949463 -0.042336881 -0.71429253
-0.81082767 -0.2404899 -0.87069511
-0.80019963 0.13898516 -0.75930309
-0.73793566 0.34631816 -0.10669947
-0.79491967 -0.47644383 -0.70395708
-0.74449265 0.34581214 -0.11376047
-0.80847865 -0.61468786 -0.7782855
-0.81396466 0.26462615 -0.76816225
-0.81273764 -0.55180782 -0.75553846
-0.82509863 0.13958716 -0.7500515
-0.76229364 0.43827015 0.001739502
-0.79081768 0.34222415 -0.16366816
-0.85226864 0.0092571378 -0.7008791
-0.85188162 0.042498171 -0.69714117
-0.78967565 0.38917816 -0.095183372
-0.86745167 0.14155513 -0.72335625
-0.85344964 0.24930817 -0.35754633
-0.89525068 0.14480615 -0.68340349
-0.90486866 0.19392115 -0.48671007
-0.92636466 0.19172317 -0.51059628
-1.0428207 0.079942167 -0.78354025
