# .PCD v0.7 - Point Cloud Data file format
VERSION 0.7
FIELDS x y z
SIZE 4 4 4
TYPE F F F
COUNT 1 1 1
WIDTH 1368
HEIGHT 1
VIEWPOINT 0 0 0 1 0 0 0
POINTS 1368
DATA ascii
0.40622699 -0.31284916 0.060276031
0.39948097 0.10764986 0.081314087
0.40939999 0.32642287 -0.14586401
0.41441399 0.44111288 -0.26069975
0.40038997 -0.31276417 0.060481071
0.39465398 -0.1765101 0.19187021
0.38981 -0.1016711 0.30281019
0.410855 -0.56132615 -0.17920399
0.39709699 0.1847499 0.0012984276
0.38444898 -0.061114132 0.29689932
0.38897198 0.0018818974 0.1911912
0.40699798 0.40758589 -0.23009586
0.40830398 0.44113588 -0.26062584
0.38786498 0.10771286 0.081341267
0.38939899 0.14295787 0.044742107
0.37883699 -0.061101139 0.29675102
0.39615399 0.29814988 -0.11640882
0.39738598 0.3264699 -0.1458168
0.39487299 -0.46477807 -0.085851669
0.39135498 -0.37773013 -0.0019159317
0.38872299 -0.31260014 0.060887337
0.38581097 -0.24056315 0.13034916
0.37857598 -0.10157013 0.30297327
0.39876598 -0.56112015 -0.17875099
0.38077697 0.077668905 0.11258411
0.38355997 0.14298785 0.04475832
0.38534197 0.18480688 0.0013341904
0.37322497 -0.061088145 0.29660511
0.378952 0.034854889 0.15704441
0.39137998 0.32649291 -0.14579201
0.39483699 0.40762588 -0.23003864
0.37295997 -0.10152113 0.30305433
0.39522499 -0.62524116 -0.23948097
0.37624997 0.10777289 0.081371307
0.38060397 0.21218288 -0.027045727
0.37320998 0.034886897 0.15705538
0.385373 0.3265149 -0.14576674
0.387054 0.36683285 -0.18763161
0.39042899 0.48482189 -0.27166557
0.37957799 -0.37756014 -0.001502037
0.37705597 -0.31243908 0.061288357
0.37426698 -0.24041414 0.1307373
0.36734298 -0.10147309 0.30313635
0.38667899 -0.56092012 -0.17830181
0.36921698 0.077729881 0.1126132
0.37044397 0.10780287 0.081386089
0.38101199 0.36685389 -0.1876049
0.38386998 0.44122186 -0.26032686
0.38431197 0.48484087 -0.27159071
0.37122497 -0.31236112 0.061487198
0.36849698 -0.24034107 0.13093042
0.36172798 -0.10142517 0.30321836
0.38304099 -0.62508214 -0.2392478
0.38063797 -0.56082213 -0.17807961
0.37223297 0.29824388 -0.11631393
0.37336299 0.32655889 -0.14571667
0.37497097 0.36687386 -0.18757868
0.37776297 0.44124189 -0.26025295
0.35765997 0.077788889 0.11264515
0.36446899 0.2524519 -0.068717957
0.35599098 0.034980893 0.15709639
0.36892998 0.36689389 -0.18755102
0.361922 -0.37731314 -0.00089073181
0.35956597 -0.3122071 0.061882019
0.35463598 -0.17602515 0.19318438
0.35049897 -0.10133207 0.30338335
0.35302699 0.10788786 0.081438065
0.35436898 0.1431269 0.044849396
0.35700199 0.21228486 -0.026961803
0.36135399 0.32660186 -0.14566278
0.35603797 -0.37723315 -0.00068998337
0.35008398 0.18496388 0.0014533997
0.35534897 0.32662189 -0.14563799
0.35944396 0.44130188 -0.26002693
0.35315597 -0.46415508 -0.084368706
0.33927098 -0.10124207 0.303545
0.34420997 0.18498886 0.0014753342
0.33393699 -0.061009109 0.29564142
0.34665897 0.25251991 -0.068647861
0.33758098 0.002171874 0.19130039
0.33877397 0.03506887 0.15714216
0.34831998 0.29832989 -0.11621284
0.34427199 -0.3770771 -0.00028991699
0.34207997 -0.31198514 0.062466145
0.33365896 -0.10119808 0.30362701
0.33685797 0.14320385 0.044907093
0.33930299 0.21235585 -0.026894569
0.34072298 0.2525419 -0.068622589
0.33187297 0.0022018552 0.19131613
0.33303598 0.035097897 0.15715837
0.34234297 0.29835087 -0.11618567
0.33625397 -0.31191313 0.062659264
0.33389097 -0.23992407 0.13206434
0.33178496 -0.17576909 0.19391537
0.32271397 -0.060990095 0.29538298
0.33636597 0.2983709 -0.11615992
0.33734098 0.3266809 -0.14555502
0.34150496 0.48496589 -0.27106094
0.34042299 -0.62456715 -0.23844004
0.33836997 -0.56017613 -0.17656279
0.32518497 0.14325285 0.044950962
0.31940398 -0.029138148 0.22394943
0.32045698 0.0022578835 0.19134808
0.33133799 0.32669985 -0.14552689
0.33538997 0.48498186 -0.27098465
0.32036197 -0.17564809 0.19427299
0.31721997 0.077978849 0.11277199
0.31820098 0.10804385 0.081555367
0.31474999 0.0022858977 0.19136524
0.32441199 0.29840988 -0.1161046
0.32338297 -0.46374917 -0.083346844
0.31465298 -0.17558813 0.19445229
0.32824996 -0.62443113 -0.23821259
0.30587697 -0.060966134 0.295012
0.30804697 -0.029082119 0.22398329
0.30904296 0.0023128986 0.19138336
0.31083298 -0.23966813 0.13279819
0.32216397 -0.62435317 -0.2380476
0.32026598 -0.55992115 -0.17593384
0.30768198 0.14332187 0.04501915
0.30896997 0.18512487 0.0016150475
0.30236998 -0.029055119 0.22399902
0.30981198 0.21246386 -0.026772022
0.31104997 0.2526449 -0.068491936
0.31583297 0.40785289 -0.22964287
0.30500898 -0.23924518 0.13506222
0.29999197 -0.10095108 0.30411816
0.30074796 0.1083039 0.083205223
0.30975896 0.40786788 -0.22961092
0.31094196 0.48504487 -0.2706809
0.30305398 -0.37616718 0.0031790733
0.30998999 -0.62418115 -0.23762465
0.30820099 -0.55975807 -0.17552185
0.29717997 0.18533689 0.003259182
0.29101297 -0.029003143 0.22403622
0.29913798 0.25283688 -0.066833973
0.30133197 0.32678789 -0.14537668
0.30368397 0.40788287 -0.22957802
0.28877199 -0.10087514 0.30428219
0.28830197 0.078294873 0.11445999
0.28342897 -0.060939133 0.29454422
0.28709999 0.035510898 0.15888643
0.29528898 0.32693988 -0.14373684
0.29356998 -0.46295011 -0.080235958
0.28611398 -0.17530608 0.19532919
0.29781798 -0.62401509 -0.23720789
0.28544098 0.18537587 0.0033130646
0.28051299 0.0024378896 0.19148111
0.28136596 0.035534859 0.15890932
0.29038596 0.36724389 -0.18554068
0.29153699 0.40791088 -0.22950888
0.29231498 0.44149387 -0.2591958
0.28542897 -0.3759681 0.003745079
0.28028998 0.21272486 -0.025038719
0.27563298 0.035556853 0.15893221
0.28167698 -0.46281016 -0.079848766
0.27796999 -0.31087708 0.066617012
0.27621499 -0.23895407 0.13595343
0.27194798 -0.10076714 0.30452919
0.28402397 -0.55899417 -0.17257261
0.27370098 0.1854139 0.003367424
0.26659298 -0.0609231 0.2942152
0.27439499 0.21274287 -0.025009632
0.26633897 -0.10073209 0.30461121
0.27956498 -0.62377715 -0.23659182
0.26948398 0.25292391 -0.066687584
0.27060398 0.29870689 -0.11422682
0.27228197 0.36728686 -0.18544102
0.27401498 0.44153988 -0.25896788
0.26781097 -0.37577915 0.0042991638
0.26469997 -0.23884416 0.13630199
0.26014999 0.10844988 0.083379269
0.26196396 0.1854499 0.0034241676
0.26355398 0.25293988 -0.066655636
0.25769398 0.0025268793 0.19157219
0.26193997 -0.37571812 0.0044822693
0.25435099 0.10846889 0.083405972
0.25127897 -0.028840125 0.22418642
0.26181898 0.44156787 -0.25881481
0.25318998 -0.23873913 0.13664722
0.24951896 -0.10063314 0.30485535
0.26132098 -0.62355316 -0.23598957
0.24789998 0.078437865 0.11463642
0.24931899 0.1437009 0.046868324
0.25595596 0.48516789 -0.26999092
0.25195399 -0.46248209 -0.078903675
0.25019997 -0.37560117 0.004843235
0.24275398 0.10850489 0.083462238
0.24492797 0.21282488 -0.024860859
0.24730897 0.32705688 -0.14347363
0.24814898 0.36733788 -0.18530178
0.24903098 0.40799889 -0.22926092
0.24984798 0.48517987 -0.26991272
0.24167898 -0.23863912 0.13698816
0.23830599 -0.10057116 0.30502033
0.24915898 -0.62341011 -0.2355938
0.24786997 -0.55857217 -0.17139959
0.23635697 0.078473866 0.11469126
0.23765796 0.14373386 0.046928406
0.23487899 0.0026068687 0.19167233
0.24211699 0.36734986 -0.18526459
0.23477998 -0.17485917 0.19684839
0.23058698 0.078490853 0.11471939
0.23115897 0.10853785 0.083520412
0.23262396 0.18552989 0.0035762787
0.23314399 0.21285486 -0.024796009
0.22977298 0.035715878 0.15913439
0.23608497 0.3673619 -0.18522882
0.23742798 0.44162089 -0.25850677
0.23763397 0.48520288 -0.26975965
0.22709598 -0.10051107 0.30518532
0.23700097 -0.62327313 -0.23520374
0.22481798 0.0785079 0.11474943
0.22536197 0.10855389 0.083549023
0.22675698 0.18554485 0.0036082268
0.22290498 -0.028742135 0.22431231
0.22404197 0.035732865 0.15916204
0.23081997 0.40803087 -0.22914791
0.23152798 0.48521489 -0.26968098
0.22980198 -0.55837917 -0.17083263
0.21904597 0.078523874 0.11477804
0.21956398 0.10856986 0.083580017
0.22135997 0.21288186 -0.024730682
0.21776998 0.0026598573 0.19175529
0.22474897 0.40804088 -0.22910881
0.22224298 -0.46218717 -0.077988625
0.21981597 -0.31033516 0.068371296
0.22484297 -0.62314308 -0.2348218
0.21434098 0.14379489 0.04705143
0.21502298 0.18557286 0.003672123
0.21546797 0.21289587 -0.024697781
0.21686998 0.29882687 -0.11392069
0.21733198 0.32711691 -0.14329576
0.21498798 -0.37527609 0.0059022903
0.21197797 -0.17468607 0.19749832
0.21028197 -0.1004281 0.30543137
0.21876597 -0.62308013 -0.23463297
0.20797098 0.10859889 0.083643436
0.20851298 0.14380789 0.047084332
0.20915698 0.18558586 0.0037050247
0.20636597 0.0026928782 0.19181108
0.20684898 0.035780847 0.15924931
0.21090098 0.2988379 -0.11388588
0.21195798 0.36740488 -0.18507957
0.21260998 0.40805987 -0.22903156
0.21036297 -0.46207809 -0.077633858
0.20819198 -0.31024015 0.06870842
0.21173798 -0.55820012 -0.17027664
0.20217398 0.1086129 0.083674431
0.20268497 0.1438219 0.047117233
0.20329097 0.1855979 0.003739357
0.20020898 -0.028675139 0.22442532
0.20493297 0.29884887 -0.11384869
0.20534298 0.32713789 -0.14322186
0.20694697 0.44167888 -0.25812387
0.20442396 -0.46202517 -0.077456951
0.20325598 -0.3751781 0.0062451363
0.20141397 -0.23831809 0.13814926
0.20661397 -0.62295806 -0.2342577
0.19363898 -0.060901105 0.29299402
0.19453597 -0.028660119 0.2244544
0.19779597 0.21293187 -0.024592876
0.19834197 0.25308686 -0.066286564
0.19538897 0.035810888 0.15931129
0.19989598 0.36742389 -0.1850028
0.20047098 0.40807787 -0.22895288
0.19848597 -0.46197414 -0.077282906
0.19102797 0.14384687 0.047185421
0.19155797 0.18562186 0.0038089752
0.18802497 -0.060902119 0.29291344
0.19475597 0.44169986 -0.2579689
0.19489297 0.48527488 -0.26921701
0.19367798 -0.55803311 -0.16973257
0.18443097 0.078607857 0.11496925
0.18478498 0.10865086 0.083775043
0.18318897 -0.028631151 0.22451639
0.18565898 -0.3750391 0.0067520142
0.18765897 -0.55798018 -0.16955566
0.17937297 0.14386988 0.047253132
0.17680198 -0.060906112 0.29276037
0.18055998 0.25311786 -0.066176891
0.17819798 0.035849869 0.15940714
0.18136597 0.3271749 -0.14306879
0.18268497 0.48529187 -0.26905966
0.18067098 -0.46182811 -0.076764584
0.17913897 -0.31002212 0.069534302
0.17841397 -0.23815918 0.13878918
0.18164098 -0.55792916 -0.16937876
0.17396197 0.18565387 0.0039172173
0.17118998 -0.060909152 0.29268599
0.17184298 -0.028605103 0.22458029
0.17577398 0.36745685 -0.18484259
0.17647298 0.44172788 -0.25773668
0.17266497 -0.23812211 0.13894701
0.16712698 0.078641891 0.1150713
0.16937897 0.32719189 -0.14298868
0.17012797 0.40811586 -0.22874975
0.16806798 -0.37491107 0.0072484016
0.16752198 -0.30994308 0.069855213
0.16639698 -0.1743871 0.19875002
0.16545998 -0.10024011 0.30608606
0.16960597 -0.5578301 -0.16902781
0.16135797 0.078651905 0.11510611
0.16160297 0.1086939 0.083915234
0.16245297 0.21299291 -0.024374008
0.16075298 0.0027998686 0.1920681
0.16338398 0.32719886 -0.14294958
0.16437298 0.48531589 -0.26882792
0.16286097 -0.46169317 -0.076256752
0.16171198 -0.30990613 0.07001543
0.15985698 -0.10021913 0.30616903
0.16409197 -0.6225791 -0.2329917
0.16358797 -0.55778313 -0.16885567
0.15482497 -0.028570116 0.22468042
0.15739198 0.3272059 -0.14290762
0.15500398 -0.17432213 0.19905519
0.15801898 -0.62253118 -0.23281765
0.14982197 0.078671873 0.11517906
0.15001297 0.10871285 0.08398819
0.15023598 0.14391786 0.047437191
0.15067397 0.21300888 -0.024295807
0.15121898 0.29892689 -0.11349964
0.15165398 0.36748487 -0.18467999
0.15209898 0.44176087 -0.25742483
0.14967297 -0.23798311 0.13956738
0.14930898 -0.17429113 0.19920635
0.15194698 -0.62248409 -0.2326436
0.14405498 0.07867986 0.11521626
0.14382297 0.035912871 0.15961504
0.14428897 -0.30979908 0.070487022
0.14361398 -0.17426109 0.19935513
0.14587598 -0.62243915 -0.23247194
0.13928397 0.29893988 -0.11341763
0.13959397 0.36749589 -0.18459463
0.13978598 0.40814489 -0.22853804
0.13991098 0.44177589 -0.25726795
0.13817897 -0.23791909 0.13987112
0.13745198 -0.10014713 0.3064971
0.13213697 -0.028533101 0.224823
0.13315098 0.25317985 -0.065860748
0.13224998 0.0028468966 0.19224739
0.13331698 0.2989459 -0.11337566
0.13385798 0.48534986 -0.268435
0.13350797 -0.55756807 -0.16801167
0.12675197 0.078702867 0.11533117
0.12683298 0.10874289 0.084142208
0.12704298 0.18571788 0.0042271614
0.12646498 -0.028525114 0.22486019
0.12722598 0.25318587 -0.06581974
0.12654997 0.0028538704 0.19228411
0.12663597 0.035936892 0.159729
0.12725097 -0.46146011 -0.075277805
0.12686798 -0.30970216 0.070949078
0.12749298 -0.55752909 -0.16784668
0.12098497 0.0787099 0.11537123
0.12117898 0.1857239 0.0042681694
0.12067597 -0.060952127 0.29210901
0.12079398 -0.028517127 0.22489929
0.12122797 0.2130419 -0.024092674
0.11524498 0.10875589 0.084224224
0.11527698 0.14395887 0.047674179
0.11531498 0.18572885 0.0043091774
0.11533997 0.21304685 -0.024051666
0.11547998 0.36751485 -0.18441963
0.11551797 0.40816188 -0.22836065
0.11531097 -0.37459207 0.0086722374
0.10944898 -0.028505147 0.22497606
0.10944898 0.0028728843 0.19240332
0.10944898 0.48537189 -0.26811981
0.10944898 -0.55742109 -0.16736078
0.10365497 0.10876489 0.084305286
0.10377797 -0.028499126 0.22501612
0.10352498 0.25320387 -0.065647602
0.10372098 0.035960853 0.15988731
0.10375698 -0.17407811 0.20037508
0.097861975 0.10876888 0.084347248
0.097465977 0.32725489 -0.14247799
0.097315975 0.40817088 -0.22822571
0.097246975 0.48537987 -0.26796198
0.097583979 -0.46130013 -0.074495792
0.097729973 -0.37450707 0.0091261864
0.097310975 -0.62212908 -0.23114681
0.092148975 0.078733861 0.11557627
0.091971979 0.14397585 0.047845364
0.091783971 0.21306187 -0.023878574
0.092264973 0.0359689 0.15997124
0.091144979 0.48538387 -0.26788282
0.092215978 -0.23770916 0.14104605
0.091241971 -0.62209713 -0.2309866
0.091409974 -0.55732512 -0.16688585
0.086380973 0.078736901 0.11561918
0.086649977 0.0028908849 0.19256735
0.085334972 0.36752886 -0.18419361
0.085180975 0.40817589 -0.22813177
0.085042976 0.48538789 -0.26780272
0.085717976 -0.46124518 -0.074193001
0.087049976 -0.10002816 0.30723619
0.085171975 -0.62206614 -0.23082781
0.085394979 -0.55729616 -0.16673183
0.080318972 0.14398086 0.047933102
0.080949977 0.0028938651 0.19261122
0.079616979 0.29897887 -0.11297989
0.078990974 0.44182786 -0.25648069
0.079786971 -0.46122015 -0.074041843
0.080424979 -0.30949306 0.072133064
0.079382971 -0.5572691 -0.16657782
0.07327798 0.3675319 -0.18410063
0.073854975 -0.46119511 -0.073892593
0.074620977 -0.30947316 0.072275162
0.075294971 -0.17397606 0.20107698
0.073370978 -0.55724311 -0.16642475
0.069080979 0.078742862 0.11574936
0.068402976 0.18575287 0.0046601295
0.06975098 -0.028480113 0.22526932
0.069352977 0.035978854 0.16014433
0.067504972 0.3272649 -0.14224863
0.067249976 0.36753285 -0.1840539
0.068434976 -0.37438917 0.0098600388
0.062841974 0.14398485 0.048067093
0.062340975 0.21307087 -0.0236516
0.061718974 0.2989819 -0.1128397
0.060638975 0.48539889 -0.26748657
0.062575974 -0.37436914 0.01000309
0.063012972 -0.30943418 0.072559357
0.057546977 0.078743875 0.11584139
0.057301976 0.10878289 0.084657192
0.057014976 0.14398587 0.048113346
0.058927976 -0.061053097 0.29162502
0.056059975 -0.4611311 -0.073454857
0.057207976 -0.30941617 0.072698116
0.055333976 -0.55717218 -0.16597462
0.051507976 0.10878289 0.084705353
0.051188976 0.14398587 0.048160076
0.053313974 -0.061065137 0.29159212
0.050199974 0.25321889 -0.065234661
0.052167974 0.035979867 0.16027832
0.049784977 0.29898286 -0.11274385
0.050858974 -0.37433314 0.010286331
0.051404975 -0.30940008 0.072838306
0.052008975 -0.23757911 0.14202118
0.044674978 0.21306986 -0.023510933
0.046439976 0.035978854 0.160326
0.043818973 0.2989819 -0.11269569
0.042713977 0.40817988 -0.22779703
0.044198975 -0.46109414 -0.073166847
0.042694978 -0.62189412 -0.22976398
0.039920978 0.10878086 0.08479929
0.039537974 0.1439839 0.048256397
0.040711977 0.0359779 0.16037321
0.037545972 0.32726389 -0.14200878
0.036352977 0.44184387 -0.25592756
0.036234975 0.48540586 -0.26716661
0.034125976 0.10877889 0.084849358
0.033710971 0.14398187 0.048305035
0.035721973 -0.028483152 0.22554398
0.035351977 0.0028938651 0.19297504
0.033993974 -0.30935717 0.073247433
0.035454974 -0.17387509 0.20201826
0.036656976 -0.099970102 0.30797815
0.030559972 -0.62185812 -0.22947073
0.027885973 0.14397985 0.048354149
0.029764973 -0.17386508 0.20214939
0.024492972 -0.62184215 -0.22932768
0.019021973 0.3675279 -0.18366098
0.017931975 0.48540688 -0.26692772
0.024073973 -0.17385507 0.20227814
0.016743973 0.10877085 0.084996223
0.016233973 0.14397389 0.048453331
0.019626975 -0.061145127 0.29144335
0.017799973 0.035966873 0.16056824
0.011830978 0.48540688 -0.26684666
0.016585976 -0.30932415 0.073647976
0.019861974 -0.099965096 0.30822515
0.013037972 -0.028498113 0.22574234
0.0093439743 0.21305686 -0.023213863
0.012071975 0.035961866 0.16061831
0.0080209747 0.29896986 -0.11239576
0.0058979765 0.44184488 -0.25552702
0.0057309717 0.48540688 -0.26676798
0.010782972 -0.30931509 0.073778152
0.011809975 -0.23750114 0.1429472
0.0072429776 -0.55704618 -0.16483593
0.0056449771 0.078721881 0.11627817
0.0027999729 0.2532019 -0.064838886
0.0068539754 0.0028758645 0.193223
0.00093597174 0.36751986 -0.18350792
0.00024497509 0.40816689 -0.22744274
-0.0001950264 0.44184387 -0.25544786
0.0026839748 -0.46100616 -0.072203636
0.0070019737 -0.17383218 0.20266342
0.0086629763 -0.099965096 0.30839014
0.0011539757 0.002869904 0.19327497
-0.0062850267 0.44184288 -0.2553668
-0.0058420226 -0.62178516 -0.22863102
-0.0047800243 -0.55702913 -0.16456461
-0.0058890283 0.078711867 0.11638117
-0.007828027 0.18572587 0.0053009987
-0.002834022 -0.061207116 0.29138136
-0.011121027 0.36751187 -0.18340302
-0.012572028 0.48540288 -0.26652575
-0.0091760233 -0.46099317 -0.071940899
-0.0066250265 -0.30929613 0.074166298
-0.0025340244 -0.099968076 0.30855513
-0.011655025 0.078704894 0.1164341
-0.012227021 0.10874587 0.085254192
-0.013691023 0.18571985 0.0053520203
-0.014211021 0.21303785 -0.023003578
-0.010842025 0.035938859 0.1608243
-0.013574027 -0.37421811 0.011760235
-0.008133024 -0.099971175 0.3086381
-0.017424025 0.07869786 0.11648798
-0.015947022 0.0028498769 0.19343328
-0.02237802 0.3272329 -0.1414938
-0.024775021 0.48539987 -0.26636362
-0.02103702 -0.46098411 -0.071681023
-0.024043031 -0.62176812 -0.22822857
-0.024551027 0.14393586 0.048819065
-0.019682027 -0.061258137 0.29135704
-0.02682703 0.25317585 -0.064574718
-0.027780019 0.29894286 -0.11208057
-0.02837003 0.32722688 -0.14144182
-0.029209025 0.36749786 -0.18324375
-0.022646017 -0.23747516 0.14370108
-0.030109026 -0.62176514 -0.22809887
-0.02895803 0.078682899 0.11659622
-0.025298022 -0.061276138 0.29135323
-0.028028019 0.035915852 0.16098404
-0.03697703 0.48539487 -0.26620388
-0.029836021 -0.30928612 0.074666977
-0.03714902 0.18569291 0.0055704117
-0.032336019 -0.028556108 0.2261672
-0.040355019 0.3272149 -0.14133263
-0.03052903 -0.099990129 0.30896711
-0.042030029 0.14391285 0.048984051
-0.038008027 -0.028566122 0.22622299
-0.043657027 0.21300387 -0.022732735
-0.03948503 0.035897851 0.1610961
-0.047296025 0.36748087 -0.18308067
-0.048924021 0.44182488 -0.25480366
-0.049179025 0.48538789 -0.26604176
-0.042860024 -0.37421417 0.012385368
-0.039872028 -0.23747516 0.14406443
-0.046855025 -0.55701113 -0.16365671
-0.048880018 0.18567586 0.0056810379
-0.045216031 0.035887897 0.16115332
-0.054362021 0.40812486 -0.226964
-0.047245018 -0.30929017 0.075030327
-0.052867018 -0.55701518 -0.16353178
-0.053685032 0.1438939 0.049096107
-0.054744028 0.18566686 0.005736351
-0.055437021 0.21298689 -0.022620678
-0.058335029 0.32719386 -0.14116669
-0.058878027 -0.55701911 -0.16340971
-0.058587022 0.10867685 0.085695267
-0.06238202 0.25313085 -0.064241886
-0.055849023 0.0027808547 0.19382429
-0.056674026 0.035865903 0.16126823
-0.063584022 0.29889989 -0.11174965
-0.06538602 0.36745989 -0.18291473
-0.067199029 0.44181189 -0.25455999
-0.05710002 -0.23748612 0.14441824
-0.055592023 -0.17382407 0.20399618
-0.052926026 -0.10002112 0.30929804
-0.060697027 -0.028612137 0.22645426
-0.061550029 0.0027688742 0.19388342
-0.071415029 0.36745191 -0.18285894
-0.073585026 0.48537189 -0.26571798
-0.066290028 -0.3742311 0.012864113
-0.058526032 -0.10003006 0.3093791
-0.07090003 -0.55703318 -0.16316891
-0.067253031 0.0027558804 0.19394112
-0.07552103 0.29888189 -0.11163473
-0.074410029 -0.4610101 -0.070576668
-0.072149031 -0.37423909 0.012979984
-0.068586029 -0.23749816 0.14464808
-0.066974021 -0.17383516 0.20422697
-0.076912023 -0.55704117 -0.16304874
-0.080162026 0.25310189 -0.064069748
-0.072953023 0.0027428865 0.19400215
-0.073863022 0.035827875 0.16144323
-0.081489019 0.29887289 -0.11157799
-0.08230903 0.32716089 -0.14093876
-0.080341019 -0.46102011 -0.070459843
-0.069726028 -0.10005212 0.30954504
-0.075851031 -0.061457098 0.2914052
-0.09156803 0.44178987 -0.25423384
-0.091892026 0.48535687 -0.26547289
-0.083864026 -0.37425709 0.01321125
-0.082063027 -0.30932915 0.075730324
-0.080071025 -0.23751414 0.14487743
-0.089937024 0.1856029 0.0060853958
-0.081468023 -0.061479151 0.29141998
-0.083389021 -0.028669119 0.22669315
-0.093425028 0.29885286 -0.11146164
-0.097994022 0.48535088 -0.26539183
-0.084046029 -0.17385912 0.20456505
-0.080925025 -0.10007608 0.30971241
-0.092408024 0.078558862 0.11723328
-0.094478019 0.14381289 0.049506187
-0.096669026 0.21291286 -0.022212982
-0.10375302 0.44177589 -0.25406981
-0.08973702 -0.17386913 0.2046771
-0.094737031 -0.028701127 0.22681713
-0.10387103 0.25305688 -0.063833714
-0.095760025 0.0026828647 0.19424629
-0.10760102 0.3673979 -0.18251181
-0.10898202 0.40805387 -0.22645283
-0.10984703 0.44176888 -0.25398874
-0.10898403 -0.62186611 -0.22652578
-0.10613502 0.14378488 0.049628258
-0.10753603 0.18556386 0.0062670708
-0.098324023 -0.061548114 0.29147911
-0.10041002 -0.028718114 0.22688007
-0.10146203 0.0026668906 0.19430923
-0.11133302 0.29881889 -0.11128378
-0.11228103 0.32710987 -0.14064693
-0.11594003 0.44176188 -0.25390673
-0.10729703 -0.37430918 0.013657093
-0.10304502 -0.23755908 0.14531803
-0.10112002 -0.17389214 0.20489597
-0.10971702 0.078512847 0.11741829
-0.11075202 0.10855889 0.086233139
-0.12112103 0.40803388 -0.226336
-0.10878802 -0.23757315 0.14542723
-0.10681202 -0.17390513 0.20500231
-0.10332703 -0.10013509 0.31004238
-0.11899502 -0.55714107 -0.16225386
-0.11548703 0.07849586 0.11748123
-0.11654802 0.10854286 0.086296082
-0.11926902 0.18553585 0.0063900948
-0.11175702 -0.028753102 0.2270093
-0.12569404 0.3673659 -0.18233395
-0.12719104 0.40802386 -0.22627687
-0.12812603 0.44174588 -0.25374174
-0.11453102 -0.23758709 0.14553642
-0.11250303 -0.17391908 0.20511103
-0.12718803 -0.62192416 -0.22619581
-0.11970802 0.035703897 0.16193819
-0.12924203 0.29878187 -0.11110163
-0.13326204 0.40801287 -0.22621679
-0.12487402 -0.37436008 0.013980389
-0.12269103 -0.30942512 0.076495171
-0.11819602 -0.1739341 0.20521736
-0.12702802 0.078461885 0.11760807
-0.13201901 0.2128309 -0.02184391
-0.12543902 0.035684884 0.16200399
-0.13521203 0.29876888 -0.11103964
-0.13372403 -0.46116114 -0.069465637
-0.12013102 -0.10018611 0.31029034
-0.13932702 -0.62197113 -0.22598457
-0.13703403 -0.55720508 -0.16193485
-0.13279802 0.078443885 0.1176734
-0.13687202 0.18548888 0.0065793991
-0.13944003 0.25297689 -0.063464642
-0.13659203 -0.37439907 0.014192104
-0.13430002 -0.30946314 0.076704979
-0.12958002 -0.17396617 0.20542717
-0.143047 -0.55723011 -0.1618309
-0.14273903 0.18547291 0.006644249
-0.14536902 0.25296187 -0.063400745
-0.13567904 0.0025558472 0.19469929
-0.13690203 0.035646856 0.16213417
-0.14715201 0.29874188 -0.11091566
-0.15147403 0.40797886 -0.22603464
-0.14860702 0.18545586 0.0067081451
-0.14969602 0.21278286 -0.021654606
-0.15425101 0.32702088 -0.14021873
-0.15754503 0.40796688 -0.22597504
-0.15859601 0.44169986 -0.25333166
-0.14591002 -0.30950511 0.076909065
-0.14325401 -0.23767817 0.14605522
-0.13693503 -0.10024512 0.3105402
-0.16469303 0.44168988 -0.25324869
-0.15171701 -0.30952811 0.077011108
-0.14665902 -0.17402315 0.20573425
-0.163605 -0.62208211 -0.22557783
-0.16506702 0.29869688 -0.11072683
-0.16624603 0.32699186 -0.14009285
-0.16969001 0.40794188 -0.22585058
-0.16003302 -0.37449312 0.014595985
-0.15752202 -0.30955112 0.077110291
-0.14814001 -0.10028815 0.31070518
-0.16710302 -0.55734015 -0.16142702
-0.16165403 0.078345895 0.11800623
-0.16621301 0.18540186 0.0069041252
-0.15849501 0.0024698973 0.19497108
-0.17103803 0.2986809 -0.11066103
-0.17395902 0.36726385 -0.18183994
-0.17734402 0.48524687 -0.26432276
-0.16932201 -0.46131408 -0.068858624
-0.16283402 -0.028944135 0.22761726
-0.16556501 0.035541892 0.1624732
-0.17701003 0.29866487 -0.11059761
-0.179993 0.36724889 -0.181777
-0.18183503 0.40791589 -0.22572565
-0.18344903 0.48523688 -0.26423979
-0.17453301 0.10835588 0.086954117
-0.177953 0.18536389 0.0070371628
-0.16576502 -0.061865151 0.29189634
-0.16990602 0.0024228692 0.19511032
-0.18790901 0.40790188 -0.22566271
-0.18033302 0.10833389 0.087023258
-0.171386 -0.061895132 0.29194307
-0.17703202 0.035494864 0.16261435
-0.19398201 0.40788788 -0.22559881
-0.19566202 0.48521489 -0.2640748
-0.18347803 -0.37460709 0.014983177
-0.18074903 -0.30965817 0.077498436
-0.17512801 -0.17413616 0.20622921
-0.18776003 0.14353287 0.050542355
-0.17700702 -0.0619241 0.29199314
-0.18276602 0.035470903 0.16268396
-0.19492802 0.29861391 -0.11039972
-0.20176801 0.48520386 -0.26399088
-0.19717902 -0.55750906 -0.160954
-0.19556201 0.18530285 0.0072431564
-0.19874302 0.25280589 -0.062812805
-0.20787501 0.48519287 -0.26390791
-0.19236302 -0.30971813 0.077687263
-0.18651703 -0.17418814 0.20642042
-0.20610401 -0.6223321 -0.2249198
-0.196289 0.078209877 0.11842537
-0.19773301 0.10826588 0.08723402
-0.19121903 -0.029072106 0.22797728
-0.20823401 0.32687789 -0.13963795
-0.21346101 0.44159588 -0.25258493
-0.20106402 -0.37470508 0.01526022
-0.21217701 -0.6223731 -0.22483063
-0.20921201 -0.55758715 -0.16077375
-0.20353502 0.10824186 0.087305069
-0.20525903 0.14346588 0.050753117
-0.19689801 -0.029099107 0.22805119
-0.21423501 0.32685989 -0.13957071
-0.21828002 0.40782687 -0.2253418
-0.21956003 0.44158289 -0.25250101
-0.20071903 -0.23793614 0.14702129
-0.19296902 -0.10049009 0.31136703
-0.21523002 -0.55762815 -0.16068602
-0.21109203 0.14344186 0.050823212
-0.20257601 -0.029127121 0.22812605
-0.21453801 0.21257186 -0.020913601
-0.20570502 0.03536886 0.1629734
-0.20978901 -0.30981612 0.077960968
-0.20360503 -0.17427409 0.20669937
-0.19857302 -0.10051918 0.31145239
-0.23175603 0.44155487 -0.25233364
-0.232306 0.48514387 -0.26357365
-0.22274202 -0.46163011 -0.068033695
-0.23039803 -0.6225071 -0.22457361
-0.22094002 0.10816687 0.087521076
-0.22633103 0.21252686 -0.020774841
-0.21555403 0.002212882 0.19569635
-0.21717602 0.035314858 0.16312218
-0.21796402 -0.23803413 0.14729118
-0.22674301 0.10814089 0.087594032
-0.22126302 0.0021838546 0.19577217
-0.22371501 -0.23806918 0.1473794
-0.21539003 -0.10060906 0.3117013
-0.24254903 -0.62260413 -0.22441101
-0.23443002 0.14334285 0.051111221
-0.23666501 0.18514287 0.0077362061
-0.22199202 -0.062178135 0.2924633
-0.24272501 0.29845887 -0.10985565
-0.24865901 0.40774387 -0.22501278
-0.23302802 -0.30996418 0.078309059
-0.22639301 -0.17440212 0.207057
-0.22099602 -0.10064113 0.31178427
-0.24862403 -0.62265408 -0.22432995
-0.24026403 0.14331686 0.051186085
-0.23097101 -0.029277146 0.22850943
-0.25243202 0.36704588 -0.18098402
-0.25615302 0.44149587 -0.25199795
-0.23521402 -0.23814213 0.14755297
-0.25134203 -0.55790317 -0.16018677
-0.26225403 0.44147989 -0.25191402
-0.25736201 -0.55795312 -0.16010761
-0.24826601 0.077966869 0.11909103
-0.25193501 0.14326286 0.051336288
-0.24586001 0.035167873 0.16350222
-0.26065403 0.29839391 -0.10964584
-0.26896301 0.48506087 -0.26307297
-0.25837302 -0.46189916 -0.067537785
-0.253847 -0.37506211 0.016032219
-0.26338202 -0.55800617 -0.1600318
-0.26016003 0.18504089 0.0080313683
-0.26172101 0.2123819 -0.020340919
-0.26663202 0.2983709 -0.10957479
-0.27055103 0.36698687 -0.18077803
-0.25369403 -0.029407144 0.228827
-0.28055802 0.44143087 -0.25166178
-0.28118601 0.48503089 -0.26290464
-0.27025503 -0.46199918 -0.067382812
-0.26558203 -0.37515414 0.016192436
-0.258219 -0.23830009 0.14788723
-0.27900803 -0.6229291 -0.22395182
-0.26122603 0.0019638538 0.19632006
-0.26307601 0.035072863 0.1637392
-0.27858803 0.29832488 -0.10943079
-0.28512803 0.40763187 -0.22460699
-0.28665903 0.44141388 -0.25157595
-0.26058701 -0.17462313 0.20756912
-0.28508702 -0.6229881 -0.22387981
-0.27137601 0.077844858 0.11940241
-0.27778402 0.18495888 0.0082573891
-0.26136702 -0.062422097 0.29297924
-0.27942103 0.21230286 -0.02011776
-0.266936 0.0019298792 0.19640303
-0.28867203 0.36692387 -0.18056774
-0.27731803 -0.37525117 0.016345978
-0.27371201 -0.31026411 0.078881264
-0.26972401 -0.23838508 0.14804935
-0.26628703 -0.17466307 0.20765209
-0.26025003 -0.10088515 0.31236601
-0.27898002 0.1078819 0.088280201
-0.26699403 -0.062459111 0.29306126
-0.28532103 0.21227586 -0.020041943
-0.28318703 -0.37530208 0.016421318
-0.29349402 -0.55828714 -0.15966368
-0.28696001 0.14308989 0.051796436
-0.29827103 0.32656687 -0.13859272
-0.30075702 0.36687988 -0.18042469
-0.28905702 -0.3753531 0.016496181
-0.28534201 -0.31036007 0.079035282
-0.29951903 -0.55834818 -0.15959597
-0.29059401 0.10781789 0.088440418
-0.28407103 0.0018248558 0.19664907
-0.31175002 0.48494989 -0.26248169
-0.29115701 -0.31041014 0.079109192
-0.28698701 -0.23852015 0.1482811
-0.28339303 -0.17479014 0.20789337
-0.29177603 0.034903884 0.16414499
-0.28269002 -0.10104108 0.31269932
-0.31548801 -0.62330711 -0.22354269
-0.29751703 0.034867883 0.16422606
-0.31446603 0.29817587 -0.10898781
-0.311854 -0.46238911 -0.066877842
-0.32157001 -0.62337518 -0.2234807
-0.31759402 -0.55853808 -0.15939569
-0.30605403 0.077644885 0.11988831
-0.301209 0.001713872 0.19690132
-0.32229802 0.32646888 -0.13829803
-0.32493001 0.36678785 -0.18013477
-0.32769701 0.40748587 -0.22411394
-0.31254101 -0.37557209 0.01678133
-0.30425403 -0.2386651 0.14850712
-0.30050302 -0.17492509 0.20812511
-0.323621 -0.55860412 -0.1593318
-0.31892702 0.18475085 0.0088009834
-0.30076003 -0.062689126 0.29359198
-0.320737 0.21210188 -0.01957798
-0.32339802 0.25230086 -0.061288834
-0.30900103 0.034794867 0.16439438
-0.32643101 0.29812288 -0.1088357
-0.33097503 0.36676389 -0.18006277
-0.31841302 -0.37562907 0.016851425
-0.33373603 -0.62351608 -0.22335863
-0.32933801 0.25227189 -0.061209679
-0.31263602 0.0016368628 0.19707108
-0.31474403 0.034756899 0.16448021
-0.33241302 0.29809588 -0.10876083
-0.33431402 0.32641685 -0.13814783
-0.33701903 0.36673987 -0.17998981
-0.34159902 0.44124389 -0.25081062
-0.32428601 -0.37568808 0.016918182
-0.31191102 -0.17502117 0.20827532
-0.32339802 0.077536881 0.12013721
-0.33254501 0.21203989 -0.019418716
-0.33839601 0.29806787 -0.10868502
-0.34032202 0.32638985 -0.13807392
-0.34770602 0.44122288 -0.25072575
-0.33563903 -0.46264112 -0.066617012
-0.34590501 -0.62366307 -0.22324371
-0.32918003 0.077499866 0.12022114
-0.33368203 0.14282888 0.052439213
-0.33656502 0.18465388 0.0090413094
-0.32189903 -0.029859126 0.22984219
-0.32622901 0.03467989 0.16465139
-0.34437901 0.29803985 -0.10860682
-0.35203201 0.40739489 -0.22382259
-0.35381302 0.44120187 -0.25064087
-0.33603302 -0.37581015 0.017049313
-0.33187801 -0.31078911 0.079604149
-0.32728302 -0.23887312 0.14879513
-0.32332203 -0.17512012 0.20842218
-0.31636301 -0.10129809 0.31319904
-0.32327703 -0.062850118 0.29398823
-0.33197501 0.034640849 0.16473722
-0.35515901 0.36666387 -0.17976665
-0.35992202 0.44118088 -0.25055456
-0.34190902 -0.37587214 0.017114162
-0.33304301 -0.23892808 0.14886332
-0.35807702 -0.62381613 -0.22313166
-0.35376301 -0.55895615 -0.15903282
-0.34287602 0.10750586 0.089182377
-0.33327401 -0.029943109 0.23002243
-0.35026303 0.21194386 -0.019178867
-0.35310701 0.25215089 -0.06089592
-0.35121202 0.14272189 0.052689075
-0.33896101 -0.029986143 0.23011112
-0.35905001 0.2521199 -0.060816765
-0.343463 0.034560859 0.16491318
-0.36233401 0.2979539 -0.10837269
-0.37214002 0.44113687 -0.25038385
-0.37291601 0.48476487 -0.26163197
-0.35943401 -0.46291316 -0.066373825
-0.34934002 -0.31096816 0.079802036
-0.34044403 -0.17527616 0.20863342
-0.37025103 -0.62397408 -0.22302771
-0.34464902 -0.030030131 0.2302022
-0.34692901 0.0013929009 0.19760132
-0.37330103 0.36658585 -0.17953873
-0.34615302 -0.17533016 0.20870113
-0.371856 -0.55918407 -0.15886974
-0.36290202 0.14264888 0.052859306
-0.36798501 0.21184289 -0.018932819
-0.37638801 0.3262229 -0.13761091
-0.38246602 0.40727288 -0.22345257
-0.37133601 -0.46305811 -0.066261768
-0.36098602 -0.31109416 0.079926968
-0.35608602 -0.23915708 0.1491313
-0.35143003 -0.063062131 0.2945261
-0.36070201 0.034435868 0.16518021
-0.38240001 0.32619387 -0.13753176
-0.38855401 0.40724689 -0.22337866
-0.39127803 0.48470289 -0.26137495
-0.36680803 -0.31115818 0.079987049
-0.35005602 -0.10158312 0.3137002
-0.38851801 -0.62422407 -0.22288084
-0.35706201 -0.06310612 0.29464006
-0.36408302 0.0012618899 0.19787407
-0.38841301 0.32616389 -0.1374526
-0.39144999 0.36650288 -0.17930698
-0.394642 0.40722188 -0.22330284
-0.39739901 0.48468187 -0.2612896
-0.38324001 -0.46320713 -0.066154957
-0.37263203 -0.3112241 0.080047131
-0.35567302 -0.10163307 0.31378317
-0.38995603 -0.55942512 -0.15871859
-0.36269301 -0.063150108 0.29475641
-0.38571101 0.21173787 -0.018680573
-0.38877502 0.25195587 -0.060408592
-0.36980101 0.0012168884 0.1979661
-0.37219501 0.034349859 0.16536236
-0.40269405 0.44102189 -0.24995279
-0.38919303 -0.46328318 -0.066102982
-0.38951102 0.1843369 0.0097942352
-0.373097 -0.030257106 0.23066616
-0.39162004 0.21170187 -0.018596649
-0.37552002 0.0011718869 0.19805908
-0.398256 0.29776889 -0.10789299
-0.38703501 0.07709986 0.12110043
-0.40960503 0.36641788 -0.17907381
-0.41492105 0.44097388 -0.24977779
-0.37252802 -0.10178816 0.31403637
-0.39519799 0.10714889 0.089969158
-0.39798099 0.14241588 0.053380966
-0.37959301 -0.063285112 0.29511642
-0.410236 0.29770386 -0.10772991
-0.42103499 0.44094887 -0.24969196
-0.42189103 0.48459387 -0.26094389
-0.41897899 -0.62466908 -0.22266483
-0.414101 -0.5597651 -0.158535
-0.39861101 0.077012897 0.12128305
-0.40717 0.18422288 0.010054111
-0.41622603 0.2976709 -0.1076479
-0.42715001 0.44092387 -0.24960661
-0.42801499 0.48457089 -0.26085758
-0.406578 -0.37663817 0.017742157
-0.40967804 0.14233387 0.053560257
-0.41305703 0.18418288 0.010141373
-0.39086002 -0.063378096 0.29536533
-0.39586502 -0.030450106 0.23104906
-0.431189 0.40705886 -0.22284174
-0.43414003 0.48454788 -0.26077175
-0.41246104 -0.37671506 0.017793179
-0.40759003 -0.31164014 0.080386162
-0.40220302 -0.2396661 0.14961624
-0.38938701 -0.10195017 0.31428623
-0.41264904 0.10702085 0.09024334
-0.41552901 0.1422919 0.053650379
-0.39649504 -0.06342411 0.29549217
-0.40412599 0.00093585253 0.19853306
-0.40669304 0.034077883 0.16592026
-0.42821002 0.29760289 -0.107481
-0.430525 0.3259449 -0.13688803
-0.43382001 0.3662979 -0.17875481
-0.44026804 0.48452488 -0.26068497
-0.40725303 -0.030550122 0.23124409
-0.43041599 0.25170887 -0.059817791
-0.43987399 0.36626691 -0.1786747
-0.44549799 0.44084588 -0.24934578
-0.42423201 -0.37687218 0.017889977
-0.40063101 -0.10206211 0.31445408
-0.43825901 -0.56012809 -0.15837288
-0.42428499 0.10693187 0.090428352
-0.412947 -0.030601144 0.23134422
-0.449471 0.40697289 -0.22260475
-0.42756402 0.076785862 0.12175131
-0.43308103 0.14216387 0.05392313
-0.42129505 0.00078785419 0.19882536
-0.42394799 0.033933878 0.16620731
-0.45773304 0.44079289 -0.24917078
-0.45864904 0.48445189 -0.26042461
-0.44281 -0.4640311 -0.065689564
-0.42528003 -0.23994613 0.1498332
-0.42042601 -0.17612207 0.20951319
-0.43335605 0.076738894 0.12184429
-0.43592399 0.10684186 0.090615273
-0.44250304 0.18397987 0.010588169
-0.41903603 -0.063616097 0.29602432
-0.42433703 -0.030705094 0.23154211
-0.44827002 0.2515949 -0.059558868
-0.427019 0.00073689222 0.19892406
-0.45460004 0.32581085 -0.13655472
-0.46166199 0.40691388 -0.22244692
-0.46385199 0.44076487 -0.24908495
-0.43674403 -0.31201816 0.080639362
-0.41750002 -0.10223615 0.31470537
-0.46166003 -0.62535417 -0.22242165
-0.43915004 0.076690853 0.12194014
-0.44174504 0.10679585 0.090709209
-0.45075601 0.21131688 -0.017725945
-0.45422399 0.25155687 -0.059470654
-0.43545604 0.033834875 0.16640043
-0.458179 0.29742688 -0.10705757
-0.46410203 0.36613989 -0.17834759
-0.45473403 -0.46421111 -0.065609932
-0.44778103 -0.37720108 0.018071175
-0.43847001 0.0006338954 0.19912338
-0.46417403 0.29738986 -0.10697269
-0.45367002 -0.37728608 0.01811409
-0.448412 -0.31217813 0.080731392
-0.47386402 -0.62556314 -0.22236586
-0.450737 0.076593876 0.12213421
-0.45649302 0.14198589 0.054296017
-0.47017002 0.29735285 -0.10688591
-0.44330502 -0.17639911 0.2097311
-0.47996604 -0.62567115 -0.22233963
-0.46607202 0.18380785 0.010955334
-0.44158399 -0.063815117 0.29658842
-0.46850699 0.21119189 -0.017452717
-0.44992304 0.00052785873 0.19932604
-0.47868901 0.32566988 -0.13621473
-0.48930001 0.48432589 -0.25999069
-0.44000202 -0.10247815 0.31504107
-0.48056799 -0.56081915 -0.15814257
-0.46232903 0.076494873 0.12233019
-0.46503401 0.10660589 0.091091156
-0.47442704 0.21114886 -0.017360687
-0.47804302 0.25139785 -0.059115887
-0.48471403 0.32563388 -0.1361289
-0.48834103 0.36600685 -0.17801476
-0.459921 -0.24039614 0.15013218
-0.492176 -0.62588811 -0.22229099
-0.47406 0.14184588 0.054581165
-0.458525 -0.031032145 0.23215628
-0.48034602 0.21110588 -0.017267704
-0.48400003 0.2513569 -0.059024811
-0.46137899 0.00041890144 0.19952917
-0.494403 0.36597288 -0.17793083
-0.50156701 0.48427287 -0.25981569
-0.48456001 -0.46468616 -0.06543684
-0.47723705 -0.37764013 0.018273354
-0.473921 0.076392889 0.12252712
-0.47668201 0.10650688 0.091287136
-0.48375601 0.18367386 0.011235237
-0.48995602 0.25131589 -0.058933735
-0.467107 0.00036388636 0.19963312
-0.46999103 0.033523858 0.16699934
-0.49416304 0.29720086 -0.10653687
-0.49676299 0.32555985 -0.13595676
-0.50046402 0.36593789 -0.17784595
-0.50435603 0.40669587 -0.22187901
-0.50670505 0.44056487 -0.24846983
-0.47759503 -0.31259608 0.080945015
-0.47147399 -0.24055517 0.15022326
-0.46619701 -0.17669213 0.20993328
-0.45688701 -0.10266817 0.31529331
-0.498716 -0.56113613 -0.15806389
-0.46992403 -0.031145096 0.23236704
-0.49218702 0.21101785 -0.017083645
-0.50278801 0.3255229 -0.13586903
-0.51383501 0.48421887 -0.25964069
-0.49649704 -0.46488416 -0.065374851
-0.48551601 0.076289892 0.12272835
-0.495547 0.1835829 0.011423111
-0.46977901 -0.064073145 0.29733801
-0.47562504 -0.031204104 0.23247099
-0.506163 0.29712188 -0.106359
-0.50881499 0.32548487 -0.13578081
-0.512591 0.3658669 -0.17767668
-0.49416 0.10635591 0.091584206
-0.49749202 0.14165288 0.054967403
-0.50144601 0.18353587 0.011520386
-0.507833 0.25118887 -0.05866003
-0.52610701 0.48416287 -0.25946379
-0.52271605 -0.62646008 -0.22219467
-0.49711502 0.076183856 0.12293005
-0.51441103 -0.46519208 -0.065292835
-0.52292705 -0.56157815 -0.15797758
-0.50291502 0.076129854 0.12303114
-0.50581402 0.1062519 0.091785431
-0.51324201 0.18344086 0.011712074
-0.49878901 0.033248901 0.16751623
-0.53838199 0.48410589 -0.25928879
-0.51261503 -0.37820613 0.018474102
-0.50037301 -0.24097109 0.15043402
-0.52898204 -0.56169212 -0.15795994
-0.50871605 0.076074898 0.12313604
-0.526357 -0.46540415 -0.065244675
-0.50056201 -0.1771611 0.21020937
-0.51451904 0.076019883 0.12323904
-0.52504301 0.18334389 0.011908054
-0.52772903 0.21074289 -0.016514778
-0.53167802 0.25101286 -0.058287621
-0.53896099 0.32528889 -0.13533878
-0.54292303 0.36568487 -0.17724276
-0.55066204 0.48404789 -0.25911379
-0.52032101 0.075964868 0.12334299
-0.52330202 0.10609287 0.09209013
-0.526797 0.14139986 0.055465221
-0.53094304 0.18329489 0.012006283
-0.50984704 -0.031564116 0.2331214
-0.542184 0.29687589 -0.10581398
-0.55319405 0.40642488 -0.22120762
-0.55680203 0.48401886 -0.25902462
-0.53031802 -0.37850511 0.018562317
-0.52433801 -0.31332314 0.081233025
-0.51772499 -0.24123311 0.15054941
-0.50194299 -0.10320711 0.31596613
-0.55328202 -0.62706912 -0.22213459
-0.54715502 -0.56204307 -0.15791368
-0.52183902 0.033017874 0.16794014
-0.54819 0.29683286 -0.1057229
-0.55506003 0.36560887 -0.17706776
-0.55930203 0.40638986 -0.22112179
-0.53018504 -0.3134191 0.081264019
-0.51491404 -0.064509094 0.29864216
-0.55705702 0.32516688 -0.13506603
-0.56799001 0.44024888 -0.24758482
-0.53773099 0.075794876 0.12365913
-0.52696604 -0.031753123 0.23345423
-0.55143702 0.21054989 -0.016124725
-0.53016704 -0.0002810955 0.200809
-0.56309003 0.32512587 -0.13497496
-0.57412302 0.44021487 -0.2474947
-0.55624402 -0.46595716 -0.065145969
-0.54188204 -0.31361508 0.081322193
-0.51885104 -0.10342312 0.31621933
-0.550255 0.14118791 0.055871964
-0.56150103 0.25078386 -0.057810783
-0.57763302 0.40628088 -0.22086382
-0.58137304 0.48389786 -0.25866985
-0.54773402 -0.3137151 0.081352234
-0.54087502 -0.24159718 0.15068626
-0.534962 -0.17766607 0.21045113
-0.52449 -0.10349607 0.31630421
-0.57775599 -0.6275841 -0.2221117
-0.55246401 0.10581487 0.092611313
-0.55612099 0.1411339 0.055975437
-0.531847 -0.064680099 0.2991662
-0.57222301 0.29665887 -0.10535002
-0.559843 -0.37902808 0.018682003
-0.54069799 -0.17775309 0.21049023
-0.530128 -0.1035701 0.31638813
-0.577465 -0.56265712 -0.15786266
-0.55515003 0.075619876 0.12397814
-0.56198704 0.14107889 0.056079388
-0.566365 0.1829899 0.01260519
-0.592529 0.44011289 -0.24722576
-0.57418901 -0.46630406 -0.06510067
-0.55943704 -0.31391716 0.081403255
-0.546435 -0.17784214 0.21052599
-0.56413299 0.10570085 0.092825413
-0.57227099 0.18293685 0.012708187
-0.54313701 -0.06479615 0.29952431
-0.54980201 -0.032013118 0.23390818
-0.57515901 0.21034986 -0.015726566
-0.553119 -0.00053411722 0.20125628
-0.59981 0.48380387 -0.25840473
-0.58017302 -0.46642208 -0.065087795
-0.58959603 -0.56291211 -0.1578517
-0.56676704 0.075499892 0.12419701
-0.54878503 -0.064855099 0.29970598
-0.55551404 -0.032080114 0.23402309
-0.58109301 0.2102989 -0.015625954
-0.58537501 0.25059187 -0.057420731
-0.55886 -0.00059914589 0.20137024
-0.58616 -0.46654212 -0.065076828
-0.57959402 0.14091086 0.0563941
-0.59626901 0.2964769 -0.10496998
-0.59931201 0.32486689 -0.13441896
-0.60820001 0.40609288 -0.22042274
-0.57700199 -0.31422913 0.081474304
-0.585464 0.14085388 0.056500435
-0.56693804 -0.032215118 0.23425531
-0.60972202 0.36524791 -0.17625475
-0.617082 0.43997088 -0.24686766
-0.61825603 0.48370689 -0.2581377
-0.59813303 -0.46678507 -0.065057755
-0.589396 -0.37958217 0.018772125
-0.59889501 0.2101419 -0.015320778
-0.57951701 0.03239888 0.16904306
-0.61580002 0.36520588 -0.17616272
-0.62322199 0.43993387 -0.24677658
-0.62440604 0.48367387 -0.25804758
-0.60412103 -0.46690917 -0.065050602
-0.59531003 -0.37969613 0.018787384
-0.601816 0.18266588 0.013225079
-0.57836401 -0.032353103 0.23449039
-0.62187803 0.36516386 -0.17606878
-0.629363 0.43989787 -0.24668789
-0.630557 0.48363987 -0.25795889
-0.60122401 -0.37981212 0.018801212
-0.62676102 -0.62868512 -0.22213697
-0.59106302 0.032267869 0.16927004
-0.62032902 0.29628885 -0.10458279
-0.62347704 0.32468688 -0.13403702
-0.62795901 0.36512089 -0.17597675
-0.63550699 0.43986088 -0.24659777
-0.636711 0.48360687 -0.25786877
-0.61610401 -0.46716011 -0.065038681
-0.59302199 -0.24247909 0.15094042
-0.58663005 -0.17849016 0.21075201
-0.62602204 -0.56371307 -0.15785265
-0.60895401 0.14062089 0.056929111
-0.58979601 -0.032494128 0.23472738
-0.616705 0.20997989 -0.015010834
-0.62634599 0.29624087 -0.10448265
-0.64165002 0.43982288 -0.24650669
-0.60629904 -0.31477308 0.081569195
-0.58091503 -0.10427213 0.31714821
-0.63209701 -0.56385112 -0.15785694
-0.61084604 0.1052199 0.093695164
-0.61955303 0.18249786 0.013541222
-0.62264401 0.20992488 -0.014907837
-0.60260999 0.032134891 0.16950226
-0.64012104 0.36503488 -0.17579079
-0.61216104 -0.31488514 0.081585407
-0.63840604 -0.56444716 -0.16000271
-0.60838503 0.032066882 0.16961813
-0.65393901 0.43974689 -0.24632692
-0.63431501 -0.46797311 -0.06714201
-0.62489802 -0.3802861 0.018846035
-0.61042404 -0.24279213 0.15100527
-0.60387099 -0.17878211 0.21083736
-0.62658 0.14044088 0.057258129
-0.631383 0.18238288 0.013755322
-0.59962302 -0.065404117 0.30143738
-0.63452399 0.20981389 -0.014696598
-0.61416304 0.031998873 0.16973543
-0.657157 0.40577286 -0.21970081
-0.64031404 -0.46810508 -0.06714201
-0.609622 -0.17888212 0.21086216
-0.65056801 -0.56473112 -0.16001892
-0.62837702 0.10503089 0.094031334
-0.61266601 -0.032782137 0.23521042
-0.64064205 0.20959491 -0.016178608
-0.66328001 0.40573189 -0.21960688
-0.66748804 0.48343387 -0.25742102
-0.64631301 -0.46823812 -0.06714201
-0.62203205 -0.24300611 0.15104628
-0.60351002 -0.10460413 0.31748819
-0.65665001 -0.56487608 -0.16002989
-0.63422203 0.10496688 0.094146252
-0.64658499 0.20953786 -0.01607275
-0.65662605 0.29585087 -0.10559368
-0.672382 0.43963087 -0.2460537
-0.64289904 -0.38105309 0.016784191
-0.63585603 -0.31572318 0.079576969
-0.62112504 -0.17908418 0.21091127
-0.66273403 -0.56502116 -0.16004086
-0.64024502 0.10471386 0.09269619
-0.65725905 0.24981785 -0.05780077
-0.62779999 -0.0014241338 0.20277929
-0.64172602 -0.31584108 0.079589367
-0.62687802 -0.17918611 0.21093512
-0.61481202 -0.10477507 0.31765604
-0.67585003 -0.62988114 -0.22224998
-0.668818 -0.56516814 -0.16005373
-0.64252704 0.074471891 0.12410927
-0.62222904 -0.065659106 0.3022604
-0.63354999 -0.0014971495 0.20290136
-0.68165702 0.40560487 -0.21932888
-0.64835 0.074403882 0.12422514
-0.66115302 0.18191689 0.012718201
-0.63930202 -0.0015701056 0.203022
-0.674703 0.29569685 -0.10528994
-0.678087 0.32412088 -0.13476896
-0.69083405 0.43951088 -0.24578094
-0.68072903 0.29564488 -0.10518885
-0.67633003 -0.46892214 -0.067164898
-0.66661501 -0.38156211 0.016796112
-0.66364402 0.10444885 0.093159199
-0.66792101 0.13982189 0.056472301
-0.70004404 0.40547487 -0.21904659
-0.70445502 0.48321587 -0.25687981
-0.68233705 -0.46906316 -0.067173958
-0.66522199 -0.31632411 0.079621315
-0.649903 -0.17960715 0.21101713
-0.70042801 -0.63051713 -0.22234058
-0.69317299 -0.5657711 -0.16011763
-0.669496 0.10438186 0.093276024
-0.67380601 0.13975686 0.056586266
-0.64484602 -0.065922141 0.30311537
-0.68226504 0.20918787 -0.015421867
-0.66058302 0.031226873 0.16914511
-0.64308703 -0.10521507 0.31808043
-0.68821603 0.2091279 -0.015311718
-0.69317001 0.24948287 -0.057164669
-0.66637003 0.031153858 0.16926908
-0.71230704 0.40538687 -0.21885681
-0.64874703 -0.10530615 0.3181653
-0.67747003 0.074054897 0.12482119
-0.68120402 0.10424489 0.093511105
-0.65615803 -0.066056132 0.3035531
-0.70836502 0.32386786 -0.13426495
-0.71337104 0.36435586 -0.17625284
-0.654405 -0.10539711 0.31825018
-0.68329704 0.073983848 0.1249423
-0.66181403 -0.066123128 0.30377626
-0.6699 -0.033547103 0.23646307
-0.70011902 0.20900589 -0.015090942
-0.70514703 0.24936789 -0.056950569
-0.71088004 0.29537785 -0.10466671
-0.71946704 0.36430687 -0.17615461
-0.72776502 0.43926188 -0.24523067
-0.72912103 0.48306388 -0.25651598
-0.70638102 -0.46963918 -0.067218781
-0.688739 -0.31682515 0.079637051
-0.68039 -0.24449611 0.14914513
-0.71755099 -0.56639612 -0.16020393
-0.67562801 -0.033627152 0.23659229
-0.67958504 -0.0021011233 0.20389509
-0.73528999 0.48302487 -0.25642586
-0.68620902 -0.24461508 0.14915323
-0.73118204 -0.63134313 -0.22247982
-0.69495302 0.07383889 0.12518597
-0.67312801 -0.066260099 0.30422831
-0.68534303 -0.0021791458 0.20402431
-0.68951899 0.030853868 0.169765
-0.72294599 0.29526889 -0.10445786
-0.73684502 0.40520486 -0.218472
-0.67138803 -0.1056751 0.31850529
-0.69110304 -0.002258122 0.20415211
-0.69531 0.030777872 0.16989136
-0.73260504 0.32365787 -0.13385201
-0.74298304 0.40515888 -0.21837473
-0.74624699 0.43913287 -0.24495697
-0.74763304 0.48294687 -0.25624275
-0.70639199 -0.31721318 0.079637051
-0.74347103 -0.63164008 -0.22234678
-0.73585004 -0.56688118 -0.16028357
-0.73866701 0.32360387 -0.13374662
-0.74386203 0.36410886 -0.17575359
-0.74195302 -0.56704509 -0.16031265
-0.726345 0.18122089 0.013963223
-0.73646802 -0.47039008 -0.067304611
-0.725999 -0.38291907 0.016746044
-0.68838102 -0.10596108 0.31875896
-0.72220802 0.10374886 0.094355106
-0.73227799 0.18115485 0.014079094
-0.735852 0.20862889 -0.01441288
-0.75079501 0.32349586 -0.13353682
-0.761401 0.40501788 -0.21808195
-0.76615304 0.48282689 -0.25596857
-0.69404703 -0.10605717 0.31884527
-0.76191002 -0.63209414 -0.2221446
