# .PCD v0.7 - Point Cloud Data file format
VERSION 0.7
FIELDS x y z
SIZE 4 4 4
TYPE F F F
COUNT 1 1 1
WIDTH 1357
HEIGHT 1
VIEWPOINT 0 0 0 1 0 0 0
POINTS 1357
DATA ascii
0.33728889 -0.63426328 -0.044837952
0.32202089 -0.068454266 0.41542482
0.32134688 0.18482172 0.26476765
0.32549089 0.24602973 0.13644886
0.31673589 0.047862768 0.40752506
0.32656989 -0.41256821 0.10305262
0.31930789 -0.19124222 0.32788372
0.31767589 -0.13030219 0.37842178
0.3163659 -0.067872226 0.41895962
0.31084889 0.014389753 0.41838264
0.32007289 0.24486476 0.12488508
0.3217499 0.28314477 0.071497917
0.31107888 0.048374772 0.41106176
0.32484588 0.35416573 -0.026995182
0.32963887 0.46475974 -0.17951632
0.32478788 -0.56448424 -0.025149345
0.32320789 -0.50389826 0.025105
0.31052288 0.18293977 0.24787569
0.31299987 0.21952975 0.16681671
0.30521488 0.014876723 0.42160988
0.32365787 0.46460477 -0.18204832
0.32417887 0.50757074 -0.19908428
0.31301489 -0.33106124 0.16630173
0.30825889 -0.19220829 0.32196283
0.31969288 -0.63583624 -0.052273273
0.30509588 -0.066794276 0.42550087
0.31894687 -0.5650332 -0.02783823
0.31740987 -0.50442231 0.022453785
0.29950887 -0.02567625 0.42744589
0.30863988 0.24438173 0.11981678
0.30038187 0.083031774 0.39804697
0.31314588 0.35377377 -0.032016277
0.31817988 0.50742972 -0.20162916
0.3116079 -0.5049473 0.019803047
0.29783988 0.14984876 0.29352379
0.30187288 0.21814573 0.15352488
0.30444688 0.28249377 0.064174652
0.29489389 0.082757771 0.3958087
0.30728987 0.35357773 -0.034529209
0.30884388 0.39243776 -0.088487148
0.3104229 0.43191975 -0.14330816
0.30165088 -0.33196628 0.16120768
0.30016887 -0.26998019 0.21267605
0.29567188 -0.13178229 0.36878586
0.29412788 -0.067231238 0.42238283
0.29250288 0.14854777 0.28249884
0.29718089 0.24392372 0.11500692
0.28939989 0.082483768 0.39357996
0.30037189 0.32616472 0.0007648468
0.30616787 0.50714576 -0.20672417
0.29452288 -0.27040923 0.21016264
0.28267989 -0.024235249 0.43658209
0.29288989 0.28205675 0.059288025
0.2839039 0.082209766 0.39135695
0.29556388 0.35318375 -0.039555073
0.29702589 0.39206678 -0.093592167
0.28887489 -0.27083921 0.2076478
0.28705689 -0.2002703 0.274827
0.28482488 -0.13362527 0.35732174
0.28331688 0.17775774 0.20154095
0.28570887 0.24346274 0.11019373
0.28710589 0.28183776 0.056842804
0.27840489 0.081935763 0.38913107
0.2795409 -0.13551629 0.34572887
0.27638689 0.14461672 0.24922085
0.27157488 0.01755178 0.43932581
0.2718249 0.051061749 0.42944384
0.28286487 0.32554573 -0.0067000389
0.28382388 0.35278678 -0.044587135
0.28519389 0.39169472 -0.098701
0.28812188 0.50671673 -0.21437836
0.27887288 -0.33379328 0.15098763
0.28439587 -0.63902628 -0.067193985
0.27224389 -0.068625271 0.41287088
0.27552488 0.28139675 0.051949024
0.26635289 0.050777733 0.42724466
0.27701887 0.32533872 -0.0091900826
0.28209588 0.50657272 -0.2169342
0.27190489 -0.27213824 0.20008373
0.26416588 0.11592573 0.28555679
0.26631188 0.17700577 0.19450283
0.26761487 0.21671474 0.13922882
0.26972887 0.28117573 0.049501896
0.27463987 0.43087775 -0.15887737
0.2756649 0.46334776 -0.20235634
0.26908088 -0.41747224 0.077012062
0.26623988 -0.27257431 0.19755888
0.2725969 -0.64010227 -0.072184086
0.26150888 -0.070862234 0.39830303
0.25868589 0.11501473 0.27812862
0.25958288 0.14339477 0.23860884
0.2606369 0.17675376 0.19215488
0.26189187 0.21647376 0.13684273
0.26271588 0.24253476 0.10055399
0.26531887 0.32492173 -0.014174938
0.26741087 0.39113277 -0.10637522
0.26866189 0.43070176 -0.16147614
0.26330888 -0.41797125 0.074391842
0.25926888 -0.20403028 0.25243807
0.25621888 -0.07263422 0.38685083
0.26618189 -0.57006431 -0.052183151
0.25616488 0.21623278 0.13445568
0.24952987 -0.023822248 0.43852663
0.26399988 0.50613976 -0.22460604
0.25753289 -0.41847122 0.071770668
0.25252387 -0.1427443 0.30131197
0.2482999 0.14286977 0.23397493
0.2492739 0.17624778 0.18745804
0.25043488 0.21599072 0.13206863
0.24616489 0.074998736 0.33587694
0.25439888 0.35178673 -0.057188988
0.25486988 -0.64172721 -0.079678059
0.25334588 -0.5102942 -0.0069050789
0.24185687 0.11420172 0.27125978
0.24358588 0.17599273 0.18510675
0.23839989 0.01824975 0.44344091
0.23949787 0.045550764 0.38873386
0.25069988 0.43017375 -0.16928291
0.24596688 -0.41947722 0.066514015
0.24353889 -0.27433121 0.18742895
0.24023089 -0.077992201 0.35224009
0.23363788 -0.028879225 0.40447092
0.23965889 0.24159575 0.090895653
0.24302989 -0.64281929 -0.084687233
0.23575988 -0.14390421 0.29394484
0.23471488 -0.078578234 0.348382
0.24163988 -0.5113852 -0.012286186
0.23219988 0.17548275 0.18040466
0.22830288 -0.030579269 0.39303684
0.23599488 0.32387173 -0.026657104
0.23949587 0.46238574 -0.21765614
0.23438388 -0.42049026 0.061245918
0.23671287 -0.57292223 -0.065821171
0.23578088 -0.51193225 -0.014979362
0.22904488 0.27961177 0.032333851
0.23011889 0.32365978 -0.029158115
0.22858688 -0.42099929 0.058609009
0.22737789 -0.33799124 0.12782574
0.23117489 -0.6439172 -0.089702129
0.22321588 0.27938575 0.029874802
0.21771488 0.041863739 0.36158991
0.22769088 0.50526077 -0.2400012
0.21435688 0.14127874 0.22005606
0.21596488 0.21452576 0.1177187
0.21216887 0.041568756 0.35936308
0.21835089 0.32323474 -0.034162045
0.21588689 -0.33894026 0.12264681
0.21506989 -0.27655923 0.17470074
0.21930188 -0.64502227 -0.094724178
0.21249388 -0.080034256 0.33868694
0.21817689 -0.51358628 -0.023081303
0.20725989 0.072189748 0.31392384
0.21302788 0.35036373 -0.07488203
0.21529788 0.46173576 -0.22788906
0.21116588 -0.4225353 0.050675869
0.20773888 -0.14586127 0.28161478
0.20366588 0.17419577 0.16863108
0.20444387 0.21403277 0.11292887
0.20005089 0.016061723 0.42753363
0.20656788 0.32280773 -0.039170265
0.20923889 0.46157274 -0.23045015
0.20534989 -0.42305028 0.048026085
0.20438088 -0.33989525 0.11745787
0.20284489 -0.20818627 0.22743177
0.20741388 -0.6461333 -0.099755287
0.20135988 -0.080768228 0.33382177
0.19455788 0.015745759 0.42525578
0.19550788 0.040680766 0.35267973
0.20317489 0.46140775 -0.23301411
0.20340088 0.50466675 -0.25029516
0.19650288 -0.14665329 0.27666569
0.18905888 0.015428722 0.42297506
0.19335288 0.23968875 0.071532726
0.19401188 0.27824777 0.01757288
0.19047388 0.071324766 0.30714989
0.19523388 0.34974676 -0.082485199
0.19658189 0.42856175 -0.19278002
0.19710489 0.46124375 -0.23558092
0.19150889 -0.20903325 0.2223978
0.19020788 -0.081508279 0.32894993
0.18713088 0.21328777 0.10573483
0.18413588 -0.03397125 0.3697567
0.18815888 0.27801877 0.015110016
0.18437988 0.040084779 0.34822178
0.19054689 0.42837974 -0.19539833
0.18932688 -0.5775913 -0.087809086
0.18874589 -0.51637828 -0.036649227
0.18027589 0.13966173 0.20610476
0.18076688 0.17315477 0.15919495
0.18173587 0.23920673 0.066682816
0.18230188 0.27778876 0.012643814
0.17881088 0.039785743 0.34599209
0.18392488 0.38844973 -0.14234495
0.18076588 -0.27927828 0.15933609
0.17961487 -0.14785028 0.26922083
0.18338288 -0.57818329 -0.090574265
0.18284687 -0.51694119 -0.039371014
0.17556989 0.21278775 0.10093403
0.17304288 -0.034798265 0.36412287
0.17644088 0.27755773 0.010179043
0.17846489 0.42801574 -0.20063734
0.17503388 -0.27973723 0.15676403
0.17447588 -0.2103132 0.21482801
0.16929488 0.17262977 0.15447187
0.16703089 0.014151752 0.41384077
0.17010288 0.23872077 0.061826706
0.17192988 0.38805777 -0.14750624
0.17164488 -0.64950621 -0.11489105
0.16785689 -0.083000302 0.31917381
0.16286787 0.11032677 0.23910904
0.16318189 0.13884473 0.19911575
0.16519088 0.32129377 -0.05673933
0.16683288 0.50376272 -0.26579094
0.16451488 -0.42670226 0.029386997
0.16225788 -0.083376288 0.31672287
0.15991588 0.38766474 -0.15267324
0.16030589 0.42746574 -0.20850801
0.15740289 -0.21160519 0.20723295
0.15968688 -0.6506443 -0.11995411
0.15703988 -0.1494633 0.25925779
0.15665588 -0.083753228 0.31426907
0.15152189 0.10976177 0.23450089
0.15205388 0.17183775 0.14737892
0.15239587 0.21177977 0.091320038
0.15262088 0.23798776 0.054535866
0.15090889 0.038277745 0.33482885
0.15280688 -0.42776024 0.024034023
0.15237989 -0.34426928 0.093955994
0.15327787 -0.51978624 -0.053036213
0.14659289 0.21152675 0.088913918
0.14678589 0.23774272 0.052103996
0.14739488 0.32063675 -0.064287186
0.14849088 0.50330472 -0.273561
0.14771289 -0.65178823 -0.12502432
0.14543888 -0.08451128 0.30935574
0.14761989 -0.58177423 -0.10722828
0.14033389 0.13774472 0.18978691
0.14078388 0.21127176 0.086504936
0.14094488 0.23749673 0.049668789
0.13990988 0.06868875 0.28678703
0.14210588 0.42691174 -0.21639299
0.14077488 -0.34525824 0.088699818
0.14054488 -0.28251624 0.14127874
0.14171788 -0.65236223 -0.12756109
0.13982289 -0.084892273 0.30689383
0.13447188 0.10890877 0.22758484
0.13529089 0.27592772 -0.0071182251
0.13412088 0.037364721 0.32812166
0.13623889 0.50299776 -0.27875233
0.13571988 -0.65293825 -0.13010216
0.13439588 -0.1510973 0.24925089
0.13565989 -0.58298624 -0.11280537
0.12888588 0.13718975 0.18511677
0.12900989 0.17077076 0.13790798
0.12925388 0.23700178 0.044798851
0.12980488 0.38667172 -0.16561031
0.13010788 0.50284374 -0.28134918
0.12901488 -0.28345525 0.13609266
0.12886189 -0.21378529 0.19451904
0.12872489 -0.15150821 0.24674368
0.12315688 0.13691175 0.18277979
0.12278488 0.011554778 0.3954978
0.12291088 0.036751747 0.32364893
0.12324288 -0.28392625 0.13349676
0.12314089 -0.21422529 0.19196701
0.12359188 -0.52267623 -0.066781044
0.11742289 0.13663274 0.18044281
0.11754488 0.23650575 0.039922714
0.11764688 0.31952977 -0.076892376
0.11768088 0.34701276 -0.11556101
0.11772888 0.38627076 -0.17079401
0.11757288 -0.43097425 0.0078988075
0.11751188 -0.34725428 0.078152657
0.11746588 -0.28439927 0.130898
0.11736888 -0.15233529 0.24171782
0.11168288 -0.039192259 0.33452702
0.11168288 0.34679878 -0.11811399
0.11168288 0.38606977 -0.17338991
0.11168288 0.42597774 -0.22956228
0.11168288 -0.2151103 0.18685579
0.10589989 0.16969377 0.12842083
0.10581888 0.23600572 0.035041809
0.10606489 0.035825729 0.31692982
0.10578988 -0.43206024 0.0024938583
0.10594888 -0.21555424 0.18429565
0.10604288 -0.087200284 0.29207468
0.10026588 0.10718274 0.21372795
0.10056688 0.01023376 0.38628864
0.099677883 0.34636873 -0.12322521
0.099482879 0.42560074 -0.23483992
0.099891886 -0.43260527 -0.00021314621
0.10010789 -0.28582621 0.12307978
0.10030089 -0.15358424 0.2341609
0.099756882 -0.52502024 -0.077839375
0.094444886 0.13551074 0.17108393
0.095002882 0.009901762 0.3839817
0.09470088 0.06629473 0.26863384
0.093522884 0.38546377 -0.18118334
0.093265884 0.45837376 -0.27945995
0.094173878 -0.34927428 0.067556858
0.094312884 -0.28630424 0.12046862
0.094465882 -0.21644628 0.17916775
0.094748884 -0.087979198 0.28711462
0.08852388 0.16887873 0.12129498
0.088005885 0.27402675 -0.026956081
0.087787881 0.31840873 -0.089530945
0.087651879 0.34593678 -0.12834215
0.088899881 -0.15442419 0.22910786
0.082476884 0.20869476 0.062373638
0.081633881 0.34571975 -0.13090324
0.080885887 0.50159478 -0.30219316
0.077168882 0.13466078 0.16405392
0.078283884 0.008898735 0.37705278
0.077909887 0.034267724 0.30571795
0.077679887 0.065383732 0.26180983
0.075813882 0.31795675 -0.094594955
0.075610884 0.34550273 -0.13346195
0.077482879 -0.15526927 0.22404385
0.077773884 -0.08915627 0.27965403
0.071401879 0.13437575 0.16170883
0.072352886 -0.041786253 0.31735086
0.072702885 0.0085617304 0.37474108
0.069820881 0.31772977 -0.097127914
0.068642884 0.45767877 -0.28985929
0.070761882 -0.35132027 0.056910992
0.072106883 -0.08955121 0.27716064
0.069853887 -0.52799129 -0.09173727
0.065913886 0.10543072 0.19983864
0.064643882 0.23423773 0.017927647
0.064260885 0.27306277 -0.036901951
0.066621885 0.033639729 0.301229
0.063550882 0.34506577 -0.13859129
0.065679878 -0.2187022 0.16629601
0.066046879 -0.15611827 0.21896982
0.066435881 -0.089947224 0.27466583
0.059854884 0.13380474 0.1570158
0.059480883 0.16750675 0.10939884
0.059034884 0.20764476 0.052690029
0.061074883 -0.042537272 0.31242085
0.058311883 0.27281976 -0.039392948
0.057512883 0.34484673 -0.14115715
0.057075884 0.38423574 -0.19680834
0.056303881 0.45732874 -0.29507017
0.059906881 -0.21915722 0.16371107
0.060320884 -0.15654528 0.2164278
0.060758881 -0.090344191 0.27216768
0.057856884 -0.52919221 -0.09732008
0.054428883 0.10484076 0.19520092
0.053659882 0.16723073 0.10701704
0.053163882 0.20738077 0.050265789
0.051811881 0.31704473 -0.10473824
0.050127883 0.45715275 -0.29767704
0.049973883 0.50079978 -0.31527901
0.053616881 -0.28969526 0.1021018
0.054131884 -0.21961427 0.16112566
0.054591883 -0.15697324 0.21388388
0.048680879 0.10454476 0.19288206
0.048291884 0.13323075 0.15231895
0.050337885 0.0072077513 0.36547375
0.046592884 -0.43758523 -0.024719238
0.045340881 -0.59232223 -0.15508699
0.04140988 0.20685077 0.045416832
0.044736885 0.0068667531 0.36315393
0.040442884 0.27208775 -0.046871185
0.043532886 0.063542724 0.24814463
0.038196884 0.42368674 -0.26132298
0.037761882 0.45679975 -0.30290031
0.040645882 -0.43814731 -0.027459145
0.043119885 -0.15783322 0.20878696
0.039279886 -0.59295928 -0.15793324
0.038468882 -0.044053257 0.3025279
0.035100885 0.23295575 0.0056667328
0.034475885 0.27184278 -0.049366951
0.032684885 0.38340777 -0.20725298
0.034693882 -0.43871129 -0.030201912
0.03610488 -0.29117119 0.094184875
0.032805882 -0.044435263 0.30004787
0.02917888 0.23269773 0.0032119751
0.026575886 0.38319874 -0.20986795
0.025374882 0.45644474 -0.30812693
0.025159881 0.50015575 -0.3257823
0.025114886 0.13207275 0.14291286
0.023742884 0.20604974 0.038131714
0.02325388 0.23243874 0.00075483322
0.026980884 0.031414747 0.28548765
0.02587688 -0.15913427 0.2011199
0.019878879 0.10305274 0.18126774
0.021302886 0.031092763 0.28323698
0.015671879 0.31565976 -0.11999416
0.017804883 -0.35601521 0.032775879
0.018551886 -0.29266024 0.086240768
0.019379884 -0.22238231 0.14554882
0.02090288 -0.093159199 0.25460577
0.012790881 0.16527474 0.090312004
0.015791886 -0.045587242 0.292593
0.011388883 0.23191875 -0.0041623116
0.014962882 0.061986744 0.23673296
0.0096328855 0.31542677 -0.12254238
0.0090508834 0.34307373 -0.16173315
0.0067628846 0.45590875 -0.31598425
0.011896886 -0.35654426 0.030076981
0.015190884 -0.093566298 0.25208569
0.0069338828 0.16499275 0.087919712
0.0060368851 0.20524377 0.030837059
0.010109879 -0.045974255 0.29010105
0.0035878792 0.31519377 -0.12509108
0.0011968836 0.42251474 -0.27728891
0.00054788589 0.45572874 -0.31860733
0.000268884 0.49950576 -0.33631516
0.0048618838 -0.44155526 -0.043966293
0.0068238825 -0.29366124 0.080928802
0.0077568814 -0.22331727 0.1403327
0.0085908845 -0.16044521 0.19342709
0.0094728842 -0.093974233 0.24956369
0.0054078847 0.0044547319 0.34686184
-0.0014111176 0.27035773 -0.064363003
0.0042398795 0.030124724 0.27647591
-0.003112115 0.34262472 -0.16689205
-0.0059651136 0.49934176 -0.33895493
0.0019398853 -0.22378623 0.13771963
0.0037518814 -0.09438324 0.24703789
-0.0032951161 -0.59747922 -0.17796421
-0.0024241209 -0.53531122 -0.12544632
-0.0047901198 0.16442674 0.083136082
-0.00022711605 0.0041057467 0.34452772
-0.0064431205 0.23113376 -0.011547089
-0.0074081197 0.27010876 -0.066867352
-0.014571123 0.31448877 -0.13274622
-0.016321115 0.38172477 -0.22821617
-0.017367117 0.42192173 -0.28529406
-0.018122114 0.45518675 -0.32648611
-0.01080212 -0.29517221 0.072937965
-0.014541112 -0.53655624 -0.1311121
-0.012659118 -0.047531247 0.28011084
-0.011512116 0.0034067631 0.33985472
-0.021391116 0.34194773 -0.17464018
-0.023567118 0.42172372 -0.2879653
-0.015544124 -0.2252022 0.12986469
-0.021445118 0.12972373 0.124053
-0.023560114 0.20388573 0.018655777
-0.019179113 -0.096033216 0.23690987
-0.027284123 0.12942678 0.1216917
-0.031443112 0.26910377 -0.076896191
-0.025209121 0.059774756 0.22071886
-0.036837123 0.45463976 -0.33438301
-0.029600121 -0.3602972 0.011100769
-0.027222119 -0.2261523 0.12461281
-0.024923123 -0.096449256 0.2343688
-0.033127122 0.12912875 0.11932993
-0.034178115 0.16299772 0.071155071
-0.030965112 0.059455752 0.2184267
-0.038850121 0.31354177 -0.14297009
-0.03971111 0.34126472 -0.18240118
-0.030672111 -0.096865296 0.23182678
-0.039992116 -0.6014303 -0.19527435
-0.038840123 -0.53907228 -0.14249134
-0.038044117 0.10001278 0.15796995
-0.038975112 0.12883073 0.11696482
-0.041372113 0.20306373 0.011334896
-0.043488123 0.26859772 -0.08191824
-0.035713114 0.027837753 0.26067209
-0.041501112 -0.3613832 0.0056509972
-0.03892111 -0.22710919 0.11934805
-0.037708111 -0.16400123 0.17278671
-0.03642612 -0.097283244 0.22928286
-0.039796121 0.0016407371 0.32814169
-0.041439123 0.027507722 0.25840998
-0.042489119 0.058815777 0.21384287
-0.053279124 0.38043976 -0.24400234
-0.054631121 0.42072272 -0.30134726
-0.043518119 -0.16445124 0.17019272
-0.05226811 -0.6027633 -0.20107508
-0.04968112 0.099395752 0.15329885
-0.053270124 0.20251173 0.0064458847
-0.045465119 0.0012847781 0.32579565
-0.054192118 0.22901076 -0.031291962
-0.048258118 0.058494747 0.21154785
-0.058076121 0.34057677 -0.19017696
-0.059455119 0.38022375 -0.24663925
-0.060858123 0.42052174 -0.30402708
-0.055181123 -0.44737327 -0.071747303
-0.057120122 -0.54097819 -0.15106106
-0.064206116 0.34034574 -0.19277
-0.067090116 0.42031974 -0.30671024
-0.068577118 0.49767974 -0.36544037
-0.061214112 -0.44796419 -0.074543953
-0.059391119 -0.36302531 -0.0025501251
-0.05650612 -0.2285552 0.11142778
-0.055150114 -0.16535628 0.16499805
-0.053717114 -0.09854424 0.221632
-0.066175111 0.22847372 -0.036242008
-0.05863712 0.026513755 0.25162268
-0.07486511 0.49751076 -0.36809921
-0.067251123 -0.44855726 -0.077343941
-0.063948117 -0.29979026 0.048793793
-0.059489124 -0.098967195 0.21907377
-0.070700116 -0.60461223 -0.20904827
-0.067169122 0.098464727 0.14628267
-0.071151115 0.20167875 -0.00089406967
-0.062502123 0.00021076202 0.3187418
-0.080676116 0.45334774 -0.35287428
-0.06680312 -0.16626728 0.15979099
-0.065268122 -0.099392295 0.21651506
-0.07544712 -0.54290128 -0.15966511
-0.075509124 0.16096777 0.054334641
-0.069906123 -0.051506221 0.25494385
-0.068189122 -0.00014925003 0.3163867
-0.079737119 0.26706374 -0.097017288
-0.071374111 0.05720073 0.20236301
-0.085819118 0.41970974 -0.31476927
-0.074136116 -0.2300142 0.10347986
-0.083012111 -0.60582924 -0.2142663
-0.081431113 0.16067475 0.05192709
-0.075656123 -0.051910222 0.2524128
-0.084185116 0.22766274 -0.043674946
-0.077164121 0.056875765 0.20006466
-0.090412118 0.37913573 -0.25984526
-0.092071123 0.41950577 -0.31745815
-0.085397117 -0.45034826 -0.085769176
-0.076838113 -0.10024428 0.21138763
-0.089072116 0.20083874 -0.0082449913
-0.079577111 -0.00087225437 0.31167269
-0.096618123 0.37891674 -0.26249027
-0.089310117 -0.36579525 -0.016283989
-0.085914113 -0.23099327 0.098166943
-0.08431711 -0.16764224 0.15195608
-0.087171115 -0.052722275 0.24733973
-0.096214123 0.22711873 -0.04863596
-0.087386124 0.024838746 0.24029207
-0.10282812 0.37869674 -0.26513815
-0.095310114 -0.36635423 -0.019042969
-0.097699113 0.12580377 0.093265057
-0.090984114 -0.0015992522 0.30695105
-0.093150117 0.024501741 0.23802185
-0.10601112 0.31088775 -0.17121029
-0.10726111 0.33871675 -0.21097517
-0.11086112 0.41888976 -0.32553625
-0.10359112 -0.45215523 -0.094223022
-0.099607117 -0.30293727 0.032551765
-0.09771312 -0.23197925 0.092837811
-0.10769311 -0.60828424 -0.22472715
-0.10516611 0.15949672 0.042286873
-0.10826311 0.22657174 -0.053604126
-0.11526712 0.37825477 -0.27043915
-0.11902412 0.49631774 -0.38676929
-0.11224812 -0.54680026 -0.17697191
-0.11111111 0.15919977 0.039874077
-0.11334012 -0.36804128 -0.027334213
-0.11153411 -0.3039993 0.027112961
-0.11840012 -0.54745626 -0.17986917
-0.12772411 0.37781173 -0.27574492
-0.1296941 0.41826975 -0.33363008
-0.11936011 -0.36860621 -0.03010416
-0.11750511 -0.30453229 0.02438879
-0.11360811 -0.16996229 0.13883877
-0.12301511 0.15860474 0.035042763
-0.11385112 -0.0030642748 0.29748678
-0.13057813 0.30990475 -0.18152094
-0.1253871 -0.36917329 -0.032877922
-0.11748711 -0.10326624 0.19334984
-0.13241711 0.22547072 -0.063550949
-0.12202812 0.02280277 0.22666597
-0.14437014 0.49562576 -0.39748335
-0.13402212 -0.45520127 -0.10838509
-0.12536111 -0.17089927 0.13357067
-0.13706812 0.19857073 -0.02790308
-0.14052913 0.26445675 -0.12228918
-0.12946913 0.053910732 0.17933607
-0.14012313 -0.45581627 -0.11122894
-0.14486313 -0.6120162 -0.24048615
-0.14306712 -0.55010331 -0.19149637
-0.13342911 -0.056016266 0.22693491
-0.14452112 0.22491574 -0.068534374
-0.13361013 0.022117734 0.22211599
-0.13916713 -0.23547423 0.074097633
-0.13713211 -0.17184222 0.12829065
-0.13498113 -0.10458028 0.18557596
-0.14687812 0.15740478 0.02536869
-0.13923311 -0.05643326 0.22437096
-0.13678911 -0.0045452714 0.28799486
-0.15522313 0.30891174 -0.19185591
-0.15895611 0.37669277 -0.28904009
-0.16118813 0.41722578 -0.34715414
-0.16343114 0.49510175 -0.40553999
-0.15234414 -0.45705128 -0.11692619
-0.14744112 -0.30722225 0.010715008
-0.14082313 -0.10502124 0.18297672
-0.15729311 -0.61327422 -0.2457571
-0.15093511 0.12301677 0.07184267
-0.14504313 -0.056851268 0.22180462
-0.15664712 0.22435772 -0.073522091
-0.14698413 0.052907765 0.17240667
-0.16521913 0.37646776 -0.29170513
-0.16351813 -0.61390626 -0.2483983
-0.16162613 -0.55210829 -0.20025826
-0.15687314 0.12270278 0.069458008
-0.15085712 -0.057271242 0.21923494
-0.16271612 0.22407776 -0.076018333
-0.17148614 0.37624174 -0.29437017
-0.15701112 -0.23699427 0.066017628
-0.15252313 -0.10590625 0.17777205
-0.16974512 -0.61453819 -0.25103712
-0.15667611 -0.05769223 0.21666384
-0.17110711 0.26312876 -0.13497829
-0.17376012 0.30815977 -0.19962406
-0.17775711 0.37601572 -0.29703617
-0.18014812 0.41659278 -0.35528898
-0.18254212 0.49457374 -0.41361618
-0.16296911 -0.23750329 0.063317776
-0.16073811 -0.17374527 0.11769104
-0.15980214 -0.0060422421 0.2784729
-0.17723712 0.26286077 -0.13752031
-0.17994812 0.30790877 -0.2022171
-0.18163112 0.33585572 -0.24235535
-0.18403414 0.37578773 -0.29970503
-0.17685312 -0.45954323 -0.12836409
-0.16424114 -0.10679626 0.17255688
-0.16556811 -0.0064192414 0.27608681
-0.18786311 0.33561373 -0.24498129
-0.17257214 -0.17470527 0.11237288
-0.18846112 -0.61644924 -0.25897598
-0.17884913 0.092403769 0.10164309
-0.17133713 -0.0067972541 0.27370071
-0.19660613 0.37533176 -0.30504894
-0.19915512 0.41595477 -0.36344004
-0.20090711 0.44971576 -0.4035573
-0.17598113 -0.10769129 0.16732883
-0.19267112 -0.55549026 -0.21493721
-0.17711112 -0.0071752667 0.27131176
-0.19313613 0.22266877 -0.088516235
-0.19565812 0.26205373 -0.14515495
-0.20550114 0.41574073 -0.3661623
-0.20728612 0.44951975 -0.40624428
-0.19202712 -0.37552428 -0.063622952
-0.18685612 -0.23955727 0.052484989
-0.18442711 -0.17567027 0.10704184
-0.19748911 0.19567072 -0.052587986
-0.18288913 -0.0075552464 0.26892185
-0.18800712 0.050539732 0.15620995
-0.21449614 0.49368474 -0.42711592
-0.19561613 -0.3116082 -0.011339188
-0.18774012 -0.10859227 0.16208887
-0.20722213 -0.61837423 -0.2669363
-0.19663212 0.09142077 0.094559669
-0.20533714 0.22209972 -0.093526363
-0.19178411 0.018639743 0.19931364
-0.21096912 0.30664074 -0.21519995
-0.21283412 0.33463877 -0.25549698
-0.21348614 -0.61901927 -0.26959324
-0.21136612 -0.55754328 -0.22378922
-0.20454511 0.12016678 0.050330639
-0.21144712 0.22181475 -0.096032143
-0.21719012 0.30638474 -0.217803
-0.21378613 -0.46333623 -0.14563322
-0.20482811 -0.24111223 0.044325829
-0.19952214 -0.10949826 0.15683603
-0.21975812 -0.61966729 -0.27225494
-0.20341411 -0.061102271 0.19597769
-0.20344213 0.018023729 0.19539309
-0.21082914 -0.24163425 0.041599751
-0.22386113 -0.55892229 -0.22971106
-0.22179312 0.19449073 -0.062499046
-0.22645912 0.26069677 -0.15790606
-0.20927113 0.017727733 0.19352293
-0.22964314 0.30587274 -0.22301006
-0.23161912 0.33390075 -0.26340199
-0.21415514 -0.17810726 0.093659878
-0.21132311 -0.11040926 0.1515708
-0.23263413 0.26042277 -0.16046238
-0.21510512 0.017430723 0.19165373
-0.23587811 0.30561477 -0.22561407
-0.24076614 0.37371874 -0.32380104
-0.24368912 0.41444874 -0.38252211
-0.24567512 0.44833174 -0.42241526
-0.24658412 0.49278376 -0.44067001
-0.23232812 -0.46525824 -0.15431738
-0.22865713 -0.37907529 -0.080573082
-0.22011712 -0.17859924 0.090973854
-0.21766314 -0.0098552704 0.25453997
-0.23881611 0.26014876 -0.16301823
-0.22335014 0.048477769 0.14228582
-0.24416813 0.33340573 -0.2686801
-0.25007412 0.41423076 -0.38525724
-0.22886613 -0.24320722 0.033401966
-0.22690612 -0.062837243 0.18556309
-0.22678411 0.016834736 0.18792105
-0.25343212 0.37325275 -0.32917595
-0.24091312 -0.38027227 -0.086252213
-0.23805612 -0.3155303 -0.030817032
-0.23488814 -0.24373519 0.030660629
-0.25118613 -0.62292922 -0.28559208
-0.23829213 0.089099765 0.07799387
-0.22929212 -0.010629237 0.24972963
-0.25119114 0.25959778 -0.16813517
-0.25461411 0.30483878 -0.23344326
-0.25673711 0.33290875 -0.27396393
-0.26494312 0.44773075 -0.43052912
-0.26590213 0.49223775 -0.44882917
-0.23499012 -0.11224723 0.14100266
-0.24914211 0.15217572 -0.015955925
-0.23868212 -0.063712239 0.18033695
-0.23511311 -0.011018276 0.24732304
-0.25434512 0.21979773 -0.11361504
-0.25738713 0.25932175 -0.17069721
-0.26303011 0.33265972 -0.27660799
-0.25713414 -0.46784627 -0.16594934
-0.24401814 -0.18058026 0.080196857
-0.26379412 -0.62424624 -0.2909441
-0.25839612 0.19269973 -0.077403069
-0.26049313 0.21950674 -0.11613417
-0.24700212 0.047085762 0.13298368
-0.26713014 0.30431873 -0.23866892
-0.26334912 -0.46849823 -0.16886711
-0.24685413 -0.1131742 0.13569975
-0.25018612 0.015638769 0.18047762
-0.25292814 0.046735764 0.13065481
-0.27563211 0.33215874 -0.28190422
-0.27882713 0.37231374 -0.33994627
-0.25600213 -0.18157923 0.074787617
-0.26220211 0.087754726 0.068501949
-0.25260913 -0.012191236 0.24008894
-0.27280614 0.21892273 -0.12117434
-0.27600512 0.25848877 -0.17838812
-0.27966812 0.30379575 -0.24390316
-0.29070914 0.44692174 -0.44137907
-0.27580014 -0.46980727 -0.17471313
-0.28274813 -0.62623525 -0.29899025
-0.26230112 -0.065477252 0.16984987
-0.27897012 0.21862876 -0.12369537
-0.28594413 0.30353373 -0.246521
-0.28825411 0.33165473 -0.28720427
-0.29820713 0.49131775 -0.4624691
-0.26800713 -0.18258429 0.069366932
-0.26469311 -0.11457419 0.12772179
-0.28907612 -0.62690127 -0.30167723
-0.28289813 0.19149077 -0.087368011
-0.28844213 0.25793076 -0.18352318
-0.29792812 0.37160277 -0.3480382
-0.30133912 0.41247272 -0.40718937
-0.30362311 0.44651476 -0.44681597
-0.28077012 -0.31953323 -0.050464153
-0.27720413 -0.24747121 0.011387825
-0.27401713 -0.1830883 0.066650867
-0.29541013 -0.62757027 -0.30436611
-0.28265813 0.11593872 0.019089699
-0.28556812 0.15027773 -0.030628204
-0.28903511 0.19118673 -0.089860916
-0.27414113 -0.066367269 0.16458797
-0.29466814 0.25764978 -0.18609333
-0.27667314 0.045327723 0.12133169
-0.30777112 0.41225076 -0.40993834
-0.28689513 -0.32011127 -0.053285122
-0.29518011 0.19088274 -0.092358112
-0.28007114 -0.066814244 0.16195107
-0.30090213 0.25736874 -0.18866396
-0.30480611 0.30274177 -0.25438833
-0.31656212 0.44610476 -0.45226336
-0.28258112 -0.11598623 0.11971474
-0.30809611 -0.62891221 -0.30975437
-0.30565012 -0.56808329 -0.26859426
-0.29474911 0.11527675 0.014266968
-0.28186414 -0.014166236 0.22799397
-0.28857613 0.044618726 0.11666393
-0.31356412 0.33064073 -0.29782724
-0.32065514 0.41180474 -0.41544294
-0.32303911 0.44589975 -0.45498991
-0.30253413 -0.38636529 -0.11486626
-0.29820913 0.085714757 0.05423069
-0.31338012 0.25680476 -0.19381094
-0.29128012 0.013526738 0.16752386
-0.32710513 0.41158074 -0.41819906
-0.30150813 -0.24964023 0.00029993057
-0.31832412 -0.56952322 -0.27463627
-0.30685914 0.11461174 0.0094389915
-0.29360113 -0.014963269 0.22314262
-0.32625112 0.33012974 -0.30314922
-0.31492811 -0.38760424 -0.12063313
-0.31292212 0.11427778 0.0070228577
-0.31980413 0.18965572 -0.1023531
-0.30646512 0.04354775 0.109653
-0.33628213 0.37016678 -0.36427498
-0.32583714 -0.47512221 -0.19825792
-0.32113513 -0.38822722 -0.12352419
-0.31760713 -0.32302821 -0.067445278
-0.31898913 0.11394274 0.0046038628
-0.32597211 0.18934774 -0.10485697
-0.33214012 0.25595373 -0.20154524
-0.33211914 -0.4757942 -0.20121813
-0.32376713 -0.32361627 -0.070289135
-0.31625012 -0.18666124 0.047546864
-0.33990413 -0.6322993 -0.32326317
-0.33738214 -0.57169926 -0.28373003
-0.32231212 0.084337771 0.044693947
-0.31575713 -0.069523275 0.14606905
-0.33467314 0.21595877 -0.14645624
-0.31484511 0.012308776 0.16016197
-0.34911013 0.36968273 -0.36970329
-0.32993212 -0.32420623 -0.073133945
-0.31850213 -0.11884725 0.10361481
-0.34628212 -0.6329813 -0.32597208
-0.33113813 0.11327076 -0.00023508072
-0.32172313 -0.06997925 0.14341068
-0.34467113 0.25538278 -0.20670605
-0.33439311 0.083643734 0.039917946
-0.32769513 -0.070436239 0.14075089
-0.35094512 0.25509578 -0.20929003
-0.33038214 0.042109728 0.10029173
-0.36196011 0.36919677 -0.37513733
-0.36853611 0.44444576 -0.47413492
-0.34330913 0.11259574 -0.0050792694
-0.34668112 0.14705276 -0.055184364
-0.35069811 0.18810576 -0.11488104
-0.36168113 0.30033374 -0.27807617
-0.36839613 0.36895275 -0.37785721
-0.37241212 0.40999877 -0.43754435
-0.35730812 -0.47850525 -0.21309805
-0.34050712 -0.18873525 0.036555767
-0.36288112 -0.57463121 -0.29591513
-0.34649414 0.082947731 0.0351367
-0.34940112 0.11225677 -0.007502079
-0.35956612 0.21475375 -0.15661001
-0.33847111 0.011084735 0.15282965
-0.34237212 0.041384757 0.095602989
-0.37890711 0.40977073 -0.44031334
-0.38158712 0.44402474 -0.47962713
-0.35849813 -0.39199924 -0.14093733
-0.34256214 -0.12078226 0.09281683
-0.36927113 -0.57536924 -0.29897213
-0.35255113 0.082597733 0.032745838
-0.34075013 -0.018194258 0.20365477
-0.34837312 0.041020751 0.093257904
-0.38128012 0.36846375 -0.38330221
-0.36084911 -0.32718229 -0.087423325
-0.35652912 -0.25461221 -0.024855137
-0.35266912 -0.18978131 0.031040668
-0.37566814 -0.57610822 -0.30203009
-0.35861412 0.082247734 0.030353069
-0.36511213 0.14606977 -0.06257534
-0.35164112 -0.072277248 0.13007402
-0.34666613 -0.018603265 0.20120907
-0.3919141 0.40931177 -0.44586134
-0.36267114 -0.25517225 -0.027667046
-0.35875914 -0.19030631 0.028277874
-0.38207114 -0.57685125 -0.3050971
-0.37126812 0.14574075 -0.065043926
-0.35258913 -0.019012272 0.19876289
-0.39001814 0.32753873 -0.32985926
-0.37726113 -0.39391029 -0.14969635
-0.36485612 -0.19083226 0.025509834
-0.37075514 0.081543744 0.02556181
-0.37382114 0.11089373 -0.017210007
-0.38454312 0.21353573 -0.1667881
-0.36215612 0.0098517537 0.14552784
-0.38352811 -0.39455128 -0.15262508
-0.37497512 -0.25629723 -0.033305168
-0.37095812 -0.19136024 0.022740841
-0.37683311 0.081190765 0.023164749
-0.37993914 0.11055076 -0.019639969
-0.36965913 -0.073672235 0.12202978
-0.4071171 0.36747676 -0.39421415
-0.41146913 0.40862077 -0.45419836
-0.37402111 0.0092337728 0.14189005
-0.41799912 0.40838873 -0.45698118
-0.39607915 -0.39583731 -0.15849113
-0.37632611 -0.020662248 0.18895483
-0.38448513 0.038821757 0.07916069
-0.42006913 0.36698073 -0.39968109
-0.39347312 -0.25799727 -0.041786194
-0.41418412 -0.58059525 -0.32048607
-0.39509711 0.080126762 0.015967846
-0.38772914 -0.075079262 0.11395884
-0.38227513 -0.021077275 0.18649769
-0.40960613 0.21230775 -0.17699003
-0.41398415 0.25219274 -0.23521614
-0.39052311 0.038451731 0.076806068
-0.42655614 0.36673075 -0.40241909
-0.4232671 -0.6413182 -0.35868597
-0.38822713 -0.021493256 0.18403769
-0.41588411 0.21199775 -0.17954493
-0.43762413 0.40769076 -0.46534014
-0.44059911 0.44210675 -0.50444794
-0.4207181 -0.48542023 -0.24308634
-0.40729812 0.079413772 0.011162758
-0.39980313 -0.076023221 0.10856295
-0.4395431 0.36623073 -0.407897
-0.42068914 0.14307976 -0.084825993
-0.42537913 0.18430972 -0.14509296
-0.43300012 0.25130773 -0.24302435
-0.40375015 0.0076787472 0.13282871
-0.40866014 0.03733778 0.069738865
-0.41822311 -0.26028621 -0.053143978
-0.43999311 -0.58362925 -0.33287621
-0.41952011 0.078696728 0.0063529015
-0.4119021 -0.0769732 0.10315084
-0.40611812 -0.022747278 0.17664862
-0.43475512 0.21106672 -0.18721819
-0.41471711 0.036963761 0.067380905
-0.44461712 0.29676074 -0.31253099
-0.45730314 0.40698773 -0.47371912
-0.46037611 0.44145676 -0.51276398
-0.44646314 -0.58439326 -0.33598423
-0.42906615 0.10777873 -0.039129257
-0.41209111 -0.023168266 0.17418003
-0.45906815 0.36547577 -0.41613102
-0.46697912 0.44123974 -0.51554012
-0.44626114 -0.48824227 -0.25519514
-0.44020912 -0.40039825 -0.17914915
-0.43566915 -0.33449924 -0.12209606
-0.43063512 -0.26144123 -0.058846951
-0.43930915 0.14206773 -0.09226799
-0.42402211 -0.077928305 0.097727776
-0.41807011 -0.023589253 0.17171097
-0.45206812 0.25041676 -0.25084829
-0.47045013 0.40651578 -0.47931528
-0.47358814 0.44102174 -0.51831818
-0.45266214 -0.48895228 -0.25823307
-0.45044413 0.18301976 -0.15521002
-0.43009111 -0.078407288 0.095010757
-0.46389011 0.29592073 -0.32052422
-0.47703311 0.40627873 -0.48211622
-0.48020414 0.44080275 -0.52110004
-0.45287415 -0.40171826 -0.18508625
-0.43360212 -0.12823427 0.051845074
-0.46856013 -0.6463052 -0.37794304
-0.43616614 -0.078888297 0.092291832
-0.47240314 -0.58747029 -0.34845924
-0.43604013 -0.024860263 0.164289
-0.44507411 0.035084724 0.055572987
-0.48023215 0.32380372 -0.36755133
-0.49345413 0.44036376 -0.52666998
-0.46556512 -0.4030453 -0.19103909
-0.47890612 -0.58824527 -0.35159016
-0.4563081 0.076525748 -0.0081071854
-0.46421012 0.14070874 -0.10220909
-0.44833615 -0.07985425 0.086839676
-0.47757015 0.24921876 -0.26130104
-0.44553211 0.0054817796 0.120224
-0.48321614 0.29507375 -0.32853413
-0.5000881 0.44014376 -0.52945805
-0.4719201 -0.40371227 -0.19402313
-0.46177211 -0.2643553 -0.07316637
-0.4624581 0.076160729 -0.010520935
-0.46613011 0.10566574 -0.053797245
-0.47559515 0.18171775 -0.16534996
-0.45442811 -0.08033824 0.084109783
-0.48395911 0.24891776 -0.26392126
-0.4572511 0.034327745 0.050840855
-0.50342607 0.40532577 -0.49334002
-0.5067271 0.43992275 -0.53224897
-0.46801713 -0.26494324 -0.076041222
-0.4581041 -0.1302743 0.040787697
-0.4919301 -0.58980119 -0.35786295
-0.4961271 0.29450673 -0.33388138
-0.4912121 -0.49325728 -0.27654696
-0.47972611 -0.33888328 -0.14257717
-0.48294315 0.13968074 -0.10968113
-0.49675611 0.24831277 -0.26916122
-0.46349713 0.0045327544 0.11485004
-0.49102512 -0.40572226 -0.2029953
-0.4805291 -0.26612329 -0.081804276
-0.47560015 -0.2005682 -0.02489233
-0.47039214 -0.13130319 0.035238743
-0.48093912 0.075060725 -0.017772198
-0.48919812 0.13933676 -0.11217403
-0.47274414 -0.081801295 0.07589674
-0.49801013 0.20791173 -0.21289206
-0.46949211 0.0042157769 0.11306286
-0.47555813 0.033183753 0.043736935
-0.51796108 0.36317778 -0.44093418
-0.52328408 0.40460575 -0.50177908
-0.50411612 -0.49470925 -0.28268814
-0.49237314 -0.34015226 -0.14846516
-0.51414609 -0.65138423 -0.39733219
-0.51057708 -0.49543726 -0.28576326
-0.49306414 -0.26731026 -0.087581158
-0.48270211 -0.13233829 0.029675961
-0.49328515 0.074323773 -0.022611141
-0.47815612 -0.027864277 0.14689684
-0.51072711 0.20727277 -0.21804714
-0.52202111 0.29336274 -0.34459925
-0.54001707 0.43880975 -0.54623795
-0.49424812 -0.20223927 -0.033407211
-0.48886713 -0.1328572 0.026888847
-0.52722412 -0.6528523 -0.40289593
-0.49111214 -0.083276272 0.067655087
-0.48750213 0.0032607317 0.10771179
-0.52850908 0.29307473 -0.34728432
-0.53229111 0.32161176 -0.38925219
-0.54319608 0.40387976 -0.51023817
-0.54669309 0.43858576 -0.54904413
-0.51658809 -0.40842927 -0.21501398
-0.49503711 -0.13337827 0.024098873
-0.5056541 0.073582768 -0.027458191
-0.50961411 0.10316074 -0.07097435
-0.49724814 -0.083771229 0.064899921
-0.52884507 0.24678773 -0.28229237
-0.49351415 0.0029417276 0.10593271
-0.50003809 0.031646729 0.03424263
-0.53500408 0.29278678 -0.34996891
-0.54984707 0.40363675 -0.513062
-0.53000307 -0.4976362 -0.29501724
-0.52299708 -0.40911126 -0.21803236
-0.5177421 -0.34271026 -0.16028595
-0.5119161 -0.26910329 -0.096274376
-0.50671309 -0.20336127 -0.039101124
-0.51184511 0.07321173 -0.029881001
-0.52055407 0.13760275 -0.12466192
-0.50338912 -0.084266305 0.062141895
-0.52984607 0.20630676 -0.22578907
-0.50617111 0.031260729 0.031868935
-0.5600661 0.43813574 -0.55466223
-0.52941108 -0.40979528 -0.22105122
-0.54430509 -0.5961163 -0.38313723
-0.53250909 0.17874277 -0.18826008
-0.50953609 -0.084763288 0.059380054
-0.50234407 -0.029604256 0.13691187
-0.50554711 0.0023017526 0.1023798
-0.56316411 0.40314877 -0.51871538
-0.53046507 -0.34400022 -0.16622114
-0.51920211 -0.20448923 -0.044811249
-0.5508821 -0.5969162 -0.38631821
-0.52424407 0.072464764 -0.034735203
-0.55452108 0.29191774 -0.35803699
-0.5698331 0.40290374 -0.52154636
-0.57346112 0.43768275 -0.56029034
-0.54948908 -0.49985325 -0.30430794
-0.5422591 -0.41116822 -0.22710419
-0.51978308 -0.13547623 0.012901783
-0.54521912 0.17807275 -0.19336796
-0.58017009 0.43745574 -0.56310797
-0.55600011 -0.50059628 -0.30741596
-0.54869509 -0.41185725 -0.23013592
-0.5371421 -0.27151823 -0.10792017
-0.56406111 -0.59852123 -0.39269114
-0.52362812 0.0013387799 0.097064018
-0.53075612 0.02970475 0.022350788
-0.54960012 -0.34594822 -0.17515326
-0.54346412 -0.27212524 -0.11084127
-0.57066011 -0.59932828 -0.39588404
-0.54709512 0.10098177 -0.08575201
-0.5618251 0.20468175 -0.23872709
-0.52966207 0.001016736 0.09529686
-0.58987612 0.40216577 -0.53004932
-0.59360307 0.43699974 -0.56875134
-0.54979312 -0.27273524 -0.11376715
-0.5384081 -0.13706529 0.0044660568
-0.5772661 -0.60013628 -0.39908218
-0.55336112 0.10061574 -0.088220119
-0.55836308 0.13549477 -0.13969517
-0.54036611 -0.08727026 0.045519829
-0.57401311 0.24462277 -0.30074835
-0.5357011 0.00069373846 0.093528748
-0.54308009 0.028921723 0.017586708
-0.58062708 0.29074878 -0.36882114
-0.6003291 0.43677074 -0.57157516
-0.56238908 -0.34725726 -0.18112803
-0.55963212 0.10024875 -0.090689182
-0.56468409 0.13514078 -0.14220715
-0.5417431 0.00037074089 0.091765881
-0.5871681 0.29045475 -0.37152195
-0.59131509 0.31909573 -0.41381025
-0.5821051 -0.50359023 -0.31988335
-0.57449907 -0.41463423 -0.24230814
-0.56247008 -0.27395928 -0.11962938
-0.55682212 -0.2079103 -0.062029362
-0.58108211 0.20369774 -0.24651098
-0.5869711 0.24399674 -0.30603695
-0.54779011 4.6730042e-05 0.090003014
-0.60388911 0.35976875 -0.47704506
-0.58865112 -0.50434422 -0.32301331
-0.5809691 -0.41533327 -0.24536037
-0.57520711 -0.34857225 -0.18711996
-0.56311607 -0.2084862 -0.064913273
-0.55709112 -0.13866723 -0.0040030479
-0.59960109 -0.66106725 -0.43369913
-0.59712809 -0.6025753 -0.40870428
-0.57734412 0.13442975 -0.14723206
-0.58751208 0.20336872 -0.24910831
-0.60027111 0.28986573 -0.37693024
-0.6044991 0.31852877 -0.41928911
-0.58744311 -0.41603422 -0.24841833
-0.57517511 -0.27519023 -0.12550735
-0.6062181 -0.6618253 -0.43651533
-0.6037631 -0.6033932 -0.41192102
-0.57848108 0.099141777 -0.098104954
-0.5898791 0.17570376 -0.21129513
-0.55989408 -0.00060123205 0.086485863
-0.60176009 -0.5058583 -0.32928324
-0.59392512 -0.4167372 -0.2514801
-0.56957608 -0.13974226 -0.0096669197
-0.61284107 -0.66258526 -0.4393363
-0.57135111 -0.089810252 0.031571865
-0.5632031 -0.034034252 0.11179209
-0.56595212 -0.00092625618 0.084728718
-0.57398409 0.026947737 0.0056519508
-0.58790511 -0.27642727 -0.13139915
-0.5820331 -0.2102232 -0.07358408
-0.60269207 0.17501873 -0.21643114
-0.60683912 0.20237476 -0.25691128
-0.62432009 0.31767476 -0.42752218
-0.63686508 0.40042174 -0.54996634
-0.61489809 -0.50738025 -0.33557129
-0.60092109 -0.35122526 -0.19915438
-0.59283209 0.068298757 -0.061522961
-0.5973801 0.098027766 -0.10553408
-0.60910612 0.17467576 -0.21900225
-0.5754441 -0.034934223 0.10674095
-0.61947012 0.24242073 -0.31929016
-0.64759207 0.43515274 -0.59142208
-0.62147808 -0.50814521 -0.33872223
-0.60066408 -0.27767229 -0.13730907
-0.59259212 0.025752723 -0.0015249252
-0.60101008 -0.21197522 -0.082291126
-0.59462607 -0.14191127 -0.021040916
-0.63940012 -0.66564727 -0.45064402
-0.58770609 -0.035838246 0.10168076
-0.62621707 0.20137477 -0.26472807
-0.6570971 0.39966577 -0.55853415
-0.62182808 0.13191575 -0.16487122
-0.60249609 -0.092387199 0.017531872
-0.59384608 -0.036291242 0.099147797
-0.65083212 0.31652474 -0.43852615
-0.65728807 0.35761774 -0.49944019
-0.66794211 0.43445075 -0.59996605
-0.64125812 -0.5104512 -0.34819937
-0.62674409 -0.3539083 -0.21125221
-0.65271711 -0.66718924 -0.45631504
-0.6504131 -0.60918224 -0.43457127
-0.6179381 0.066756725 -0.071306229
-0.62820709 0.13155276 -0.16739702
-0.63482308 0.17329472 -0.22930098
-0.6023851 -0.002887249 0.074229717
-0.67061907 0.39915878 -0.5642581
-0.67474109 0.43421575 -0.60281992
-0.6478681 -0.51122427 -0.35136938
-0.61499912 -0.0934273 0.011890888
-0.65211809 0.24082577 -0.3325901
-0.61747807 0.024146736 -0.011112213
-0.65952808 0.28717577 -0.40135717
-0.65448308 -0.51199925 -0.35454321
-0.63267612 -0.28081429 -0.15215492
-0.66606212 -0.66874027 -0.46199894
-0.65213907 0.20002973 -0.27517605
-0.61455911 -0.003544271 0.070747852
-0.67741811 0.35680073 -0.50787306
-0.68416607 0.39864975 -0.5699892
-0.65258008 -0.42315221 -0.27923393
-0.63276911 -0.21492624 -0.096879005
-0.6727441 -0.66951931 -0.46484613
-0.65417111 0.17224973 -0.23704338
-0.65863407 0.19969177 -0.27779436
-0.62065309 -0.0038742423 0.069008827
-0.62995309 0.023337722 -0.015912056
-0.69094908 0.39839375 -0.57286024
-0.69516909 0.43350676 -0.61139393
-0.66773611 -0.51355624 -0.36090422
-0.63914108 -0.21552122 -0.09980917
-0.64313412 0.065199733 -0.081113338
-0.64802408 0.095017731 -0.12540913
-0.63380307 -0.09499824 0.0034017563
-0.69087011 0.35625273 -0.51350594
-0.65918207 -0.35730422 -0.22647333
-0.6783461 0.23953575 -0.34326124
-0.68602508 0.28596175 -0.41226435
-0.65190709 -0.21671724 -0.10567999
-0.69068909 -0.61423528 -0.45417213
-0.66074109 0.094256759 -0.13039303
-0.66659611 0.12935877 -0.18258905
-0.67357409 0.17119777 -0.24480009
-0.64637107 -0.096053243 -0.0022759438
-0.67815608 0.19867176 -0.28565311
-0.70434707 0.35570174 -0.5191493
-0.71133912 0.39762276 -0.58148193
-0.67883307 -0.42605627 -0.29168224
-0.67220509 -0.35867524 -0.2325902
-0.6730141 0.12899077 -0.1851263
-0.69149607 0.23888677 -0.34860802
-0.65497208 0.021707773 -0.025532246
-0.71109509 0.35542578 -0.52197218
-0.71814811 0.39736474 -0.58436012
-0.68541408 -0.42678726 -0.29480505
-0.67872709 -0.35936427 -0.23565626
-0.65770811 -0.14743829 -0.049736023
-0.7041741 -0.61593926 -0.46074533
-0.67943811 0.12862176 -0.18766499
-0.69120109 0.19798875 -0.29090214
-0.67778009 -0.28528631 -0.1731081
-0.67110407 -0.21852219 -0.11451721
-0.69303107 0.17013878 -0.25257397
-0.65730107 -0.0058612227 0.058612823
-0.71262312 0.28473675 -0.42320299
-0.73178911 0.39684677 -0.59012508
-0.73620808 0.43207175 -0.62861633
-0.6985991 -0.42825425 -0.30106401
-0.71769011 -0.61765122 -0.46733618
-0.6737951 0.020475745 -0.032761097
-0.73138011 0.35459274 -0.53045797
-0.73861808 0.39658678 -0.59301138
-0.69073111 -0.2865802 -0.17913294
-0.67676407 -0.14912629 -0.058419228
-0.68744308 0.062441766 -0.098326206
-0.67790711 -0.098715305 -0.016537189
-0.74529207 0.39642572 -0.59450912
-0.72104508 -0.51987123 -0.38653326
-0.69036508 -0.22034323 -0.1233902
-0.69903409 0.091951728 -0.14538097
-0.7125411 0.16907173 -0.26036215
-0.73263609 0.28381073 -0.431427
-0.73769808 0.31271374 -0.47452021
-0.71842909 -0.4304713 -0.31048727
-0.6967991 -0.22095323 -0.12635517
-0.73444712 -0.52147222 -0.3929882
-0.72505611 -0.43121529 -0.31363821
-0.74668109 -0.67821419 -0.49634933
-0.68795007 -0.007532239 0.050005913
-0.74115908 -0.52227521 -0.39622116
-0.70968807 -0.22217822 -0.13229895
-0.71289009 0.060844779 -0.10819721
-0.7032581 -0.10087121 -0.028014183
-0.74434912 0.23625773 -0.37007427
-0.7052781 0.018403769 -0.044835091
-0.74787909 -0.5230813 -0.39946127
-0.7383281 -0.43270719 -0.31995201
-0.72322911 -0.28984523 -0.19426823
-0.7574181 -0.62106228 -0.47886992
-0.72467911 0.090396762 -0.15540409
-0.73864007 0.16763777 -0.27077198
-0.75098312 0.23592573 -0.37276602
-0.7764191 0.39698178 -0.58295727
-0.7297501 -0.29050422 -0.19730616
-0.71505708 -0.15254426 -0.075891018
-0.76698607 -0.68062925 -0.50500631
-0.73110509 0.090005755 -0.15791512
-0.73752612 0.12525678 -0.21058893
-0.77139807 0.31121576 -0.48845816
-0.72907311 -0.22402823 -0.14124537
-0.77376807 -0.68143821 -0.50789595
-0.74401212 0.12487876 -0.2131443
-0.75829309 -0.4349612 -0.32945919
-0.73555112 -0.22464919 -0.14423513
-0.72787809 -0.15369523 -0.081746101
-0.77589011 -0.62025225 -0.47277498
-0.7582801 0.16655272 -0.27859592
-0.7633881 0.19417077 -0.31989908
-0.77092612 0.23492575 -0.38085222
-0.71870011 -0.0092152357 0.041443825
-0.73056811 0.016728759 -0.054519176
-0.77956307 0.28162175 -0.45069313
-0.7847051 0.31076175 -0.49226904
-0.76496309 -0.43571723 -0.33263636
-0.74203408 -0.22527122 -0.14723015
-0.74482912 0.058828771 -0.12056732
-0.7648381 0.16618973 -0.28120708
-0.73509908 -0.10359919 -0.042446136
-0.7775861 0.23458976 -0.38355207
-0.7248621 -0.0095532537 0.039737701
-0.7814191 -0.52686119 -0.41432714
-0.77164012 -0.4364742 -0.33581924
-0.74852407 -0.22589421 -0.15022707
-0.78819412 -0.61971927 -0.46871996
-0.75123411 0.058422744 -0.12304401
-0.75687009 0.088432729 -0.16796923
-0.76349908 0.12373978 -0.22081804
-0.74148709 -0.10414922 -0.045342922
-0.77659309 0.19346577 -0.32519722
-0.78425211 0.23425376 -0.38625431
-0.78752309 -0.52661526 -0.41232634
-0.77080107 -0.36920619 -0.27902937
-0.7550211 -0.22651923 -0.15323019
-0.75764608 0.058015764 -0.125525
-0.78320509 0.19311178 -0.32784605
-0.74959511 0.015462756 -0.061797142
-0.78501707 -0.43799627 -0.34219599
-0.76902908 -0.2944932 -0.21563435
-0.7845521 0.16509575 -0.28905296
-0.79760611 0.23357975 -0.39166307
-0.8092531 0.31125975 -0.48321915
-0.81453907 0.35425276 -0.52477407
-0.82128811 0.39695072 -0.57782412
-0.76005012 -0.15660226 -0.096455097
-0.81374907 -0.6848433 -0.51856232
-0.8066361 -0.61893022 -0.46264696
-0.79113507 0.16472876 -0.29167318
-0.76231009 0.014613748 -0.066655159
-0.8207041 0.35436773 -0.52248907
-0.78218108 -0.29583728 -0.22177601
-0.77455711 -0.22840524 -0.16226292
-0.76650608 -0.1571883 -0.09940815
-0.81311512 -0.61923027 -0.46325016
-0.77691609 0.056788743 -0.13297415
-0.81774807 0.28130174 -0.44952202
-0.8350451 0.39641672 -0.58362103
-0.8051421 -0.44029427 -0.35179901
-0.78108412 -0.22903824 -0.16528416
-0.81995112 -0.62012029 -0.46660137
-0.78335112 0.056377769 -0.13545895
-0.78921008 0.086445749 -0.18057013
-0.82763612 0.31162775 -0.47643614
-0.78761709 -0.22967124 -0.16830635
-0.82679409 -0.62101126 -0.46995592
-0.78979409 0.055965722 -0.13794613
-0.79569811 0.086045742 -0.18309736
-0.81636208 0.19133174 -0.34112835
-0.82377911 0.23267174 -0.39784336
-0.83376008 0.31174874 -0.47417402
-0.82410711 -0.52516329 -0.40034914
-0.80196512 -0.2978673 -0.23102617
-0.78640711 -0.10804129 -0.065740108
-0.82983607 0.23280776 -0.39562225
-0.77517611 -0.01319325 0.019567013
-0.8301971 -0.5249263 -0.39835835
-0.79240012 -0.15954828 -0.11126518
-0.84213907 0.28180975 -0.44054222
-0.80726308 -0.23158419 -0.17740297
-0.82229811 0.12027174 -0.24393702
-0.83076811 0.16251177 -0.30742311
-0.78715611 -0.050938249 0.019434929
-0.8357681 -0.43974829 -0.34489012
-0.82181412 -0.29991424 -0.24031305
-0.81382608 -0.23222423 -0.18044329
-0.80538911 -0.16073823 -0.11721611
-0.80576307 -0.10973227 -0.074541092
-0.84924507 -0.5254122 -0.39827108
-0.84181112 -0.43953025 -0.34292507
-0.83679211 -0.37555325 -0.30555725
-0.82844609 -0.30060029 -0.24341822
-0.82039607 -0.23286724 -0.18348837
-0.82209009 0.053892732 -0.15040731
-0.83543307 0.11949176 -0.24909306
-0.84403211 0.16176575 -0.31268835
-0.81223011 -0.11029923 -0.077483177
-0.80052209 -0.01508522 0.0091128349
-0.81340212 0.011177778 -0.086147308
-0.86643511 0.31103677 -0.47839022
-0.85604811 -0.52625024 -0.40156507
-0.84280407 -0.37534726 -0.30360699
-0.83508611 -0.30128825 -0.24652815
-0.8184101 -0.16193521 -0.12318611
-0.85064209 0.16141474 -0.3151021
-0.86009008 0.23347676 -0.3845253
-0.8673141 0.28176975 -0.43761015
-0.8604781 0.19074273 -0.34102631
-0.81323308 -0.016037226 0.0038700104
-0.8262341 0.010308743 -0.091035366
-0.85481912 -0.3749392 -0.299716
-0.8401531 -0.23480523 -0.19265032
-0.83145809 -0.1631372 -0.12917137
-0.8551811 0.11831474 -0.25683832
-0.87217307 0.23374075 -0.38008595
-0.83265811 0.0098727345 -0.093479156
-0.84675312 -0.23545527 -0.19571209
-0.84803808 0.052216768 -0.16040516
-0.86177808 0.11792076 -0.25942612
-0.87821311 0.23387176 -0.37786627
-0.8668291 -0.37453628 -0.2958293
-0.8545391 0.051795721 -0.16290712
-0.8846131 0.23375076 -0.37825727
