# .PCD v0.7 - Point Cloud Data file format
VERSION 0.7
FIELDS x y z
SIZE 4 4 4
TYPE F F F
COUNT 1 1 1
WIDTH 1347
HEIGHT 1
VIEWPOINT 0 0 0 1 0 0 0
POINTS 1347
DATA ascii
0.25028354 0.11586303 -0.031837463
0.25425154 0.48027402 -0.15810919
0.25751156 0.553343 -0.26184225
0.25328055 -0.065165997 -0.12720728
0.24430056 0.20136702 -0.031944275
0.24410155 0.24275303 -0.02542305
0.24453256 0.28885299 -0.039531231
0.24507356 -0.009855032 -0.057235241
0.24448857 0.037907004 -0.03808403
0.24493556 0.31836903 -0.052727222
0.24554256 0.36145198 -0.072579384
0.24419156 0.077125013 -0.028355122
0.24416156 0.116476 -0.027386189
0.24635357 0.40985799 -0.099124432
0.25180554 0.55231601 -0.27755308
0.24623956 -0.060156941 -0.095380306
0.23810056 0.167256 -0.024689198
0.23823656 0.20170599 -0.02929306
0.23803055 0.24312401 -0.022343159
0.23848157 0.289083 -0.037552357
0.23872356 -0.008095026 -0.045681477
0.23888455 0.31855202 -0.051127434
0.23947357 0.361624 -0.070970058
0.23800756 0.078083992 -0.021580219
0.23804855 0.11708701 -0.022940159
0.24030256 0.40989399 -0.098898411
0.24091557 0.43929499 -0.11954308
0.24210656 0.48018104 -0.15968943
0.24365257 0.520724 -0.2117691
0.23976256 -0.05783093 -0.080701351
0.23199356 0.16783303 -0.020247459
0.23217756 0.20204401 -0.02664423
0.23198757 0.24340498 -0.020048141
0.23253755 -0.0070879459 -0.039144039
0.23213156 0.039828002 -0.025050163
0.23283656 0.31873304 -0.049527168
0.23340856 0.36179501 -0.069360256
0.23190355 0.078720987 -0.017141342
0.23194256 0.117697 -0.018500328
0.23425256 0.40992999 -0.09867239
0.23483256 0.43937004 -0.11882401
0.23603256 0.480133 -0.16048145
0.23759755 0.52052003 -0.21481037
0.23339856 -0.055976987 -0.069023132
0.22592956 0.16824698 -0.017104149
0.22612156 0.20238101 -0.02399826
0.22602557 0.243366 -0.020562172
0.22641157 0.28946102 -0.034365177
0.22636256 -0.0060839653 -0.03262043
0.22679056 0.31891501 -0.04792738
0.22735056 0.36194402 -0.067972183
0.22580656 0.079356015 -0.012708187
0.22584456 0.11830598 -0.014065266
0.22877257 0.43937904 -0.11889315
0.22995657 0.48008502 -0.16126919
0.23162857 0.52008003 -0.22115707
0.22705457 -0.054129004 -0.057384014
0.21988656 0.16859603 -0.014467239
0.21982156 0.041738987 -0.012066364
0.22132756 0.36198103 -0.067750454
0.21975556 0.11891299 -0.0096373558
0.22215256 0.41000003 -0.098220348
0.22273256 0.439327 -0.11967516
0.22388355 0.48002601 -0.16219425
0.22564256 0.51966202 -0.22719812
0.22073355 -0.052289009 -0.045789242
0.21384756 0.16894501 -0.01183033
0.21402857 0.203053 -0.018710136
0.21410356 0.24328601 -0.021590233
0.21435456 0.28983504 -0.031182289
0.21405156 -0.0040839911 -0.019612312
0.21470957 0.31927502 -0.04473114
0.21530657 0.36201799 -0.067525387
0.21365856 0.080520988 -0.0045852661
0.21367456 0.119519 -0.0052132607
0.21610457 0.410034 -0.097995281
0.21964656 0.51924199 -0.23324823
0.21636656 -0.12292397 -0.10800028
0.21444456 -0.050518036 -0.034627438
0.20781456 0.16929299 -0.0091962814
0.20798856 0.20338702 -0.016070366
0.20816356 0.24314702 -0.02296114
0.20833156 0.29002202 -0.029592037
0.20791456 -0.0030879974 -0.013128281
0.20766255 0.043058991 -0.0031824112
0.20867357 0.31945401 -0.043133259
0.20928556 0.36205399 -0.067302227
0.20759857 0.081085026 -0.00064516068
0.20760256 0.12012303 -0.00079727173
0.21066356 0.43918103 -0.12173319
0.21182556 0.47962904 -0.16763115
0.21363956 0.51882201 -0.23930836
0.20827755 -0.049374938 -0.027478218
0.20178457 0.16964102 -0.006562233
0.20195256 0.20372099 -0.013431072
0.20220456 0.24307704 -0.023729324
0.20230857 0.29020798 -0.028001308
0.20178756 -0.0020949841 -0.0066542625
0.20263956 0.31963301 -0.041537285
0.20326357 0.36208999 -0.06707716
0.20154455 0.081649005 0.0032906532
0.20154355 0.12068599 0.0033106804
0.20401956 0.41005999 -0.098003387
0.20463157 0.43908602 -0.12302017
0.20578755 0.47943002 -0.17035007
0.20775156 0.51802003 -0.25070715
0.20319957 -0.11567402 -0.064428329
0.20214356 -0.048375964 -0.021239281
0.19576156 0.16998702 -0.0039310455
0.19629157 0.29039299 -0.02641201
0.19567356 -0.0011039972 -0.00019407272
0.19555856 0.044229031 0.0046896935
0.19661155 0.31980503 -0.040001392
0.19724455 0.36212599 -0.066853046
0.19549856 0.082211018 0.0072207451
0.19859856 0.43899 -0.12430525
0.19974756 0.47922999 -0.17307329
0.20194656 0.516913 -0.26638412
0.19602256 -0.047379971 -0.015015125
0.18974257 0.17033201 -0.001303196
0.18989857 0.204386 -0.008161068
0.19027656 0.29057699 -0.024822235
0.18951756 0.044813037 0.008617878
0.19122556 0.36216003 -0.066630363
0.18946056 0.082771003 0.011147976
0.18951955 0.12141603 0.0085539818
0.19199556 0.40986001 -0.10055733
0.19066957 -0.11194599 -0.042146206
0.18991356 -0.046386003 -0.0088014603
0.18372956 0.17067701 0.0013237
0.18389556 0.20462704 -0.006278038
0.18419756 0.24353498 -0.02011919
0.18426555 0.29076099 -0.023233414
0.18354955 0.00039696693 0.0095477104
0.18348455 0.045395017 0.012541771
0.18462156 0.31987798 -0.039557457
0.18351457 0.12178004 0.011171818
0.18652657 0.438797 -0.12687731
0.18624157 -0.18048298 -0.1138134
0.18443556 -0.11009204 -0.031062126
0.18381456 -0.045395017 -0.002600193
0.17772056 0.17102003 0.0039477348
0.17790955 0.204786 -0.0050811768
0.17819956 0.24368602 -0.01891613
0.17825656 0.29094499 -0.021646023
0.17752156 0.0010050535 0.01347065
0.17862757 0.31991398 -0.039335251
0.17918956 0.36222899 -0.066180229
0.17741956 0.083797038 0.018327713
0.17751455 0.12214303 0.0137887
0.17996356 0.409657 -0.10311222
0.18048756 0.43870002 -0.12816238
0.18159956 0.47862703 -0.18124628
0.17955956 -0.17526495 -0.083853245
0.17822257 -0.10824597 -0.020017147
0.17772856 -0.04440701 0.0035896301
0.17171456 0.171363 0.006570816
0.17192456 0.20494401 -0.0038824081
0.17220256 0.243837 -0.01771307
0.17226356 0.29105103 -0.020777225
0.17149755 0.0016109943 0.017389774
0.17143756 0.046554029 0.020376682
0.17263156 0.31994903 -0.039110184
0.17317057 0.36226201 -0.065954208
0.17143457 0.084120035 0.020549774
0.17394257 0.40955502 -0.10438824
0.17446657 0.43851298 -0.13052225
0.17559256 0.47822303 -0.18658447
0.17299557 -0.17062402 -0.057206154
0.17208856 -0.10690999 -0.012051105
0.17165056 -0.043421984 0.0097689629
0.16571556 0.17170399 0.009188652
0.16594356 0.20510101 -0.0026831627
0.16620956 0.24398804 -0.01651001
0.16628756 0.29108703 -0.020555019
0.16548356 0.0022120476 0.021282673
0.16542555 0.047132015 0.024286747
0.16663957 0.31998402 -0.038888454
0.16715457 0.36229503 -0.065730095
0.16553356 0.12282199 0.018689632
0.16792156 0.40945202 -0.10566616
0.16846056 0.43825001 -0.13376522
0.16958956 0.477768 -0.19256115
0.16600455 -0.105865 -0.0058441162
0.16558656 -0.042438984 0.015934944
0.15974756 0.17186701 0.010381699
0.15996556 0.20525801 -0.0014872551
0.16021857 0.24413699 -0.015309334
0.16033256 0.29099798 -0.021502018
0.15947956 0.002786994 0.025002956
0.15942156 0.047708035 0.028190613
0.16064656 0.32001901 -0.038664341
0.15947956 0.084764004 0.024990559
0.15955456 0.12313104 0.020911694
0.16189855 0.40935004 -0.10694218
0.16357756 0.47731203 -0.19855118
0.16057956 -0.16672897 -0.03497839
0.15993156 -0.10482299 0.00034856796
0.15956655 -0.04174602 0.020253658
0.15378156 0.17202902 0.011574745
0.15398856 0.205414 -0.00028944016
0.15423055 0.244286 -0.014107227
0.15440956 0.29070103 -0.024384022
0.15348256 0.003360033 0.028716564
0.15344055 0.048143983 0.03112793
0.15465456 0.32005298 -0.038440228
0.15516356 0.36214101 -0.067557335
0.15350856 0.085085034 0.027209759
0.15358056 0.123438 0.023132801
0.15587255 0.40924603 -0.10821915
0.15643255 0.43772399 -0.14025927
0.15755455 0.47685504 -0.20455027
0.15545155 -0.23734105 -0.084078312
0.15386955 -0.10378397 0.0065317154
0.15356556 -0.041146994 0.023972988
0.14781655 0.17219102 0.012767792
0.14801356 0.20556903 0.00090789795
0.14848055 0.29040402 -0.027271271
0.14866155 0.320086 -0.038216114
0.14916955 0.36203003 -0.06882143
0.14754055 0.085404992 0.029426575
0.14984356 0.40914303 -0.10949516
0.15040755 0.43746001 -0.1435113
0.15151955 0.47639704 -0.21055746
0.14899255 -0.23259103 -0.058133125
0.14824256 -0.16286397 -0.012895107
0.14781755 -0.10274804 0.012704849
0.14756955 -0.040549994 0.027691841
0.14185555 0.17235202 0.013960838
0.14226656 0.24452001 -0.012247086
0.14254856 0.29010499 -0.030158043
0.14150655 0.004502058 0.036135674
0.14151555 0.048807025 0.035556793
0.14267156 0.32011902 -0.037993431
0.14317556 0.36191803 -0.070085049
0.14157756 0.085722983 0.03164196
0.14438055 0.437195 -0.14676523
0.14552756 0.47568899 -0.21978521
0.14266255 -0.22879303 -0.037407398
0.14177856 -0.10171402 0.018864632
0.14158155 -0.039953947 0.031403542
0.13589656 0.17251199 0.015151978
0.13607156 0.20587802 0.0032997131
0.13630456 0.24451399 -0.012389183
0.13661155 0.28980601 -0.033049107
0.13552956 0.005071044 0.039838791
0.13556056 0.049136996 0.037766933
0.13668156 0.32015103 -0.037768364
0.13561855 0.086041033 0.033854961
0.13567856 0.12435502 0.029784679
0.13783455 0.40862501 -0.11553526
0.13834655 0.43693 -0.15001822
0.13961156 0.47449303 -0.23528814
0.13652955 -0.22697401 -0.027521133
0.13604955 -0.15976202 0.0048098564
0.13574956 -0.10068405 0.025011539
0.13559955 -0.039360046 0.03511095
0.12993956 0.17267102 0.016343594
0.13010456 0.20603204 0.0044956207
0.13034256 0.24450803 -0.012533188
0.13066955 0.28950602 -0.035942078
0.12955956 0.005638957 0.043537617
0.12960956 0.049467027 0.039977551
0.12966356 0.086358011 0.036065578
0.12973656 0.12450498 0.03083086
0.13182555 0.40834802 -0.11876106
0.13041456 -0.22516 -0.017663002
0.13001455 -0.15867698 0.01098156
0.12973255 -0.099655986 0.031147957
0.12962556 -0.038767934 0.038813591
0.12398456 0.17282999 0.017534733
0.12413956 0.20618403 0.0056915283
0.12468755 0.28949201 -0.036159039
0.12366156 0.049795032 0.04218483
0.12471256 0.32013804 -0.038064003
0.12518156 0.36158001 -0.073872089
0.12371255 0.086674035 0.038275719
0.12379956 0.12462604 0.031666756
0.12431656 -0.22335303 -0.0078363419
0.12398955 -0.15759504 0.01714468
0.12374155 -0.098830938 0.036062717
0.11803056 0.172988 0.018727779
0.11817555 0.20633703 0.0068888664
0.11870256 0.28948504 -0.036304474
0.11873956 0.32001799 -0.039315224
0.11917755 0.36146599 -0.075135231
0.11776456 0.086988032 0.040484905
0.11786255 0.12474704 0.032503605
0.11978956 0.40779001 -0.12522221
0.12028055 0.43565398 -0.16545725
0.11823556 -0.22155201 0.0019669533
0.11797455 -0.156515 0.023295879
0.11777356 -0.098206997 0.039765835
0.11769456 -0.037587047 0.046209812
0.11208056 0.17314601 0.019918919
0.11222756 0.206352 0.0069446564
0.11271955 0.28947699 -0.036445141
0.11174156 0.0066030025 0.049744606
0.11177756 0.050448 0.046596527
0.11182156 0.087302029 0.042692661
0.11192755 0.12486601 0.033340931
0.11376356 0.407511 -0.12845612
0.11425756 0.43510801 -0.17203808
0.11317256 -0.29081702 -0.076371193
0.11217356 -0.21975696 0.01173687
0.11181356 -0.097584009 0.043464661
0.11174056 -0.036998034 0.049901962
0.10649055 0.24447602 -0.013104439
0.10674655 0.28936601 -0.037547112
0.10581055 0.0069190264 0.051789761
0.10584256 0.050774038 0.048801899
0.10681856 0.31950402 -0.044472218
0.10716656 0.361238 -0.077658176
0.10589355 0.087480009 0.043915749
0.10599555 0.12498599 0.034176826
0.10773255 0.40723002 -0.13169146
0.10688256 -0.28588104 -0.050503254
0.10593256 -0.153561 0.040201664
0.10585956 -0.096963048 0.047158718
0.10579255 -0.036412001 0.053588867
0.10018656 0.17345804 0.022299767
0.10033655 0.20633298 0.0066609383
0.10077655 0.28919899 -0.039171219
0.099883556 0.0072350502 0.053835869
0.099912554 0.051077008 0.050855637
0.10086955 0.31905603 -0.048912048
0.099970549 0.087603033 0.044748783
0.10169555 0.40694898 -0.13493013
0.10217856 0.43401098 -0.18523741
0.10065855 -0.28137493 -0.026892185
0.10015556 -0.21721494 0.025549889
0.099902555 -0.15153003 0.051856995
0.099912554 -0.096343994 0.050848961
0.099855557 -0.035905004 0.056769848
0.094244555 0.17358899 0.023291588
0.094564557 0.24445701 -0.013385296
0.094803557 0.28903103 -0.040798187
0.093960553 0.0075500011 0.055878639
0.093985558 0.051378012 0.052900791
0.094913557 0.31860602 -0.053358078
0.094049558 0.087725997 0.045582771
0.094134554 0.12522203 0.035848618
0.095665559 0.40654999 -0.13950539
0.096121557 0.43346 -0.19185305
0.094596557 -0.27948999 -0.017039299
0.094177559 -0.21621394 0.030985832
0.093926556 -0.15015101 0.059753895
0.093934551 -0.03557694 0.058810711
0.088313557 0.17354703 0.022904873
0.088443555 0.206312 0.0063796043
0.088599555 0.24444604 -0.01352644
0.088826552 0.288863 -0.042423248
0.088038556 0.0078630447 0.057921886
0.088061556 0.051678002 0.054945946
0.088947557 0.318156 -0.05781126
0.088128552 0.087848008 0.046417713
0.088205561 0.12533903 0.036685944
0.089640558 0.40597701 -0.14603519
0.090118557 0.43219602 -0.20697308
0.088550553 -0.27761102 -0.0072183609
0.088207558 -0.21521497 0.036412716
0.087999552 -0.14959502 0.062911987
0.088036552 -0.095108986 0.058217525
0.088015556 -0.035249949 0.060852528
0.082384557 0.17349201 0.022423744
0.082497552 0.20630002 0.0062408447
0.082636558 0.24443501 -0.013667107
0.082848556 0.28869402 -0.044049263
0.082149558 0.051838994 0.056023598
0.082975551 0.31770402 -0.062267303
0.083158553 0.360219 -0.088499069
0.082278557 0.12545502 0.037521839
0.083606556 0.405402 -0.15257645
0.084096551 0.43086803 -0.2228384
0.082248554 -0.21421897 0.041829586
0.08207956 -0.14904094 0.066066742
0.082108557 -0.094494939 0.061895847
0.082101554 -0.034924984 0.062889576
0.076454557 0.173437 0.021943569
0.076551557 0.20628804 0.0061016083
0.076672554 0.24442399 -0.013806343
0.07620956 0.0084869862 0.062001705
0.076995552 0.31725401 -0.066710472
0.077148557 0.35991699 -0.091696262
0.076294556 0.088088989 0.048083782
0.076354556 0.12557101 0.038357735
0.07804656 0.42953402 -0.23877525
0.076513559 -0.27387404 0.012329578
0.076299556 -0.21322596 0.047237873
0.076165557 -0.14848804 0.069216728
0.076191559 -0.034600019 0.064928532
0.07052356 0.17338198 0.021463871
0.070714556 0.24428803 -0.015033245
0.070883557 0.28835404 -0.0473032
0.070300557 0.0087980032 0.064040661
0.070335552 0.052047014 0.057402611
0.070996553 0.31704402 -0.068790436
0.071132556 0.35961401 -0.094895363
0.070430554 0.12568599 0.039194584
0.071503557 0.40424901 -0.16569519
0.070520557 -0.27201605 0.022060871
0.070360556 -0.21223605 0.052636623
0.070256561 -0.14793599 0.072365761
0.070273556 -0.093269944 0.069238663
0.070285559 -0.034276009 0.066964626
0.064590558 0.173325 0.020982742
0.064656556 0.20626199 0.0058236122
0.064754561 0.24410802 -0.016645432
0.064895555 0.28818303 -0.048930168
0.064393558 0.0091080666 0.066078663
0.064428553 0.052150011 0.05809164
0.065109558 0.35931003 -0.098097324
0.064464554 0.088326991 0.049752712
0.064507559 0.12580001 0.040029526
0.065433554 0.40367001 -0.17227316
0.064548552 -0.27039504 0.030547619
0.064428553 -0.21124697 0.058027744
0.064352557 -0.14738595 0.075511932
0.064363554 -0.09265995 0.072904587
0.064380556 -0.033952951 0.068999767
0.058657557 0.17326802 0.020504951
0.058709554 0.20624799 0.0056838989
0.058793556 0.243927 -0.018257141
0.058906555 0.28801203 -0.050559044
0.058491558 0.009417057 0.068114758
0.058994554 0.31631398 -0.075979233
0.059083559 0.35900503 -0.10130024
0.058552556 0.088445008 0.050585747
0.058588557 0.125848 0.040368557
0.059360556 0.40291399 -0.1808424
0.058604557 -0.26935804 0.035971642
0.058508556 -0.21026194 0.063408852
0.058455557 -0.146837 0.078653812
0.058467556 -0.092306972 0.075017929
0.058481555 -0.03363204 0.071033955
0.052724555 0.17321104 0.020024776
0.052762557 0.20623404 0.0055456161
0.052829556 0.24374598 -0.019871235
0.052913554 0.28784001 -0.05218935
0.052596554 0.0095430613 0.068937778
0.052621558 0.052354038 0.059470654
0.052985556 0.31594801 -0.079577446
0.053050555 0.35870004 -0.10450745
0.052642554 0.088563025 0.051418781
0.052672558 0.12578702 0.039894581
0.053291555 0.40152401 -0.19657707
0.052894555 -0.35629797 -0.044750214
0.052668557 -0.26832402 0.041388988
0.052599557 -0.20941103 0.068057537
0.052563556 -0.14628994 0.081792831
0.052575558 -0.09196794 0.077048779
0.052585557 -0.033311009 0.073068619
0.046790555 0.17315298 0.019545555
0.046815556 0.20621902 0.0054097176
0.046862558 0.24356401 -0.021485329
0.046919554 0.28765702 -0.053915024
0.046970557 0.31558102 -0.083178043
0.047013558 0.35839403 -0.10771513
0.046733558 0.088666022 0.052155972
0.046756558 0.12572598 0.039417744
0.047195558 0.40012801 -0.21238422
0.046858557 -0.35116196 -0.019180298
0.046743557 -0.26729298 0.046792984
0.046676558 -0.14574397 0.084927559
0.046686556 -0.091630936 0.079077721
0.046693556 -0.032990932 0.075099945
0.040856555 0.17309403 0.019065857
0.040869556 0.206074 0.0041837692
0.040922556 0.28727603 -0.057488441
0.040811557 0.0097520351 0.070312977
0.040819556 0.052555025 0.060849667
0.040948555 0.31521302 -0.086783409
0.040877558 -0.34831297 -0.0049991608
0.040827557 -0.26626396 0.052190781
0.040807556 -0.20825899 0.074351788
0.040795557 -0.14520001 0.088059902
0.040801555 -0.091293931 0.081106663
0.040805556 -0.032672048 0.077130795
0.034918558 0.17303401 0.018586636
0.034918558 0.20583999 0.0022268295
0.034918558 0.24319702 -0.02471447
0.034918558 0.28689402 -0.061066151
0.034918558 0.052654028 0.06153965
0.034918558 0.314843 -0.090392113
0.034918558 0.35724199 -0.11974716
0.034918558 0.088846982 0.053456783
0.034918558 0.12560099 0.038463593
0.034918558 -0.346349 0.0047826767
0.034918558 -0.26523805 0.057580948
0.034918558 -0.14465702 0.091189861
0.034918558 -0.090755939 0.084364891
0.034918558 -0.032353997 0.079161644
0.028966557 0.20560503 0.0002655983
0.028943557 0.24301404 -0.026328087
0.028910557 0.286511 -0.064647198
0.028884556 0.31447399 -0.094003201
0.028856557 0.35662103 -0.1262331
0.029012557 0.088761985 0.052843571
0.028999556 0.12553799 0.037988663
0.028979557 -0.34439194 0.014532566
0.029021556 -0.26421499 0.062958717
0.029037556 -0.20711398 0.08063364
0.029048556 -0.14424002 0.093597889
0.029044557 -0.089875937 0.089690685
0.029037556 -0.032070994 0.080976963
0.023045557 0.17291301 0.017629623
0.023011556 0.205369 -0.0016932487
0.022965556 0.24282902 -0.027944088
0.022895556 0.28612798 -0.068231106
0.023140557 0.010059953 0.072374821
0.023124557 0.052850008 0.062919617
0.022844557 0.31410301 -0.097617149
0.022782557 0.35599804 -0.13273001
0.023105556 0.088676989 0.052231789
0.023079555 0.12547499 0.037514687
0.023056556 -0.34244204 0.024253845
0.023133557 -0.26319396 0.068329811
0.023180556 -0.14396703 0.095179558
0.023180556 -0.088999987 0.095006943
0.017104557 0.17273098 0.016181946
0.017052555 0.20513302 -0.0036540031
0.016984556 0.24264401 -0.029559135
0.017253555 0.010161042 0.073061943
0.017228557 0.052946985 0.063607693
0.016793557 0.31358004 -0.1027174
0.016691556 0.35514301 -0.14164209
0.017151557 -0.34049904 0.033944607
0.017289557 -0.20597398 0.086901665
0.017315555 -0.143695 0.096762657
0.017321557 -0.088361979 0.098881721
0.017277556 -0.03185904 0.082348824
0.011157556 0.17248499 0.014230728
0.011088556 0.20489603 -0.0056171417
0.010999557 0.24245703 -0.031177044
0.010844557 0.285357 -0.075410366
0.010725556 0.31286901 -0.10964632
0.010577556 0.35414201 -0.15206718
0.011286557 0.088503003 0.05100584
0.011235556 0.12534499 0.036561966
0.011259556 -0.33862698 0.0432868
0.011380557 -0.261379 0.077894688
0.011422556 -0.20540702 0.090032578
0.011451555 -0.14342296 0.098345757
0.011458557 -0.088102937 0.10046291
0.011398556 -0.031754971 0.083032608
0.0052095558 0.17223901 0.012278557
0.0051225554 0.20465803 -0.0075802803
0.0050075557 0.24214101 -0.03393507
0.004811557 0.284971 -0.07900238
0.0054345559 0.052967012 0.063785553
0.0046475567 0.31215602 -0.11658525
0.0044225566 0.35261303 -0.16801643
0.0053755566 0.08841604 0.050393581
0.0053135566 0.12527901 0.03608799
0.0053685568 -0.33755803 0.048638821
0.0055095553 -0.26078594 0.081032753
0.0055915564 -0.14315295 0.099927902
0.0055215564 -0.03165102 0.08371973
-0.00074244291 0.171992 0.010327816
-0.00084644556 0.20441902 -0.0095434189
-0.00099244341 0.24173403 -0.037485123
-0.0012284443 0.28458399 -0.082599163
-0.00040344521 0.010460019 0.075124741
-0.00046544522 0.052874982 0.063176632
-0.001443442 0.31144202 -0.12353945
-0.00053544343 0.088326991 0.049780846
-0.00060944259 0.12521201 0.035612583
-0.00051444396 -0.33651197 0.053876877
-0.00035544485 -0.26019502 0.084167957
-0.00029244274 -0.20427597 0.096282959
-0.00026444346 -0.14288402 0.10150766
-0.00025344267 -0.087589979 0.10362053
-0.00035444275 -0.031548023 0.084405899
-0.0066974424 0.17174399 0.008374691
-0.0068194419 0.20418 -0.011507034
-0.0069994442 0.24132603 -0.041038036
-0.0072754435 0.28419602 -0.086197376
-0.0062854439 0.010558009 0.075812817
-0.0063664429 0.052783012 0.062566757
-0.006448444 0.088238001 0.049168587
-0.0065344423 0.12514502 0.035137653
-0.0063874424 -0.33546793 0.059106827
-0.006215442 -0.25960493 0.08729887
-0.0061414428 -0.20371294 0.099402905
-0.006119445 -0.14261603 0.1030879
-0.0061064437 -0.087334991 0.10520077
-0.0062294453 -0.03144598 0.085091591
-0.0070024431 -0.432832 -0.041537285
-0.012656443 0.17149502 0.006421566
-0.013012443 0.24091703 -0.044594288
-0.013350442 0.28346598 -0.092983246
-0.012167443 0.010655999 0.076501846
-0.012268443 0.052690029 0.06195879
-0.013661444 0.31000704 -0.13748407
-0.014472444 0.34439403 -0.25371218
-0.012362443 0.088149011 0.048557758
-0.012459442 0.12507004 0.03460598
-0.012252443 -0.33442795 0.064328671
-0.012070443 -0.25901699 0.090426922
-0.011986442 -0.20318401 0.10234261
-0.011964444 -0.087291002 0.10550165
-0.012102444 -0.03134501 0.085775852
-0.012818445 -0.42758703 -0.016760349
-0.018620443 0.17124599 0.0044679642
-0.018776443 0.20370001 -0.01543808
-0.019033443 0.24050701 -0.0481534
-0.019440442 0.28272402 -0.099889278
-0.018049445 0.010748982 0.07716465
-0.018173445 0.052596033 0.061347961
-0.019793443 0.30923998 -0.14494324
-0.018109445 -0.33339 0.069541931
-0.017920442 -0.25843096 0.093552589
-0.017839443 -0.20290399 0.10392284
-0.017821442 -0.14208305 0.10624599
-0.017824445 -0.087252021 0.10578156
-0.017976444 -0.031244993 0.086463928
-0.018609446 -0.422791 0.0059056282
-0.024586443 0.17099601 0.0025129318
-0.024768442 0.20333999 -0.018396378
-0.025059443 0.24009603 -0.051715374
-0.025540445 0.28198004 -0.10680628
-0.023940444 0.010650992 0.07655859
-0.024078444 0.052502036 0.060738564
-0.026011445 0.30760801 -0.16084003
-0.024195444 0.087967038 0.047333717
-0.024340443 0.12453198 0.030633926
-0.023955442 -0.33235502 0.074746609
-0.023764443 -0.257846 0.096675873
-0.023687445 -0.20262504 0.10550165
-0.023682445 -0.087213993 0.1060648
-0.023847442 -0.031144977 0.087148666
-0.024473444 -0.42078996 0.015394688
-0.030555446 0.17074502 0.0005569458
-0.030775446 0.20286304 -0.022326469
-0.03109144 0.23968399 -0.055279255
-0.031652447 0.28123403 -0.1137352
-0.029983442 0.052407026 0.06013155
-0.032258447 0.305969 -0.1768012
-0.030112442 0.087875009 0.046723843
-0.030286442 0.12424898 0.028547764
-0.029602442 -0.25726199 0.099795818
-0.029533442 -0.20234704 0.10707998
-0.029540446 -0.087175965 0.1063447
-0.029717442 -0.031046033 0.087833881
-0.030322444 -0.41879594 0.02485466
-0.036528442 0.17049301 -0.0014004707
-0.036788445 0.202384 -0.026263237
-0.037133444 0.239232 -0.059193134
-0.037777442 0.28048503 -0.12067842
-0.035724442 0.010452032 0.075346947
-0.038533445 0.304322 -0.19283438
-0.036030445 0.087783039 0.046109676
-0.036236446 0.12396604 0.026460648
-0.03543644 -0.25668001 0.10291195
-0.035375442 -0.20207 0.10865784
-0.035351444 -0.14129102 0.11097479
-0.035397444 -0.08713901 0.10662794
-0.035586443 -0.030948043 0.088521957
-0.036154445 -0.41680801 0.034289837
-0.042506445 0.17023998 -0.0033574104
-0.042811442 0.20190501 -0.030203342
-0.043185446 0.23877203 -0.063171387
-0.043916445 0.27973503 -0.12763643
-0.041620445 0.010351062 0.074740887
-0.041960444 0.087589025 0.044770718
-0.042191442 0.12368101 0.024372578
-0.041255441 -0.087103009 0.10690975
-0.041456442 -0.030851007 0.089207649
-0.048494447 0.169909 -0.0059452057
-0.04883844 0.201424 -0.034146309
-0.049249444 0.238244 -0.067734241
-0.050103445 0.27865404 -0.1376853
-0.047515441 0.010249972 0.074134827
-0.047709446 0.05211699 0.058302879
-0.047899444 0.087293029 0.042694569
-0.04814944 0.12339604 0.022283554
-0.047294442 -0.32889104 0.092244625
-0.047088441 -0.25552094 0.10913467
-0.047055442 -0.20151901 0.11180878
-0.047037441 -0.14091003 0.11330557
-0.04711144 -0.087067962 0.10719061
-0.047326442 -0.030791998 0.089654922
-0.048805442 -0.48120904 -0.031462193
-0.047772441 -0.412853 0.053080559
-0.054503445 0.169411 -0.0098600388
-0.05487344 0.20094299 -0.038096428
-0.055357445 0.23740101 -0.075070381
-0.056384441 0.27695203 -0.15354347
-0.053412441 0.010148048 0.073528767
-0.053619441 0.052019 0.057693958
-0.053842444 0.086996019 0.040616989
-0.052917447 -0.25511694 0.11132956
-0.052890446 -0.20124602 0.11338377
-0.05296744 -0.087033987 0.1074729
-0.054463442 -0.475811 -0.0067791939
-0.053592447 -0.41145098 0.059766769
-0.060520444 0.16891104 -0.013780117
-0.060915444 0.200459 -0.042051315
-0.061478447 0.23655599 -0.082420349
-0.062694445 0.27524102 -0.16947222
-0.059309442 0.010045052 0.072922707
-0.059530441 0.05192101 0.057085991
-0.058955442 -0.32771504 0.098256588
-0.058751445 -0.25483203 0.11290598
-0.058737446 -0.14083803 0.11386871
-0.05882344 -0.087000012 0.10775375
-0.059022445 -0.030215025 0.093493938
-0.060099442 -0.47075403 0.016352654
-0.05942044 -0.41036201 0.064983845
-0.066544443 0.16841102 -0.017705441
-0.066964447 0.19997501 -0.04600811
-0.067613438 0.235708 -0.089785099
-0.069033444 0.27352303 -0.18546438
-0.06520845 0.0099420547 0.0723176
-0.065449446 0.051761985 0.056063652
-0.065740451 0.086400032 0.036460876
-0.066043437 0.12253499 0.016010761
-0.064779446 -0.32712901 0.10125971
-0.064582437 -0.25454795 0.11448097
-0.064552441 -0.20070195 0.1165309
-0.064587444 -0.14080393 0.11415195
-0.06485945 -0.029857039 0.095868587
-0.065898448 -0.46869898 0.025804996
-0.072576448 0.16790801 -0.021636009
-0.073021442 0.19949001 -0.049971104
-0.073763445 0.23485702 -0.097168446
-0.071110442 0.0098370314 0.07171154
-0.071388438 0.051451981 0.053995609
-0.071696445 0.086100996 0.034380913
-0.072018445 0.12224603 0.013918877
-0.070598438 -0.326545 0.10426092
-0.07041344 -0.25426602 0.11605263
-0.070381448 -0.20043099 0.11810493
-0.070438445 -0.14077103 0.11443377
-0.070535451 -0.086935997 0.10831785
-0.070719451 -0.029757977 0.096593857
-0.071683437 -0.46665096 0.03523159
-0.071052447 -0.40819204 0.075392723
-0.078614444 0.16740602 -0.025569439
-0.07909444 0.19893503 -0.054512024
-0.079924449 0.23400402 -0.10456324
-0.077011451 0.009732008 0.071106911
-0.077329442 0.051142037 0.051927567
-0.077994451 0.121957 0.011823654
-0.076411441 -0.32596195 0.10725689
-0.076239437 -0.25398397 0.11762762
-0.076205447 -0.20016098 0.11967564
-0.076389447 -0.086905003 0.10859966
-0.076605439 -0.029929042 0.095594883
-0.076854438 -0.407112 0.080582619
-0.084659442 0.16690099 -0.029506207
-0.085223436 0.198048 -0.061814308
-0.086098447 0.23314899 -0.11197424
-0.083274439 0.05083102 0.049856663
-0.08361645 0.085500002 0.030218601
-0.083991438 0.12154102 0.0087776184
-0.082219437 -0.32538104 0.11025
-0.082063437 -0.25370395 0.11919975
-0.082028449 -0.199893 0.12124777
-0.082137451 -0.14070702 0.11499691
-0.082243443 -0.086874962 0.10888195
-0.082493439 -0.030100942 0.094594955
-0.083201438 -0.46257603 0.053998947
-0.082647443 -0.40603399 0.085765839
-0.090711445 0.16639602 -0.033449173
-0.091365442 0.19715899 -0.069134235
-0.092379436 0.23171902 -0.12443447
-0.088817447 0.0095200539 0.069896698
-0.089222446 0.05051899 0.047787666
-0.089582443 0.085197985 0.028135777
-0.090012446 0.12098902 0.0047135353
-0.088023439 -0.32480204 0.11323977
-0.087885439 -0.253425 0.12076855
-0.087862447 -0.19977701 0.12198877
-0.087985441 -0.14067602 0.11527777
-0.088110447 -0.086961985 0.10845995
-0.088383451 -0.030272961 0.093596935
-0.088431448 -0.40495896 0.090940952
-0.096772447 0.16588902 -0.037396431
-0.097522438 0.19626701 -0.076469421
-0.098756447 0.22985101 -0.1407423
-0.094732434 0.0093500614 0.06887579
-0.095176443 0.050206006 0.045716763
-0.095554441 0.084895015 0.026052952
-0.096042439 0.12043703 0.00064659119
-0.093822435 -0.324224 0.11622953
-0.093707442 -0.25316596 0.12224293
-0.093706444 -0.19974494 0.12227058
-0.094276443 -0.030447006 0.092596531
-0.094722435 -0.459252 0.069369793
-0.094209433 -0.40388703 0.096106529
-0.10284044 0.16537201 -0.041422367
-0.10369144 0.195373 -0.083819389
-0.10516344 0.22797203 -0.15712738
-0.10066745 0.009024024 0.06681776
-0.10113244 0.049892008 0.043645859
-0.10152744 0.084591985 0.02396965
-0.10207744 0.119883 -0.0034251213
-0.09961544 -0.32364702 0.11921597
-0.099525437 -0.25290704 0.12371683
-0.099548444 -0.19971502 0.12255287
-0.099683434 -0.14061701 0.11584187
-0.10203044 -0.54029 -0.0010700226
-0.099871442 -0.087327957 0.10647058
-0.10017043 -0.030620933 0.091597557
-0.10051244 -0.45813704 0.074566841
-0.11199644 0.22392899 -0.19253922
-0.10660744 0.0086979866 0.064759731
-0.10709244 0.049576998 0.041572571
-0.10812044 0.11932802 -0.0075011253
-0.10534143 -0.25265002 0.12518787
-0.10539044 -0.19968498 0.12283468
-0.10575444 -0.087512016 0.10547495
-0.10606644 -0.030795932 0.090598583
-0.10629344 -0.45702398 0.079756737
-0.10580143 -0.40243101 0.10320663
-0.11513944 0.163526 -0.055959225
-0.11606944 0.193578 -0.098563194
-0.11255044 0.0083700418 0.062701702
-0.11305644 0.049261987 0.03949976
-0.11353144 0.083700001 0.017751694
-0.11417145 0.11877203 -0.011582375
-0.11124945 -0.323071 0.12232876
-0.11115544 -0.25239301 0.12665987
-0.11123244 -0.19965696 0.12311554
-0.11137845 -0.14056194 0.11640596
-0.11307244 -0.53121793 0.038789749
-0.11163844 -0.087697029 0.1044817
-0.11196344 -0.030972004 0.089598656
-0.11206543 -0.45591497 0.084937572
-0.11160144 -0.40182304 0.10620165
-0.12131444 0.16257203 -0.063466072
-0.12237044 0.19219202 -0.11000538
-0.11849444 0.0080599785 0.060767651
-0.11902444 0.04894501 0.037426949
-0.11956245 0.083123982 0.013702869
-0.12022944 0.11821401 -0.015666008
-0.11696644 -0.25213802 0.12812996
-0.11707345 -0.19962895 0.12339783
-0.11722544 -0.14053595 0.11668777
-0.11752544 -0.087882996 0.10348654
-0.11786345 -0.03114903 0.088599682
-0.11781844 -0.45471203 0.090553761
-0.11739545 -0.40121603 0.10919571
-0.12750344 0.16161501 -0.070990086
-0.12880544 0.19023204 -0.12623215
-0.12499744 0.048628032 0.035349846
-0.12560344 0.082544982 0.0096478462
-0.12291645 -0.19960201 0.12368059
-0.12309045 -0.14062893 0.11628485
-0.12607944 -0.58448696 -0.01055336
-0.12444144 -0.52665997 0.05895853
-0.12341544 -0.088070035 0.1024909
-0.12356444 -0.45351005 0.096167564
-0.13370544 0.16065603 -0.078530312
-0.13024545 0.0083650351 0.063073635
-0.13097344 0.048309982 0.033273697
-0.13236944 0.11709499 -0.023850441
-0.12868944 -0.32226503 0.1267457
-0.12896845 -0.14082503 0.11529493
-0.13010044 -0.52439404 0.068995953
-0.12930644 -0.088256955 0.10149574
-0.12970445 -0.031726956 0.085184574
-0.12929945 -0.45231104 0.10177088
-0.12897144 -0.40000594 0.11517477
-0.13992144 0.15969402 -0.08608532
-0.14176545 0.18628299 -0.15891409
-0.13611645 0.0085150003 0.06422472
-0.13699044 0.047776997 0.029711723
-0.13770343 0.081385016 0.0015277863
-0.13845745 0.11649603 -0.028235435
-0.13449743 -0.32199895 0.12821674
-0.13446544 -0.25196803 0.12944365
-0.13661245 -0.57157099 0.044662952
-0.13574244 -0.52213597 0.078997612
-0.13564844 -0.032135963 0.082713604
-0.13503043 -0.45116699 0.10713291
-0.14619844 0.15850502 -0.095449448
-0.14302644 0.047177017 0.025678635
-0.14376543 0.080803037 -0.0025391579
-0.14463344 0.11549103 -0.035680294
-0.14030243 -0.32173395 0.12968683
-0.14030445 -0.25196004 0.12963581
-0.14043744 -0.19952703 0.12452793
-0.14073144 -0.14121997 0.11331177
-0.14222844 -0.56890094 0.056164742
-0.14147444 -0.52080703 0.084953785
-0.14109343 -0.088634968 0.099508762
-0.14159743 -0.032546997 0.080238819
-0.14052644 -0.398803 0.12114382
-0.15268344 0.15643799 -0.11184645
-0.14802945 0.0078560114 0.060141563
-0.14907144 0.04657501 0.021640778
-0.14983544 0.08021903 -0.0066123009
-0.15082444 0.114483 -0.043142319
-0.14610744 -0.32147098 0.13115597
-0.14614344 -0.25195301 0.12982798
-0.14627944 -0.19950402 0.1248107
-0.14661744 -0.14141893 0.1123209
-0.14782643 -0.56624198 0.067629814
-0.14720544 -0.51955497 0.090574741
-0.14699145 -0.088824987 0.098513603
-0.14755245 -0.032958984 0.077764988
-0.14657743 -0.44976997 0.11380482
-0.15919743 0.15436101 -0.1283102
-0.15591244 0.079635024 -0.010686398
-0.15702744 0.113473 -0.050617218
-0.15190844 -0.321208 0.13262558
-0.15198144 -0.25194705 0.13001966
-0.15211944 -0.19948196 0.12509298
-0.15250345 -0.14161897 0.11133194
-0.15292645 -0.51830697 0.096183777
-0.15288945 -0.089017034 0.097515583
-0.15351044 -0.033372045 0.075286865
-0.15206344 -0.39760697 0.12709999
-0.15998144 0.007060051 0.055161953
-0.16118044 0.045367002 0.013553619
-0.16199544 0.079048038 -0.01476717
-0.15770744 -0.32094598 0.13409281
-0.15781944 -0.25194204 0.13021183
-0.16111444 -0.653651 0.015841961
-0.15795945 -0.19946098 0.12537479
-0.15839244 -0.14181995 0.11033869
-0.15896544 -0.56095505 0.090438843
-0.15879044 -0.089208961 0.096518993
-0.15810044 -0.44837999 0.12046385
-0.15784244 -0.39714801 0.12943172
-0.16596444 0.0066599846 0.052666664
-0.16724543 0.044761002 0.0095028877
-0.16814543 0.078191996 -0.02079916
-0.16947544 0.11144501 -0.06561327
-0.16350444 -0.32068598 0.13556099
-0.16365744 -0.25193799 0.130404
-0.16608144 -0.64559698 0.048720837
-0.16383344 -0.19965398 0.12448883
-0.16428244 -0.14202094 0.10934782
-0.16463244 -0.55932403 0.097542763
-0.16434143 -0.51582098 0.10737562
-0.16472945 -0.089607 0.094279766
-0.16544044 -0.034199953 0.070329666
-0.16385344 -0.44768798 0.12378883
-0.16364244 -0.39687204 0.13090277
-0.17200044 0.006024003 0.048609734
-0.17331944 0.044153988 0.0054497719
-0.17434745 0.077143013 -0.028222084
-0.17572044 0.11042601 -0.073135376
-0.16930744 -0.32048094 0.13675499
-0.16949543 -0.25193501 0.13059568
-0.17132644 -0.64023602 0.070670605
-0.17017543 -0.14222395 0.10835361
-0.17030644 -0.55783594 0.10404491
-0.17003344 -0.51457894 0.11297464
-0.17068043 -0.090042949 0.091817856
-0.17141244 -0.034615993 0.067848682
-0.16960244 -0.446998 0.12710857
-0.16944145 -0.39659798 0.13237095
-0.17805944 0.0053210258 0.04410553
-0.17940144 0.043543994 0.0013866425
-0.18056545 0.076090991 -0.035663128
-0.18208043 0.10898304 -0.083861351
-0.17514144 -0.32047904 0.13694668
-0.17533444 -0.25193298 0.13078785
-0.17683044 -0.63719594 0.083198547
-0.17559944 -0.20010698 0.12236166
-0.17607144 -0.14242804 0.10736084
-0.17597143 -0.55635297 0.11053467
-0.17569144 -0.51313794 0.11944962
-0.17663744 -0.090481043 0.089352608
-0.18412444 0.0046160221 0.03959465
-0.18548945 0.042934 -0.0026760101
-0.18679644 0.075035989 -0.043118477
-0.18863945 0.10679704 -0.10019636
-0.18097344 -0.32047701 0.13713884
-0.18117245 -0.25193202 0.13097954
-0.18231344 -0.63416898 0.095675945
-0.18148544 -0.20033693 0.12128496
-0.18196744 -0.14263296 0.10636759
-0.18162344 -0.55487299 0.11701298
-0.18138644 -0.51205802 0.12434864
-0.18259645 -0.090919018 0.08688879
-0.18337244 -0.035452008 0.062880993
-0.18103144 -0.39604497 0.13534498
-0.19019844 0.0039100647 0.03508091
-0.19161244 0.042207003 -0.0075483322
-0.19304045 0.07397902 -0.050587177
-0.19523044 0.10460204 -0.11660337
-0.18680644 -0.32047701 0.13733196
-0.18777543 -0.63115501 0.10810757
-0.18737444 -0.20056903 0.12020683
-0.18786643 -0.142838 0.10537577
-0.18935844 -0.035871029 0.060394764
-0.18681544 -0.44493794 0.13705397
-0.18681344 -0.39571095 0.1371088
-0.19628043 0.0032010078 0.030558586
-0.19929844 0.072917998 -0.058074474
-0.20185244 0.102395 -0.13308525
-0.19263844 -0.32047796 0.1375246
-0.19285144 -0.25195098 0.13126659
-0.19325344 -0.62840605 0.11946678
-0.19326544 -0.20080197 0.11912775
-0.19377445 -0.14308298 0.10415888
-0.19289744 -0.55192697 0.12992573
-0.19281344 -0.510306 0.13238096
-0.19453044 -0.091799021 0.081952572
-0.19538444 -0.036453009 0.056869984
-0.19257344 -0.44446003 0.13942766
-0.19259244 -0.39537895 0.13887167
-0.20557144 0.071853995 -0.06557703
-0.19847244 -0.32047999 0.13771582
-0.19873545 -0.25219405 0.13019276
-0.19885944 -0.626688 0.126647
-0.19915944 -0.20103502 0.11804867
-0.19973044 -0.14354396 0.10170555
-0.19851944 -0.55045903 0.13636684
-0.19851944 -0.50943398 0.13639164
-0.20050643 -0.092242002 0.079480648
-0.20145243 -0.037187934 0.052377701
-0.19835144 -0.44411695 0.14118958
-0.19837044 -0.39504802 0.14063454
-0.20847245 0.0017800331 0.021499634
-0.20994644 0.040374994 -0.019701004
-0.21211444 0.069799006 -0.080254078
-0.20461944 -0.25243795 0.12911797
-0.20505445 -0.70865297 0.11698771
-0.20445144 -0.62497401 0.13381195
-0.20568845 -0.14400601 0.099251747
-0.20421244 -0.54953504 0.14049864
-0.20421644 -0.50856304 0.1403966
-0.20648544 -0.092684984 0.077007771
-0.20752744 -0.037925005 0.04788065
-0.20412444 -0.44377601 0.14295197
-0.20414443 -0.39471698 0.14239693
-0.21457943 0.0010659695 0.016959667
-0.21601143 0.040000021 -0.022096157
-0.21013744 -0.32048595 0.13810062
-0.21050644 -0.25268197 0.12804461
-0.21045944 -0.70551896 0.12933874
-0.21003243 -0.62326503 0.14095974
-0.21095245 -0.20150602 0.11588955
-0.21165244 -0.14446902 0.096793652
-0.20990343 -0.54864299 0.14449978
-0.20990644 -0.50769496 0.14439678
-0.21361144 -0.03866303 0.04337883
-0.20989545 -0.44343603 0.14471197
-0.20991544 -0.39438903 0.14415693
-0.22217643 0.039260983 -0.027024269
-0.22540244 0.065226018 -0.11295319
-0.21597043 -0.32049096 0.13829279
-0.21639544 -0.25292897 0.12696981
-0.21925843 -0.79512799 0.050693989
-0.21584445 -0.70239794 0.14164686
-0.21560243 -0.621562 0.14809179
-0.21685144 -0.20174193 0.1148119
-0.21762043 -0.14493299 0.094335556
-0.21845645 -0.093574047 0.072057724
-0.21970245 -0.039402962 0.038869858
-0.21566343 -0.443097 0.14647055
-0.21568444 -0.39406097 0.14591694
-0.22687843 -0.0005890131 0.0063729286
-0.23398444 0.056133032 -0.17862225
-0.22180244 -0.32049704 0.13848591
-0.22228643 -0.25317597 0.12589359
-0.22410843 -0.78773093 0.078478813
-0.22128043 -0.69976294 0.15207386
-0.22116044 -0.61986303 0.15521097
-0.22359344 -0.14539897 0.091876984
-0.22126445 -0.54686701 0.1524868
-0.22126845 -0.50596499 0.15238571
-0.22444943 -0.094020009 0.069581985
-0.22580343 -0.040143967 0.03435564
-0.22142845 -0.44275999 0.1482296
-0.22147143 -0.39385295 0.14712095
-0.23314944 -0.0018240213 -0.0016222
-0.23478243 0.036873996 -0.04319334
-0.22763744 -0.32050395 0.13867855
-0.22818145 -0.25342405 0.1248188
-0.22891945 -0.78039396 0.10603952
-0.22670844 -0.618168 0.16231489
-0.22865945 -0.20221794 0.11265182
-0.22957245 -0.14586496 0.089414597
-0.22693744 -0.545982 0.15647459
-0.22694144 -0.50510299 0.15637398
-0.23050445 -0.094700933 0.065695763
-0.23191345 -0.040887952 0.029834747
-0.22719243 -0.44242299 0.14998865
-0.22728643 -0.39380097 0.14759254
-0.23346943 -0.32051098 0.13887167
-0.23407745 -0.25367296 0.12374163
-0.23428345 -0.77708495 0.11859894
-0.23236844 -0.69621193 0.16628361
-0.23226443 -0.61660695 0.16888475
-0.23462245 -0.20271194 0.11017895
-0.23260245 -0.54509997 0.1604557
-0.23265344 -0.50451195 0.15918159
-0.23658845 -0.095479965 0.061218739
-0.23803043 -0.04163301 0.025307655
-0.23295245 -0.44208801 0.15174675
-0.24777645 0.033325016 -0.067438126
-0.23932445 -0.32062995 0.13851976
-0.23997545 -0.25392294 0.12266684
-0.23971844 -0.77437794 0.1289196
-0.23789245 -0.61555004 0.17341089
-0.24059245 -0.20322001 0.10763454
-0.24154243 -0.14680195 0.084487915
-0.23826143 -0.54421902 0.16443396
-0.23838043 -0.50402701 0.16153765
-0.24268144 -0.096259952 0.056735992
-0.24415645 -0.042381048 0.020776749
-0.23870945 -0.44175398 0.15350389
-0.23891345 -0.3937 0.14853382
-0.25204945 -0.0055500269 -0.025722027
-0.25451744 0.030825019 -0.084605217
-0.24521145 -0.32089293 0.13744974
-0.24587545 -0.25417399 0.12159061
-0.24513745 -0.77168095 0.13920879
-0.24351943 -0.69335997 0.1778059
-0.24410245 -0.50354195 0.16389275
-0.24878243 -0.097043037 0.052247524
-0.25034243 -0.043318987 0.015025616
-0.24472645 -0.39365101 0.14900589
-0.25838244 -0.0067989826 -0.033793449
-0.26129445 0.028312027 -0.10186148
-0.25178045 -0.254426 0.12051392
-0.25054145 -0.76899397 0.14946795
-0.24908343 -0.691944 0.18353367
-0.24913043 -0.61344504 0.18244362
-0.25254944 -0.20423901 0.10253954
-0.24956045 -0.54246497 0.17237759
-0.24982345 -0.50305903 0.16624784
-0.25489345 -0.097826958 0.047752857
-0.25663444 -0.044607043 0.0070509911
-0.25054044 -0.39360404 0.14947653
-0.26472843 -0.0080519915 -0.041883469
-0.27046645 0.018018961 -0.17330313
-0.25699243 -0.32142401 0.13530874
-0.25768545 -0.25467896 0.11943865
-0.25955945 -0.84937096 0.0765028
-0.25592744 -0.76631594 0.15969276
-0.25463644 -0.69053197 0.18925285
-0.25473744 -0.612396 0.18695164
-0.25853443 -0.20475101 0.099990845
-0.25955945 -0.14831793 0.076498985
-0.25524145 -0.54181397 0.17539263
-0.25553843 -0.50257802 0.16859865
-0.26101145 -0.098613977 0.043252945
-0.25601444 -0.44099498 0.15770054
-0.25635245 -0.39355695 0.14994764
-0.27143943 -0.01048696 -0.057837009
-0.26288545 -0.32169104 0.13423777
-0.26362544 -0.255077 0.11760855
-0.26422945 -0.84179795 0.10405588
-0.26133245 -0.76385701 0.16910982
-0.26018143 -0.68912399 0.19496059
-0.26452443 -0.20526397 0.097439766
-0.26565945 -0.14915097 0.071955681
-0.26092643 -0.54120803 0.17822695
-0.26713845 -0.099401951 0.038747787
-0.26926243 -0.047192931 -0.0089454651
-0.26216444 -0.39351094 0.15042067
-0.26878044 -0.32195902 0.13316679
-0.26960245 -0.25561094 0.11507177
-0.26903945 -0.835374 0.12746572
-0.26592943 -0.61030495 0.19595098
-0.27051944 -0.205778 0.09488678
-0.27176845 -0.14999199 0.067374706
-0.26695845 -0.50161898 0.17329788
-0.27559844 -0.048491955 -0.016975403
-0.26759243 -0.44074798 0.15934181
-0.26797545 -0.39346695 0.15089273
-0.28505743 -0.015717983 -0.092143059
-0.27558443 -0.25614595 0.11253262
-0.27441645 -0.83259404 0.13775492
-0.27243444 -0.76091802 0.18058157
-0.27134243 -0.68687701 0.20418787
-0.27151543 -0.60926402 0.20044184
-0.27651945 -0.20629299 0.09233284
-0.27788645 -0.15083504 0.062788963
-0.27228144 -0.53999996 0.18388367
-0.27941743 -0.10098398 0.029717922
-0.28195044 -0.049793959 -0.02502203
-0.27336943 -0.44057798 0.16038275
-0.27378643 -0.39342296 0.15136766
-0.28157243 -0.25668204 0.10999155
-0.27797344 -0.75945401 0.18630362
-0.27696845 -0.68605995 0.20761776
-0.28252545 -0.20681 0.089774609
-0.27795443 -0.53939795 0.18671274
-0.27836543 -0.50066602 0.17799282
-0.27914643 -0.44040895 0.16142464
-0.27959844 -0.39338005 0.15183973
-0.28648344 -0.32276905 0.12995386
-0.28756443 -0.25721896 0.10745096
-0.28512445 -0.82706094 0.1582408
-0.28350243 -0.75799394 0.19201565
-0.28258845 -0.68524599 0.21104574
-0.28266644 -0.60718894 0.20940876
-0.28853545 -0.20732796 0.087216854
-0.28406245 -0.50019205 0.18033886
-0.29202545 -0.10358202 0.014565945
-0.28492144 -0.44024098 0.16246462
-0.29238445 -0.32302701 0.12895393
-0.29356045 -0.25775802 0.10490561
-0.29045343 -0.82430995 0.16843367
-0.28820243 -0.68443394 0.21446896
-0.28827944 -0.60639894 0.21289396
-0.29460543 -0.20805097 0.083546638
-0.29629543 -0.15337598 0.048989773
-0.28928345 -0.53819895 0.19236088
-0.28975743 -0.49972296 0.18266296
-0.29836845 -0.10494804 0.0065956116
-0.30194145 -0.056416035 -0.066460133
-0.29069445 -0.44007397 0.16350698
-0.29128644 -0.39358997 0.15140867
-0.29827744 -0.32324302 0.12816572
-0.29576743 -0.82156897 0.17859554
-0.29453143 -0.75508702 0.20340872
-0.29381144 -0.68362403 0.21788883
-0.29392043 -0.60577798 0.21569872
-0.30072644 -0.20893693 0.078983784
-0.29494143 -0.53760302 0.19517994
-0.29551345 -0.49955094 0.18369865
-0.30882043 -0.059149027 -0.083611012
-0.29646644 -0.43990898 0.16454887
-0.29715943 -0.39381695 0.15062571
-0.30420044 -0.32356501 0.1268568
-0.30557045 -0.25883996 0.099811554
-0.30118245 -0.819471 0.18644476
-0.30003443 -0.75363803 0.20909166
-0.29941645 -0.68281603 0.22130585
-0.29955843 -0.60515797 0.21850395
-0.30685744 -0.20982504 0.07441473
-0.30861244 -0.15507996 0.039759636
-0.30126843 -0.49937999 0.18473673
-0.31110343 -0.107692 -0.0094032288
-0.30223843 -0.439744 0.16559076
-0.31017143 -0.32407093 0.12463665
-0.31158245 -0.25938296 0.097262859
-0.30669245 -0.81796896 0.19215393
-0.30501443 -0.68200994 0.22471857
-0.30519044 -0.60453999 0.22130394
-0.31299543 -0.21071601 0.06983757
-0.31490844 -0.15635502 0.032718658
-0.30624643 -0.53641295 0.20081854
-0.30702144 -0.49921 0.18577194
-0.30891344 -0.39427495 0.14905977
-0.31614745 -0.324579 0.12241459
-0.31219444 -0.81647003 0.197855
-0.31105444 -0.75097704 0.21959686
-0.31060743 -0.68120694 0.22812891
-0.31081843 -0.60392404 0.22410297
-0.31914344 -0.21160793 0.065257549
-0.32127145 -0.15780997 0.024644852
-0.31189144 -0.53582096 0.20363474
-0.31276545 -0.49900699 0.18695879
-0.31377545 -0.43941796 0.16767359
-0.31479245 -0.39450598 0.14827681
-0.31664944 -0.75014198 0.22300959
-0.31619543 -0.68040502 0.23153496
-0.31644243 -0.60330904 0.22690153
-0.32529944 -0.212502 0.060671806
-0.32765043 -0.15927005 0.016550541
-0.31759444 -0.53550494 0.20528173
-0.31849045 -0.498734 0.18845463
-0.33104044 -0.11407697 -0.047075272
-0.31957644 -0.439399 0.16806793
-0.32067344 -0.39473701 0.14749384
-0.32811245 -0.32559896 0.11796761
-0.32317045 -0.81348395 0.2092247
-0.32223845 -0.74930799 0.22642183
-0.33146444 -0.21339893 0.056076527
-0.33404443 -0.16073394 0.0084366798
-0.32330343 -0.53522801 0.20677185
-0.32421443 -0.49846196 0.1899519
-0.33797443 -0.11695194 -0.064127445
-0.32541043 -0.43951094 0.16786766
-0.33410344 -0.32611001 0.11574268
-0.33595443 -0.26250994 0.082110882
-0.32782444 -0.74847698 0.2298317
-0.32735643 -0.67880797 0.23833895
-0.32767844 -0.60208499 0.23249197
-0.33764043 -0.21429801 0.051476955
-0.34045643 -0.16220295 0.00030183792
-0.32901144 -0.53495097 0.20826054
-0.32993644 -0.49819195 0.19144869
-0.34657943 -0.12475204 -0.11095047
-0.33124545 -0.43962502 0.16766787
-0.33244243 -0.39520395 0.14592695
-0.34009743 -0.32662296 0.11351681
-0.34210745 -0.26344204 0.07754755
-0.33340344 -0.747648 0.23323679
-0.33298445 -0.67827094 0.24073696
-0.33328944 -0.601475 0.23528481
-0.34387845 -0.215379 0.045884609
-0.34688243 -0.16367602 -0.0078511238
-0.33471644 -0.534675 0.20975065
-0.33565643 -0.49792194 0.19294596
-0.33708045 -0.43973899 0.16746855
-0.33829945 -0.395329 0.14566088
-0.34827045 -0.26437604 0.072979927
-0.34033644 -0.81278503 0.21270275
-0.33863845 -0.67787194 0.24260473
-0.33889544 -0.60086703 0.23807478
-0.35026544 -0.21690893 0.037844658
-0.35368145 -0.16624403 -0.022306442
-0.34041944 -0.53440201 0.21123981
-0.34291643 -0.43985498 0.16726875
-0.34415445 -0.39544094 0.14545965
-0.35209844 -0.32765293 0.10906076
-0.34612945 -0.81291294 0.21257162
-0.34454644 -0.74599695 0.24003458
-0.34429044 -0.67747402 0.24447298
-0.35666943 -0.21844304 0.029784679
-0.34612045 -0.53412795 0.21273088
-0.34708843 -0.49738598 0.19593859
-0.34875345 -0.43997097 0.16707182
-0.35001445 -0.39556599 0.14520597
-0.35810545 -0.32816994 0.10682964
-0.36062244 -0.26625097 0.063824654
-0.35192344 -0.813043 0.21243858
-0.35010943 -0.74517393 0.24342871
-0.34993944 -0.67707801 0.24633789
-0.35015345 -0.59989297 0.2426877
-0.36308843 -0.21998203 0.021705627
-0.36767745 -0.17233694 -0.056701183
-0.35181943 -0.53385603 0.21421957
-0.35280144 -0.49712002 0.19743586
-0.35459045 -0.44008899 0.16687489
-0.35595143 -0.39597094 0.1436367
-0.36681443 -0.26719201 0.059236526
-0.35772043 -0.81317496 0.21230268
-0.35558745 -0.67668295 0.24820471
-0.35584244 -0.59967399 0.2439146
-0.36952543 -0.22152495 0.013605595
-0.35851943 -0.49687397 0.19884682
-0.36043045 -0.440207 0.16667557
-0.36189243 -0.39637697 0.14206791
-0.37030345 -0.32976794 0.099579811
-0.37311244 -0.26845098 0.052983761
-0.36351645 -0.81331003 0.21216393
-0.36123145 -0.67629004 0.25006866
-0.36156544 -0.59960997 0.24451685
-0.37597644 -0.22307301 0.0054869652
-0.36321244 -0.53331602 0.21720076
-0.36430243 -0.49689102 0.199121
-0.36627045 -0.44032705 0.16647959
-0.36783645 -0.39678395 0.14049959
-0.37644544 -0.33067799 0.095410824
