# .PCD v0.7 - Point Cloud Data file format
VERSION 0.7
FIELDS x y z
SIZE 4 4 4
TYPE F F F
COUNT 1 1 1
WIDTH 1368
HEIGHT 1
VIEWPOINT 0 0 0 1 0 0 0
POINTS 1368
DATA ascii
0.61882687 0.40932584 -1.1891813
0.60308385 0.23159784 -1.0506763
0.60373878 0.28048581 -1.0608044
0.60658181 0.33275586 -1.1047721
0.6092608 0.36379385 -1.1462021
0.61216283 0.40921283 -1.1910734
0.5954088 0.23326284 -1.0348682
0.59645182 0.28144586 -1.0512223
0.60549378 0.40909982 -1.1929674
0.58892286 0.19882184 -1.0374832
0.58776784 0.23491883 -1.0191345
0.58918583 0.28240383 -1.0416651
0.59251684 0.33373183 -1.0946155
0.59511685 0.36472982 -1.1359291
0.59882379 0.40898585 -1.1948605
0.58129382 0.20055181 -1.0217385
0.58024883 0.23642182 -1.0048833
0.58193886 0.28335786 -1.0321345
0.58550084 0.33421785 -1.0895452
0.58806086 0.36519581 -1.1308031
0.59215182 0.40887082 -1.1967545
0.57369781 0.20227283 -1.0060611
0.57471085 0.28430986 -1.0226283
0.57849479 0.33470285 -1.0844831
0.58101481 0.36566085 -1.1256852
0.58553082 0.40868783 -1.1995292
0.56613386 0.20398682 -0.99044943
0.56586778 0.23843682 -0.98603344
0.56750178 0.28525782 -1.0131454
0.57116783 0.33567083 -1.0739532
0.57397878 0.36612481 -1.1205745
0.57891178 0.40849686 -1.2023935
0.55859983 0.20569283 -0.9749012
0.55870384 0.23943985 -0.97664213
0.56030983 0.28620285 -1.0036883
0.56415486 0.33619785 -1.0684032
0.56713879 0.36632383 -1.1186185
0.57228583 0.40830582 -1.2052593
0.55109984 0.20739084 -0.9594202
0.55155981 0.24043983 -0.96727848
0.55313885 0.28714585 -0.9942565
0.55715483 0.33672386 -1.0628643
0.56565785 0.40811384 -1.2081304
0.54665387 0.15089583 -0.99642849
0.54363084 0.20908082 -0.94400835
0.54443383 0.24143583 -0.95793819
0.54608381 0.28792185 -0.98654747
0.55016583 0.33724785 -1.0573325
0.55818379 0.40905583 -1.1963973
0.53776783 0.15550381 -0.95637035
0.53628582 0.21058983 -0.93027925
0.53732681 0.24242985 -0.94862032
0.53917283 0.28847784 -0.98113012
0.54694784 0.36646986 -1.1180472
0.55144584 0.40901983 -1.1972513
0.53032887 0.15730083 -0.94096851
0.52921379 0.21161884 -0.92103148
0.53023684 0.24341983 -0.93932438
0.53227079 0.28903282 -0.9757185
0.53621686 0.33829284 -1.0462923
0.54021782 0.36651784 -1.1178513
0.54487884 0.40874183 -1.2012134
0.52292281 0.15908986 -0.92563438
0.52216184 0.21264386 -0.91180754
0.52316582 0.24440682 -0.9300561
0.5253818 0.28958583 -0.97031546
0.5292598 0.33881283 -1.0407825
0.53348982 0.36656582 -1.1176543
0.53947383 0.40681481 -1.2263875
0.51554781 0.16087085 -0.9103632
0.51512784 0.21366686 -0.90260744
0.51611382 0.24539083 -0.92081308
0.52237487 0.33923084 -1.0364203
0.5267638 0.36661285 -1.1174574
0.53295684 0.40642184 -1.2318063
0.50811183 0.21468586 -0.89342928
0.51163381 0.29068881 -0.95953226
0.51570487 0.33930582 -1.0359321
0.52003783 0.36665982 -1.1172571
0.52649581 0.40593386 -1.2384553
0.50089085 0.16440684 -0.88001537
0.50111383 0.21570182 -0.88427544
0.50477582 0.29123783 -0.95415354
0.51331282 0.36670685 -1.1170564
0.52005386 0.40540183 -1.2456641
0.49737182 0.11335582 -0.93801546
0.49413183 0.21671486 -0.87514448
0.49792582 0.29178584 -0.94877815
0.50236684 0.33945382 -1.0349531
0.50658786 0.36675286 -1.1168561
0.51361382 0.40484387 -1.2531991
0.48828584 0.11937982 -0.88808441
0.48635283 0.16791183 -0.84991646
0.48716882 0.21772385 -0.86603832
0.49108884 0.29233283 -0.9434123
0.49570084 0.33952785 -1.0344625
0.50001383 0.36655086 -1.1196012
0.48027584 0.12302583 -0.85798931
0.47912982 0.16965282 -0.83496237
0.48022482 0.21872985 -0.8569541
0.48122483 0.25004882 -0.87704611
0.48426184 0.29287785 -0.93805122
0.48903683 0.33960086 -1.0339694
0.49399284 0.36540884 -1.1335263
0.47305784 0.12486082 -0.84300232
0.47194982 0.17135382 -0.82034349
0.47329682 0.21973383 -0.84789228
0.47744483 0.29342282 -0.9326992
0.48237383 0.33967286 -1.0334764
0.48794982 0.36426282 -1.1475005
0.46506482 0.17241186 -0.81136942
0.46638483 0.22073382 -0.83885241
0.46771482 0.25119084 -0.86652946
0.47063583 0.29396582 -0.92735243
0.48188484 0.36311084 -1.1615243
0.45870882 0.12850481 -0.8132143
0.45819983 0.17346585 -0.80242109
0.45949283 0.22173083 -0.82983732
0.44137982 0.0063368082 -0.44574022
0.46097583 0.25175983 -0.8612833
0.46383983 0.29450685 -0.92201424
0.44121283 0.045508862 -0.4422102
0.44189283 0.083699822 -0.45662642
0.46904981 0.33981681 -1.0324864
0.47579882 0.36195582 -1.1755953
0.45583382 0.081208825 -0.89031744
0.45157984 0.13031483 -0.79841232
0.45135182 0.17451686 -0.79349518
0.43669182 -0.044124126 -0.47674036
0.43343684 0.01202184 -0.40642738
0.45424682 0.25232786 -0.85604143
0.45705384 0.29504782 -0.9166851
0.43473682 0.086663842 -0.43451023
0.46239084 0.33988786 -1.0319934
0.44708481 0.087401867 -0.84104729
0.44403383 0.13329083 -0.77386332
0.44450584 0.17560387 -0.78424549
0.44575983 0.22371584 -0.81187153
0.42829484 -0.036655188 -0.42726421
0.42668682 0.014156818 -0.39183331
0.44752783 0.25289482 -0.85080719
0.45027784 0.29558682 -0.91136122
0.42697984 0.051648855 -0.3982954
0.42762583 0.089608848 -0.41253042
0.45573384 0.33995885 -1.0314994
0.42264983 0.13784182 -0.43760729
0.43680283 0.13553983 -0.75538635
0.43755081 0.17700881 -0.77219343
0.43899283 0.22452682 -0.80457354
0.42011383 0.015798867 -0.38066435
0.44081882 0.25345981 -0.84558153
0.44372484 0.29566586 -0.91082239
0.42056084 0.09253484 -0.39068842
0.44925183 0.33968282 -1.0349202
0.43061784 0.17840981 -0.76017523
0.43233082 0.22510886 -0.7994113
0.41449782 -0.031125188 -0.39096451
0.41356182 0.017435849 -0.36952734
0.41366082 0.055381835 -0.37179422
0.41376284 0.094758809 -0.37414646
0.44328484 0.33834785 -1.0502954
0.41617683 -0.08193922 -0.42941523
0.40916482 0.14157385 -0.40827036
0.41086984 0.17242086 -0.4481101
0.42370984 0.17980486 -0.74820042
0.42567983 0.22568983 -0.79425907
0.40777582 -0.028810143 -0.37580824
0.40703282 0.019066811 -0.35843134
0.42742184 0.25460583 -0.83495617
0.43062684 0.29581285 -0.90986109
0.40727583 0.096118808 -0.36412525
0.43729484 0.33700687 -1.0657234
0.40941381 -0.079498172 -0.4140873
0.40246582 0.14342684 -0.3936944
0.40412882 0.17421782 -0.43336916
0.41682383 0.18119484 -0.73626423
0.41903883 0.22626883 -0.78911018
0.40108484 -0.026508212 -0.36072206
0.40089184 0.097209811 -0.35613346
0.43128183 0.33566183 -1.0812125
0.40268183 -0.077069163 -0.39882946
0.39741781 0.17600685 -0.4186902
0.41244683 0.22674584 -0.78491831
0.39442182 -0.024216175 -0.34570122
0.39403781 0.022308826 -0.3363471
0.41408083 0.25570685 -0.82473946
0.39413881 0.060042858 -0.33878946
0.42524484 0.33430982 -1.0967593
0.39597884 -0.074652195 -0.38363838
0.38934782 0.14649886 -0.36959553
0.40312082 0.18395883 -0.71250916
0.40569082 0.22767282 -0.77650642
0.38778782 -0.021935105 -0.33074522
0.38757083 0.023921847 -0.32535648
0.40741983 0.25626582 -0.81954527
0.41098982 0.29602885 -0.90842247
0.38771984 0.061417818 -0.32906342
0.38816783 0.099382818 -0.34020519
0.38930482 -0.072246194 -0.36851215
0.38299382 0.14748687 -0.36192751
0.38407782 0.17956084 -0.3895154
0.38665482 0.21329683 -0.45510149
0.39894682 0.22861582 -0.76794529
0.38125181 -0.019925117 -0.3175931
0.40076983 0.25682282 -0.81436014
0.40444684 0.29609984 -0.90794039
0.38132182 0.062789857 -0.3193655
0.38182881 0.10046381 -0.33226824
0.38266182 -0.069852114 -0.35345936
0.37665483 0.14847183 -0.35427618
0.37745184 0.18132585 -0.37501717
0.37988883 0.21521884 -0.4384594
0.37480882 -0.018185139 -0.3062315
0.37473083 0.027025819 -0.30419731
0.39413083 0.25737882 -0.80918217
0.39790583 0.29616982 -0.90745831
0.37494183 0.064155817 -0.30969715
0.37604782 -0.067471147 -0.33847427
0.37106982 0.18239081 -0.36635828
0.37336981 0.21647781 -0.42762947
0.38551381 0.23046786 -0.75110531
0.36841184 -0.016548157 -0.29554939
0.36837482 0.02843982 -0.29457235
0.38749984 0.25793386 -0.80401134
0.39136583 0.29624087 -0.90697336
0.36858082 0.065517843 -0.30005741
0.36919582 0.10261685 -0.3164525
0.36946282 -0.065100193 -0.32355642
0.36401883 0.15043283 -0.3390255
0.36474082 0.18333483 -0.35869741
0.36687183 0.21773285 -0.4168334
0.36189982 -0.014365196 -0.28122044
0.36203682 0.029848814 -0.2849741
0.38103083 0.25806582 -0.80295849
0.38482684 0.29630983 -0.90648937
0.36223784 0.066874862 -0.29044437
0.36290282 0.10368884 -0.30857229
0.36618084 -0.13787711 -0.39798832
0.36293682 -0.062869191 -0.30952454
0.35847083 0.18411785 -0.35237741
0.37228882 0.23187482 -0.73841524
0.35541284 -0.012191176 -0.26694918
0.37458283 0.25813782 -0.80248833
0.35593483 0.068133831 -0.28153849
0.35662183 0.10475683 -0.30070829
0.35907781 -0.13310611 -0.36934328
0.35642183 -0.060583115 -0.29513311
0.35143882 0.15238285 -0.32383919
0.35393482 0.22023082 -0.39532852
0.36573282 0.23245984 -0.73316145
0.34895581 -0.010028124 -0.25274324
0.34944582 0.032521844 -0.26677513
0.36816883 0.25811684 -0.80291653
0.37218282 0.29526281 -0.91787815
0.34984082 0.068638861 -0.27809048
0.35035682 0.10582286 -0.29286432
0.35128683 -0.12482917 -0.31948137
0.34517083 0.15335381 -0.31627226
0.34602582 0.18548483 -0.34138823
0.34749782 0.22147286 -0.38462448
0.35916984 0.23309481 -0.72744131
0.3426488 -0.0084161758 -0.24220753
0.36171684 0.25820786 -0.80225039
0.36615983 0.29385984 -0.93274736
0.34363583 0.069616854 -0.27120113
0.34410781 0.10688484 -0.28503847
0.34478882 -0.12241018 -0.30505419
0.34347785 -0.056044221 -0.26654625
0.34114784 0.22248286 -0.37595844
0.34431082 0.26049185 -0.47132111
0.33641782 -0.0070641041 -0.23339653
0.33693784 0.035123825 -0.24904919
0.35521084 0.25847185 -0.79989243
0.36011285 0.29244983 -0.94767237
0.33787182 0.10794383 -0.27722931
0.33831882 -0.1200031 -0.29069138
0.33704683 -0.053790212 -0.25234413
0.33267581 0.15528786 -0.30118513
0.33361983 0.18684483 -0.33043337
0.33491182 0.22313583 -0.37041807
0.3302018 -0.0057162046 -0.22460651
0.35404083 0.29103482 -0.9626565
0.33113384 0.072120845 -0.25345039
0.33157882 0.10929286 -0.26722336
0.33187485 -0.11760616 -0.2763834
0.33064082 -0.051546216 -0.23819923
0.32644981 0.15624982 -0.29367018
0.32868785 0.22378683 -0.36488914
0.33093184 0.26427782 -0.43630219
0.32400382 -0.0043731928 -0.21584225
0.32449383 0.037708819 -0.23141623
0.34220982 0.25899684 -0.79517412
0.32533982 0.11049181 -0.25834751
0.32545882 -0.11522114 -0.26214123
0.32023782 0.15720981 -0.2861681
0.32125682 0.18819785 -0.31951141
0.32247484 0.22443682 -0.35936832
0.32449383 0.26545584 -0.42546511
0.31782183 -0.0030341148 -0.20710135
0.31829682 0.038995862 -0.22263336
0.33571783 0.25925887 -0.79281425
0.31869882 0.074607849 -0.23579407
0.31907082 -0.11284721 -0.24796152
0.31791383 -0.047091126 -0.21009445
0.31627083 0.22508484 -0.35385609
0.31809682 0.26655483 -0.4153614
0.31165683 -0.0017001629 -0.19838428
0.31211683 0.040277839 -0.21387434
0.31250584 0.075845838 -0.22699928
0.31291181 0.11287785 -0.24066734
0.31729382 -0.19281614 -0.3883152
0.31270882 -0.11048317 -0.23383951
0.31158984 -0.044878125 -0.19613028
0.30795783 0.15868086 -0.27473927
0.30893382 0.18954384 -0.30862331
0.31007785 0.22573084 -0.34835243
0.31178382 0.26740885 -0.40755033
0.30550784 -0.00036919117 -0.1896863
0.30595285 0.041555822 -0.20513725
0.32275283 0.25975382 -0.78836346
0.30672282 0.11406481 -0.23186111
0.31075183 -0.18990719 -0.37172318
0.30637485 -0.10813117 -0.21977949
0.30529284 -0.042675138 -0.18222523
0.30183882 0.15938383 -0.26928329
0.30278581 0.19021481 -0.30318928
0.3038938 0.22637683 -0.34285545
0.3054828 0.26826084 -0.39975548
0.29937282 0.00095689297 -0.1810112
0.31639481 0.25956184 -0.79041719
0.30016783 0.078309834 -0.20947933
0.29901981 -0.040482163 -0.16837645
0.29664883 0.19088483 -0.29776525
0.29772082 0.22701985 -0.33736753
0.29919881 0.26910985 -0.39197636
0.29367185 0.044100821 -0.18773031
0.31017682 0.25883484 -0.79770041
0.29402381 0.079535842 -0.20075512
0.29449183 0.11593783 -0.21802521
0.29626682 -0.17457318 -0.28364229
0.29378283 -0.10345817 -0.1918292
0.29284781 -0.038723111 -0.15729141
0.28963083 0.16079485 -0.25830317
0.29155782 0.22766185 -0.33188725
0.29300183 0.26965684 -0.38701439
0.28715482 0.0035967827 -0.16373253
0.29501882 0.29300284 -0.46406507
0.28789583 0.080757856 -0.19205332
0.28842682 0.11671585 -0.21230221
0.28843981 -0.16226315 -0.21281815
0.28752685 -0.10113811 -0.17794514
0.28676081 -0.037355185 -0.14870214
0.28354281 0.16149783 -0.25282526
0.28440583 0.19221783 -0.28694153
0.28540483 0.22830182 -0.32641506
0.28685382 0.27003384 -0.3836441
0.28106982 0.0049108267 -0.15512514
0.28145683 0.046628833 -0.17041731
0.28868884 0.29383081 -0.45613813
0.28237182 0.11749083 -0.20658731
0.28129682 -0.098828197 -0.16411829
0.28068984 -0.035991192 -0.14013338
0.27746284 0.16219884 -0.24735641
0.27829784 0.19288284 -0.28154135
0.27926081 0.22894084 -0.32095242
0.27499884 0.0062198639 -0.14653921
0.27537084 0.047886848 -0.16179228
0.28237182 0.29465586 -0.44822741
0.27568683 0.083190858 -0.17471552
0.27632684 0.11826485 -0.20088243
0.27593684 -0.15737522 -0.18493128
0.27509183 -0.096529126 -0.15034819
0.27463281 -0.034631133 -0.13158607
0.27139384 0.16289884 -0.24189425
0.27457583 0.27078485 -0.37691307
0.26894483 0.0075258017 -0.13797712
0.26930383 0.049140811 -0.15319014
0.27606982 0.29547882 -0.44033432
0.26960683 0.084400833 -0.16607952
0.27028781 0.11906385 -0.19497919
0.26972485 -0.15494812 -0.17107725
0.26891282 -0.094240189 -0.1366353
0.26859385 -0.033275127 -0.12306118
0.26533484 0.16359681 -0.23644114
0.26608884 0.19433784 -0.26966619
0.26700583 0.23021382 -0.31005049
0.26844683 0.27115881 -0.37355328
0.26290682 0.0088268518 -0.12943745
0.26978382 0.29629982 -0.4324584
0.26423985 0.11997986 -0.18818712
0.26353884 -0.15253317 -0.15728331
0.26256883 -0.031924129 -0.11456013
0.25928283 0.16431385 -0.23082542
0.26000381 0.19504982 -0.26385212
0.26089281 0.23084784 -0.30461216
0.26232383 0.27153182 -0.37019539
0.25688481 0.010123849 -0.12091923
0.26351082 0.29711783 -0.42460012
0.25822884 0.12074786 -0.18251038
0.25737882 -0.15012813 -0.1435461
0.2566328 -0.089693189 -0.10938454
0.25656083 -0.030577183 -0.10608053
0.25323784 0.16504782 -0.2250762
0.25392783 0.19575983 -0.2580471
0.25479582 0.23144984 -0.29944515
0.25620681 0.27190381 -0.36684036
0.25087783 0.011416793 -0.11242151
0.25119382 0.05287981 -0.12751722
0.25149983 0.087760866 -0.14210844
0.25124282 -0.14773417 -0.12986326
0.25053084 -0.087436199 -0.095843315
0.25056782 -0.029235125 -0.097622395
0.24720183 0.16577882 -0.21933746
0.24786183 0.19646883 -0.25225019
0.24874383 0.23183882 -0.29615736
0.25009483 0.27227587 -0.36348534
0.24488482 0.012706816 -0.10394526
0.24518682 0.054117858 -0.1190033
0.25100684 0.29874784 -0.40892935
0.24624683 0.12219584 -0.17180109
0.24878483 -0.23856711 -0.29823208
0.24513182 -0.14535022 -0.11623621
0.24445182 -0.085187197 -0.082355499
0.24458882 -0.027896166 -0.089182377
0.24117683 0.16650885 -0.21360731
0.24180783 0.19717586 -0.24646425
0.24399082 0.27264684 -0.36013412
0.23919782 0.055352867 -0.11051035
0.24483983 0.29922682 -0.40436506
0.23958983 0.089336812 -0.13092136
0.24027182 0.12291783 -0.16645908
0.24196982 -0.23064411 -0.25491142
0.23904683 -0.14297819 -0.10266924
0.23839882 -0.082950115 -0.068925381
0.23862682 -0.026562214 -0.080766201
0.23516282 0.16723686 -0.20788717
0.23576483 0.19787985 -0.24068832
0.23652983 0.23342282 -0.28246641
0.23789182 0.27301586 -0.35678625
0.23294882 0.015271842 -0.087059498
0.23322283 0.056582808 -0.10204029
0.23870182 0.29958582 -0.40097332
0.23430583 0.12363684 -0.16112709
0.23524082 -0.22282219 -0.21213818
0.23298682 -0.14061618 -0.089158535
0.23237082 -0.080722213 -0.055552483
0.23267983 -0.025231123 -0.072371483
0.22915983 0.16796285 -0.20217609
0.23051183 0.23375887 -0.27962112
0.23178482 0.27347684 -0.35258532
0.22726382 0.05780983 -0.093591213
0.23257083 0.29994386 -0.39758539
0.22772083 0.090903819 -0.1197691
0.22834583 0.12438482 -0.15557432
0.22859582 -0.21510017 -0.16990519
0.22695182 -0.13826513 -0.07570219
0.22674783 -0.023906112 -0.063998222
0.22316483 0.16868782 -0.19647217
0.22370683 0.19928485 -0.22916317
0.22449583 0.23409283 -0.27677917
0.22569883 0.27383584 -0.34932709
0.22107182 0.017822862 -0.070257187
0.22131883 0.059032857 -0.085162163
0.22643882 0.30032581 -0.39395523
0.22179183 0.091760814 -0.11365843
0.22239283 0.12514186 -0.14994907
0.22093982 -0.13592422 -0.062299252
0.22050083 -0.077427149 -0.035809517
0.22082983 -0.022583127 -0.055644512
0.21718183 0.16940981 -0.19078016
0.21769384 0.19998485 -0.22341442
0.21848783 0.23442686 -0.27394009
0.21515682 0.019091845 -0.061888218
0.21539083 0.060252845 -0.076754093
0.22032183 0.30067283 -0.39065742
0.21588683 0.092504859 -0.10835123
0.21645182 0.12589586 -0.14433622
0.21553382 -0.19973719 -0.085863113
0.21461684 -0.076044202 -0.027528286
0.21492782 -0.021266222 -0.04731226
0.21120882 0.17013085 -0.18509722
0.21354882 0.27455086 -0.34281921
0.20925683 0.020356834 -0.053541183
0.20948783 0.061360836 -0.069114208
0.21420982 0.30101985 -0.38736248
0.20999283 0.093240857 -0.10310841
0.21052083 0.12664884 -0.13873148
0.20953682 -0.19727015 -0.072424412
0.20899183 -0.1312741 -0.035663128
0.20904183 -0.019952178 -0.039003372
0.20524684 0.17084986 -0.17942333
0.20570083 0.20137882 -0.21194649
0.20648682 0.23509383 -0.26826334
0.20748283 0.27490783 -0.33957052
0.20337182 0.02161783 -0.04521513
0.20362982 0.062158823 -0.063634396
0.20810983 0.30132383 -0.38447618
0.20410383 0.094015837 -0.097571373
0.20459983 0.12739986 -0.13313532
0.20356584 -0.19481421 -0.059038162
0.20305383 -0.12896514 -0.022426128
0.20289484 -0.07329011 -0.01102829
0.20316982 -0.018643141 -0.030714512
0.19929382 0.17156684 -0.17375851
0.19971883 0.20207286 -0.20622635
0.20049383 0.23542482 -0.26542807
0.20142183 0.27526283 -0.33632231
0.19750282 0.022874832 -0.036911488
0.19778082 0.062954843 -0.058162212
0.19822383 0.094788849 -0.092044353
0.19868883 0.12814885 -0.12754726
0.19761783 -0.19236815 -0.045709133
0.19713983 -0.12666619 -0.009244442
0.19334982 0.17228186 -0.16810036
0.19374582 0.20276582 -0.20051336
0.19450483 0.23575586 -0.26259327
0.19536582 0.27561784 -0.33307552
0.19164583 0.024128854 -0.028624535
0.19193983 0.063748837 -0.05270052
0.19598183 0.30144083 -0.38349628
0.19235381 0.095559835 -0.086523533
0.19278683 0.12889582 -0.12196827
0.19169283 -0.18993318 -0.032431126
0.19124883 -0.12437713 0.0038876534
0.19123083 -0.070553184 0.0053896904
0.19146982 -0.016035199 -0.014194489
0.18741783 0.17299587 -0.16245317
0.18780982 0.20318985 -0.19703722
0.18852183 0.23608685 -0.25975943
0.18580583 0.02537781 -0.02036047
0.18991983 0.30149782 -0.38300419
0.19147283 0.33377981 -0.51986122
0.18689582 0.12964082 -0.11639929
0.18538283 -0.12209821 0.016963482
0.18542083 -0.069190145 0.013569832
0.18564282 -0.014738202 -0.0059671402
0.18149582 0.17370683 -0.15681553
0.18188784 0.20352983 -0.19425917
0.18254383 0.23641586 -0.2569294
0.17998083 0.026623845 -0.012117386
0.18029183 0.065330863 -0.041801453
0.18385983 0.30155486 -0.38251209
0.18525183 0.33420682 -0.51547432
0.18064483 0.09709686 -0.075513363
0.18101382 0.13038486 -0.11083841
0.18136983 -0.26382017 -0.14478445
0.17991683 -0.18509722 -0.0060415268
0.17953983 -0.11982918 0.029987812
0.17962582 -0.067833185 0.021726608
0.17982984 -0.013445139 0.0022397041
0.17558382 0.17441684 -0.15118647
0.17597082 0.20386982 -0.19148111
0.17657182 0.23674482 -0.25409937
0.17723683 0.27667785 -0.32335234
0.17416982 0.027864814 -0.0038952827
0.17448182 0.066118836 -0.036363125
0.17779982 0.30161184 -0.38202047
0.17903882 0.33463186 -0.51109028
0.17480484 0.09786284 -0.070018291
0.17514282 0.13112581 -0.10528612
0.17512582 -0.25593913 -0.10343933
0.17371982 -0.11757112 0.042956829
0.17384583 -0.066479206 0.029864788
0.17403182 -0.012155175 0.010425568
0.16968182 0.17512482 -0.14556742
0.17005783 0.20420885 -0.1887064
0.17060083 0.23711884 -0.25086546
0.17120484 0.27702981 -0.32011652
0.16837382 0.029102862 0.0043077469
0.16868082 0.066904843 -0.030935287
0.17174083 0.30166781 -0.38152552
0.17283383 0.33505684 -0.50671053
0.16928183 0.13186586 -0.099743366
0.16895783 -0.24815917 -0.062614441
0.16823582 -0.18030417 0.020132542
0.16792382 -0.11532211 0.055875778
0.16807982 -0.065129161 0.037982464
0.16824883 -0.010870218 0.018591881
0.16378783 0.17583185 -0.13995409
0.16414882 0.20454681 -0.18593025
0.16463283 0.23750585 -0.24751425
0.16259083 0.030337811 0.012491703
0.16288882 0.067688823 -0.025514126
0.16568182 0.30172384 -0.38102913
0.16663383 0.33548182 -0.50233221
0.16315283 0.099387825 -0.059057236
0.16342883 0.13260382 -0.094208241
0.16267882 -0.23599112 0.0012626648
0.16242883 -0.17792213 0.033144474
0.16218683 -0.1139102 0.063972473
0.16232683 -0.063783169 0.046081543
0.16247883 -0.0095881224 0.026740551
0.15867282 0.23789185 -0.24416828
0.15918082 0.27738082 -0.31692314
0.15683383 0.031342864 0.019151688
0.15710783 0.068471849 -0.02010107
0.15962483 0.30177885 -0.38053322
0.16051783 0.33489382 -0.50851345
0.15734182 0.10014784 -0.053590298
0.15758683 0.13333982 -0.088681221
0.15686783 -0.23349321 0.014345646
0.15664583 -0.17555213 0.04610157
0.15646483 -0.1125102 0.072005749
0.15658982 -0.062442183 0.054160595
0.15672483 -0.0083111525 0.034865856
0.15271783 0.23827684 -0.24082422
0.15317482 0.27752984 -0.31556416
0.15356582 0.30187285 -0.37965918
0.15440683 0.33405781 -0.51728153
0.15154083 0.10090584 -0.04813242
0.15088683 -0.17319214 0.059004784
0.15075782 -0.11111414 0.080019474
0.15086682 -0.061105132 0.062218666
0.15098482 -0.0070371628 0.042972565
0.14617983 0.17774183 -0.12476921
0.14645582 0.20555586 -0.17761517
0.14717183 0.27767885 -0.31420517
0.14557482 0.070030808 -0.009303093
0.14750282 0.30209684 -0.37750816
0.14574982 0.10166186 -0.042681217
0.14593282 0.13480681 -0.077656269
0.14506583 -0.10972321 0.088012695
0.14515883 -0.059772134 0.070255756
0.14525883 -0.005767107 0.051057816
0.14033683 0.17808485 -0.12204218
0.14056683 0.20589083 -0.17484426
0.13965082 0.033755839 0.035146713
0.13982083 0.070806861 -0.0039143562
0.14213783 0.33237886 -0.53486919
0.13996683 0.10241586 -0.037237167
0.14011882 0.13553685 -0.072154522
0.13957183 -0.22606421 0.053281784
0.13943483 -0.16850317 0.08466053
0.13938482 -0.10833514 0.095989704
0.13946283 -0.058442116 0.078276634
0.13954583 -0.0045011044 0.0591259
0.13449982 0.17842782 -0.11931849
0.13468382 0.20622486 -0.17207718
0.13488883 0.23942584 -0.2308073
0.13516083 0.27826184 -0.30880213
0.13394183 0.034555852 0.040460587
0.13407783 0.071581841 0.0014648438
0.13538583 0.30254185 -0.37320852
0.13419382 0.10316885 -0.031803131
0.13431582 0.13626581 -0.066662312
0.13385282 -0.22361016 0.06615448
0.13374282 -0.16617417 0.097409725
0.13384883 -0.0032391548 0.067171574
0.12880583 0.20655781 -0.16931152
0.12895782 0.23980784 -0.22747231
0.12916383 0.27857083 -0.30592108
0.12824282 0.035354853 0.045768738
0.12933883 0.30257887 -0.37286615
0.12843183 0.10391885 -0.026379108
0.12852283 0.13699281 -0.061180115
0.12815583 -0.22116613 0.078976631
0.12807482 -0.1638552 0.11010885
0.12806982 -0.10557413 0.11188078
0.12816583 -0.0019811392 0.07519865
0.12284083 0.17911184 -0.11387348
0.12293283 0.20690686 -0.16640711
0.12303583 0.24000883 -0.2257185
0.12317082 0.27887982 -0.30304337
0.12255283 0.036150813 0.051067829
0.12262083 0.073125839 0.012198925
0.12329382 0.30254686 -0.3731904
0.12362183 0.32984781 -0.56135941
0.12267882 0.10466784 -0.020961285
0.12273882 0.13771886 -0.05570507
0.12248182 -0.21873319 0.091748714
0.12243283 -0.10419917 0.11979771
0.12246382 -0.054479122 0.10221577
0.12249683 -0.00072717667 0.0832057
0.11701883 0.17945182 -0.11115217
0.11706383 0.20729983 -0.16313314
0.11711682 0.24016082 -0.22438908
0.11690582 0.073894858 0.017552853
0.11693483 0.10541481 -0.015553474
0.11696482 0.13844186 -0.050239086
0.11700083 -0.32274318 -0.090684414
0.11682983 -0.21631122 0.10446692
0.11680283 -0.15924716 0.13535547
0.11684182 0.00052285194 0.091193676
0.11119883 0.17979181 -0.10843229
0.11119883 0.20769185 -0.15986252
0.11119883 0.24031186 -0.22306013
0.11119883 0.27947682 -0.29747009
0.11119883 0.037737846 0.061641693
0.11119883 0.074661851 0.022899628
0.11119883 0.30248183 -0.37383318
0.11119883 0.13916385 -0.044779301
0.11119883 -0.1569581 0.14790773
0.11119883 -0.051857114 0.11807871
0.11119883 0.0017697811 0.099162579
0.10538682 0.18013084 -0.10571527
0.10534183 0.20808285 -0.15659332
0.10528683 0.24063087 -0.22025442
0.10521682 0.27925086 -0.29957628
0.10553683 0.03852886 0.066917896
0.10550283 0.075426817 0.028238773
0.10515182 0.30244881 -0.37415314
0.10547483 0.10690284 -0.0047593117
0.10544483 0.13988382 -0.039330482
0.10559183 -0.21149719 0.12975979
0.10560383 -0.10010016 0.14343452
0.10558882 -0.050553203 0.12598085
0.099577829 0.18046886 -0.1029973
0.099490829 0.20847285 -0.15333033
0.099378824 0.24094981 -0.21744347
0.099231824 0.27902585 -0.30168438
0.099883825 0.039317846 0.072184563
0.099816829 0.076190829 0.033569813
0.099104829 0.30241585 -0.37447119
0.099758826 0.10764486 0.00062561035
0.099698827 0.14060181 -0.033890247
0.099809825 -0.29858017 0.029684544
0.10005482 -0.15287316 0.1703186
0.10002182 -0.098742127 0.15127468
0.099949822 0.0034278631 0.10977268
0.093774825 0.18080586 -0.10028315
0.093644828 0.20886183 -0.15006447
0.093475826 0.24126786 -0.21463537
0.093241826 0.27879882 -0.30378914
0.094138823 0.076951861 0.038890839
0.093055829 0.30238181 -0.37478924
0.094052821 0.10838383 0.0060005188
0.093962826 0.14131784 -0.028457165
0.094217822 -0.29072511 0.068826675
0.094442829 -0.20672512 0.15484858
0.094453827 -0.097388148 0.15909672
0.094408825 -0.047954202 0.14172888
0.087974824 0.18114287 -0.097567081
0.087575823 0.24158585 -0.21182632
0.087247826 0.27857184 -0.30589724
0.088354826 0.10912186 0.011370659
0.088759825 -0.27899516 0.12727261
0.088897824 -0.096038222 0.16690063
0.088837825 -0.046661139 0.14957571
0.088734828 0.0050477982 0.12016249
0.081951827 0.20919687 -0.14722538
0.081682824 0.24190181 -0.20901823
0.081257828 0.27851981 -0.30635929
0.082977824 0.041672826 0.087940693
0.082810827 0.078468859 0.049510479
0.08092083 0.30148184 -0.38354111
0.082667828 0.10985786 0.016730785
0.082503825 0.14231682 -0.020861149
0.083204828 -0.27647412 0.13985062
0.083378822 -0.20199418 0.17974281
0.083438829 -0.14863813 0.19358969
0.083356827 -0.094693184 0.17468452
0.08328183 -0.045372128 0.15739965
0.083141826 0.005854845 0.12534571
0.076393828 0.18187183 -0.091679096
0.076117828 0.20952284 -0.14447117
0.075793825 0.24221784 -0.20621347
0.075268827 0.27849686 -0.30654812
0.077361822 0.042453825 0.093176842
0.077160828 0.079224825 0.05480957
0.074840829 0.30099785 -0.38824224
0.07698983 0.11059183 0.022081852
0.076778829 0.14266384 -0.018210411
0.077671826 -0.27396512 0.15237665
0.077879831 -0.19964516 0.19211578
0.077927828 -0.14723516 0.20130968
0.077738822 -0.044087172 0.16520977
0.070612825 0.18226784 -0.088471413
0.070286825 0.20984882 -0.14171839
0.069910824 0.24253285 -0.20340919
0.069278821 0.27847284 -0.30673647
0.068755828 0.30057383 -0.39235926
0.071320824 0.11132485 0.027424812
0.071057826 0.14300984 -0.015559196
0.072159827 -0.27146614 0.16485691
0.072401822 -0.1973052 0.20443964
0.072429821 -0.14583719 0.20900869
0.072314829 -0.092013121 0.19019651
0.072209828 -0.042805195 0.17299652
0.06483683 0.18266284 -0.08526516
0.064461827 0.21017385 -0.13896608
0.064031824 0.24284786 -0.20060635
0.063289821 0.27844882 -0.30692339
0.065888822 0.080731809 0.065382481
0.062663823 0.30014783 -0.39647913
0.06534183 0.14335483 -0.012908459
0.066669822 -0.26897812 0.17728567
0.066944823 -0.1444422 0.21669388
0.066813827 -0.090680122 0.19792366
0.066415831 0.00826478 0.14084959
0.059051827 0.18284386 -0.08377409
0.058639824 0.21049786 -0.13621426
0.058155827 0.24316186 -0.19780636
0.060564827 0.044785857 0.10883951
0.060264826 0.081481814 0.07065773
0.060008828 0.11278486 0.038089752
0.059628826 0.14369982 -0.010259151
0.061507825 -0.19265521 0.22894764
0.061471827 -0.14305222 0.22435951
0.061324827 -0.089350104 0.20563793
0.061190825 -0.040254116 0.18852091
0.053278826 0.18314582 -0.081307411
0.052823827 0.21082085 -0.13346529
0.052286826 0.24347484 -0.19500637
0.051276825 0.27803081 -0.31074142
0.054983824 0.04555881 0.11404371
0.054650825 0.082230866 0.075924873
0.050456826 0.29929382 -0.40473127
0.053921826 0.14404285 -0.0076112747
0.056013826 -0.14166617 0.23200655
0.055850826 -0.088024139 0.21332979
0.055701826 -0.038984179 0.19625378
0.055307824 0.0098627806 0.1511507
0.047012828 0.21114385 -0.13071632
0.046388827 0.24338382 -0.19574547
0.045245826 0.27759886 -0.31473637
0.049412824 0.04633081 0.11924076
0.049046826 0.082977831 0.08118248
0.044342823 0.29886484 -0.40886116
0.048735827 0.11423683 0.048720837
0.048219822 0.14438581 -0.0049653053
0.050324827 -0.26157713 0.2142868
0.050698824 -0.18804514 0.25326252
0.050567824 -0.14028418 0.23963451
0.050388824 -0.086703181 0.22100258
0.050225828 -0.037718177 0.20396852
0.049767826 0.010657787 0.15628767
0.041751824 0.18380684 -0.075896263
0.041206829 0.21146584 -0.12796926
0.040475823 0.24314684 -0.19777346
0.039208829 0.27716482 -0.31873322
0.043849826 0.047100842 0.12443066
0.043451823 0.08372283 0.086434841
0.038221829 0.29843587 -0.41299534
0.043109827 0.11492783 0.053787708
0.042521827 0.14472783 -0.0023193359
0.044918828 -0.25913215 0.22652149
0.045306824 -0.18608212 0.26362991
0.045135826 -0.13890612 0.24724674
0.044940829 -0.085385203 0.22865772
0.044757828 -0.036532164 0.21120453
0.044236824 0.01145184 0.16141987
0.035992824 0.18413681 -0.07319212
0.035402827 0.21178687 -0.12522316
0.034556828 0.24290884 -0.19980049
0.033161826 0.27673084 -0.32273531
0.038293824 0.047868848 0.12961483
0.032090828 0.29800582 -0.41713238
0.036827825 0.14506984 0.00032663345
0.039531827 -0.25669611 0.23871469
0.039900824 -0.18465519 0.27118683
0.039714828 -0.13753211 0.2548399
0.037396826 -0.36761713 0.050541878
0.029605828 0.21210682 -0.12247944
0.027109824 0.27629483 -0.32673931
0.032748826 0.048634827 0.13478851
0.032286823 0.085206866 0.096913815
0.025954828 0.29757482 -0.42127228
0.031822823 0.11562681 0.058988571
0.031138822 0.14540982 0.0029697418
0.034507826 -0.18323314 0.27872181
0.034308828 -0.13616216 0.26241493
0.034082823 -0.082761168 0.24391651
0.033805825 -0.034887195 0.22128773
0.033199824 0.013033867 0.17165852
0.032194823 -0.35939622 0.089381695
0.024493828 0.18479383 -0.067788124
0.023812823 0.21242684 -0.11973619
0.022723824 0.24253386 -0.20295429
0.027212828 0.049398839 0.13995552
0.026717827 0.085946858 0.10214281
0.019755825 0.29670781 -0.42966509
0.026186824 0.11597586 0.061585903
0.025453828 0.14574987 0.0056118965
0.028822824 -0.25185716 0.2629509
0.028914824 -0.13479722 0.26997185
0.028672829 -0.081455112 0.25151968
0.027694829 0.01382184 0.17676878
0.027052827 -0.35127711 0.12774992
0.018749826 0.18512082 -0.065087318
0.018025823 0.21274483 -0.11699629
0.015034825 0.27580583 -0.33116007
0.021685824 0.050161839 0.14511776
0.021157824 0.086684823 0.10736179
0.013467826 0.29529482 -0.44338942
0.020555824 0.11632282 0.064182758
0.019774824 0.14608884 0.0082535744
0.023498826 -0.24945319 0.27500057
0.023760825 -0.18040216 0.29374075
0.023533829 -0.13343513 0.2775116
0.023276828 -0.080154181 0.25910187
0.022889823 -0.033250213 0.23133755
0.022198826 0.014607847 0.1818676
0.013011828 0.18544781 -0.062389374
0.012241825 0.21306384 -0.11425447
0.010920823 0.24247581 -0.20329428
0.0089928284 0.27557182 -0.33326435
0.016166829 0.050921857 0.15026665
0.015607826 0.087420821 0.11257362
0.014098823 0.14642686 0.010892868
0.018195823 -0.24705911 0.28700161
0.018406823 -0.17899215 0.30122375
0.018165827 -0.13207817 0.2850337
0.017893828 -0.078855157 0.26666784
0.017443828 -0.032435179 0.23635578
0.016710825 0.015391827 0.18696165
0.016950823 -0.33533013 0.20312071
0.0064618289 0.21338081 -0.11151409
0.0050068274 0.24236685 -0.20416117
0.0029458255 0.27533782 -0.33536816
0.010654829 0.051680863 0.15541363
0.010063827 0.088154852 0.11777973
0.00031782687 0.28921181 -0.50265217
0.0093038231 0.11701584 0.069374561
0.0084268227 0.14676386 0.013532639
0.012910828 -0.24467516 0.29896164
0.012809828 -0.13072419 0.29254055
0.012521826 -0.07756114 0.27421665
0.012005828 -0.031621218 0.24136448
0.011230826 0.01617384 0.1920495
0.012258828 -0.32381511 0.25751257
0.0015468225 0.18609881 -0.056995392
0.0006878227 0.21369684 -0.10877609
-0.00095717609 0.24191785 -0.2080183
-0.0031041726 0.27510184 -0.33747339
0.0045308247 0.088886857 0.12297773
-0.0063411742 0.28613085 -0.53265238
0.0027598292 0.14710087 0.016170502
0.0077338293 -0.1761862 0.3161397
0.0074668229 -0.12937415 0.30002689
0.0071638227 -0.076271176 0.28174877
0.0057608262 0.016954839 0.19712782
0.0069618225 -0.32127619 0.26957989
-0.0041781738 0.18642282 -0.054299355
-0.0051581711 0.21348786 -0.11042833
-0.0091581717 0.27486682 -0.33957624
-0.0003381744 0.053192854 0.16567993
-0.0010061711 0.089511812 0.12742949
-0.0019291714 0.11770481 0.074560642
-0.0029021725 0.14743686 0.018808842
0.0024178252 -0.17478919 0.32357168
0.0018188283 -0.074984193 0.28926086
0.00029882789 0.017732859 0.20219994
0.0016848296 -0.31874621 0.28160191
-0.0098991767 0.18674582 -0.051606178
-0.011013173 0.21323985 -0.11239147
-0.012907177 0.24101585 -0.2157402
-0.015215173 0.27462983 -0.3416791
-0.0058221743 0.053945839 0.17080164
-0.0065701753 0.089863837 0.12998056
-0.0085601732 0.14777184 0.021444798
-0.0029531717 -0.23902822 0.32736063
-0.0028861761 -0.17339611 0.33098459
-0.003180176 -0.12668812 0.31494761
-0.0035141706 -0.073702216 0.29675674
-0.0042541772 -0.029192209 0.25634575
-0.0051541775 0.018509865 0.20726347
-0.0037201717 -0.31794119 0.28549957
-0.015616179 0.18706882 -0.048911095
-0.016873181 0.21299183 -0.11435413
-0.01886417 0.24074084 -0.21803951
-0.021598175 0.27261382 -0.3604393
-0.011299171 0.054697812 0.17591858
-0.012132175 0.090214849 0.13253069
-0.013146177 0.11839181 0.079744816
-0.014215171 0.14810586 0.024080753
-0.0082831755 -0.17303312 0.33299589
-0.0084871724 -0.12535012 0.32238579
-0.0088351741 -0.072422147 0.30423689
-0.010600172 0.019284844 0.21232176
-0.012124173 -0.39757919 0.13296556
-0.0089481771 -0.31523812 0.29834652
-0.021328181 0.18739086 -0.046220303
-0.022735178 0.21274382 -0.11631632
-0.024817169 0.24049783 -0.22006512
-0.028173178 0.26973987 -0.38721609
-0.016766176 0.055447817 0.18102551
-0.01768817 0.090564847 0.13508081
-0.018747181 0.11873382 0.082334518
-0.019863173 0.14843881 0.026713848
-0.01332017 -0.23398817 0.35267448
-0.013558172 -0.1715672 0.34079981
-0.013779171 -0.12401617 0.32980347
-0.014154181 -0.071243167 0.31114292
-0.015054181 -0.027582169 0.26630068
-0.016036168 0.020057857 0.21737289
-0.016971171 -0.38930619 0.17078066
-0.014154181 -0.31254911 0.31113672
-0.027035177 0.18771183 -0.043530464
-0.022224173 0.056195855 0.18612576
-0.023240179 0.090912819 0.1376276
-0.024344176 0.11907482 0.084923744
-0.01847218 -0.23148417 0.36525059
-0.01882118 -0.17010617 0.3485837
-0.019059181 -0.12268722 0.3372035
-0.019503176 -0.070414186 0.31603861
-0.020440176 -0.026781201 0.27126694
-0.021464169 0.020828843 0.22241354
-0.021763176 -0.3811332 0.20814562
-0.032737181 0.18803185 -0.040840149
-0.034405172 0.21259683 -0.11729622
-0.036736175 0.24000782 -0.22411537
-0.041664168 0.26300985 -0.44995213
-0.027674168 0.056941867 0.1912179
-0.028787181 0.091261864 0.14017582
-0.03114818 0.14910382 0.031977654
-0.024070174 -0.16865015 0.35634947
-0.024446175 -0.12235916 0.33911467
-0.024843171 -0.069586158 0.32092762
-0.02688317 0.021597862 0.22745085
-0.026498169 -0.37305713 0.24507189
-0.024502173 -0.3072052 0.33656693
-0.038435176 0.18835181 -0.038152218
-0.040296167 0.21224183 -0.12013626
-0.04270117 0.23976284 -0.22613811
-0.048450172 0.25983983 -0.47948551
-0.033115178 0.057685852 0.19630289
-0.034331173 0.091608822 0.14272165
-0.035525173 0.11975485 0.090098858
-0.036784172 0.14943486 0.034608841
-0.028807178 -0.2273432 0.38610983
-0.029307172 -0.16719818 0.36409664
-0.02969718 -0.12096119 0.34690571
-0.030176178 -0.068760157 0.32581091
-0.031189173 -0.025182128 0.28117752
-0.032294169 0.022365808 0.23247766
-0.030990168 -0.36323822 0.2899456
-0.046214178 0.21177584 -0.12388611
-0.048672169 0.23951685 -0.22816324
-0.03854917 0.058428824 0.20138359
-0.039871171 0.091955841 0.14526749
-0.041110173 0.12009281 0.092685699
-0.042417169 0.14976484 0.037239552
-0.034021169 -0.22588515 0.39349556
-0.034532174 -0.16575122 0.3718257
-0.034936175 -0.1195662 0.35467768
-0.035501167 -0.067936182 0.33068848
-0.036552176 -0.024386168 0.28612471
-0.035423175 -0.35359621 0.33401775
-0.034785181 -0.30205417 0.36110449
-0.04997018 0.18821985 -0.038937092
-0.05210118 0.21149182 -0.12612152
-0.054644167 0.23927087 -0.23018646
-0.045406178 0.092301846 0.14781284
-0.046690181 0.12043083 0.095270634
-0.048044175 0.15009487 0.039867878
-0.039222181 -0.22443211 0.40086269
-0.04190518 -0.023592114 0.29106283
-0.043092176 0.023894846 0.24251461
-0.040552169 -0.35089815 0.34644079
-0.03990218 -0.29955411 0.3730216
-0.055776179 0.18796384 -0.04084444
-0.057985172 0.21123981 -0.12808037
-0.060620174 0.23902386 -0.23221016
-0.049389169 0.059902847 0.21148252
-0.050937176 0.092646837 0.15035677
-0.052266181 0.12076783 0.097856522
-0.053667173 0.15042281 0.042495728
-0.044941172 -0.16287017 0.38721991
-0.045373172 -0.11679018 0.37015676
-0.046126172 -0.066295147 0.34042072
-0.047250181 -0.022799134 0.29599476
-0.048477173 0.024656832 0.24752283
-0.045670167 -0.34830117 0.35841465
-0.045000181 -0.29706514 0.38489389
-0.061586171 0.18770784 -0.042750359
-0.063872173 0.21098787 -0.13003922
-0.066601172 0.23877585 -0.23423529
-0.054864168 0.060255826 0.21397877
-0.056463167 0.092990816 0.15289879
-0.057837173 0.12110484 0.10043955
-0.059285179 0.15075082 0.045120716
-0.050572172 -0.11540914 0.37786865
-0.051527172 -0.066148162 0.34140253
-0.052587181 -0.022009134 0.30091858
-0.053854167 0.025416851 0.25252247
-0.05076918 -0.34571421 0.37034273
-0.050079167 -0.29458714 0.3967185
-0.06976518 0.21073383 -0.13199806
-0.060336173 0.060607851 0.21647453
-0.061987177 0.09333384 0.15544081
-0.063405171 0.12143981 0.10302258
-0.064901173 0.15107787 0.047747612
-0.054751173 -0.22009718 0.42286062
-0.05531618 -0.16011214 0.4019866
-0.056846172 -0.065476179 0.3454237
-0.057917178 -0.021220207 0.30583763
-0.059225172 0.026175857 0.25751686
-0.055139169 -0.29211819 0.40850353
-0.073203176 0.18726486 -0.045982361
-0.075660169 0.21047986 -0.13395834
-0.065802172 0.060959816 0.21896982
-0.067505181 0.093676865 0.15798187
-0.068968177 0.12177485 0.10560369
-0.070511177 0.15140486 0.050372601
-0.059903175 -0.21866119 0.43015957
-0.060484171 -0.15874112 0.40933657
-0.060934171 -0.11265814 0.3932395
-0.062126175 -0.06461215 0.35055256
-0.063238174 -0.020433187 0.31074762
-0.060911179 -0.34057319 0.39406157
-0.060185179 -0.28970313 0.42003775
-0.079039171 0.18693382 -0.048468113
-0.081558168 0.21022582 -0.13591528
-0.085295171 0.23514783 -0.26561737
-0.071264178 0.061309814 0.22146177
-0.073019177 0.094017863 0.16052151
-0.074527174 0.12210882 0.10818386
-0.076117173 0.15172982 0.052995682
-0.066101179 -0.11132717 0.40068579
-0.067398176 -0.063751221 0.3556757
-0.068551168 -0.019648194 0.31565285
-0.069938168 0.027686834 0.2674818
-0.06599617 -0.33834815 0.40435076
-0.065295175 -0.28790212 0.42867851
-0.084864169 0.18667483 -0.050373077
-0.087461174 0.20997083 -0.13787317
-0.092112169 0.23183084 -0.29458809
-0.08008118 0.12244183 0.11076355
-0.081718177 0.15205485 0.055619717
-0.070196167 -0.21597517 0.4438386
-0.07078518 -0.15601015 0.42398548
-0.071258172 -0.1100142 0.40804052
-0.072661176 -0.062891126 0.36078978
-0.075704172 -0.43097711 0.25824165
-0.07528317 0.028438866 0.27245283
-0.071110174 -0.33647716 0.41303873
-0.07039018 -0.28610814 0.43729782
-0.090692177 0.18641585 -0.052277088
-0.093367174 0.20971584 -0.1398325
-0.098988175 0.22848481 -0.32380342
-0.082176179 0.062007844 0.22644567
-0.084035173 0.094698846 0.16559982
-0.085632175 0.12277484 0.11334372
-0.075360179 -0.2148602 0.44955349
-0.075918168 -0.15465117 0.43128681
-0.076407179 -0.10872817 0.41525364
-0.079933181 -0.42147911 0.29986763
-0.079151168 -0.018084168 0.32544088
-0.080619171 0.029190838 0.27741861
-0.076211169 -0.33461118 0.42169857
-0.075472176 -0.28432012 0.44588661
-0.096525177 0.18615586 -0.054183483
-0.10592417 0.22510886 -0.35327435
-0.087628171 0.06235683 0.22893858
-0.089538172 0.095038831 0.16813755
-0.091179177 0.12310582 0.1159215
-0.081040174 -0.15329516 0.43857193
-0.08162117 -0.10787714 0.42008066
-0.083163172 -0.061178207 0.37099648
-0.08444117 -0.017305136 0.3303256
-0.085948169 0.02993983 0.28237772
-0.08054018 -0.28253818 0.4544549
-0.10519217 0.20920283 -0.14374733
-0.11291917 0.22170484 -0.38298607
-0.093074173 0.062703848 0.23142767
-0.095036179 0.095376849 0.17067385
-0.096721172 0.12343681 0.11849785
-0.098498181 0.15302485 0.063480854
-0.086824179 -0.1070292 0.42490292
-0.088401169 -0.060324192 0.37608957
-0.089722171 -0.016527176 0.33520365
-0.091268167 0.030686855 0.28732872
-0.086371168 -0.33089912 0.43894958
-0.085594177 -0.2807622 0.46299553
-0.10819918 0.18563384 -0.057990074
-0.11110917 0.20894486 -0.14570427
-0.098516181 0.063049853 0.23391771
-0.10052918 0.095714808 0.17321062
-0.10225917 0.12376684 0.12107372
-0.10414018 0.15311682 0.064358711
-0.090796173 -0.21153116 0.46663475
-0.091264173 -0.15070415 0.45252275
-0.092020169 -0.10618317 0.42971468
-0.093631178 -0.059473157 0.38117361
-0.093384176 -0.40126717 0.38861752
-0.095156178 -0.016559124 0.33519077
-0.096580178 0.031432807 0.29227352
-0.091429174 -0.32905316 0.44753456
-0.090634167 -0.27899218 0.47151279
-0.11703017 0.20868784 -0.1476593
-0.10601917 0.096051812 0.17574549
-0.10779317 0.12409681 0.1236496
-0.10987318 0.15284985 0.06252861
-0.095922172 -0.21042717 0.47230768
-0.09640117 -0.1496532 0.45822048
-0.097208172 -0.10533822 0.43452263
-0.098852172 -0.058624148 0.38625288
-0.10041517 -0.015737176 0.34034348
-0.10195717 0.031835854 0.29503155
-0.096474171 -0.32721412 0.45609474
-0.095671177 -0.27729714 0.47968578
-0.11988917 0.18510884 -0.061795235
-0.12295617 0.20842886 -0.1496172
-0.10938917 0.063740849 0.23889589
-0.11150618 0.096387863 0.17828083
-0.11561218 0.15258181 0.060698509
-0.10153118 -0.14860415 0.46391249
-0.10239017 -0.10449612 0.4393239
-0.10406718 -0.057783127 0.39128351
-0.10290718 -0.39312911 0.42450571
-0.10566717 -0.014917135 0.3454895
-0.10734317 0.032188833 0.29747677
-0.10159017 -0.32590711 0.46223068
-0.10084617 -0.27652013 0.48352861
-0.12573917 0.18484586 -0.063698292
-0.12888518 0.20816982 -0.15157318
-0.11481917 0.064084828 0.24138355
-0.11698717 0.096722841 0.18081379
-0.11884917 0.12475282 0.12879753
-0.12135218 0.15231282 0.058870792
-0.10614817 -0.20822811 0.48362684
-0.10665017 -0.14755821 0.46959162
-0.10927917 -0.056972146 0.39615154
-0.11228618 -0.45722711 0.31214952
-0.10787217 -0.39066017 0.43547392
-0.11272417 0.032540858 0.29991865
-0.10677518 -0.32510018 0.46609592
-0.10601418 -0.27574611 0.48736668
-0.13159317 0.18458283 -0.065600395
-0.13562317 0.20527786 -0.17551041
-0.12024517 0.064427853 0.24386883
-0.12246418 0.097057819 0.18334579
-0.12709618 0.15204483 0.057042599
-0.11124617 -0.20713317 0.48927069
-0.11176017 -0.14651513 0.47526169
-0.11272718 -0.10281718 0.44890451
-0.11448318 -0.056162119 0.4010129
-0.11672117 -0.45072913 0.33996773
-0.11291318 -0.3887912 0.44382381
-0.11614217 -0.013284206 0.35575771
-0.11810018 0.03289181 0.30236149
-0.11195518 -0.32429516 0.46995449
-0.11117618 -0.27497315 0.49119949
-0.13745017 0.18431783 -0.067501068
-0.14256218 0.20187682 -0.20367908
-0.12566717 0.064769864 0.24635458
-0.12793717 0.097390831 0.1858778
-0.12988718 0.12540585 0.1339407
-0.13284317 0.15177482 0.055214882
-0.11637518 -0.20624912 0.49386883
-0.11789918 -0.10205817 0.45326471
-0.11967917 -0.055355191 0.40586662
-0.12147817 -0.4465481 0.35793972
-0.11810917 -0.38795519 0.44766951
-0.12136817 -0.012471199 0.36087847
-0.12347317 0.033242822 0.30480385
-0.11712818 -0.32349312 0.47380877
-0.11633117 -0.27420318 0.49502754
-0.14331117 0.18405282 -0.069403172
-0.14956018 0.19844782 -0.23208237
-0.13108517 0.065111816 0.2488389
-0.13340718 0.097723842 0.18840885
-0.13540018 0.12573081 0.13651085
-0.13859418 0.15150481 0.053387642
-0.12156418 -0.20572615 0.49666882
-0.12195218 -0.14443612 0.48656988
-0.12309018 -0.10141921 0.45696592
-0.12486617 -0.054549217 0.41071463
-0.12620817 -0.44239318 0.37580585
-0.12336317 -0.38750017 0.44985771
-0.12658517 -0.011659145 0.36599255
-0.12884118 0.03359282 0.30724478
-0.15661916 0.19498885 -0.26072836
-0.13650118 0.065452814 0.2513237
-0.14091116 0.12605584 0.13908148
-0.14434919 0.15123385 0.051561832
-0.12675117 -0.2052052 0.49946976
-0.12703617 -0.14340115 0.49221087
-0.12827617 -0.10078216 0.46066475
-0.13004817 -0.053745151 0.41555786
-0.13084517 -0.43786418 0.39526558
-0.12855117 -0.38667822 0.45365286
-0.13179517 -0.010850191 0.37110186
-0.13420817 0.033941865 0.30968666
-0.12745717 -0.32189322 0.48150349
-0.12666517 -0.27288115 0.50166655
-0.15504518 0.18352187 -0.073204517
-0.16373718 0.19149983 -0.28961134
-0.14191118 0.065792859 0.25380754
-0.14433417 0.098387837 0.19346952
-0.14641619 0.12637985 0.14165068
-0.15010718 0.15096182 0.049733639
-0.13193217 -0.20468521 0.50226593
-0.13211018 -0.14236915 0.49784088
-0.13345417 -0.10014617 0.46435881
-0.13586217 -0.43575919 0.40442562
-0.13372917 -0.38583815 0.45752668
-0.13699518 -0.010042191 0.37620163
-0.13261117 -0.32109618 0.48534489
-0.13184418 -0.27233315 0.5044589
-0.16091716 0.18325484 -0.075103283
-0.17091617 0.18798083 -0.31874228
-0.14731717 0.06613183 0.25629187
-0.14979216 0.098718822 0.19599676
-0.15207016 0.12618583 0.14047575
-0.15586919 0.15069085 0.047908783
-0.13710818 -0.20416713 0.50505972
-0.13862717 -0.099512219 0.46804953
-0.14038518 -0.052143216 0.42521954
-0.14103818 -0.43466115 0.40931082
-0.13890016 -0.38500118 0.46139574
-0.14218718 -0.0092362165 0.38129473
-0.14492616 0.034636855 0.3145647
-0.13776018 -0.32030118 0.48917961
-0.13701817 -0.27178621 0.50724983
-0.16679317 0.18298781 -0.077003479
-0.15272018 0.066469848 0.2587738
-0.15524518 0.09904784 0.19852352
-0.15775219 0.12590986 0.13870478
-0.16163418 0.15041786 0.046083927
-0.14228016 -0.20365012 0.5078516
-0.14246416 -0.14137816 0.50347471
-0.14379418 -0.098880172 0.47173357
-0.14554116 -0.05134511 0.43003988
-0.14620617 -0.43356621 0.41418648
-0.14406517 -0.38416612 0.4652586
-0.14737716 -0.0084531307 0.38625574
-0.15027916 0.03498286 0.31700373
-0.14306417 -0.3203541 0.48915863
-0.14233416 -0.27197814 0.50656557
-0.17267418 0.18271983 -0.078903198
-0.15812019 0.066807866 0.26125574
-0.16069618 0.099376857 0.20105171
-0.16740417 0.15014482 0.044258595
-0.14744917 -0.20313418 0.51064062
-0.14768818 -0.14111912 0.50505972
-0.14895618 -0.098248124 0.47541952
-0.15069216 -0.05054915 0.43485594
-0.14939016 -0.38421619 0.46526861
-0.15256217 -0.0076831579 0.39113855
-0.15581417 0.034655809 0.31514454
-0.14845619 -0.32085419 0.48710346
-0.16351417 0.067143857 0.26373577
-0.16614118 0.099705815 0.20357752
-0.16912818 0.12535483 0.13516474
-0.17317617 0.14987081 0.042435646
-0.15261218 -0.20262015 0.51342678
-0.15411118 -0.097618222 0.47909975
-0.15583318 -0.049754143 0.43966389
-0.15641919 -0.4308362 0.42624569
-0.16121116 0.034829855 0.31649256
-0.15385118 -0.32135618 0.48504877
-0.15307918 -0.27288318 0.50275087
-0.18670717 0.17583281 -0.13352108
-0.17158216 0.10003287 0.20610285
-0.17482018 0.12507683 0.13339567
-0.15777117 -0.20210814 0.5162096
-0.15926018 -0.096990108 0.48277569
-0.16097018 -0.048977137 0.44437981
-0.16152418 -0.42954814 0.43195581
-0.16295919 -0.0063412189 0.39972687
-0.16654718 0.035209835 0.31915951
-0.15925118 -0.32185912 0.48298979
-0.15846118 -0.27336311 0.50072384
-0.19381717 0.17232984 -0.16129732
-0.17429218 0.067814827 0.26869488
-0.17701918 0.10035986 0.2086277
-0.18473217 0.14932084 0.038786888
-0.16296417 -0.20176613 0.51814747
-0.16334316 -0.14034712 0.50980759
-0.16440418 -0.096363187 0.48644781
-0.16614518 -0.048373222 0.44809771
-0.16675118 -0.42894721 0.43475151
-0.16823116 -0.0059771538 0.40217066
-0.17187917 0.035589814 0.32182789
-0.16465417 -0.32236421 0.48093081
-0.16384718 -0.27384412 0.4986949
-0.20098817 0.16879582 -0.18930912
