# .PCD v0.7 - Point Cloud Data file format
VERSION 0.7
FIELDS x y z
SIZE 4 4 4
TYPE F F F
COUNT 1 1 1
WIDTH 1340
HEIGHT 1
VIEWPOINT 0 0 0 1 0 0 0
POINTS 1340
DATA ascii
0.88537818 0.0037052631 -0.097406864
0.88638818 0.042166233 -0.10685396
0.88476914 0.088077247 -0.14910889
0.87983418 -0.035240769 -0.10254478
0.87928516 0.0037992597 -0.097369671
0.87869018 0.088092268 -0.14962769
0.87741315 -0.085832715 -0.13747883
0.87319416 0.0038922429 -0.097334862
0.87261117 0.088107228 -0.15014362
0.86710316 0.0039852262 -0.097297668
0.86815417 0.042349219 -0.10738277
0.86653119 0.088121235 -0.15066051
0.86151218 -0.034903765 -0.10209656
0.86101216 0.0040762424 -0.097261906
0.86045218 0.088135242 -0.15117788
0.85492414 0.0041672587 -0.097225666
0.85600114 0.042469263 -0.10773182
0.85437316 0.088148236 -0.15169287
0.85271615 -0.085138798 -0.13537693
0.84930515 -0.034682751 -0.10179853
0.84992617 0.042527258 -0.10790682
0.84829515 0.08816123 -0.15220451
0.84654814 -0.084966779 -0.13485289
0.84385216 0.042585254 -0.10808182
0.84221518 0.08817327 -0.15271759
0.83710319 -0.034464777 -0.1015029
0.83666515 0.0044352412 -0.097115517
0.8377772 0.042642236 -0.10825491
0.83613616 0.088184237 -0.15322971
0.83100414 -0.034357727 -0.10135555
0.82805318 -0.084459782 -0.13329172
0.82563215 0.042755246 -0.10859966
0.82398015 0.088205278 -0.15425062
0.81881118 -0.034144759 -0.10105896
0.81841815 0.0046972632 -0.097008705
0.81956118 0.042810261 -0.10877275
0.81790215 0.088215232 -0.15476084
0.81349015 0.042865276 -0.10894489
0.81182218 0.088224232 -0.15526772
0.80957717 -0.083961725 -0.13173962
0.80741918 0.042919278 -0.10911655
0.80574417 0.088233232 -0.15577364
0.80342317 -0.083797693 -0.13122559
0.80134916 0.042972267 -0.10928869
0.79966617 0.08824122 -0.15628052
0.7944392 -0.033728778 -0.10047054
0.79410118 0.0050352216 -0.0968647
0.79358816 0.088249266 -0.15678692
0.79112118 -0.083472729 -0.13020086
0.78835016 -0.033626735 -0.10032463
0.78921318 0.04307723 -0.10962772
0.78750819 0.08825624 -0.15728951
0.78497219 -0.083311796 -0.12968874
0.78194916 0.0052002668 -0.096791744
0.78314418 0.043128252 -0.10979891
0.78143018 0.08826226 -0.15779352
0.77882618 -0.083150744 -0.12917852
0.77617317 -0.033425748 -0.10003471
0.77587515 0.0052812696 -0.096755505
0.77268219 -0.082991719 -0.12866974
0.7700882 -0.033325732 -0.099887848
0.77101117 0.043229222 -0.11013889
0.76927418 0.08827424 -0.15879774
0.7637412 0.0054242611 -0.096810818
0.76494616 0.043278277 -0.11030674
0.76319617 0.088279247 -0.15929794
0.75792015 -0.033129752 -0.099597931
0.75767916 0.0054892302 -0.09687376
0.75888115 0.043327272 -0.11047554
0.75711614 0.088283241 -0.15979767
0.75183618 -0.033032775 -0.099452496
0.75161618 0.0055542588 -0.096935749
0.75281614 0.043375254 -0.11064482
0.75103915 0.088285267 -0.16031456
0.74555618 0.0056172609 -0.096999645
0.74675214 0.043422222 -0.11081266
0.74499619 0.088236272 -0.16122484
0.73967618 -0.032840729 -0.099163532
0.74068916 0.04346925 -0.11097956
0.73895317 0.088188231 -0.16212988
0.73343718 0.0057432652 -0.097126961
0.73462719 0.043515265 -0.11114788
0.73290616 0.088139236 -0.16303492
0.72751915 -0.032651722 -0.098874569
0.72856319 0.04356122 -0.11131287
0.72359514 -0.081753731 -0.12463474
0.72144318 -0.032558739 -0.098731518
0.72132015 0.0058652759 -0.097251892
0.72081518 0.088039219 -0.16483974
0.71536815 -0.032466769 -0.098588943
0.71644115 0.043649256 -0.1116457
0.71476817 0.087989271 -0.16573954
0.71134317 -0.081454754 -0.12363672
0.70929414 -0.03237474 -0.098445892
0.70920718 0.00598526 -0.097376823
0.70315218 0.0060442686 -0.097437859
0.70432216 0.043736219 -0.11197472
0.70266914 0.087886274 -0.16753578
0.69909716 -0.081158757 -0.12264252
0.69714814 -0.032194734 -0.098160744
0.69709617 0.0061022639 -0.097499847
0.69297719 -0.081012726 -0.12214851
0.69104218 0.006159246 -0.097560883
0.69220215 0.043820262 -0.11230373
0.69056916 0.087782264 -0.16932678
0.68500918 -0.032016754 -0.097874641
0.68498915 0.006216228 -0.097622871
0.68614417 0.043860257 -0.11246872
0.68451816 0.087730229 -0.17021656
0.68074316 -0.080722809 -0.12116194
0.67894018 -0.031929731 -0.097732544
0.68008715 0.043900251 -0.11263371
0.67846417 0.087676227 -0.17110872
0.66848314 -0.08037281 -0.11975765
0.66678816 -0.031723738 -0.097213745
0.66796619 0.043989241 -0.11288452
0.66634715 0.08758527 -0.17274857
0.66075015 0.0064952374 -0.097437859
0.66189414 0.044055223 -0.11283588
0.65615219 -0.07986176 -0.11725378
0.65459216 -0.031421781 -0.096013546
0.65466714 0.0066132545 -0.097028732
0.65581018 0.044145226 -0.11259985
0.65414017 0.087641239 -0.17319584
0.64847416 -0.031227767 -0.095103741
0.64971316 0.044260263 -0.11217976
0.64798814 0.087753236 -0.1727457
0.64246517 0.0069182515 -0.095695496
0.64180213 0.087928236 -0.17177486
0.63760817 -0.078956723 -0.11253977
0.63620412 -0.030760765 -0.092717648
0.63634914 0.0071072578 -0.094761848
0.63558513 0.088163257 -0.17032862
0.63005418 -0.030485749 -0.091229916
0.63022316 0.0073192716 -0.093651772
0.63135016 0.044751227 -0.10976171
0.62519914 -0.078216791 -0.1084609
0.62389916 -0.030195773 -0.089628696
0.62408715 0.0075552464 -0.092360497
0.62305814 0.088819265 -0.16592455
0.61897516 -0.07779181 -0.10604572
0.61674714 0.089243233 -0.1629467
0.61273915 -0.077329755 -0.10338449
0.61178315 0.0081082582 -0.089178562
0.61288416 0.045475245 -0.10553551
0.60540116 -0.02921778 -0.084046841
0.60670716 0.045771241 -0.10370779
0.59921718 -0.028833747 -0.081770897
0.59943914 0.0087732673 -0.085163593
0.59775615 0.090705276 -0.15246391
0.59325314 0.0091492534 -0.082834721
0.59785813 -0.12967074 -0.15404177
0.59144813 0.091169238 -0.1491437
0.58666217 -0.027621746 -0.074113846
0.58695716 0.0097682476 -0.078738689
0.58090413 -0.073272705 -0.078344822
0.58028114 -0.02675277 -0.06844759
0.57847017 0.092874229 -0.13627386
0.57436413 -0.071975708 -0.070083618
0.57420814 0.011416256 -0.067566872
0.57664216 -0.12208772 -0.10679865
0.56787413 -0.070763707 -0.062390804
0.56979716 -0.11999869 -0.093836784
0.56135017 -0.069435716 -0.053910732
0.56136215 0.013377249 -0.054106712
0.56240314 0.050406277 -0.071375847
0.56289113 -0.11768973 -0.07946682
0.55848217 0.096705258 -0.10673666
0.56370014 0.12154526 -0.19455051
0.55478114 -0.067957759 -0.044429779
0.55450213 -0.02241677 -0.039730549
0.55488813 0.014513254 -0.046240807
0.55590814 0.051509261 -0.063400745
0.55187118 0.097948253 -0.097146511
0.54816014 -0.066299796 -0.033746719
0.54837215 0.015788257 -0.037361622
0.54937315 0.052738249 -0.054471493
0.54926515 -0.1133728 -0.052623749
0.54520714 0.09934324 -0.086339951
0.54834217 0.12808722 -0.14070272
0.54144716 -0.064353704 -0.021134853
0.54136217 -0.01943177 -0.01965189
0.54179913 0.017235219 -0.027233601
0.54278815 0.054121256 -0.044375896
0.53846514 0.10095227 -0.073807716
0.54132414 0.13011223 -0.12415552
0.53515112 0.018911242 -0.015442848
0.53862715 -0.17759275 -0.076660633
0.53549016 -0.10837579 -0.021416664
0.53162014 0.10283726 -0.059069633
0.53426117 0.13229227 -0.1063118
0.52808613 -0.060454726 0.0041460991
0.52811217 -0.015982747 0.0036811829
0.52855313 0.02050823 -0.00421381
0.52870417 -0.10605073 -0.0069098473
0.52706414 0.13483822 -0.085414886
0.52162015 -0.058998704 0.013511181
0.52163315 -0.014558733 0.013269424
0.52280813 0.059059262 -0.0080776215
0.52463716 -0.17163372 -0.041311741
0.52218217 -0.10440075 0.0032935143
0.51563817 0.023148239 0.014252186
0.51785916 -0.16917276 -0.026762962
0.51575214 -0.10296381 0.01214838
0.50888014 -0.056488752 0.029587269
0.50893217 -0.012260735 0.028626442
0.50997913 0.061401248 0.0089702606
0.51129216 -0.16728473 -0.015672684
0.50945413 -0.10186779 0.018822193
0.50524318 0.10862023 -0.014093876
0.51009613 0.17341727 -0.10669374
0.50269318 -0.011361778 0.034573078
0.50368017 0.062338233 0.015738487
0.50967813 -0.2374748 -0.098718643
0.50485617 -0.1657517 -0.0067167282
0.49894518 0.10946625 -0.0076365471
0.50335217 0.17499328 -0.093169689
0.49646318 -0.010465741 0.040510178
0.49743915 0.063153267 0.021586418
0.50270313 -0.23426878 -0.080563545
0.49855018 -0.16458571 2.2411346e-05
0.49693817 -0.099816799 0.031302452
0.49267113 0.11028326 -0.0014047623
0.49418014 0.14152622 -0.031201839
0.49023217 -0.053774714 0.046740055
0.49030417 -0.0097337365 0.045307159
0.49061918 0.026749253 0.03909111
0.49121118 0.063965261 0.027422428
0.49592113 -0.2316128 -0.065567493
0.48643714 0.11102825 0.0042591095
0.48410213 -0.053067803 0.051151276
0.48417413 -0.0090577602 0.049719334
0.48506713 0.064581275 0.031779289
0.48917013 -0.22896969 -0.050640583
0.48605216 -0.16250777 0.011986256
0.48026615 0.11163723 0.0088381767
0.48159313 0.14314425 -0.01829052
0.48377818 0.17853725 -0.062962532
0.49023515 0.21218824 -0.19499493
0.47799218 -0.052394748 0.055342197
0.47805113 -0.0083827376 0.054126263
0.47836614 0.028019249 0.047702312
0.47847915 -0.097471714 0.045388222
0.47410315 0.11224425 0.013412476
0.47537118 0.14381522 -0.012982845
0.47743315 0.17937225 -0.055923939
0.47198218 -0.0078477263 0.05756712
0.47227514 0.028579235 0.051471233
0.47641814 -0.22611475 -0.034781933
0.47239518 -0.096866727 0.048966408
0.46797514 0.11278325 0.017445087
0.47110415 0.18020427 -0.048900604
0.47559613 0.21768928 -0.14414692
0.46588618 -0.051349759 0.061742306
0.46622413 0.029046237 0.054572105
0.46632016 -0.096263766 0.052537441
0.46189016 0.11322725 0.02071619
0.46302617 0.14498025 -0.003818512
0.46481717 0.18096328 -0.042518616
0.46896714 0.21899927 -0.13217449
0.45988917 -0.0068497658 0.063964367
0.46018016 0.029511273 0.057669163
0.46069318 0.06669122 0.046595097
0.46394414 -0.22408473 -0.02364254
0.46149617 -0.15946877 0.029227257
0.46026415 -0.095700741 0.055860043
0.45581216 0.11366826 0.023982048
0.45690417 0.14546323 -6.2942505e-05
0.46240914 0.22019225 -0.12129784
0.45385015 -0.050449729 0.067195415
0.45415014 0.029950261 0.060580254
0.45464414 0.067138255 0.049702168
0.45543617 -0.15892076 0.03226614
0.45425212 -0.095271707 0.058324337
0.44974816 0.11408627 0.027056217
0.45078915 0.14594525 0.0036902428
0.45249218 0.18193126 -0.034559727
0.45598817 0.22110325 -0.11304665
0.44786417 -0.050082803 0.069372177
0.44789016 -0.0060807467 0.068784237
0.44816214 0.030275226 0.062664509
0.45162618 -0.22250879 -0.015104771
0.44938117 -0.15837479 0.035306454
0.44824618 -0.094845772 0.060785294
0.44472015 0.14631426 0.0065121651
0.44958013 0.22201222 -0.10481262
0.44190615 -0.0057307482 0.070962429
0.44217718 0.030598223 0.064748287
0.44264215 0.067791224 0.054108143
0.44333315 -0.1578418 0.038269043
0.44224316 -0.094419718 0.063242435
0.43867415 0.14663827 0.0089621544
0.44321817 0.22284824 -0.097253799
0.43591917 -0.049408793 0.073348045
0.43593013 -0.0053877234 0.07310009
0.43619817 0.030920267 0.066830158
0.43942118 -0.22127175 -0.0084915161
0.43170518 0.11499327 0.033550262
0.43263215 0.14696223 0.011414051
0.43419814 0.18300027 -0.025950909
0.42998314 -0.049179792 0.074626446
0.42999315 -0.005168736 0.07437849
0.44254816 0.24083024 -0.22517061
0.43024814 0.031157255 0.068297386
0.43067914 0.068376243 0.058027267
0.43135017 -0.15714073 0.042006493
0.43032515 -0.093836784 0.066464424
0.42812812 0.18331027 -0.02347374
0.43086118 0.22367126 -0.090065956
0.43559915 0.24286926 -0.20551586
0.42431313 0.031355262 0.06948328
0.42473513 0.068566263 0.059217453
0.42536414 -0.15679181 0.043869495
0.41976213 0.11538923 0.036236286
0.42062014 0.14743727 0.01488924
0.42209113 0.18353325 -0.021757603
0.42470515 0.22404224 -0.08683157
0.41811818 -0.048723698 0.077181339
0.42868716 0.24489623 -0.1859746
0.41837913 0.031551242 0.070668221
0.42127413 -0.21991479 -0.0014157295
0.41939914 -0.15652072 0.045270443
0.41843218 -0.093308806 0.069357395
0.41463614 0.14762223 0.01620245
0.41607517 0.18371224 -0.020424843
0.41860813 0.22427624 -0.084886551
0.41221416 -0.048591733 0.077829361
0.41285217 0.068943262 0.061599255
0.41346318 -0.15635276 0.046049118
0.41252518 -0.093182802 0.069928169
0.40784514 0.11574125 0.038592339
0.40632117 -0.048491716 0.078268051
0.40752918 -0.1561867 0.046826363
0.40270114 0.14791423 0.01818037
0.40405214 0.18406123 -0.017810822
0.40644413 0.22468525 -0.081523895
0.40065914 0.031906247 0.072552204
0.40103215 0.069139242 0.062629223
0.40330517 -0.21918678 0.0020933151
0.40071517 -0.092933774 0.07106638
0.39600217 0.11587125 0.039185047
0.39676315 0.14797127 0.018435478
0.40038013 0.22485024 -0.080204487
0.39453715 -0.04829371 0.079149246
0.39453417 -0.0042757392 0.079220295
0.39476615 0.03198427 0.072906494
0.39567816 -0.15591574 0.048025131
0.39481816 -0.092832804 0.071498394
0.39008117 0.11593425 0.039482117
0.39082515 0.14802724 0.018693447
0.39211315 0.18417025 -0.017295837
0.39435613 0.22489923 -0.079957962
0.38865113 -0.0042167306 0.079416275
0.39700013 0.24830824 -0.15381289
0.38887516 0.032049239 0.073164463
0.38976616 -0.15583777 0.048279285
0.38893014 -0.092778802 0.07162714
0.38416615 0.11598122 0.03965044
0.38614616 0.18422323 -0.017037868
0.38833416 0.22494924 -0.079708576
0.38278416 -0.048218727 0.079227448
0.39091218 0.24836028 -0.15351486
0.38299817 0.032071233 0.073113441
0.38333917 0.069319248 0.063351154
0.38542715 -0.21882379 0.0035362244
0.38304514 -0.092725754 0.071756363
0.37690914 -0.048183799 0.079261303
0.37690216 -0.004147768 0.079485416
0.38482416 0.24841225 -0.15321493
0.37745315 0.069339275 0.063300133
0.37947214 -0.21870971 0.0039901733
0.37794715 -0.15568674 0.048781395
0.37716013 -0.092674732 0.071884155
0.37305215 0.14807725 0.018499374
0.37630615 0.22500426 -0.079599857
0.37103516 -0.048148751 0.079296112
0.37102717 -0.004114747 0.079520226
0.37873816 0.24846423 -0.15291357
0.37124315 0.032112241 0.073011398
0.37156716 0.069359243 0.063250065
0.37351817 -0.21859777 0.0044403076
0.37127715 -0.092623711 0.072013378
0.36645514 0.11600327 0.039226055
0.36713216 0.14807028 0.018244267
0.37030715 0.22497827 -0.080039501
0.36515215 -0.0040827394 0.079553127
0.37268415 0.24841022 -0.1536355
0.36536515 0.032132268 0.07296133
0.36568016 0.069378257 0.063200474
0.36756414 -0.21848476 0.0048923492
0.36613017 -0.15553975 0.049284458
0.36055213 0.11600924 0.039084435
0.36121416 0.14806223 0.017988205
0.35927916 -0.0040507317 0.079589367
0.36663416 0.24834424 -0.15447855
0.35979515 0.069396257 0.06315136
0.36022317 -0.15546679 0.049533367
0.35464817 0.11601424 0.038945198
0.35529613 0.14805323 0.017734051
0.35638815 0.18422723 -0.017976761
0.35831115 0.22492427 -0.080920696
0.35341215 -0.048048735 0.079400063
0.35340613 -0.004018724 0.079624176
0.36058414 0.24827725 -0.15531969
0.35361215 0.032169223 0.072861195
0.35391015 0.069413245 0.063101292
0.35566115 -0.2182647 0.0057892799
0.35362613 -0.092475772 0.072396278
0.34937817 0.14804423 0.01747942
0.35231215 0.22489727 -0.08135891
0.34754014 -0.048016787 0.079434395
0.34753317 -0.0039887428 0.079657078
0.35453215 0.24821025 -0.15615988
0.34802616 0.069430232 0.063052177
0.34971213 -0.21815574 0.0062375069
0.34774515 -0.092427731 0.072523117
0.34284216 0.11602324 0.038665295
0.34448916 0.18420923 -0.018488884
0.34166715 -0.047985792 0.079469204
0.34166116 -0.003959775 0.079692364
0.34847915 0.24814224 -0.15699768
0.34186018 0.032203257 0.072763443
0.34214115 0.069446266 0.063000202
0.34186316 -0.092380762 0.072651386
0.33754015 0.14802426 0.016973495
0.34031117 0.22484022 -0.082234859
0.33579314 -0.047955751 0.079503059
0.33578715 -0.0039307475 0.079728127
0.34242314 0.24807423 -0.15783596
0.33598316 0.032220244 0.072714329
0.33781517 -0.21794271 0.007127285
0.33660316 -0.15518677 0.050528049
0.33598113 -0.092334747 0.072778225
0.33162117 0.14801425 0.016720295
0.33258814 0.18418926 -0.018996716
0.33431116 0.22481126 -0.082669735
0.32992116 -0.047926784 0.079538345
0.33037215 0.06947726 0.062904358
0.33070016 -0.15511978 0.050776482
0.32513213 0.11603224 0.038248062
0.32570213 0.14800227 0.016468048
0.32663816 0.18417823 -0.01925087
0.32404417 -0.0038747787 0.079797268
0.32423216 0.032250226 0.072615147
0.32448816 0.069491267 0.062855244
0.32592416 -0.21773374 0.0080132484
0.31978315 0.14799124 0.016216278
0.32230914 0.22475225 -0.083539486
0.31817317 -0.0038487315 0.079831123
0.31860417 0.069505274 0.062807083
0.31889617 -0.15498674 0.051268101
0.31473616 0.18415523 -0.019756794
0.31630516 0.22472125 -0.083973885
0.31230617 -0.047842741 0.07964325
0.31230116 -0.0038227439 0.079867363
0.31822717 0.24764824 -0.16262865
0.31248116 0.032277226 0.072518349
0.31271917 0.069518268 0.062758446
0.31299415 -0.15492272 0.051512241
0.30878514 0.18414223 -0.020008564
0.31030315 0.22469026 -0.084407806
0.30643615 -0.047816753 0.079678059
0.30643117 -0.0037977695 0.079900265
0.30660617 0.03229022 0.072469234
0.30683616 0.069530249 0.062710285
0.30658415 -0.092117786 0.073409081
0.30283415 0.18412924 -0.020261765
0.30430016 0.22465926 -0.084839821
0.30056116 -0.0037727356 0.079935074
0.30620015 0.24707127 -0.16855478
0.30073115 0.03230226 0.072421074
0.30095315 0.069542229 0.062662125
0.30215317 -0.21732771 0.0097723007
0.30119514 -0.15479577 0.052003384
0.29610413 0.14793825 0.015217304
0.29829717 0.22462726 -0.085271835
0.29469615 -0.047765732 0.0797472
0.30017817 0.24678224 -0.17151356
0.29485714 0.032314241 0.07237339
0.29507017 0.069553256 0.062614441
0.29983014 -0.30856681 -0.15553951
0.29529613 -0.15473378 0.052246094
0.29482916 -0.092037797 0.073660374
0.28971314 0.11603326 0.037424088
0.29018414 0.14792323 0.014966488
0.29229313 0.22459525 -0.085701942
0.28898215 0.032325268 0.072326183
0.29366517 -0.30775678 -0.15123081
0.29027414 -0.21713173 0.01064539
0.28939813 -0.15467274 0.052490234
0.28380916 0.11603123 0.037287235
0.28497916 0.18408728 -0.021012783
0.28295115 -0.003703773 0.080039501
0.28811914 0.24620324 -0.17742491
0.28330216 0.069573224 0.062519073
0.28750715 -0.30695176 -0.14693975
0.28433514 -0.21703577 0.011078358
0.27834117 0.14789224 0.014471054
0.27902815 0.18407226 -0.021262646
0.28028116 0.22452927 -0.08656168
0.27708614 -0.04769671 0.079850197
0.28208315 0.24591422 -0.18037558
0.27723217 0.032344222 0.072231293
0.28135914 -0.30615175 -0.14266968
0.27719814 -0.091921806 0.074034214
0.27242115 0.14787626 0.014225483
0.27307615 0.18405622 -0.021512508
0.27121717 -0.047674775 0.079886436
0.27521816 -0.30535471 -0.13841486
0.27170616 -0.15449572 0.053215504
0.27132216 -0.091885805 0.074159145
0.26610017 0.11602223 0.036881447
0.26650015 0.14785928 0.013978481
0.26827013 0.22446126 -0.087418556
0.26534915 -0.047653794 0.079920292
0.26999515 0.24533325 -0.18627071
0.26565516 0.069598258 0.062377453
0.26908615 -0.30456173 -0.13417768
0.26652816 -0.21675277 0.012374401
0.26581115 -0.15443873 0.053456306
0.26544714 -0.091849804 0.074284077
0.26019514 0.11601722 0.036747456
0.26057714 0.14784223 0.01373148
0.26117015 0.18402427 -0.022008896
0.26226115 0.22442627 -0.087846756
0.26394215 0.24504328 -0.18921471
0.25960916 0.032368243 0.072090149
0.26296014 -0.30377376 -0.12995958
0.26059216 -0.21666074 0.012803078
0.25991416 -0.15438175 0.053696156
0.25957114 -0.091814756 0.074407101
0.25429216 0.11601323 0.036612511
0.25625414 0.22439122 -0.088271618
0.25361115 -0.04761374 0.079990387
0.25360715 -0.0036037564 0.08021307
0.25788617 0.24475223 -0.19215584
0.25388914 0.069611251 0.062283039
0.25465915 -0.21656978 0.013232231
0.25402015 -0.1543268 0.053936481
0.24838915 0.11600727 0.036478043
0.24926415 0.18398923 -0.022503853
0.25024617 0.22435522 -0.08869791
0.24774316 -0.047595739 0.080023289
0.24773915 -0.0035857558 0.080248356
0.25182515 0.24446124 -0.19509268
0.24786216 0.032380223 0.071996212
0.24800715 0.069617271 0.062237263
0.25073415 -0.30220973 -0.12157393
0.24872714 -0.21648073 0.013659477
0.24782215 -0.091746807 0.074653149
0.24281216 0.14778626 0.012996197
0.24423715 0.22431922 -0.089122772
0.24187514 -0.047577739 0.080059052
0.24575815 0.24416924 -0.19802856
0.24198815 0.032386243 0.071949482
0.24463215 -0.3014338 -0.11740589
0.24223316 -0.15421879 0.054413319
0.23658216 0.11599427 0.036211491
0.23688915 0.14776623 0.012753487
0.23735715 0.18395126 -0.022996902
0.23823015 0.22427326 -0.089635849
0.23600516 -0.0035527349 0.080317497
0.23968714 0.24387723 -0.20096159
0.23611516 0.032390237 0.071903229
0.23624316 0.069626272 0.062145233
0.23853916 -0.30066276 -0.11325788
0.23607615 -0.091682792 0.07490015
0.23067716 0.11598724 0.036078453
0.23096515 0.14774626 0.0125103
0.23222315 0.22419626 -0.09043169
0.23013616 -0.0035367608 0.080350399
0.23360915 0.24358523 -0.20389271
0.23024015 0.03239423 0.07185936
0.23093516 -0.21621776 0.014934063
0.23020115 -0.091651797 0.075023174
0.22504215 0.14772624 0.012267113
0.22621615 0.22411925 -0.091226578
0.22427216 -0.047528744 0.080162048
0.22752716 0.24329323 -0.20682049
0.22436616 0.03239727 0.071812153
0.22447714 0.069633245 0.062053204
0.22637215 -0.2991308 -0.10500765
0.22455615 -0.1540637 0.055127144
0.22432914 -0.091621757 0.075145245
0.21911916 0.14770424 0.012023449
0.21949315 0.18389225 -0.023731709
0.21840516 -0.047513723 0.080196381
0.21840215 -0.0035077333 0.080420494
0.22030115 -0.29837179 -0.1009078
0.21907915 -0.21604776 0.015778065
0.21866515 -0.15401471 0.055361271
0.21296614 0.11596125 0.035680294
0.21319515 0.14768326 0.011782169
0.21419916 0.22396326 -0.092813492
0.21253815 -0.04750073 0.080230236
0.21535015 0.24270827 -0.21266794
0.21262015 0.032402277 0.071721077
0.21423815 -0.29761577 -0.096826553
0.21277416 -0.15396571 0.055598259
0.20706216 0.11595225 0.035547256
0.20727116 0.14766026 0.011541367
0.20758316 0.18384928 -0.024219513
0.20818916 0.22388422 -0.093604565
0.20667115 -0.047486782 0.080266476
0.20666915 -0.0034817457 0.080489159
0.20925316 0.24241525 -0.21558762
0.20674616 0.032403231 0.071676254
0.20818116 -0.29686475 -0.092761517
0.20134515 0.14763725 0.011300087
0.20162615 0.18382722 -0.024463654
0.20217516 0.22380525 -0.09439373
0.20080215 -0.0034697652 0.080524445
0.20315015 0.24212223 -0.21850491
0.20087115 0.032404244 0.071631432
0.20215015 -0.29656971 -0.091195583
0.20130014 -0.21580172 0.017035484
0.20084015 -0.091510773 0.075633049
0.19525215 0.11593026 0.035285473
0.19542116 0.14761424 0.011059284
0.19567016 0.18380523 -0.024704933
0.19616215 0.22372627 -0.095181942
0.19493516 -0.0034587383 0.080559254
0.19704415 0.24182826 -0.22141886
0.19499815 0.032403231 0.071585178
0.19612916 -0.29640579 -0.090340614
0.19496915 -0.091484785 0.075754166
0.18971415 0.18378222 -0.024945736
0.19014814 0.22364622 -0.095968723
0.18906915 -0.0034477711 0.080594063
0.19093215 0.24153423 -0.22432852
0.18912515 0.032402277 0.071540356
0.18918616 0.069607258 0.061548233
0.19010815 -0.29624379 -0.089487553
0.18921615 -0.1537807 0.05653429
0.18344215 0.11590725 0.035024166
0.18357015 0.14756525 0.010581493
0.18375815 0.18375826 -0.025188923
0.18413216 0.22356623 -0.096755505
0.18320516 -0.047441721 0.080404282
0.18320414 -0.0034387708 0.080627441
0.18481615 0.24124026 -0.2272377
0.18325116 0.032401264 0.071496487
0.18409015 -0.29608178 -0.088638783
0.18353015 -0.2155658 0.018282413
0.17753616 0.11589426 0.034893513
0.17779915 0.18373424 -0.025429726
0.17811415 0.22348523 -0.097538948
0.17733715 -0.047431707 0.080439091
0.17733616 -0.0034297705 0.080662251
0.17742115 0.06958127 0.061290264
0.17744015 -0.1536938 0.05700016
0.17171715 0.14751422 0.010104179
0.17184216 0.18370926 -0.025669575
0.17209615 0.22340423 -0.098323822
0.17147115 -0.04742372 0.080472469
0.17147115 -0.0034217238 0.080696106
0.17153916 0.069567263 0.061160088
0.17205615 -0.29576373 -0.086946487
0.17148615 -0.091389775 0.076236248
0.16572616 0.11586726 0.034635067
0.16579115 0.14748824 0.0098671913
0.16588515 0.18367326 -0.0260005
0.16560616 -0.047415733 0.080507278
0.16560516 -0.0034137368 0.080731392
0.16565715 0.069553256 0.061032295
0.16576515 -0.21533871 0.019520283
0.16566615 -0.15361071 0.057463169
0.16561715 -0.091368794 0.076357365
0.15986416 0.14746124 0.0096292496
0.16005516 0.22324026 -0.099885941
0.15975615 0.03238827 0.071320057
0.16002916 -0.29545176 -0.085265636
0.15984616 -0.21526575 0.019929409
0.15974715 -0.091347694 0.076477051
0.15391515 0.11583728 0.034377098
0.15396816 0.18358427 -0.0268116
0.15387516 -0.047401786 0.080577374
0.15401915 -0.29529774 -0.084427834
0.15392715 -0.21519375 0.020338058
0.15389416 -0.15353072 0.057924271
0.15387815 -0.091327786 0.07659626
0.14800715 0.14740622 0.0091581345
0.14800715 0.18353826 -0.027216911
0.14800715 -0.047396779 0.080610275
0.14800715 0.069505274 0.060650349
0.14800715 -0.21512175 0.020746231
0.14210115 0.11580527 0.034120083
0.14207916 0.14737725 0.0089221001
0.14204715 0.18349224 -0.027620792
0.14198215 0.22299224 -0.10221958
0.14214215 -0.047391772 0.080646038
0.14214215 -0.0034327507 0.08057642
0.14212415 0.069488227 0.060522079
0.14199916 -0.29499376 -0.082762718
0.14212315 -0.15345478 0.058382511
0.14213915 -0.091290712 0.076834202
0.13615115 0.14734823 0.0086874962
0.13627616 -0.0034407377 0.080533504
0.13626015 0.032364249 0.071147442
0.13599315 -0.29484475 -0.081934929
0.13617316 -0.21498275 0.021558285
0.13623816 -0.15341878 0.058610439
0.13028915 0.11577123 0.033866405
0.13022216 0.14731926 0.0084533691
0.12992816 0.22282428 -0.10376883
0.13038616 0.032356262 0.071102142
0.13035816 0.069452226 0.060270309
0.13035415 -0.15338278 0.058839321
0.13040215 -0.091256738 0.077072144
0.12438016 0.11575323 0.03373909
0.12429115 0.14728826 0.0082182884
0.12454415 -0.047382712 0.080748081
0.12454315 -0.003457725 0.080446243
0.12447216 0.069433272 0.060143471
0.12434115 -0.21484876 0.022365093
0.12446915 -0.1533488 0.059066296
0.12453215 -0.091240764 0.077191353
0.11847316 0.11573422 0.033611298
0.11836115 0.14725822 0.0079851151
0.11819915 0.18330222 -0.02922678
0.11863615 0.032339275 0.071018219
0.11858815 0.069413245 0.060017109
0.11798015 -0.29440379 -0.079463959
0.11842615 -0.21478271 0.022767067
0.11858515 -0.15331471 0.059291363
0.11866415 -0.091225743 0.077309132
0.11256616 0.11571527 0.033485413
0.11223515 0.18325323 -0.029626846
0.11183515 0.22256923 -0.10608292
0.11281416 -0.047379732 0.080818176
0.11276215 0.032329261 0.070975304
0.11197916 -0.29425979 -0.07864666
0.11251216 -0.2147187 0.023167133
0.11270215 -0.15328276 0.059518337
0.11279616 -0.091211796 0.077427387
0.10650115 0.14719522 0.0075201988
0.10627115 0.18320423 -0.030024529
0.10580215 0.22248328 -0.10685158
0.10694516 -0.0034877658 0.080319405
0.10688815 0.032319248 0.070932388
0.10682015 0.069372237 0.059767246
0.10597915 -0.29411781 -0.077831745
0.10659915 -0.2146548 0.0235672
0.10682015 -0.15325069 0.059744358
0.10692815 -0.091198802 0.077545166
0.10075115 0.11567426 0.033233166
0.10056915 0.14716226 0.007288456
0.099767148 0.22239727 -0.10761881
0.10108315 -0.047379732 0.080888271
0.10107915 -0.003498733 0.080278397
0.10101315 0.032308221 0.07089138
0.10106115 -0.091186762 0.077663422
0.094636157 0.14712924 0.0070571899
0.094339155 0.18310428 -0.030820847
0.093729153 0.22231126 -0.10838556
0.095211148 -0.0035117269 0.080235481
0.095137149 0.03229624 0.070850372
0.094772153 -0.21453178 0.024363041
0.09505415 -0.15318978 0.060192108
0.088704154 0.14709628 0.0068264008
0.088372156 0.18305326 -0.031216621
0.087692156 0.22222322 -0.10915184
0.089163154 0.069305241 0.05939436
0.088860154 -0.21449077 0.024645329
0.089172155 -0.15316081 0.060416222
0.089324154 -0.091163754 0.077897072
0.082772151 0.14706224 0.0065970421
0.08240515 0.18300223 -0.031611919
0.083486155 -0.047385693 0.080991268
0.083478153 -0.0035377741 0.080152512
0.08338815 0.032270253 0.070766449
0.083277151 0.069282234 0.059271336
0.08294715 -0.2144618 0.024870396
0.083290152 -0.1531328 0.060640335
0.077115156 0.11558622 0.032734394
0.075613156 0.22204822 -0.11067772
0.077620156 -0.047389746 0.081025124
0.077611156 -0.0035517216 0.080112457
0.077513151 0.032256246 0.070725441
0.077391155 0.069258273 0.059149265
0.077035151 -0.21443272 0.025095463
0.077590153 -0.0911448 0.078132153
0.071204156 0.11556327 0.032610416
0.069569156 0.22196025 -0.11143875
0.071753152 -0.047394753 0.081059456
0.071742155 -0.0035677552 0.080071449
0.071503155 0.069233239 0.059025288
0.070006154 -0.29329276 -0.072994709
0.071121156 -0.2144047 0.025319099
0.071527153 -0.15307975 0.061086178
0.065294154 0.11553925 0.032486439
0.064969152 0.14695626 0.0059103966
0.063526154 0.22187126 -0.11219788
0.065888152 -0.047399759 0.081094265
0.06587515 -0.0035827756 0.080030441
0.065760151 0.032227278 0.070643425
0.06401515 -0.2931608 -0.072198868
0.065646149 -0.15305471 0.06130743
0.059035152 0.14692026 0.0056824684
0.058526151 0.18279225 -0.033187866
0.057482153 0.22178227 -0.11295652
0.060007155 -0.0035997629 0.079989433
0.059885152 0.032211244 0.070602417
0.05973015 0.069182277 0.058780193
0.05802615 -0.29302979 -0.071404934
0.059766151 -0.15303075 0.061527252
0.059988156 -0.091122746 0.078480244
0.053474151 0.11548924 0.032240391
0.053100154 0.14688325 0.0054540634
0.054009154 0.032194257 0.070560455
0.053843156 0.069155276 0.058658123
0.053386152 -0.21432769 0.025988102
0.046582155 0.18268424 -0.033969879
0.048291154 -0.047419786 0.081198215
0.048272155 -0.0036347508 0.079908371
0.047955155 0.069128275 0.058536053
0.047475152 -0.21430373 0.026210308
0.041650154 0.11543626 0.031995296
0.040608153 0.18262923 -0.034359932
0.039337151 0.22151226 -0.11522579
0.042402156 -0.0036527514 0.07986927
0.042065151 0.069100261 0.058416367
0.04006315 -0.29264474 -0.06903553
0.041563153 -0.2142818 0.026431084
0.035739154 0.11540926 0.031873226
0.035289153 0.14676923 0.0047750473
0.034634151 0.18257427 -0.034748554
0.034078151 -0.29251981 -0.068253517
0.035652153 -0.21425974 0.026651382
0.036519155 -0.0911057 0.078941345
0.029352151 0.14673024 0.0045495033
0.02865915 0.18251824 -0.0351367
0.030692153 -0.047446728 0.081302166
0.030665152 -0.0036927462 0.079789162
0.030502155 0.032121241 0.070400238
0.028095156 -0.29239571 -0.067471504
0.029742151 -0.21423876 0.026871204
0.030358151 -0.15299976 0.06216526
0.030653156 -0.091102719 0.079055309
0.023915149 0.11535323 0.031629086
0.022684157 0.18246228 -0.035525799
0.02118215 0.22123826 -0.1174798
0.024826154 -0.047457695 0.081335068
0.024797156 -0.0037127733 0.079749107
0.024399154 0.069012225 0.058055401
0.022113159 -0.29227281 -0.066691875
0.02383215 -0.21421981 0.027091503
0.024476156 -0.15299773 0.062279224
0.024786152 -0.091101766 0.079170227
0.01747416 0.14665025 0.0041003227
0.016706154 0.18240523 -0.035910606
0.015125155 0.22114527 -0.11822987
0.018958151 -0.047468781 0.081370354
0.016130149 -0.29215276 -0.065916538
0.017920151 -0.21420074 0.027311325
0.012087151 0.11529523 0.031388283
0.011535153 0.14661026 0.0038762093
0.010729149 0.18234825 -0.036298752
0.0090691596 0.22105324 -0.1189785
0.012868151 0.032059252 0.070281506
0.012618154 0.068951249 0.057817459
0.010150149 -0.29203272 -0.065142632
0.012712151 -0.15299773 0.06250906
0.005596146 0.14656824 0.0036520958
0.0047511458 0.18229026 -0.036683559
0.0030111521 0.22096026 -0.1197257
0.0072251558 -0.047493696 0.081440449
0.0069901496 0.032037258 0.070242405
0.0067281574 0.068919241 0.057696342
0.00026015937 0.11523426 0.031148434
-0.00034484267 0.14652723 0.0034313202
-0.0030478537 0.22086626 -0.12047052
0.0013581514 -0.047506809 0.081474304
0.0011121482 0.032014251 0.070203304
0.00094915926 -0.15300071 0.062737465
-0.0056538433 0.11520225 0.031028271
-0.0062848479 0.14648426 0.0032072067
-0.0045528412 -0.0038277507 0.079555511
-0.005053848 0.068854272 0.057461262
-0.0077838451 -0.29168272 -0.062838554
-0.0057188421 -0.21413577 0.028180122
-0.0049318522 -0.15300274 0.062852383
-0.011569843 0.11517024 0.030909061
-0.012227848 0.14644122 0.0029873848
-0.01094684 0.068820238 0.057342052
-0.013761848 -0.29156876 -0.062075615
-0.017485842 0.11513823 0.030789375
-0.021236852 0.22058326 -0.12269974
-0.016243845 -0.047552705 0.081577301
-0.01629585 -0.003877759 0.079480171
-0.016524851 0.031942248 0.070087433
-0.019736841 -0.29145575 -0.061315536
-0.017538846 -0.21410871 0.028612137
-0.023400843 0.11510426 0.03067112
-0.025154844 0.18199325 -0.038597584
-0.027301848 0.22048825 -0.12343884
-0.022111848 -0.047569752 0.081611156
-0.022403851 0.031917274 0.070049286
-0.022731841 0.068751276 0.057109356
-0.023447841 -0.21409774 0.028826237
-0.022577852 -0.15301681 0.06319046
-0.029316843 0.11507124 0.030552387
-0.033368841 0.22039324 -0.12417984
-0.028283849 0.031891227 0.070011139
-0.028624848 0.068716228 0.0569911
-0.031682849 -0.29123473 -0.059800625
-0.028459847 -0.15302372 0.063303471
-0.02801685 -0.091125727 0.080190182
-0.035234854 0.11503625 0.030435085
-0.036001846 0.14626426 0.0021042824
-0.037123844 0.18187124 -0.03935957
-0.039438844 0.22029728 -0.12491655
-0.033910841 -0.003959775 0.0793643
-0.035266846 -0.21407676 0.029253483
-0.03434284 -0.15303075 0.063416481
-0.033885852 -0.09113276 0.080303192
-0.043108851 0.18181026 -0.039737701
-0.04022485 -0.15303874 0.063527107
-0.039752841 -0.091140747 0.080414295
-0.047069848 0.11496627 0.030199051
-0.04789184 0.14617223 0.0016684532
-0.049094841 0.18174726 -0.040115833
-0.045584843 -0.047643781 0.081749439
-0.045925841 0.031808257 0.069897175
-0.046307847 0.068606257 0.056642056
-0.049597844 -0.29091477 -0.057550907
-0.047084853 -0.21406078 0.029680252
-0.046106845 -0.1530478 0.06363821
-0.045619845 -0.091148734 0.080526352
-0.052987844 0.11492926 0.030082226
-0.053837851 0.14612526 0.0014491081
-0.057653844 0.22000623 -0.12712288
-0.051452845 -0.047664762 0.081783295
-0.051528841 -0.0040467381 0.079253197
-0.051806852 0.03177923 0.069860458
-0.052202851 0.06856823 0.056527138
-0.055566847 -0.2908107 -0.056805611
-0.05198884 -0.15305769 0.063750267
-0.05148685 -0.091158748 0.080638409
-0.05890584 0.11489326 0.029967308
-0.059783846 0.14607728 0.0012321472
-0.061070845 0.18162125 -0.040869713
-0.063727841 0.21990824 -0.12785578
-0.057401851 -0.0040777326 0.07921648
-0.057688847 0.031750262 0.069822311
-0.058097854 0.068529248 0.056411266
-0.058901846 -0.21404779 0.030102253
-0.05787085 -0.15306878 0.063863277
-0.065732852 0.14602923 0.0010142326
-0.067060843 0.18155724 -0.041246891
-0.069805846 0.21981025 -0.12858677
-0.063192844 -0.047707796 0.08185339
-0.063276842 -0.004108727 0.079179287
-0.063571841 0.031719267 0.069785118
-0.064811841 -0.21404374 0.030312061
-0.063223854 -0.091179729 0.080860138
-0.071680844 0.14598024 0.0007982254
-0.069061846 -0.047730803 0.081886292
-0.06915085 -0.004141748 0.07914114
-0.06989184 0.068450272 0.056183338
-0.076665848 0.11477923 0.029619217
-0.077629849 0.14593124 0.00058221817
-0.079041854 0.18142825 -0.041994572
-0.074930847 -0.047754765 0.081921101
-0.075024843 -0.0041737556 0.079106331
-0.075788841 0.068409264 0.056069374
-0.074958846 -0.091203809 0.081083298
-0.08258684 0.11474025 0.029503345
-0.08357884 0.14588225 0.00036811829
-0.085033849 0.18136322 -0.042368889
-0.088043854 0.21951324 -0.13077164
-0.080800846 -0.047778726 0.081955433
-0.080898851 -0.0042077303 0.079070091
-0.081218854 0.031624258 0.069674492
-0.081685841 0.068368256 0.055956364
-0.085399851 -0.29031169 -0.053118706
-0.082537845 -0.2140348 0.03094244
-0.08140184 -0.15312076 0.064306259
-0.080826849 -0.091217756 0.081193447
-0.089530841 0.14583123 0.00015211105
-0.091028854 0.18129724 -0.042740822
-0.086672843 -0.04780376 0.081989288
-0.087103844 0.03159225 0.069639206
-0.087585852 0.068326235 0.055841446
-0.091365844 -0.2902168 -0.052388668
-0.088447854 -0.21403372 0.031151295
-0.087286845 -0.15313673 0.064416409
-0.094430849 0.11465925 0.02927351
-0.097021848 0.18123025 -0.043113708
-0.10021184 0.21931225 -0.13222361
-0.092651844 -0.0042767525 0.078998089
-0.09298785 0.031558275 0.069603443
-0.097327843 -0.29012275 -0.051662922
-0.093169853 -0.1531527 0.064525127
-0.10035385 0.11461824 0.029158115
-0.10143284 0.14572924 -0.00027656555
-0.10301684 0.18116325 -0.043483734
-0.09841384 -0.047856808 0.08205843
-0.09852685 -0.0043117404 0.07896328
-0.098871842 0.031524241 0.06956625
-0.099382848 0.068240225 0.055616379
-0.10329084 -0.29002976 -0.050936699
-0.10026485 -0.21403575 0.031564236
-0.098432854 -0.091263771 0.081523418
-0.10627584 0.11457723 0.029044151
-0.10738485 0.14567727 -0.00048875809
-0.10901286 0.18109626 -0.043854713
-0.11238484 0.21911025 -0.13366985
-0.10440384 -0.0043487549 0.07892704
-0.10475583 0.031489253 0.069530487
-0.10925184 -0.28993773 -0.050214767
-0.10430185 -0.091280699 0.081632137
-0.11333786 0.14562523 -0.00070285797
-0.11500986 0.18102825 -0.044224739
-0.11015584 -0.047912717 0.082126141
-0.11027984 -0.0043857694 0.078891277
-0.11118285 0.068152249 0.055392265
-0.11081986 -0.15320575 0.064856052
-0.12456585 0.21890724 -0.1351099
-0.11602886 -0.047941804 0.08216238
-0.11652784 0.031416237 0.069459438
-0.11708586 0.068107247 0.055280209
-0.11604185 -0.0913167 0.081851482
-0.12404986 0.11444825 0.028704166
-0.12524785 0.14551824 -0.0011277199
-0.12700884 0.18089128 -0.044960499
-0.12190084 -0.047971725 0.082196236
-0.12241386 0.031379223 0.069424152
-0.12713285 -0.28967273 -0.048062801
-0.12390186 -0.2140497 0.03238821
-0.12997486 0.11440426 0.02859211
-0.13120286 0.14546424 -0.0013375282
-0.13300885 0.18082124 -0.045327663
-0.13675185 0.21870124 -0.13654566
-0.12777384 -0.048001766 0.082231045
-0.12791486 -0.0045007467 0.078787327
-0.12830086 0.031341255 0.06938839
-0.12888886 0.068015277 0.055058479
-0.13309185 -0.28958774 -0.047351837
-0.12981085 -0.21405578 0.03259325
-0.12847285 -0.15326774 0.065181255
-0.12778284 -0.091365695 0.082010269
-0.13715886 0.14540923 -0.0015487671
-0.13364585 -0.048033714 0.082265377
-0.13418783 0.031303227 0.069353104
-0.13479085 0.067968249 0.05494833
-0.13904886 -0.28950274 -0.04664278
-0.13571985 -0.21406281 0.03279829
-0.13435785 -0.15329075 0.065290451
-0.13365586 -0.091398716 0.082044125
-0.14182885 0.11431426 0.028367043
-0.14311786 0.14535427 -0.0017576218
-0.14501284 0.18068123 -0.046059608
-0.14007686 0.031264246 0.069318295
-0.14069586 0.067921221 0.054837227
-0.14500783 -0.28941977 -0.045935631
-0.14162986 -0.21407175 0.033000469
-0.14024384 -0.15331376 0.065398216
-0.14775585 0.11426824 0.028256416
-0.15504484 0.21839023 -0.13868856
-0.14539485 -0.048098803 0.082333088
-0.14659984 0.06787324 0.054728508
-0.15096386 -0.28933871 -0.045230865
-0.14753984 -0.21408081 0.033202171
-0.14540385 -0.091465712 0.082113266
-0.15368284 0.11422223 0.028146267
-0.15701984 0.18053925 -0.046788692
-0.16114484 0.21828526 -0.13939953
-0.15126784 -0.048131704 0.082368374
-0.15143384 -0.0046647787 0.078649044
-0.15185286 0.031184256 0.069249153
-0.15691985 -0.28925872 -0.044529915
-0.15344884 -0.2140907 0.03340435
-0.15201484 -0.15336275 0.065615177
-0.15961184 0.11417526 0.028033257
-0.15714283 -0.048166752 0.082402229
-0.15731485 -0.0047077537 0.078617096
-0.15774186 0.031142235 0.069215298
-0.15840884 0.067774236 0.054508209
-0.16287483 -0.2891798 -0.043828487
-0.15935786 -0.21410179 0.033607483
-0.15715285 -0.09153676 0.082183361
-0.16553985 0.11412728 0.027922153
-0.16903184 0.18039423 -0.047514915
-0.17335086 0.21807528 -0.1408205
-0.16301684 -0.048201799 0.082437038
-0.16319583 -0.0047507286 0.078582287
-0.16363086 0.031100273 0.069181442
-0.16431485 0.067724228 0.054401398
-0.16882886 -0.28910375 -0.043133736
-0.16526784 -0.21411371 0.033807278
-0.16378586 -0.1534158 0.065829277
-0.16302685 -0.091573715 0.082216263
-0.17504086 0.18032128 -0.047875881
-0.16889386 -0.048237801 0.082472324
-0.16907884 -0.0047947764 0.078549385
-0.17022283 0.06767422 0.054292202
-0.17478485 -0.28902674 -0.042438507
-0.17117883 -0.21412671 0.034007072
-0.16967385 -0.15344369 0.065935135
-0.16890384 -0.091611743 0.082250118
-0.17740284 0.11402726 0.027684212
-0.18556486 0.21786225 -0.14223671
-0.17476885 -0.048274755 0.082505226
-0.17612983 0.067622244 0.054184437
-0.18073784 -0.28895271 -0.041746616
-0.17708884 -0.21414077 0.034207344
-0.17477985 -0.091649771 0.082286358
-0.18333785 0.11396623 0.027481079
-0.18705885 0.18017423 -0.048596859
-0.19167285 0.21775526 -0.14294052
-0.18299885 -0.21415675 0.034406185
-0.18144684 -0.15350175 0.066149235
-0.19080286 0.14489126 -0.0034208298
-0.19306986 0.18009925 -0.048955917
-0.18719484 0.030926228 0.069046497
-0.19264184 -0.28880775 -0.040369511
-0.18890984 -0.21417272 0.034604073
-0.18733384 -0.15353179 0.066256046
-0.18653284 -0.091728806 0.082353115
-0.19676884 0.14483124 -0.0036277771
-0.19239984 -0.04838872 0.082609177
-0.19261186 -0.004978776 0.078417301
-0.19308884 0.030881226 0.069013119
-0.19859485 -0.28873777 -0.039685726
-0.19322284 -0.15356374 0.066361427
-0.19241084 -0.091769695 0.082389355
-0.20273386 0.14477026 -0.0038328171
-0.21001084 0.21743226 -0.14505053
-0.19827683 -0.048428774 0.082644463
-0.19849683 -0.0050267577 0.078385353
-0.19898085 0.030835271 0.068980217
-0.19976585 0.067410231 0.053755283
-0.20454584 -0.28866875 -0.039004803
-0.19911085 -0.15359581 0.066467285
-0.19828884 -0.091810703 0.08242321
-0.20708986 0.11371624 0.026672363
-0.20869984 0.14470828 -0.0040359497
-0.21110986 0.17987227 -0.050029755
-0.20415483 -0.048469782 0.082678318
-0.20487486 0.030788243 0.068947315
-0.20567586 0.067356229 0.053649426
-0.20664285 -0.21422672 0.035197258
-0.20499884 -0.15362871 0.066571236
-0.20416684 -0.091853738 0.082457066
-0.21302985 0.11365128 0.026472092
-0.21466585 0.14464623 -0.0042386055
-0.21712483 0.17979628 -0.050385952
-0.21003284 -0.04851079 0.082712173
-0.21026684 -0.0051247478 0.078319073
-0.21158685 0.06730026 0.053543091
-0.21255486 -0.21424675 0.035393238
-0.21004485 -0.091896772 0.082492352
-0.22063385 0.14458424 -0.0044436455
-0.22314085 0.17971927 -0.050741673
-0.22836284 0.21710527 -0.1471467
-0.21591185 -0.048552752 0.082745075
-0.21615286 -0.0051737428 0.078287125
-0.22239585 -0.2884717 -0.036974907
-0.21846585 -0.21426773 0.035588264
-0.21677683 -0.15369773 0.066781044
-0.22660385 0.14452022 -0.0046477318
-0.22179286 -0.048595786 0.082780361
-0.22255884 0.030644238 0.068849087
-0.22834586 -0.2884078 -0.036301613
-0.22437884 -0.21428978 0.035784245
-0.23085584 0.11345625 0.025873184
-0.23257385 0.14445722 -0.0048499107
-0.24060686 0.21688426 -0.14853954
-0.22767185 -0.048639774 0.082816124
-0.22845484 0.03059423 0.068817139
-0.23429485 -0.28834677 -0.035634518
-0.22855686 -0.15376973 0.066992283
-0.22768484 -0.092030764 0.082595348
-0.23854385 0.14439225 -0.0050506592
-0.24673085 0.21677423 -0.14923382
-0.23355286 -0.048683763 0.082849503
-0.23381685 -0.0053277612 0.078194141
-0.23435085 0.030544221 0.068785191
-0.23620285 -0.21433675 0.036173344
-0.23444684 -0.15380776 0.067096233
-0.23356484 -0.092077732 0.08262825
-0.24274285 0.11332226 0.025477409
-0.24451484 0.14432722 -0.0052528381
-0.24024786 0.030493259 0.068753242
-0.24115483 0.067015231 0.053018093
-0.24618985 -0.28822672 -0.034302711
-0.24211584 -0.21436274 0.036366463
-0.24033783 -0.15384579 0.067200184
-0.23944585 -0.092124701 0.082662106
-0.24868886 0.11325425 0.025279045
-0.25324184 0.17932624 -0.052506924
-0.25898486 0.21655124 -0.1506176
-0.24531485 -0.048775792 0.082918167
-0.24559484 -0.0054337382 0.078132153
-0.24707083 0.066956222 0.052914143
-0.25213683 -0.28816974 -0.033640862
-0.24622886 -0.15388572 0.067303181
-0.24532686 -0.092171788 0.082698345
-0.25463587 0.11318624 0.025081158
-0.25646186 0.14419627 -0.0056538582
-0.25926685 0.17924523 -0.052856922
-0.26511586 0.21643925 -0.15130663
-0.25119787 -0.048822761 0.082952499
-0.25148582 -0.0054887533 0.078099251
-0.25204486 0.030389249 0.0686903
-0.25394285 -0.21441579 0.03675127
-0.25121087 -0.092220783 0.082732201
-0.26243585 0.14412928 -0.0058526993
-0.27124685 0.21632624 -0.15199471
-0.25737685 -0.0055427551 0.07806921
-0.25794387 0.030337274 0.068660259
-0.25890583 0.066836238 0.052707195
-0.25985587 -0.2144438 0.036943436
-0.25709385 -0.092270732 0.082764149
-0.27737987 0.21621323 -0.15268278
-0.26482385 0.066775262 0.052605152
-0.26997787 -0.28800476 -0.031669617
-0.26576984 -0.21447277 0.037134171
-0.27247983 0.11297822 0.024493217
-0.27438682 0.14399427 -0.0062508583
-0.27734387 0.17900223 -0.053904533
-0.26884687 -0.048966765 0.08305645
-0.26915985 -0.0056547523 0.078008175
-0.26974386 0.03022927 0.068597317
-0.27074182 0.066713274 0.052503109
-0.27592385 -0.28795278 -0.031018734
-0.27168387 -0.21450269 0.037325382
-0.26979786 -0.15405178 0.067717075
-0.26885986 -0.092372775 0.082835197
-0.27843082 0.11290723 0.024300098
-0.28036582 0.14392626 -0.0064496994
-0.28965187 0.21598625 -0.15405369
-0.27666283 0.066651225 0.052399158
-0.27759987 -0.21453381 0.037516117
-0.27569282 -0.1540947 0.067820072
-0.28438187 0.11283624 0.024106503
-0.28634387 0.14385724 -0.0066466331
-0.28940284 0.17883724 -0.054600716
-0.28061682 -0.049067736 0.083124161
-0.28154784 0.030118227 0.068536282
-0.28258383 0.066588223 0.052298069
-0.28351486 -0.21456575 0.037704468
-0.28158683 -0.15413976 0.067922115
-0.28063083 -0.092477798 0.082903385
-0.29033387 0.11276424 0.02391243
-0.29543287 0.17875326 -0.054945946
-0.28650182 -0.049118757 0.083159447
-0.28744984 0.030062258 0.068505287
-0.28850484 0.066524267 0.052197456
-0.29375982 -0.2878058 -0.02907753
-0.29830188 0.14371824 -0.0070405006
-0.30146486 0.17867023 -0.055290699
-0.30807185 0.21564126 -0.15610075
-0.29335284 0.030005276 0.068475246
-0.29442585 0.066460252 0.052096367
-0.29970485 -0.28775978 -0.028436661
-0.29534483 -0.21463275 0.038080215
-0.29337585 -0.15423179 0.068125248
-0.29240286 -0.092584729 0.08297348
-0.30223984 0.11261922 0.023525238
-0.31421584 0.21552622 -0.15678072
-0.29863083 -0.0059477687 0.077859402
-0.29925686 0.029947221 0.068444252
-0.30564886 -0.28771472 -0.027797699
-0.29927087 -0.15427876 0.068229198
-0.29828882 -0.092640758 0.083006382
-0.30819583 0.11254627 0.023334503
-0.31353384 0.17850024 -0.055978775
-0.30627382 0.066330254 0.051893234
-0.31159383 -0.28767073 -0.027159691
-0.30717885 -0.2147038 0.03845644
-0.30417782 -0.092696786 0.083042145
-0.31415182 0.11247224 0.023142338
-0.31956887 0.17841524 -0.056320667
-0.32670885 0.21498126 -0.16104555
-0.31005085 -0.049332738 0.083296299
-0.31042582 -0.0060697794 0.077800274
-0.31219882 0.066264272 0.051795483
-0.31753784 -0.28762877 -0.026524544
-0.31106383 -0.15437675 0.068432331
-0.32010883 0.11239725 0.022951126
-0.31593883 -0.049387693 0.083331108
-0.31632286 -0.0061307549 0.077772141
-0.31697285 0.029769242 0.068355083
-0.31812382 0.066197276 0.051694393
-0.31901187 -0.21477973 0.038829327
-0.31595486 -0.09281075 0.083110332
-0.32606584 0.11232227 0.022760391
-0.32404983 0.066129267 0.051595211
-0.32492983 -0.21481872 0.039013386
-0.32285887 -0.15447772 0.06863308
-0.33420587 0.14328623 -0.0082097054
-0.33768487 0.17815626 -0.057345867
-0.34554183 0.21406722 -0.1683197
-0.32771987 -0.049500704 0.083399296
-0.32812184 -0.0062577724 0.077714443
-0.32997882 0.066061258 0.051496506
-0.33538884 -0.28756177 -0.024915695
-0.33084887 -0.21485877 0.039199352
-0.32875782 -0.15452981 0.068734169
-0.34019285 0.14321226 -0.0084028244
-0.33360982 -0.049558759 0.083433151
-0.33469683 0.029586256 0.068268299
-0.33590585 0.065993249 0.051398277
-0.34135383 -0.28758073 -0.024595737
-0.33676785 -0.21489978 0.039383411
-0.33465582 -0.15458179 0.068835258
-0.33362585 -0.092988729 0.083213329
-0.34618086 0.14313728 -0.0085959435
-0.34976685 0.17798126 -0.05802393
-0.35812086 0.21345627 -0.17315292
-0.33950084 -0.049616694 0.083468437
-0.34060585 0.029523253 0.068239212
-0.34183484 0.065923274 0.051299095
-0.34731883 -0.28760076 -0.024277687
-0.34268582 -0.21494174 0.039567471
-0.34055585 -0.15463579 0.068935394
-0.33951682 -0.093049765 0.083247185
-0.34990883 0.11201525 0.022005081
-0.35216981 0.14306223 -0.0087885857
-0.35581082 0.17789227 -0.05836153
-0.36441684 0.21315026 -0.17556477
-0.34539282 -0.049675703 0.083502293
-0.34651583 0.029460251 0.068209171
-0.35328382 -0.28762281 -0.023961544
-0.34860587 -0.21498477 0.039750099
-0.34645486 -0.15468979 0.0690341
-0.34540886 -0.093111753 0.08328104
-0.36185485 0.17780328 -0.058699608
-0.37071884 0.21284425 -0.17797279
-0.35172588 -0.0065187216 0.077602386
-0.35369486 0.065783262 0.051103115
-0.35924983 -0.28764474 -0.023645878
-0.35452485 -0.21502876 0.039933205
-0.35235482 -0.1547457 0.069133282
-0.35130185 -0.093174696 0.083315372
-0.36183685 0.11185825 0.021629333
-0.36415285 0.14291024 -0.0091705322
-0.37702584 0.21253723 -0.18037796
