# .PCD v0.7 - Point Cloud Data file format
VERSION 0.7
FIELDS x y z
SIZE 4 4 4
TYPE F F F
COUNT 1 1 1
WIDTH 1341
HEIGHT 1
VIEWPOINT 0 0 0 1 0 0 0
POINTS 1341
DATA ascii
0.11039463 -0.47484946 0.10325432
0.11041263 -0.42631948 0.10214663
0.10511064 0.14770657 0.071480274
0.10499564 0.024894536 0.078753471
0.10524864 0.29651952 0.062669277
0.10502964 0.061304569 0.076597691
0.10506464 0.09908855 0.074358463
0.10779063 0.6484865 -0.099127293
0.10912064 0.69102854 -0.18379545
0.10956164 0.72249556 -0.21188831
0.10582963 0.50103754 0.025682449
0.10990463 0.76866353 -0.23371649
0.11000764 0.80266154 -0.24025536
0.10602263 0.53448451 0.013392448
0.10639963 0.57561153 -0.010576725
0.11005963 0.85816956 -0.24358273
0.11001463 0.89384156 -0.24072742
0.11012363 0.93654555 -0.24762535
0.11021764 0.97362554 -0.25360632
0.10470863 -0.28366947 0.09702158
0.10778764 -0.9812324 -0.0989604
0.10448564 -0.85595047 0.11125135
0.10443863 -0.79562747 0.11421156
0.10449064 -0.65039349 0.11089849
0.10491663 -0.060666442 0.083818436
0.10457663 -0.42560446 0.10542536
0.099302635 0.18171656 0.071257591
0.099127635 -0.017950475 0.083076477
0.099403635 0.29671156 0.064450264
0.099197634 0.061561525 0.078369617
0.099230632 0.099335551 0.076133728
0.099726632 0.41750956 0.04272747
0.10348263 0.72255158 -0.21046972
0.099974632 0.50106555 0.025994301
0.10381763 0.76868653 -0.23306656
0.10392064 0.80266953 -0.24001265
0.10015464 0.53451955 0.01382637
0.10397063 0.85817552 -0.24335337
0.10186364 -0.98189652 -0.10136366
0.098634638 -0.72745347 0.11628628
0.098661639 -0.64948344 0.11450768
0.098940633 -0.23101842 0.095688343
0.098699637 -0.53648543 0.11193037
0.099090636 -0.060376406 0.085587502
0.098727636 -0.47332346 0.1100316
0.098769635 -0.42521346 0.10718346
0.093439639 0.14817154 0.075032711
0.093499638 0.22113556 0.070714474
0.093337633 0.025426567 0.082295418
0.093569636 0.29685152 0.065739632
0.093368635 0.061817527 0.080142498
0.095827632 0.64864755 -0.095982552
0.094119638 0.50109458 0.026304722
0.097835638 0.80267751 -0.23976946
0.097881638 0.85818154 -0.24312449
0.097840637 0.89385056 -0.24017668
0.097938634 0.93654954 -0.24720764
0.098039635 0.97362453 -0.25437832
0.093083635 -0.28296542 0.10054541
0.095936634 -0.98256242 -0.10376835
0.092832632 -0.85390151 0.11846828
0.092791632 -0.79364848 0.12141943
0.093126632 -0.23068142 0.097453594
0.093175635 -0.17163646 0.093958378
0.092965633 -0.4248234 0.1089406
0.087634638 0.18216151 0.074810505
0.087665632 0.22134656 0.072491646
0.087715633 0.26720053 0.068622589
0.087853633 0.33971852 0.058107376
0.087541632 0.062072515 0.081915379
0.087571636 0.099825561 0.079680443
0.089231633 0.6177665 -0.047156334
0.090973638 0.6911875 -0.18022871
0.088151634 0.45932353 0.035338402
0.088265635 0.50112152 0.026616573
0.091654636 0.76871556 -0.23224974
0.091749638 0.80268657 -0.23953152
0.088421635 0.5345875 0.014691353
0.088727638 0.57574356 -0.0086164474
0.091793634 0.85818654 -0.2428956
0.091867633 0.93654156 -0.24854946
0.091961637 0.97362351 -0.25572729
0.087222636 -0.3508935 0.10634661
0.087274633 -0.28261542 0.10230637
0.087016635 -0.85288143 0.1220727
0.086997636 -0.72555447 0.12348938
0.087020636 -0.64766943 0.12171555
0.087048635 -0.57522345 0.11961746
0.087079637 -0.53523052 0.1172514
0.087127633 -0.47251749 0.1135416
0.081805632 0.18236852 0.076469421
0.081848636 0.22140753 0.072957516
0.081898637 0.26723051 0.068835258
0.081660636 -0.017118454 0.088385582
0.081691638 0.025956511 0.085837364
0.082026638 0.33975154 0.058386326
0.081717633 0.062327564 0.083686352
0.083879635 0.64878452 -0.09330368
0.082138635 0.38803053 0.049194336
0.085289635 0.72262752 -0.20867157
0.082304634 0.45935053 0.035620689
0.085663632 0.80269456 -0.23929262
0.082555637 0.53462052 0.015125275
0.082837634 0.57578754 -0.0079665184
0.085692637 0.89383453 -0.24163246
0.081419632 -0.35052645 0.10810471
0.081468634 -0.2822665 0.10406733
0.084066637 -0.98390043 -0.10858536
0.081168637 -0.79167843 0.12861347
0.081187636 -0.72460747 0.12708664
0.081208639 -0.64676547 0.12531328
0.081257634 -0.57479441 0.12136841
0.081587635 -0.11729646 0.09430933
0.075997636 0.18240255 0.076683521
0.076037638 0.22143954 0.073170662
0.075873636 0.026219547 0.087604523
0.075897634 0.062580526 0.085456371
0.077382632 0.61786753 -0.045417309
0.076306634 0.38806152 0.04947567
0.076369636 0.41762954 0.043847561
0.079227634 0.72265351 -0.20802927
0.076460637 0.45937854 0.0359025
0.076558635 0.50117654 0.027238369
0.079591632 0.80267555 -0.24011135
0.076690637 0.5346545 0.01555872
0.079648636 0.85815054 -0.24513769
0.079717636 0.93652654 -0.2512393
0.075400636 -0.85084844 0.12926435
0.075384632 -0.7236625 0.13067961
0.075497635 -0.53439641 0.12075472
0.075777635 -0.1169945 0.096074581
0.075816639 -0.05922246 0.09265852
0.075571634 -0.42366052 0.11420631
0.070158638 0.14881653 0.079918385
0.070189632 0.18243551 0.076894283
0.070269637 0.26729053 0.069262505
0.070059635 0.026482522 0.089374542
0.071461633 0.61791658 -0.04456234
0.070473634 0.38809252 0.049755573
0.072850637 0.69132453 -0.17716742
0.070616633 0.45940453 0.036183357
0.073430635 0.76871252 -0.23257446
0.070827633 0.53468657 0.015991688
0.073640637 0.93651855 -0.25258827
0.073717639 0.97362053 -0.26000357
0.069826633 -0.34979451 0.11161661
0.069937639 -0.17036545 0.10100937
0.069970638 -0.11669242 0.097836494
0.069750637 -0.47131848 0.11880159
0.064353637 0.14885056 0.080131531
0.064382635 0.18246752 0.07710743
0.064416632 0.22150254 0.073596478
0.064223632 -0.016296446 0.09368372
0.064481638 0.29699653 0.066808701
0.064554632 0.33985054 0.059224606
0.064311638 0.10049456 0.084479332
0.065542638 0.61796451 -0.043708324
0.065979637 0.64898854 -0.089281559
0.064642638 0.38812256 0.050035477
0.064696632 0.41768652 0.044407368
0.067118637 0.72266352 -0.2078805
0.064772636 0.45943153 0.036464691
0.064855635 0.50122952 0.027860641
0.064965636 0.53471953 0.01642561
0.067565635 0.93650752 -0.25443649
0.064073637 -0.28122652 0.10934162
0.063785635 -0.78875244 0.13933468
0.063866638 -0.64535451 0.13085938
0.064102635 -0.22901452 0.10625553
0.064166635 -0.11639142 0.099600315
0.058575638 0.18249953 0.077320576
0.058419637 -0.016063452 0.09517765
0.058665641 0.29702353 0.067020416
0.058731638 0.33988255 0.059502602
0.058511637 0.10052955 0.084692478
0.060017638 0.64905655 -0.087936401
0.058929641 0.45945752 0.036746502
0.061301637 0.76864254 -0.23501635
0.061381638 0.80257553 -0.24422836
0.059298638 0.57594657 -0.0055503845
0.06142664 0.85808152 -0.24929953
0.058313638 -0.92185843 0.10731459
0.058019638 -0.78827143 0.1410737
0.058053639 -0.72194648 0.13715649
0.058338638 -0.16973543 0.10453129
0.058130641 -0.57309341 0.1283617
0.058365639 -0.11609149 0.10136127
0.058395639 -0.058367491 0.097951412
0.05818364 -0.47052646 0.12230253
0.052744638 0.14891553 0.080555439
0.052627638 -0.01602447 0.09539032
0.052657638 0.026815534 0.091537476
0.052907638 0.33991355 0.059781551
0.053706639 0.61806154 -0.04199934
0.052979641 0.38818055 0.05059433
0.05302364 0.41774255 0.044969559
0.05476664 0.69133753 -0.17700958
0.055024639 0.72259855 -0.20975065
0.053153638 0.5012815 0.028482437
0.05523264 0.76860756 -0.23623753
0.053240638 0.53478354 0.0172925
0.05534564 0.89372754 -0.25071335
0.05245864 -0.34870648 0.11687946
0.05249064 -0.28053844 0.11285353
0.052505638 -0.92080247 0.1109457
0.052257638 -0.84712744 0.14246655
0.052285638 -0.7214855 0.13889837
0.052321639 -0.64447045 0.13434839
0.052514639 -0.22835445 0.1097703
0.052402638 -0.47013247 0.12405157
0.04694064 0.14894754 0.080769539
0.046986639 0.22159153 0.074236393
0.047015637 0.26740354 0.070117474
0.046837639 -0.015986443 0.095602512
0.04686464 0.026852548 0.091749668
0.047033638 0.29707652 0.067448616
0.047085639 0.33994454 0.060060501
0.048106641 0.64914656 -0.086171627
0.04714964 0.38820952 0.050875664
0.04718864 0.41776955 0.045251369
0.048744638 0.69131255 -0.17765474
0.048975639 0.72256553 -0.2106843
0.047244638 0.45950854 0.037308693
0.047303639 0.50130653 0.028793335
0.04916364 0.76856655 -0.23763943
0.047380637 0.53481555 0.017725468
0.047535639 0.57602054 -0.0044035912
0.049277637 0.89368951 -0.25389338
0.049347639 0.93645155 -0.26398849
0.046704639 -0.28019643 0.11460733
0.04672664 -0.22802651 0.11152649
0.04658464 -0.57225144 0.13185263
0.04660064 -0.53233445 0.12949562
0.046810638 -0.058128476 0.099390507
0.041138638 0.14897954 0.080982685
0.041156638 0.18259156 0.077959538
0.041177638 0.22162056 0.074450493
0.04104764 -0.015949488 0.095813274
0.04107064 0.026888549 0.091961384
0.041264638 0.33997452 0.060339451
0.041090637 0.063070536 0.088706493
0.041111641 0.10063154 0.085330486
0.04188164 0.61813557 -0.040695667
0.041320641 0.38823754 0.051156521
0.04272164 0.69128752 -0.17830038
0.04140364 0.45953256 0.03758955
0.041454639 0.50133157 0.02910471
0.043103639 0.76847553 -0.24069643
0.043172639 0.80238152 -0.25207138
0.041521639 0.53484654 0.018158436
0.041656639 0.57605755 -0.0038285255
0.043214638 0.85791755 -0.25892258
0.043203641 0.89365155 -0.25707674
0.043331638 0.97360754 -0.27809572
0.040897638 -0.34798646 0.12038231
0.040742639 -0.84618044 0.14580059
0.040739641 -0.78683841 0.1462903
0.04079064 -0.64359343 0.1378336
0.040940639 -0.22769952 0.11328268
0.040816639 -0.57183242 0.13359737
0.04099264 -0.11550844 0.10476637
0.035335638 0.14900953 0.081194401
0.035369638 0.22164851 0.074663639
0.035278641 0.026923537 0.092173576
0.03540564 0.29712754 0.067876339
0.035977639 0.61809754 -0.041444302
0.035520639 0.41782355 0.04581356
0.036697637 0.69126153 -0.1789465
0.035663638 0.53487754 0.018592358
0.037133638 0.85786253 -0.2621417
0.037188638 0.93639952 -0.27261353
0.037246641 0.97360355 -0.28377342
0.035121638 -0.34762847 0.12213326
0.035124637 -0.91771042 0.12160444
0.034988638 -0.84571052 0.14746571
0.035006639 -0.72010946 0.1441164
0.035052639 -0.57141542 0.13534069
0.035211638 -0.11546743 0.10497761
0.035238639 -0.058051467 0.099815369
0.029532637 0.14904052 0.081408501
0.029545637 0.18264955 0.078386307
0.029560637 0.22167552 0.074877262
0.029578637 0.26748252 0.070758343
0.029484637 0.026957512 0.092385292
0.029590636 0.29715252 0.068090439
0.029661637 0.38829255 0.051716328
0.029686637 0.41784853 0.046093464
0.030826638 0.72240055 -0.21527052
0.029757638 0.50137955 0.029726505
0.031053636 0.85777456 -0.26723766
0.031150637 0.97359955 -0.28946161
0.029350637 -0.91727543 0.12309456
0.029236637 -0.84524143 0.14912939
0.029233636 -0.78589046 0.14976263
0.029250637 -0.71965444 0.14585447
0.029270638 -0.64272141 0.14131451
0.029289637 -0.57099843 0.13708353
0.029299637 -0.53111351 0.13473034
0.029315637 -0.46856844 0.13104057
0.023730638 0.14906955 0.081621647
0.023678636 -0.015841484 0.096448421
0.023692638 0.026991546 0.092597485
0.023777638 0.29717654 0.068303585
0.023715638 0.10072654 0.085968494
0.024165638 0.61801958 -0.042945385
0.024320638 0.64909053 -0.087448597
0.023834636 0.38831955 0.051997662
0.023853637 0.41787452 0.046373367
0.024936637 0.80208755 -0.26378965
0.023951637 0.53486055 0.018285275
0.024033638 0.57598954 -0.0050516129
0.024968637 0.85767752 -0.2729125
0.025050636 0.97359455 -0.29664469
0.023576638 -0.34691644 0.12563133
0.023580637 -0.91684043 0.12458563
0.023489637 -0.84477341 0.15079355
0.023486637 -0.78541946 0.15149736
0.023500636 -0.71920049 0.14759159
0.023630638 -0.16871643 0.11019659
0.023530638 -0.57058346 0.13882542
0.023539636 -0.53070951 0.13647366
0.017929638 0.14909852 0.08183527
0.017937638 0.18270552 0.078813553
0.017957637 0.26753253 0.071185589
0.017890638 -0.01580745 0.096661568
0.017900636 0.027024567 0.092810631
0.017964637 0.29720056 0.068518639
0.017909637 0.063201547 0.089557648
0.017918637 0.10075754 0.086181641
0.018373637 0.64907551 -0.087765694
0.018006638 0.38834554 0.052278519
0.018619638 0.69114256 -0.18189669
0.018810637 0.76805955 -0.25458145
0.018098637 0.53478754 0.017167568
0.018159637 0.57593054 -0.0060453415
0.018868636 0.89341253 -0.27673674
0.017812638 -0.34675443 0.12641954
0.017828638 -0.27908051 0.12033367
0.017813638 -0.91640842 0.12607241
0.017742638 -0.78494942 0.15323162
0.017764637 -0.64185548 0.14479351
0.017775636 -0.5701704 0.1405654
0.017781638 -0.53030646 0.13821554
0.017880637 -0.057940483 0.10045052
0.012134637 0.18273252 0.079025269
0.012140637 0.22175455 0.075517654
0.012102637 -0.015773475 0.096873283
0.012109637 0.027056515 0.093024731
0.012152637 0.29722357 0.068732262
0.012164637 0.34011954 0.061737537
0.012115637 0.063233554 0.089770317
0.012121637 0.10078657 0.08639431
0.012593637 0.69103855 -0.18438959
0.012725637 0.76789254 -0.26012039
0.012824637 0.97357953 -0.3164525
0.012050637 -0.34671044 0.12662745
0.012061637 -0.27903843 0.12054348
0.012049637 -0.91597843 0.12755871
0.012001637 -0.78448045 0.1549654
0.012023637 -0.56975842 0.14230633
0.012034637 -0.46740949 0.13627148
0.012039637 -0.41955042 0.13317728
0.0063286372 0.14915353 0.082260609
0.0063346373 0.22177953 0.075731277
0.0063376371 0.26758057 0.071613312
0.0063156369 -0.015740454 0.097085476
0.0063406369 0.29724556 0.068945408
0.0063466369 0.34014755 0.062017441
0.0064396369 0.61790252 -0.045189381
0.006360637 0.41779757 0.045424461
0.0065636369 0.69093555 -0.18688536
0.0063686371 0.45942754 0.03610754
0.0066466369 0.80161452 -0.28254128
0.0066716373 0.93616956 -0.31072569
0.006693637 0.97356552 -0.33563137
0.006294637 -0.27899647 0.12075567
0.0062876372 -0.91555047 0.12904358
0.006263637 -0.78401446 0.15669727
0.006298637 -0.22716451 0.11609554
0.0062746373 -0.56934845 0.1440444
0.0062766369 -0.52950442 0.14169741
0.0063126371 -0.057871461 0.10087347
0.0062806369 -0.46710145 0.13766861
0.00052663713 0.22180456 0.075944424
0.00052663713 -0.015708447 0.097297668
0.00052663713 0.64902353 -0.08887434
0.00052663713 0.41769356 0.044172287
0.00052663713 0.72183657 -0.23060465
0.00052663713 0.76755857 -0.2712245
0.00052663713 0.80136657 -0.29235935
0.00052663713 0.85712051 -0.30513334
0.00052663713 0.89309853 -0.30260468
0.00052663713 -0.34662342 0.12704849
0.00052663713 -0.27895546 0.12096548
0.00052663713 -0.91512346 0.1305275
0.00052663713 -0.64056742 0.15000534
0.00052663713 -0.22712541 0.11630535
0.00052663713 -0.16856241 0.11104155
0.00052663713 -0.52910542 0.14343643
0.00052663713 -0.11524343 0.10624647
0.00052663713 -0.46705544 0.13787651
-0.0052783629 0.22182852 0.076158524
-0.005265363 0.063322544 0.090408325
-0.0052683628 0.10087252 0.087032318
-0.005385363 0.61782253 -0.046682358
-0.0053013628 0.38810354 0.049521446
-0.0053073629 0.41758752 0.042919636
-0.0055123628 0.69072753 -0.19188166
-0.0053153629 0.45923257 0.033595562
-0.0056083631 0.80111754 -0.30220652
-0.0053333631 0.53449255 0.01268959
-0.0056263627 0.85680753 -0.32323933
-0.0056213629 0.89291656 -0.31753445
-0.0052393628 -0.27891648 0.12117672
-0.0052123629 -0.64014149 0.1517396
-0.0052433629 -0.2270875 0.1165185
-0.0052163629 -0.56860149 0.14722061
-0.005228363 -0.41941547 0.13380766
-0.011071363 0.14923352 0.082901478
-0.011077363 0.18283457 0.079879284
-0.011083363 0.22183454 0.076220512
-0.011045363 -0.015645444 0.09772253
-0.011052363 0.027178526 0.093873501
-0.011099363 0.29706252 0.067156315
-0.011143363 0.41748154 0.041665554
-0.011555362 0.69062352 -0.19438028
-0.011160363 0.45913452 0.032338619
-0.011176363 0.50088358 0.022704601
-0.011778363 0.80061257 -0.32220554
-0.010994363 -0.3465414 0.12746954
-0.011004363 -0.2788775 0.12138748
-0.010983363 -0.91427648 0.13348961
-0.010935363 -0.84200346 0.16075659
-0.011022363 -0.16849148 0.1114645
-0.010959363 -0.5685544 0.14742851
-0.011039363 -0.057773471 0.10151052
-0.010975363 -0.46696544 0.13829565
-0.010982363 -0.41937244 0.13401747
-0.016870363 0.14925754 0.08311367
-0.016842363 0.027207553 0.094085693
-0.016915362 0.29692656 0.065844536
-0.016850363 0.063377559 0.090833664
-0.017603364 0.69051957 -0.19686842
-0.017733363 0.72125053 -0.24646235
-0.017032363 0.50079453 0.0214715
-0.017886363 0.76654255 -0.30487251
-0.017060364 0.53434354 0.010450363
-0.016754363 -0.34650147 0.1276803
-0.016769363 -0.27883947 0.12159872
-0.016663363 -0.84154844 0.16241264
-0.016659362 -0.7821635 0.16361856
-0.016685363 -0.63958251 0.15402746
-0.016782362 -0.22701442 0.11693954
-0.016701363 -0.56850851 0.14763737
-0.016711364 -0.52896249 0.1440835
-0.016725363 -0.4669224 0.13850546
-0.022704363 0.22153252 0.073601723
-0.022619363 -0.015586436 0.098147392
-0.022632362 0.027235568 0.094297409
-0.022643363 0.06340456 0.091047287
-0.023286363 0.64881754 -0.093087673
-0.022801364 0.38776857 0.0457654
-0.023663362 0.69034851 -0.20095253
-0.022891363 0.50070554 0.020237446
-0.023007363 0.57551253 -0.013017654
-0.022515362 -0.34646249 0.12789154
-0.022536363 -0.27880251 0.12180948
-0.022388363 -0.84109342 0.16406965
-0.022384362 -0.78170443 0.16534853
-0.022399362 -0.71571946 0.16108465
-0.022571363 -0.16842341 0.1118865
-0.022605363 -0.057711482 0.10193539
-0.028479364 0.14899153 0.081018448
-0.028497363 0.18248153 0.076981544
-0.028542362 0.26705754 0.066784382
-0.028421363 0.027262568 0.094511509
-0.028435363 0.063431561 0.091260433
-0.028668363 0.41716152 0.037903309
-0.029974364 0.72069055 -0.26158762
-0.028274363 -0.34642446 0.1281023
-0.028231364 -0.91301942 0.13792038
-0.028110363 -0.8406415 0.16572332
-0.028104363 -0.78124642 0.16707563
-0.028159363 -0.63949049 0.15444469
-0.028321363 -0.22694445 0.1173625
-0.028344363 -0.16839051 0.11209965
-0.028187362 -0.56841946 0.14805651
-0.028365362 -0.11507845 0.10730553
-0.028227363 -0.46683848 0.13892651
-0.034288362 0.14882451 0.079710484
-0.034362361 0.26691455 0.065471649
-0.034189362 -0.015530467 0.098573685
-0.03438136 0.29651654 0.061902523
-0.03442236 0.33937556 0.054052353
-0.03497136 0.61759955 -0.050780296
-0.036125362 0.72033358 -0.27122736
-0.034612361 0.50052553 0.017771721
-0.03466836 0.53411257 0.0070242882
-0.03448236 -0.99096644 0.042572498
-0.033975363 -0.91260445 0.13939428
-0.033828363 -0.84019041 0.16737747
-0.033828363 -0.78116846 0.16739464
-0.033895362 -0.63944447 0.15465546
-0.03408936 -0.22691143 0.11757326
-0.03411736 -0.16835845 0.11231041
-0.033929363 -0.56837642 0.14826632
-0.03394736 -0.52883446 0.14471149
-0.033976361 -0.46679842 0.13913631
-0.033999361 -0.41921043 0.13485956
-0.040123362 0.18216056 0.074362278
-0.040151361 0.22107655 0.069670677
-0.039977361 -0.015589476 0.098213673
-0.040008362 0.027047515 0.093070507
-0.04020736 0.29637855 0.06058836
-0.040254362 0.33925253 0.052801609
-0.04003536 0.063073516 0.088725567
-0.040320363 0.38742852 0.042006493
-0.040476359 0.50043553 0.016537666
-0.039792363 -0.34635246 0.1285243
-0.039716359 -0.91219151 0.14086533
-0.039553363 -0.78112149 0.16760349
-0.039857361 -0.2268784 0.11778545
-0.039919361 -0.11501849 0.10773039
-0.03995036 -0.057624459 0.10257149
-0.039726362 -0.46675944 0.13934755
-0.045911361 0.14848953 0.077095509
-0.04593936 0.18199956 0.07305336
-0.045972362 0.22092253 0.068357468
-0.045772363 -0.015790462 0.096913338
-0.046089362 0.33912957 0.051552296
-0.04583836 0.062888563 0.087421417
-0.04587036 0.10030556 0.082907677
-0.04616436 0.38731456 0.040753365
-0.046276361 0.45853657 0.02478838
-0.046416361 0.53395057 0.0046606064
-0.045318361 -0.71553445 0.1619215
-0.045662362 -0.16829741 0.11273432
-0.04573736 -0.057724476 0.10197163
-0.045504361 -0.4191364 0.13527966
-0.051727362 0.14832056 0.075786591
-0.051759362 0.18183756 0.071743488
-0.051839363 0.26648152 0.06153059
-0.051612362 0.026662529 0.090466499
-0.051867362 0.29610056 0.057956696
-0.05278236 0.61717951 -0.058547497
-0.052212361 0.50025356 0.014068604
-0.052471362 0.57515353 -0.018857479
-0.05131036 -0.34628344 0.1289463
-0.051357362 -0.27863348 0.12286568
-0.051003359 -0.78103149 0.16802073
-0.051049363 -0.71549141 0.16213036
-0.051103361 -0.63931751 0.15528345
-0.051394362 -0.22681546 0.11820936
-0.05147836 -0.11505949 0.1075654
-0.05122536 -0.46668446 0.1397686
-0.051258363 -0.4191004 0.13549042
-0.05754536 0.14815152 0.074478626
-0.057372361 -0.016193449 0.094310284
-0.057416361 0.026468515 0.089163303
-0.057700362 0.29596156 0.056640625
-0.057767361 0.33888155 0.049050331
-0.057454363 0.062515557 0.084812641
-0.057494361 0.099948525 0.080295563
-0.058729362 0.61703658 -0.061184406
-0.059128363 0.6481365 -0.10695553
-0.057861362 0.38708454 0.038243294
-0.057919361 0.41661853 0.031621456
-0.058083363 0.50016254 0.012833595
-0.058174361 0.53378856 0.0022974014
-0.058383361 0.5749855 -0.021622658
-0.057067361 -0.34625041 0.12915754
-0.05712036 -0.27860141 0.12307739
-0.056947362 -0.9116255 0.1429677
-0.056726363 -0.7809875 0.16822863
-0.05677836 -0.71544945 0.16233826
-0.05683836 -0.63927746 0.15549326
-0.057161361 -0.22678649 0.11841965
-0.057211362 -0.16832447 0.11267042
-0.05689336 -0.56821644 0.1491065
-0.05726736 -0.11528146 0.10627031
-0.05732736 -0.058145404 0.099374294
-0.05697336 -0.46664941 0.13997746
-0.063448362 0.22045857 0.06441927
-0.063501365 0.26618952 0.058900356
-0.063174367 -0.016396463 0.093010426
-0.063223362 0.026273549 0.087859631
-0.063536368 0.29582053 0.055324554
-0.063608363 0.33875656 0.047800541
-0.063265368 0.062328517 0.083508492
-0.064679362 0.61689353 -0.063822269
-0.065116368 0.64802158 -0.10927153
-0.063712366 0.38696855 0.036987305
-0.066399366 0.68859053 -0.24290133
-0.064301364 0.57481652 -0.024388313
-0.062825367 -0.34621942 0.12936831
-0.062883362 -0.27857149 0.12328959
-0.062697366 -0.91171443 0.14271069
-0.062450361 -0.78094542 0.16843843
-0.062668368 -0.52864242 0.1457634
-0.062721364 -0.46661448 0.14018965
-0.062762365 -0.41903245 0.13591242
-0.069229364 0.18134755 0.067810535
-0.069336362 0.26604253 0.057584286
-0.069033362 0.026078522 0.086555481
-0.069452368 0.33863056 0.046548367
-0.069078363 0.062140524 0.082201481
-0.069126368 0.099588513 0.077680588
-0.071108364 0.64790654 -0.11158848
-0.072580367 0.6882025 -0.25218248
-0.069732368 0.45812953 0.019744396
-0.069841363 0.49990654 0.0093574524
-0.069970362 0.53343356 -0.0029535294
-0.070223361 0.57464755 -0.027156353
-0.068447366 -0.91180444 0.14245129
-0.068306364 -0.6392014 0.15591335
-0.068373367 -0.56814349 0.14952755
-0.068926364 -0.058569431 0.096775532
-0.068469368 -0.46658146 0.14039946
-0.068514362 -0.41900051 0.13612366
-0.074895367 0.061951518 0.080896378
-0.076597363 0.61660552 -0.069105625
-0.077105366 0.6477915 -0.11390734
-0.075422361 0.38673556 0.034474373
-0.078780368 0.68781257 -0.2614913
-0.075613365 0.45796251 0.017661572
-0.076153368 0.57447755 -0.029928684
-0.074428365 -0.27883148 0.12204647
-0.074201368 -0.91193151 0.14207363
-0.073901363 -0.83995342 0.16856527
-0.073897362 -0.78086543 0.16885662
-0.073964365 -0.71533144 0.16296768
-0.074499361 -0.22729146 0.11582232
-0.074579366 -0.16902745 0.10878754
-0.074114367 -0.56810844 0.14973736
-0.074155368 -0.52857351 0.14618444
-0.074218363 -0.46654844 0.14060926
-0.074266367 -0.41896844 0.13633442
-0.080840364 0.14746654 0.069237709
-0.081014365 0.26574755 0.054951668
-0.080597363 -0.017011464 0.089102268
-0.080713362 0.061762512 0.079589367
-0.083118364 0.64762855 -0.11720228
-0.081280366 0.38661855 0.033218384
-0.081369363 0.41612154 0.025945663
-0.085120365 0.68699455 -0.2810564
-0.081645362 0.49946553 0.0032997131
-0.082085364 0.57430756 -0.032702446
-0.079955362 -0.91207647 0.14163828
-0.079625368 -0.83994949 0.16864729
-0.079776362 -0.63913047 0.15633154
-0.080286361 -0.22753942 0.11453056
-0.080372363 -0.16926348 0.10749149
-0.079897366 -0.52854049 0.14639473
-0.080451362 -0.11617851 0.10108042
-0.080535367 -0.058996439 0.094173431
-0.079965368 -0.46651649 0.14082146
-0.086669363 0.14729452 0.067926407
-0.086856365 0.26559854 0.053634644
-0.086409368 -0.017217457 0.087799549
-0.086903363 0.29525453 0.050052643
-0.086534366 0.061571538 0.078281403
-0.089155369 0.64739454 -0.12196827
-0.088023365 0.57413757 -0.035480499
-0.085350364 -0.83994651 0.16873026
-0.085342363 -0.78079045 0.16927671
-0.086076364 -0.22778845 0.11323643
-0.085593365 -0.56804252 0.15015841
-0.085639365 -0.52850842 0.14660549
-0.086343363 -0.059211493 0.092874527
-0.085774362 -0.41899848 0.13633537
-0.092558362 0.18068552 0.062559605
-0.092223361 -0.017424464 0.086496353
-0.092295364 0.025289536 0.081334591
-0.092859365 0.33807254 0.041005611
-0.092356361 0.061380565 0.076973438
-0.092420362 0.098858535 0.072445393
-0.094507366 0.61617053 -0.07704258
-0.095201366 0.64715958 -0.1267395
-0.093311362 0.45724255 0.0085954666
-0.093470365 0.49902254 -0.0027675629
-0.093637362 0.53263354 -0.014759541
-0.091781363 -0.27960944 0.11817551
-0.091074362 -0.83994448 0.16881371
-0.091065362 -0.78075552 0.16948652
-0.091147363 -0.71522546 0.16359663
-0.091242366 -0.63906443 0.15675259
-0.092152365 -0.0594275 0.091570377
-0.098465368 0.21951252 0.056532383
-0.098040365 -0.017633438 0.08519268
-0.098117366 0.025089562 0.080029488
-0.098609366 0.29491055 0.046854496
-0.098740362 0.33777755 0.038006306
-0.098181367 0.061188519 0.075665474
-0.10048637 0.61602455 -0.079692364
-0.099053368 0.41534257 0.0169034
-0.099221364 0.45700055 0.0055685043
-0.097570367 -0.27987146 0.11688232
-0.097222365 -0.91251945 0.14032555
-0.096786365 -0.78072143 0.16969538
-0.096975364 -0.63903248 0.15696335
-0.097862363 -0.11686051 0.097184658
-0.10386136 -0.017842472 0.083887577
-0.10449137 0.29458755 0.043784618
-0.10408237 0.098489523 0.069825649
-0.10647537 0.61587054 -0.082494736
-0.10483536 0.38558954 0.021909714
-0.10550436 0.5322305 -0.020677567
-0.10336336 -0.28013444 0.11559057
-0.10271037 -0.63900244 0.15717459
-0.10281637 -0.5680455 0.15039349
-0.10289136 -0.52878547 0.14564753
-0.10378136 -0.059861422 0.088967323
-0.10300837 -0.46716249 0.13819838
-0.11008137 0.18017554 0.058569431
-0.11018237 0.21903151 0.052488327
-0.10968336 -0.018051445 0.08258152
-0.11052136 0.33718455 0.032004356
-0.10984136 0.060802519 0.073049545
-0.11339237 0.64645255 -0.14109373
-0.11073937 0.38531452 0.01889658
-0.11124936 0.49835354 -0.011889458
-0.10902236 -0.34773147 0.12243938
-0.10915736 -0.28039742 0.11429834
-0.10874037 -0.91282547 0.13944149
-0.10823137 -0.78065646 0.17011547
-0.10937736 -0.17046046 0.10100746
-0.10948437 -0.11732042 0.094583511
-0.11595736 0.17979753 0.055512428
-0.11618836 0.26433754 0.042273521
-0.11550736 -0.018262446 0.081276417
-0.11559737 0.024486542 0.076106548
-0.11567336 0.060608566 0.071739674
-0.11854336 0.61531854 -0.092656612
-0.11664836 0.38503855 0.015877724
-0.11678936 0.41455752 0.0078353882
-0.11698736 0.45627254 -0.0035305023
-0.11718637 0.49812853 -0.014933586
-0.11739036 0.53182554 -0.026605606
-0.11779436 0.57325757 -0.049737453
-0.11495336 -0.28066242 0.11300659
-0.11395237 -0.78062642 0.17032528
-0.11405537 -0.71510148 0.16443729
-0.11518537 -0.17070246 0.099709511
-0.11434536 -0.56869149 0.14783669
-0.11442836 -0.52941549 0.14308739
-0.12183837 0.17941856 0.052450657
-0.12232336 0.33658856 0.025992393
-0.12312937 0.49790454 -0.017983437
-0.12334137 0.53162253 -0.029573441
-0.12376337 0.57307953 -0.05259943
-0.12026037 -0.91313744 0.13855553
-0.11970337 -0.84003341 0.16895437
-0.11995737 -0.63958645 0.15509367
-0.12099537 -0.17094541 0.09841156
-0.12111337 -0.11778343 0.091981411
-0.12033737 -0.46807146 0.13434839
-0.12044237 -0.42074847 0.12862539
-0.12772636 0.17903852 0.049386501
-0.12784337 0.21794856 0.043287277
-0.12798136 0.26365751 0.036121368
-0.12726337 0.024081528 0.07349062
-0.12823336 0.33628953 0.02298069
-0.12736836 0.060067534 0.068033695
-0.13064936 0.61476457 -0.10284948
-0.12864037 0.41403055 0.0017776489
-0.12885937 0.45578355 -0.0096106529
-0.12929936 0.53141856 -0.032544613
-0.12975337 0.57286054 -0.056156635
-0.12655437 -0.2811954 0.1104207
-0.12539637 -0.78057051 0.17074442
-0.12554537 -0.71553648 0.16296244
-0.12572137 -0.63992751 0.15381527
-0.12667437 -0.22956049 0.10417366
-0.12588537 -0.56934345 0.1452775
-0.12693337 -0.11801648 0.090680599
-0.12612036 -0.46837747 0.13306427
-0.12622936 -0.42104447 0.12733841
-0.13388537 0.26331651 0.033042431
-0.13299736 -0.018907487 0.077302456
-0.13313137 0.023654521 0.070628643
-0.13397837 0.29295856 0.028395653
-0.13414836 0.33599055 0.019967556
-0.13336237 0.097006559 0.05912447
-0.13457437 0.41376656 -0.0012545586
-0.13526137 0.53121454 -0.035517693
-0.13219437 -0.34885252 0.11728048
-0.13561836 -0.96827245 -0.053282738
-0.13114536 -0.78091848 0.16955948
-0.13130337 -0.71589351 0.16169167
-0.13248336 -0.22981846 0.10287762
-0.13262537 -0.1714344 0.095813274
-0.13175337 -0.5303694 0.1392436
-0.13275437 -0.11825049 0.089378357
-0.13201836 -0.42134142 0.12605047
-0.13951737 0.17827553 0.043249607
-0.13964537 0.21722251 0.037139416
-0.13900736 0.023199558 0.067581654
-0.13989337 0.29263055 0.025307655
-0.13912536 0.059194565 0.061934471
-0.13924837 0.096586525 0.056066513
-0.14279136 0.61420655 -0.11306953
-0.14400737 0.64497256 -0.17112732
-0.14034337 0.38392854 0.0037822723
-0.14075236 0.45529252 -0.015699387
-0.14122936 0.53100955 -0.038494587
-0.14182037 0.57221353 -0.066727638
-0.13799337 -0.34913552 0.11598969
-0.14170037 -0.97052145 -0.060993671
-0.13689837 -0.78129041 0.16828966
-0.13753337 -0.53069043 0.13796043
-0.13873036 -0.061234474 0.080828667
-0.14530636 0.14436054 0.045441628
-0.14555436 0.21685755 0.034060478
-0.14488937 0.022744536 0.06453228
-0.14599337 0.33538854 0.013934612
-0.14514036 0.096165538 0.053006649
-0.14887637 0.61392754 -0.11818838
-0.15023537 0.64451456 -0.18046761
-0.14645736 0.41323656 -0.0073285103
-0.14695637 0.49699953 -0.030205727
-0.14725237 0.53065252 -0.043764591
-0.14786936 0.57188952 -0.072023392
-0.14379436 -0.34941947 0.11469841
-0.14777936 -0.97254348 -0.067912579
-0.14265336 -0.78166449 0.16701841
-0.14410937 -0.23033547 0.10028362
-0.14426337 -0.17192745 0.093214512
-0.14321136 -0.57032943 0.14143753
-0.14331536 -0.53101242 0.1366787
-0.14460036 -0.061728477 0.077791691
-0.14360337 -0.42193842 0.12347555
-0.15146936 0.21649253 0.030980587
-0.15173836 0.29197156 0.019127369
-0.15192437 0.33508652 0.010913372
-0.15222336 0.38337052 -0.0022807121
-0.15266636 0.45479953 -0.021799564
-0.15296637 0.49664655 -0.035020351
-0.15328737 0.53028655 -0.049164295
-0.15392737 0.57156456 -0.077329636
-0.14978336 -0.28227341 0.1052413
-0.15385036 -0.9743154 -0.073950291
-0.14992537 -0.23059547 0.098986626
-0.15008636 -0.17217541 0.0919137
-0.14909936 -0.53133547 0.13539553
-0.15027237 -0.11924946 0.083706379
-0.15047537 -0.062224507 0.074750423
-0.15724637 0.17712456 0.034024715
-0.15756036 0.26194257 0.020697594
-0.15786237 0.33478355 0.0078883171
-0.15680537 0.057875514 0.052760601
-0.16107537 0.61336654 -0.12845039
-0.16274336 0.64359355 -0.19922543
-0.15865937 0.45446956 -0.025910378
-0.15900336 0.49624553 -0.040507317
-0.15933436 0.52991951 -0.05457449
-0.15999636 0.57123852 -0.082643509
-0.15992136 -0.97593451 -0.079453468
-0.15421437 -0.84196651 0.16270351
-0.15435837 -0.71733749 0.15659761
-0.15574637 -0.23085642 0.097687721
-0.15488836 -0.53165948 0.1341114
-0.15614736 -0.11977243 0.080670357
-0.15635836 -0.062721491 0.071708679
-0.16270937 0.057433546 0.049696445
-0.16718836 0.61308455 -0.13359356
-0.16412836 0.38280857 -0.0083556175
-0.16469036 0.45403457 -0.031382561
-0.16504836 0.49584454 -0.046003342
-0.16538936 0.52955151 -0.059992313
-0.16141537 -0.28281844 0.10265064
-0.16598837 -0.97741544 -0.084469318
-0.16012737 -0.71770144 0.1553216
-0.16202636 -0.12029743 0.077633381
-0.16100037 -0.4228425 0.11960936
-0.16896036 0.14275652 0.03314352
-0.16909337 0.17635256 0.027859688
-0.16924937 0.21539056 0.021719456
-0.16943136 0.26125056 0.014507294
-0.16830537 -0.021768451 0.059016705
-0.16975236 0.33417654 0.0018324852
-0.16876836 0.094470561 0.040736675
-0.17341736 0.61257851 -0.14293337
-0.17010236 0.38247555 -0.011966705
-0.17110236 0.49544153 -0.051506519
-0.17145537 0.52918255 -0.06541872
-0.16726437 -0.28332245 0.10014772
-0.16589937 -0.71806741 0.15404749
-0.16770037 -0.17380548 0.082927704
-0.16634837 -0.57166243 0.13631153
-0.16791037 -0.1208235 0.074594498
-0.16813837 -0.063719511 0.0656147
-0.16665837 -0.47054946 0.12406254
-0.17488736 0.14235252 0.030061722
-0.17420937 -0.022250414 0.055959702
-0.17438537 0.020450532 0.049241543
-0.17468837 0.094044566 0.037661552
-0.18196036 0.64159656 -0.24005651
-0.17640136 0.41146255 -0.027742386
-0.17825736 0.57025552 -0.098627567
-0.17395736 -0.86901546 0.065588474
-0.17146736 -0.78355443 0.16066265
-0.17334336 -0.23251247 0.089040279
-0.17245936 -0.47086442 0.12277555
-0.17261036 -0.42345142 0.11703062
-0.18096536 0.17557555 0.021682262
-0.18030237 0.019988537 0.046173573
-0.18145436 0.29031056 0.0036234856
-0.18171437 0.33339453 -0.0060133934
-0.18045637 0.056101561 0.040489674
-0.18593237 0.61155254 -0.16187954
-0.18866937 0.64047754 -0.26302433
-0.18217136 0.38148355 -0.022872448
-0.18284737 0.45272052 -0.047848701
-0.18324436 0.49463254 -0.062542439
-0.18361637 0.5284425 -0.076296329
-0.17872037 -0.35160446 0.10466671
-0.18415636 -0.98092544 -0.096234322
-0.17999536 -0.8712945 0.057523727
-0.17947237 -0.17491245 0.076851368
-0.17806236 -0.53296947 0.12897539
-0.17994237 -0.064722419 0.059508324
-0.17826436 -0.47118044 0.12148666
-0.18708137 0.21428055 0.012433529
-0.18729436 0.26016152 0.0047883987
-0.18603636 -0.023216486 0.049835682
-0.18746637 0.28978455 -0.0013475418
-0.18654837 0.093187511 0.031502724
-0.19221537 0.61103654 -0.17139149
-0.19542037 0.63935155 -0.28613663
-0.18821937 0.38098651 -0.028337479
-0.18932937 0.49422655 -0.068075657
-0.19048236 0.56959558 -0.1093235
-0.18458937 -0.35224152 0.10165167
-0.18488437 -0.28513551 0.09108448
-0.19020237 -0.98185849 -0.099318504
-0.18301336 -0.78433645 0.15805864
-0.18323237 -0.71917343 0.15022135
-0.18348837 -0.64340746 0.14103651
-0.18511036 -0.23367548 0.082980633
-0.18407036 -0.47149849 0.12019968
-0.18427137 -0.42437041 0.11301041
-0.19270536 0.14113551 0.020798683
-0.19285837 0.17479557 0.0154953
-0.19305237 0.21384156 0.0087456703
-0.19215137 0.019060552 0.040032387
-0.19350237 0.28920156 -0.006875515
-0.19231537 0.055207551 0.034336567
-0.19851637 0.61051953 -0.18092871
-0.19500037 0.45183957 -0.058871269
-0.19076836 -0.28574347 0.088056564
-0.19623637 -0.98261249 -0.10177755
-0.19204536 -0.8752135 0.043716431
-0.18879037 -0.78473747 0.15672445
-0.18927936 -0.64376247 0.13975668
-0.19150737 -0.12294149 0.062405586
-0.19176637 -0.065730453 0.053391457
-0.19013636 -0.42504251 0.11000443
-0.19884637 0.17427355 0.011307716
-0.19936736 0.25894552 -0.0062594414
-0.19788437 -0.024186492 0.043701649
-0.19808437 0.018595517 0.03695631
-0.19955036 0.28861755 -0.012415409
-0.19842936 0.092327535 0.025334358
-0.20483537 0.61000055 -0.19049168
-0.20065637 0.40956455 -0.049693584
-0.19665836 -0.28635252 0.085027695
-0.20226537 -0.98327351 -0.10390568
-0.19805737 -0.87688351 0.0378685
-0.19456936 -0.78514051 0.15539026
-0.19479837 -0.71991742 0.14766741
-0.19507137 -0.6441195 0.13847542
-0.19717136 -0.1765815 0.067723274
-0.19549836 -0.53419948 0.12409544
-0.19578536 -0.4728384 0.11442327
-0.19600636 -0.42571652 0.10699558
-0.20488137 0.17359257 0.0057983398
-0.20541936 0.25833452 -0.011797428
-0.20437936 0.091895521 0.022244453
-0.21117136 0.60947955 -0.2000823
-0.20642737 0.37948453 -0.044791698
-0.20674537 0.40908653 -0.055203438
-0.20764737 0.49300253 -0.084722519
-0.20921536 0.56796551 -0.13604355
-0.20828837 -0.98383951 -0.10569572
-0.20035136 -0.78554547 0.1540556
-0.20308237 -0.17714047 0.064673424
-0.20135836 -0.53492546 0.12109947
-0.20361437 -0.066743493 0.047264576
-0.21070936 0.13937753 0.007247448
-0.21092837 0.17291051 0.0002784729
-0.21118337 0.21189553 -0.0078225136
-0.21015136 0.053849518 0.025020599
-0.21251836 0.37898153 -0.050294399
-0.21284637 0.40860754 -0.060724735
-0.21330936 0.45050853 -0.075475693
-0.21377537 0.49259254 -0.090292454
-0.20812236 -0.35480642 0.089565277
-0.20845637 -0.28757548 0.078958511
-0.20637737 -0.72066844 0.14511156
-0.20668437 -0.64497542 0.1353507
-0.20900136 -0.17770147 0.061621666
-0.20926437 -0.1245445 0.053235531
-0.20954837 -0.067251444 0.044194698
-0.21594237 0.017090559 0.027017593
-0.21775436 0.28685355 -0.029090405
-0.21643536 0.090460539 0.011758327
-0.21861736 0.37847751 -0.055806637
-0.22058837 0.52569151 -0.11680365
-0.22183737 0.56678057 -0.15547371
-0.21192536 -0.78635943 0.15138245
-0.21462637 -0.23660851 0.067777634
-0.21289836 -0.5755105 0.12127542
-0.21341036 -0.47493649 0.10539961
-0.22281936 0.13795155 -0.0037922859
-0.22332036 0.21058953 -0.0189147
-0.22384337 0.28626353 -0.034665585
-0.22222736 0.052282512 0.01404047
-0.22248636 0.08970654 0.0062494278
-0.23154236 0.60589552 -0.26675844
-0.22507437 0.40764654 -0.071790695
-0.22627136 0.49131355 -0.10785151
-0.22689337 0.52502954 -0.12660551
-0.21992336 -0.35609841 0.083507538
-0.22568037 -0.97950745 -0.090041637
-0.22203137 -0.88205349 0.019961357
-0.22054636 -0.23719943 0.06472826
-0.22085136 -0.17882645 0.055509567
-0.21876937 -0.57626045 0.11827755
-0.21897437 -0.5371145 0.11209536
-0.22143136 -0.068272471 0.038049698
-0.21954437 -0.42843044 0.094930649
-0.22888936 0.13723552 -0.009326458
-0.22912736 0.17085153 -0.016330719
-0.22940436 0.20993453 -0.024472713
-0.22973037 0.25587553 -0.034044743
-0.22772336 -0.027144432 0.02491951
-0.22994237 0.28567153 -0.040252686
-0.23026636 0.32906353 -0.049773693
-0.22854637 0.088951528 0.00073337555
-0.23120436 0.40716356 -0.077337742
-0.23186336 0.44881856 -0.096670628
-0.23258036 0.49059355 -0.11774969
-0.23321837 0.52436256 -0.13649464
-0.22583136 -0.35674751 0.080473423
-0.22619437 -0.28942144 0.069835663
-0.23145936 -0.97806048 -0.084803581
-0.22426836 -0.64732242 0.12638569
-0.22678536 -0.1793915 0.052450657
-0.22707236 -0.12615848 0.044039726
-0.22742637 -0.068993449 0.033640385
-0.22544236 -0.42911243 0.091907501
-0.23497136 0.13651752 -0.014871597
-0.23408337 0.014641523 0.010541439
-0.23638237 0.32851553 -0.055283546
-0.23434636 0.050706565 0.0030217171
-0.23461936 0.088193536 -0.0047945976
-0.23698036 0.37695652 -0.072395325
-0.23743837 0.40645856 -0.085526466
-0.23817237 0.44803655 -0.10653734
-0.23891036 0.48987055 -0.12767935
-0.23174736 -0.35739744 0.077435493
-0.22940037 -0.78832042 0.14465237
-0.23014337 -0.64810944 0.12339163
-0.23240437 -0.23838651 0.058621407
-0.23074737 -0.53858352 0.10607672
-0.23305337 -0.12685251 0.040045261
-0.24106236 0.13579851 -0.020424366
-0.24160637 0.20861852 -0.035622597
-0.24194936 0.25463551 -0.04522562
-0.24015136 0.013821542 0.005030632
-0.24042037 0.049916565 -0.0025005341
-0.24525736 0.48914555 -0.13763428
-0.24592936 0.52301657 -0.1564064
-0.23766837 -0.35804951 0.07439661
-0.23992437 -0.88460851 0.011354446
-0.23535736 -0.78990746 0.13894367
-0.23559536 -0.72422242 0.13230848
-0.23834236 -0.23898149 0.055564404
-0.23869836 -0.18064749 0.045616627
-0.23642036 -0.57852042 0.10926437
-0.23664136 -0.53932047 0.10306549
-0.23909336 -0.1277895 0.034584522
-0.23951936 -0.070771456 0.022685528
-0.23699036 -0.47775948 0.09332943
-0.24742137 0.16877753 -0.033026695
-0.24622837 0.012998521 -0.00048828125
-0.24650536 0.049123526 -0.0080332756
-0.25084335 0.44646454 -0.12635565
-0.25231236 0.52234054 -0.16640568
-0.24359436 -0.35870242 0.071354389
-0.24586837 -0.88522851 0.0093336105
-0.24190536 -0.64968741 0.1173954
-0.24473737 -0.18162942 0.040164471
-0.24254136 -0.54005945 0.10005045
-0.24514237 -0.12872851 0.029115677
-0.24289936 -0.47846949 0.090304375
-0.24317336 -0.43117046 0.082821369
-0.25353935 0.16808254 -0.038608551
-0.25420934 0.25339055 -0.056444645
-0.25198036 -0.030571461 0.0029196739
-0.25444934 0.28327256 -0.062833309
-0.25260034 0.048328519 -0.013576508
-0.25585034 0.37444353 -0.10014772
-0.25641134 0.40391952 -0.1151123
-0.25873536 0.52162355 -0.17700243
-0.24952535 -0.35935843 0.068308353
-0.24992935 -0.29191947 0.057552338
-0.25449035 -0.9723134 -0.063940525
-0.24734737 -0.7258755 0.12633038
-0.25078735 -0.18261445 0.034703255
-0.24821436 -0.58003747 0.10324335
-0.25165135 -0.072558403 0.011696339
-0.24881336 -0.47918046 0.087278366
-0.26042536 0.25256956 -0.063896656
-0.26076534 0.28223354 -0.072748661
-0.26277336 0.40306753 -0.12503147
-0.25596836 -0.29299641 0.052120686
-0.25323236 -0.72670448 0.12333727
-0.25369135 -0.65127349 0.11139059
-0.25638035 -0.24168742 0.041385651
-0.25412035 -0.58079743 0.10022926
-0.25435936 -0.54154241 0.094011307
-0.25473434 -0.47989452 0.084247589
-0.25502235 -0.4325515 0.076749325
-0.26553136 0.13290155 -0.042733669
-0.26417235 -0.032298446 -0.0081386566
-0.26761034 0.32454056 -0.095653534
-0.26482236 0.046732545 -0.02468729
-0.26856536 0.37265253 -0.11993361
-0.26915634 0.40221256 -0.13498449
-0.27256534 0.51863158 -0.2217474
-0.26146835 -0.36097848 0.060689449
-0.26201835 -0.29407644 0.046679497
-0.26595736 -0.96946347 -0.053563595
-0.25909334 -0.79491842 0.12114048
-0.25912434 -0.72753549 0.12034035
-0.25959435 -0.65206945 0.10838366
-0.26244134 -0.24272549 0.035926342
-0.26291934 -0.18459249 0.023753643
-0.26003334 -0.58156145 0.097210407
-0.26335534 -0.13156044 0.012648582
-0.26066136 -0.48060942 0.081214428
-0.27167636 0.13216752 -0.048377514
-0.27397734 0.32355756 -0.10566854
-0.27094936 0.045931518 -0.030258656
-0.27126634 0.083605528 -0.038154602
-0.27555534 0.40135455 -0.14496136
-0.27810934 0.48400855 -0.20853043
-0.27954736 0.51712054 -0.24433231
-0.26751435 -0.3621155 0.055263519
-0.27167735 -0.96804345 -0.048386574
-0.26620036 -0.54303348 0.087961674
-0.26944634 -0.13250947 0.0071415901
-0.26992834 -0.075256467 -0.0048584938
-0.26659334 -0.48132646 0.078179359
-0.27841735 0.16441453 -0.068294525
-0.27889735 0.20341152 -0.079986572
-0.27640435 -0.034034491 -0.019231319
-0.27677336 0.0088535547 -0.028228283
-0.27708536 0.045128524 -0.035838604
-0.28342736 0.44140357 -0.19036055
-0.27357036 -0.3632555 0.049827576
-0.27414736 -0.29624343 0.035769463
-0.27445734 -0.88031042 0.028199673
-0.27092236 -0.72920442 0.11434031
-0.27458936 -0.24480844 0.024981499
-0.27212936 -0.54378152 0.084932327
-0.28477535 0.16319555 -0.078226566
-0.28291336 0.00801754 -0.03380537
-0.28871834 0.39901656 -0.17229843
-0.27963635 -0.36439741 0.044382572
-0.28022736 -0.29733145 0.030302525
-0.28309235 -0.96521842 -0.038065434
-0.27683035 -0.73004246 0.11133766
-0.27733335 -0.65446949 0.099345684
-0.28067935 -0.2458545 0.019494534
-0.28119236 -0.18757749 0.0072603226
-0.27780235 -0.58386147 0.088140488
-0.27859035 -0.48336744 0.069358349
-0.29115435 0.16197056 -0.088193417
-0.29165736 0.20108056 -0.099953651
-0.29224935 0.24710554 -0.11379433
-0.28915834 0.0068695545 -0.041556358
-0.28962034 0.042781532 -0.052351475
-0.29010135 0.080144525 -0.063584328
-0.29448235 0.36849052 -0.16598129
-0.29745236 0.43786752 -0.23538971
-0.28631836 -0.29842246 0.024822712
-0.28574234 -0.87764442 0.038295269
-0.28274536 -0.73088241 0.10832834
-0.28830034 -0.077976465 -0.021499634
-0.29755035 0.16074252 -0.098185539
-0.29806536 0.19990957 -0.10998058
-0.29494935 -0.037056446 -0.038618565
-0.29647234 0.078797519 -0.073503494
-0.30148235 0.36649555 -0.1882515
-0.28852034 -0.79859746 0.10863066
-0.28918934 -0.65607941 0.093305588
-0.29289234 -0.24795449 0.0084905624
-0.29391736 -0.13633049 -0.014984608
-0.29444534 -0.078887463 -0.027065277
-0.30351236 0.12580651 -0.098039627
-0.30130434 -0.038572431 -0.048461437
-0.30551535 0.27486151 -0.14300156
-0.30982134 0.39328957 -0.2396884
-0.29699335 -0.87499642 0.048348427
-0.29420334 -0.79803348 0.11098528
-0.29459035 -0.73256743 0.10230827
-0.29956135 -0.1905874 -0.0093207359
-0.29620835 -0.54835141 0.065984726
-0.30074435 -0.080307484 -0.035876274
-0.29722336 -0.44003141 0.04318428
-0.31040034 0.15827453 -0.11825848
-0.31174135 0.24338657 -0.14778852
-0.30767936 -0.040094495 -0.058332443
-0.31359234 0.31546354 -0.18855667
-0.30875835 0.038567543 -0.082096577
-0.31562135 0.36246651 -0.2332325
-0.30400836 -0.36899841 0.022508621
-0.30465135 -0.30171144 0.0083312988
-0.30260634 -0.87367547 0.053371429
-0.30570534 -0.19159544 -0.014866352
-0.30190635 -0.58865547 0.06878233
-0.30632734 -0.13866246 -0.028565407
-0.30710635 -0.081888437 -0.045710564
-0.30331734 -0.44124544 0.037727356
-0.31638134 0.12323052 -0.11811447
-0.31685436 0.15703356 -0.12834167
-0.31407234 -0.041622519 -0.068236351
-0.31466934 0.0010355115 -0.081141472
-0.31956634 0.27030551 -0.18693066
-0.32069436 0.31325555 -0.21130753
-0.31517535 0.037152529 -0.092071533
-0.31078434 -0.30281341 0.0028166771
-0.30821234 -0.87235951 0.058382511
-0.30656734 -0.73487043 0.093915462
-0.30729836 -0.66001046 0.078131676
-0.31128836 -0.2511245 -0.0080823898
-0.31195334 -0.1929605 -0.022459507
-0.30798134 -0.5899924 0.063367367
-0.30896136 -0.48961246 0.042202473
-0.30942136 -0.44246244 0.032262325
-0.32468334 0.19327456 -0.16714954
-0.32589734 0.23850155 -0.19290733
-0.32048735 -0.043155432 -0.078174591
-0.32109734 -0.00043743849 -0.091117382
-0.32784534 0.31103152 -0.23421669
-0.32161435 0.035732567 -0.10207748
-0.32215235 0.073365569 -0.11348152
-0.31337035 -0.66140842 0.072730541
-0.31749734 -0.25239742 -0.014781475
-0.31832135 -0.19470847 -0.032257557
-0.31406736 -0.59133244 0.057943344
-0.31907436 -0.14200342 -0.048223495
-0.31988835 -0.085068464 -0.065473557
-0.33074534 0.15223753 -0.16779661
-0.33304536 0.23603451 -0.21568966
-0.32691935 -0.04469347 -0.088136673
-0.32754236 -0.0019134879 -0.10112047
-0.32862034 0.071995556 -0.12355042
-0.32239735 -0.37248051 0.0060033798
-0.32312235 -0.30518949 -0.0090956688
-0.31940135 -0.86974144 0.068365574
-0.31820136 -0.80305541 0.093352318
-0.32016334 -0.5926764 0.052511692
-0.32055935 -0.55357945 0.044253349
-0.32630736 -0.086666465 -0.075398445
-0.33788335 0.14949155 -0.19041157
-0.33460736 0.032707512 -0.12341642
-0.32854736 -0.37364745 0.00048351288
-0.32429135 -0.80470145 0.087505341
-0.32476735 -0.73925447 0.077769279
-0.32554334 -0.66421342 0.061906338
-0.32626936 -0.59402347 0.047070503
-0.33189636 -0.14536846 -0.067998409
-0.33274534 -0.088270426 -0.085353374
-0.32779834 -0.44613147 0.015806675
-0.33984134 -0.047786474 -0.10815334
-0.34276235 0.066191554 -0.16682434
-0.33487535 -0.37549245 -0.0084085464
-0.33588234 -0.30902243 -0.028636456
-0.33137834 -0.87171042 0.06183672
-0.33039236 -0.80635142 0.081645489
-0.33085436 -0.74072242 0.072370529
-0.33665636 -0.25792241 -0.044187546
-0.33238536 -0.59537446 0.041617393
-0.33279735 -0.5562135 0.033334255
-0.33344534 -0.49466646 0.020312309
-0.34662434 -0.050203443 -0.12395048
-0.34886736 0.026437521 -0.16823339
-0.34994134 0.063158512 -0.18944263
-0.33758336 -0.8738215 0.054522514
-0.33775935 -0.66703248 0.051045418
-0.34397936 -0.20176244 -0.07173872
-0.33893335 -0.55753648 0.027859688
-0.34479836 -0.14875746 -0.087898731
-0.33959436 -0.49593842 0.014814377
-0.35716736 0.060105562 -0.2122035
-0.34306034 -0.74367249 0.061543465
-0.34388235 -0.66844749 0.045602322
-0.34654835 -0.45097852 -0.0061416626
-0.35409835 -0.38157451 -0.037761688
-0.35003135 -0.87806249 0.039845467
-0.35599035 -0.26350749 -0.07386446
-0.35123634 -0.56019843 0.016850471
-0.35803735 -0.15299749 -0.11292171
-0.35972136 -0.097807407 -0.14504671
-0.36054435 -0.38361549 -0.047602654
-0.35491234 -0.81299746 0.058096409
-0.36521134 -0.15673447 -0.13519239
-0.36700934 -0.38566446 -0.057476521
-0.36107036 -0.81466949 0.052184582
-0.36144635 -0.74812245 0.045238495
-0.37080735 -0.21167743 -0.12760544
-0.37419334 -0.1049695 -0.19013357
-0.36504236 -0.50410843 -0.021150589
-0.36581734 -0.45740342 -0.035472393
-0.37349534 -0.38772142 -0.067382336
-0.37463835 -0.32071841 -0.088141441
-0.36920336 -0.88643849 0.010616302
-0.36981034 -0.6057055 -0.00042152405
-0.37970236 -0.16428149 -0.18016148
-0.37149036 -0.50633144 -0.030945301
-0.37999934 -0.38978446 -0.077314377
-0.37505335 -0.67732644 0.011151314
-0.38266635 -0.8949424 -0.01935339
-0.39075536 -0.27986348 -0.16179562
-0.38269836 -0.61044943 -0.019913673
-0.39418834 -0.39784443 -0.11672258
-0.38950336 -0.8995074 -0.035459518
-0.38661736 -0.75637949 0.014594555
-0.38793534 -0.68227947 -0.0082726479
-0.38986135 -0.57406247 -0.041668415
-0.39184135 -0.46629143 -0.07600832
-0.39637336 -0.90409744 -0.051645279
-0.39281535 -0.82667947 0.0091276169
-0.39440534 -0.68476844 -0.018028736
-0.39636636 -0.57640147 -0.051522732
-0.39753434 -0.51553249 -0.071482658
-0.39908934 -0.47104347 -0.098041534
-0.40883636 -0.40698349 -0.16146469
