# .PCD v0.7 - Point Cloud Data file format
VERSION 0.7
FIELDS x y z
SIZE 4 4 4
TYPE F F F
COUNT 1 1 1
WIDTH 1357
HEIGHT 1
VIEWPOINT 0 0 0 1 0 0 0
POINTS 1357
DATA ascii
0.12897521 -0.89945513 -0.095075607
0.12870321 -0.83418018 -0.080897331
0.12841921 -0.67996913 -0.066114426
0.1261422 -0.16415614 0.052452564
0.1280892 -0.60080117 -0.048914433
0.1276212 -0.48860413 -0.024535656
0.11920021 0.16805983 0.11283159
0.1188992 0.28901285 0.12923241
0.1201212 -0.0060861707 0.062590599
0.1196072 0.041606843 0.090605259
0.11882921 0.31912881 0.13304234
0.11872821 0.36287284 0.13857651
0.1198552 0.076438844 0.077091694
0.11972921 0.11547881 0.083960533
0.11903021 0.43974984 0.12211752
0.11939221 0.48014885 0.10236025
0.1198232 0.52052683 0.078802586
0.1207322 0.59380579 0.029217243
0.12125321 -0.35767514 0.00078630447
0.1235072 -1.0261662 -0.12220144
0.1217102 -0.48848814 -0.024119377
0.12114321 -0.43215615 0.0068235397
0.11338121 0.16832483 0.11485529
0.11425821 -0.0057632327 0.064640522
0.1137692 0.041914821 0.092644691
0.11400521 0.076734841 0.079133511
0.1138852 0.11576182 0.086000443
0.1154592 0.63592482 -0.0041794777
0.1160802 0.66728783 -0.039749622
0.11355221 0.48036683 0.10506725
0.11431421 0.55342185 0.061414242
0.1167832 -0.83389312 -0.0800457
0.1165032 -0.76005715 -0.06401062
0.1165252 -0.67970818 -0.065272331
0.11571521 -0.55224317 -0.018876553
0.11457921 -0.11047024 0.046241283
0.1141272 -0.047590196 0.072133541
0.11526021 -0.43204623 0.007235527
0.10734721 0.24318081 0.12998629
0.10723021 0.28987181 0.13707066
0.10707521 0.36363983 0.14639139
0.10771021 0.11869884 0.10811758
0.10998721 0.66780281 -0.029198647
0.10715821 0.41171682 0.14142466
0.1077162 0.4805848 0.1077733
0.10942121 -0.35679621 0.0049624443
0.10887221 -0.28029519 0.038033485
0.11154821 -1.0264382 -0.1233325
0.11105821 -0.89901012 -0.093792439
0.11082321 -0.83375114 -0.079620361
0.1105782 -0.6795792 -0.064851761
0.1098092 -0.55212516 -0.01845932
0.10870221 -0.1101132 0.048304558
0.1083462 -0.047943175 0.069775581
0.1098892 -0.48826116 -0.023288727
0.1016582 0.20341182 0.1249733
0.1015482 0.24341983 0.1320014
0.10254221 -0.0051191449 0.068736553
0.10210221 0.042526841 0.096721649
0.10126121 0.36402285 0.15029144
0.1023142 0.077323794 0.083213329
0.1018912 0.1189788 0.11014462
0.1034452 0.63675684 0.011247635
0.1039582 0.6681838 -0.021418571
0.1054152 0.7099278 -0.11415339
0.10188621 0.48080182 0.11047745
0.10219721 0.52139282 0.090651512
0.1055792 -1.0267942 -0.12463856
0.10535221 -0.97073418 -0.11019039
0.1050882 -0.89886516 -0.093366623
0.10486621 -0.83361214 -0.079196453
0.10315821 -0.22840816 0.029523373
0.10270621 -0.16307718 0.058268547
0.1043642 -0.60031015 -0.047237396
0.10390521 -0.55200821 -0.018042564
0.1025622 -0.048297226 0.067417622
0.1039812 -0.48814923 -0.022872448
0.1034952 -0.43182915 0.0080623627
0.095856205 0.20366383 0.12698746
0.095752202 0.24365884 0.1340127
0.095630206 0.29044181 0.1422286
0.096275203 0.042831838 0.098757267
0.095551208 0.32065082 0.14753437
0.096475206 0.077616811 0.085249424
0.096076205 0.11925882 0.1121726
0.097459204 0.63717079 0.018928528
0.097943202 0.66856283 -0.01365757
0.095563203 0.41220582 0.14677238
0.096355207 0.52159286 0.09336853
0.096622206 0.55436182 0.075343609
0.097029202 0.59494984 0.047958374
0.099394202 -0.97108215 -0.11149263
0.098909207 -0.83347422 -0.078771591
0.098671205 -0.75965518 -0.06274271
0.098435208 -0.60019022 -0.046820641
0.098002203 -0.55189222 -0.017626762
0.096775204 -0.048652232 0.065059662
0.090142205 0.16937983 0.1229434
0.090058208 0.20391482 0.12900352
0.090842202 -0.0044801831 0.072825432
0.089771204 0.32086384 0.14953661
0.089664206 0.36470383 0.15723324
0.091522202 0.63745487 0.024163246
0.089772202 0.41244882 0.14944363
0.090518206 0.52179182 0.096083641
0.091768205 -0.35643321 0.0064992905
0.093636207 -1.0275111 -0.12725163
0.093434207 -0.9714312 -0.1127944
0.092729203 -0.75952417 -0.062321663
0.092747204 -0.67920321 -0.063592434
0.091389202 -0.22762114 0.033664703
0.092507206 -0.60007221 -0.046401501
0.090950206 -0.048636138 0.065079689
0.084342204 0.16964185 0.12496233
0.084263206 0.20416582 0.13101768
0.084998205 -0.0041621923 0.074867249
0.083995208 0.32107681 0.15153742
0.084809206 0.078200817 0.08932066
0.084426202 0.48144883 0.11857367
0.085228205 0.59551781 0.057290554
0.085888207 -0.35633522 0.0069084167
0.087661207 -1.0278733 -0.12855864
0.087228209 -0.89936513 -0.095425606
0.087005205 -0.83332914 -0.078398705
0.086580202 -0.59995514 -0.045983315
0.084974207 -0.10536116 0.07671833
0.078471206 0.2044158 0.13303232
0.079156205 -0.0038451552 0.076909542
0.078220204 0.32128882 0.15353727
0.078126207 0.3651008 0.16122532
0.078651205 0.12009281 0.11824465
0.078614205 0.48166382 0.12126827
0.078856207 0.52218986 0.10150862
0.080007203 -0.35623723 0.0073194504
0.079594202 -0.2796312 0.041103363
0.081683204 -1.0282362 -0.1298666
0.081278205 -0.8997032 -0.096722603
0.079495206 -0.16459721 0.049177647
0.080653206 -0.59983915 -0.045567513
0.080296203 -0.55155224 -0.01638031
0.079134203 -0.10501117 0.078764439
0.079251207 -0.047972143 0.069172382
0.072752208 0.1701628 0.12899446
0.072683208 0.20466381 0.13504362
0.073091201 -0.00051218271 0.099063396
0.072451204 0.32150084 0.15553665
0.072586209 0.44160885 0.14358759
0.074530207 0.71354282 -0.027700424
0.073460206 0.59608281 0.066599369
0.073774204 -0.28003317 0.038919449
0.075539201 -0.97248822 -0.11670542
0.075134203 -0.83398312 -0.080981731
0.074922204 -0.67883712 -0.062334538
0.074451208 -0.48760718 -0.020803452
0.074101202 -0.43131012 0.010116577
0.066899203 0.20491284 0.13705444
0.066826202 0.24484283 0.14405346
0.066740207 0.29155082 0.15224457
0.067276202 -0.00019818544 0.10109568
0.066685207 0.32171184 0.15753365
0.067336202 0.079069853 0.095416546
0.067054205 0.12064379 0.12228537
0.068109207 0.67028379 0.021549702
0.066691205 0.41314185 0.15699339
0.069037206 0.74390382 -0.067071438
0.067008205 0.48209184 0.12665224
0.067215204 0.5225848 0.10692549
0.067950204 -0.28043717 0.036735535
0.069571204 -0.97284418 -0.11801052
0.067814209 -0.16447622 0.049739361
0.068498202 -0.55133218 -0.015552521
0.068548203 -0.48750216 -0.020388603
0.061119206 0.20515984 0.13906431
0.060923204 0.32192183 0.15952826
0.060849205 0.36569184 0.16720247
0.061519206 0.079357803 0.097446442
0.061997205 0.63872182 0.047613621
0.060936205 0.41325283 0.15819645
0.061213203 0.48230481 0.1293416
0.063739203 -1.0293362 -0.1337986
0.063600205 -0.97320217 -0.11931658
0.063257203 -0.83464319 -0.083567619
0.063072205 -0.75994319 -0.064291477
0.063055202 -0.67885417 -0.062527657
0.062880203 -0.59950012 -0.044317722
0.062600203 -0.55122322 -0.015138626
0.062646203 -0.48739916 -0.019976616
0.055211205 0.2919898 0.15624046
0.055658206 0.00040280819 0.10499144
0.055097204 0.36588681 0.16919136
0.055472206 0.1211918 0.12632036
0.056118205 0.63897383 0.052283287
0.055183206 0.41336381 0.15939856
0.056496207 -0.35586017 0.0089554787
0.056291204 -0.28124613 0.032373428
0.057753205 -1.0297072 -0.13511038
0.057315204 -0.83497518 -0.084861755
0.057146206 -0.76026112 -0.065578461
0.056082204 -0.22340018 0.056414604
0.056957204 -0.59939021 -0.043902397
0.055856206 -0.10439521 0.082251549
0.049568206 0.20565283 0.14307737
0.049514204 0.24554485 0.15006351
0.049449205 0.29220784 0.15823746
0.049789205 0.045234799 0.11499166
0.049408205 0.32233983 0.16351652
0.049348205 0.36608183 0.17117929
0.049431205 0.4134748 0.16059923
0.050666206 0.71484184 0.0032992363
0.050913204 0.74534982 -0.028067589
0.049638204 0.48268884 0.13419247
0.049789205 0.52317381 0.11503458
0.049914204 0.55596685 0.099078655
0.050619204 -0.35576814 0.0093636513
0.051650204 -0.97392219 -0.1219306
0.051503204 -0.9014222 -0.10322142
0.051217206 -0.76058012 -0.066866398
0.051041204 -0.5995062 -0.044449329
0.050805204 -0.55101019 -0.01431036
0.050043207 -0.10432118 0.082652569
0.050092205 -0.046790183 0.07643652
0.050600205 -0.43091422 0.011755466
0.043841206 0.17145079 0.13905239
0.043750204 0.24577785 0.15206432
0.043693203 0.29242581 0.16023254
0.044073205 0.00053584576 0.10578632
0.044006206 0.045316815 0.11551428
0.044089206 0.080215812 0.10352468
0.044384204 0.63945782 0.061272621
0.044530205 0.67120278 0.040337563
0.043867204 0.48278683 0.13540554
0.043990206 0.52336979 0.11773252
0.044101205 0.55614883 0.10179043
0.044240206 0.59701478 0.081913471
0.044744205 -0.35567719 0.009771347
0.044616204 -0.28205818 0.02801466
0.045542207 -0.90177017 -0.10452032
0.045423206 -0.83564514 -0.087451458
0.045288205 -0.76090223 -0.068156719
0.045275204 -0.67976516 -0.06637764
0.044413205 -0.22323614 0.057221413
0.044909205 -0.55091721 -0.013947487
0.044943206 -0.48709518 -0.018740654
0.044727206 -0.43081921 0.012163639
0.038070206 0.1717068 0.14106131
0.038033206 0.20614183 0.14708567
0.037941206 0.29264283 0.16222525
0.038224205 0.045378804 0.11591053
0.037909206 0.32275581 0.16749859
0.037862204 0.36647081 0.17515326
0.038123205 0.12200785 0.13236332
0.038541205 0.63960582 0.064015388
0.038003206 0.44234681 0.15207338
0.038837206 0.71535778 0.015595436
0.039008204 0.74592686 -0.012528419
0.038196206 0.52356386 0.12042856
0.039519206 0.78894484 -0.096095562
0.038415205 0.59718084 0.084640503
0.038870204 -0.35558814 0.01017952
0.038773205 -0.28242117 0.026070595
0.039781205 -1.0308292 -0.13905334
0.039693207 -0.9746502 -0.12454844
0.039356206 -0.76122421 -0.06944561
0.038580205 -0.2231552 0.057625294
0.038616206 -0.16408616 0.051751614
0.039219204 -0.60008723 -0.047001362
0.039025206 -0.55119914 -0.015216351
0.038460206 -0.046653211 0.077234268
0.032271206 0.20638585 0.14908934
0.032235205 0.24623984 0.1560626
0.032192204 0.29285884 0.16421843
0.032494206 0.00066483021 0.10658026
0.032443207 0.045439839 0.11630535
0.032164205 0.32296181 0.16948652
0.032501206 0.080457807 0.1052084
0.032356206 0.12208784 0.13293743
0.032792207 0.67165881 0.049696445
0.032192204 0.4138028 0.16420269
0.032594204 0.59734583 0.087364674
0.032996204 -0.35549921 0.010587692
0.033711206 -0.97501618 -0.12585974
0.033422206 -0.76154822 -0.070734501
0.033306204 -0.67534214 -0.048478603
0.033305205 -0.60038012 -0.048280716
0.032613207 -0.10410422 0.083851337
0.032645207 -0.046585143 0.077634335
0.033152204 -0.48714417 -0.019032478
0.026541203 0.1721018 0.14417028
0.026481204 0.24647081 0.1580596
0.026704203 0.0007288456 0.10697746
0.026710203 0.080515802 0.1056056
0.026589204 0.12214381 0.1333313
0.026449203 0.41391182 0.16540241
0.026496204 0.44255382 0.15448332
0.027061203 0.71575183 0.025021553
0.027789203 -1.0315862 -0.14168644
0.027485203 -0.76187414 -0.07202673
0.026915204 -0.22299713 0.058432579
0.027387204 -0.60067421 -0.049559593
0.027259203 -0.48741621 -0.020301342
0.027112203 -0.43053716 0.013390541
0.020760203 0.20674884 0.15206957
0.020732203 0.24669981 0.16005564
0.020703204 0.29328984 0.16820145
0.020916203 0.00079184771 0.10737324
0.020890202 0.045229852 0.11478853
0.020824203 0.12219882 0.13372564
0.021038203 0.64004779 0.072232246
0.020747203 0.44265682 0.15568638
0.021187203 0.71594882 0.029725552
0.020855203 0.52387679 0.12473154
0.021418203 0.79074585 -0.036488533
0.020899203 0.5568428 0.1121664
0.020966204 0.59767383 0.092805386
0.021251203 -0.35532516 0.011401653
0.021195203 -0.28217322 0.02728653
0.021794204 -1.0323393 -0.14426661
0.021739203 -0.9757542 -0.12848473
0.021614203 -0.83700413 -0.092642307
0.021546204 -0.76220113 -0.073318481
0.021106204 -0.16386217 0.052954674
0.021468204 -0.60096914 -0.050837517
0.021357203 -0.5520522 -0.019029617
0.021017203 -0.046452224 0.078431606
0.021366203 -0.4876892 -0.021570683
0.021247203 -0.43076319 0.012303352
0.014965203 0.29350382 0.17019033
0.015128203 0.00085383654 0.1077714
0.015116204 0.044885814 0.1123724
0.014931204 0.36723983 0.18308258
0.015132204 0.080630839 0.10639429
0.015059203 0.12225282 0.13411856
0.014971204 0.41412681 0.16780233
0.015000204 0.44275981 0.15689039
0.015320204 0.7161448 0.034422398
0.015081203 0.52396482 0.12594652
0.015114203 0.55692482 0.11338568
0.015797203 -1.0333211 -0.14761877
0.015751204 -0.97624022 -0.13019562
0.015656203 -0.83734816 -0.093942642
0.015606204 -0.76253015 -0.074611664
0.015548203 -0.67627221 -0.052326679
0.015271204 -0.16379017 0.053355694
0.015547203 -0.60126621 -0.052118301
0.015464203 -0.55233914 -0.020301342
0.015204202 -0.046387136 0.078831673
0.015470203 -0.48796421 -0.0228405
0.0092642037 0.20684582 0.15285158
0.0092492029 0.24687183 0.16153431
0.0092312032 0.29366481 0.1716876
0.0093422029 0.00091481209 0.10816765
0.0092082033 0.36742985 0.18506145
0.0093442034 0.080686808 0.1067915
0.0092362035 0.41423482 0.16900158
0.0094622029 0.71634078 0.039114475
0.0094982032 0.74707985 0.018594265
0.0093312031 0.55700684 0.11460447
0.0096632037 -0.76286119 -0.075905323
0.0096242037 -0.67658514 -0.053611755
0.0094372034 -0.16371816 0.053756237
0.0096242037 -0.60156423 -0.053400517
0.0093822032 -0.10382718 0.085446358
0.0093922028 -0.046323121 0.079229355
0.0035102034 0.24691683 0.16192532
0.0035012036 0.29370785 0.17207527
0.0035562033 0.00097584724 0.10856342
0.0034952036 0.32390583 0.17862558
0.0035572036 0.080742836 0.10718536
0.0035812033 0.64048684 0.080429554
0.0035022034 0.41434079 0.17019939
0.0035252033 0.48345584 0.14387369
0.0036982035 0.82353485 -0.054234505
0.0035502033 0.55708778 0.1158247
0.0036432033 -0.35581821 0.0089082718
0.0036262034 -0.28203219 0.027991295
0.0037352035 -0.83804017 -0.096543312
0.0035982036 -0.22269219 0.060042381
0.0036042037 -0.16364723 0.05415535
0.0035812033 -0.046259224 0.079627514
-0.0022307965 0.24696183 0.16231441
-0.0022307965 0.2937488 0.17246342
-0.0022307965 0.36776185 0.18851757
-0.0022307965 0.64063179 0.083156586
-0.0022307965 0.67253381 0.067695618
-0.0022307965 0.4430638 0.16050053
-0.0022307965 0.71664083 0.04631567
-0.0022307965 0.74742782 0.028018475
-0.0022307965 0.48354983 0.14508057
-0.0022307965 0.52422583 0.1295886
-0.0022307965 0.82389283 -0.040046692
-0.0022307965 0.55716884 0.1170435
-0.0022307965 -0.35607022 0.0076503754
-0.0022307965 -0.97911114 -0.14022064
-0.0022307965 -0.90537316 -0.11768436
-0.0022307965 -0.76352614 -0.078494549
-0.0022307965 -0.22261816 0.060444355
-0.0022307965 -0.16357821 0.054554462
-0.0022307965 -0.10369414 0.086242676
-0.0022307965 -0.046197236 0.080024242
-0.0022307965 -0.43182415 0.0072565079
-0.0079757962 0.20698684 0.15402365
-0.0079537965 0.32398582 0.17940044
-0.0079457965 0.3677718 0.18861866
-0.0080157965 0.08085084 0.10797453
-0.0080347965 0.64077681 0.085879326
-0.0079597961 0.41455281 0.17259645
-0.0080677969 0.71675587 0.049070358
-0.0079827961 0.48364383 0.14628839
-0.0079957964 0.52431178 0.13080263
-0.0080877962 -0.28250819 0.025487423
-0.0082357964 -0.98007315 -0.14357042
-0.0082157962 -0.90629619 -0.1210103
-0.0081977965 -0.83909017 -0.10046053
-0.0081607969 -0.67753321 -0.057471752
-0.0080577964 -0.22267312 0.06014967
-0.0080617964 -0.16350919 0.054955482
-0.0081597967 -0.60246819 -0.057251453
-0.0081327967 -0.55350214 -0.025398731
-0.0080347965 -0.10362917 0.086640358
-0.0080397967 -0.046135128 0.080423355
-0.0081347963 -0.48907512 -0.027927399
-0.013733797 0.17245084 0.14691448
-0.013720796 0.2070328 0.15441465
-0.013675797 0.3240248 0.17978859
-0.013660797 0.36775982 0.18850327
-0.013800797 0.080904841 0.10836935
-0.013925796 0.74775386 0.036868572
-0.013759797 0.52439785 0.13201666
-0.013975796 0.79208583 0.0079154968
-0.014025797 0.82438684 -0.02050972
-0.013980797 -0.35657817 0.005130291
-0.014276797 -1.0382712 -0.16443348
-0.014206797 -0.90722114 -0.12434149
-0.014170797 -0.83998019 -0.10377264
-0.014092796 -0.67785221 -0.058759689
-0.013886796 -0.22290117 0.058904648
-0.014091797 -0.60277218 -0.05853653
-0.013837797 -0.1035642 0.087038517
-0.013848796 -0.046074212 0.080819607
-0.014040797 -0.48935717 -0.029202461
-0.019441796 0.24709183 0.16348267
-0.019415796 0.29387081 0.17362833
-0.019376798 0.36774784 0.18838644
-0.019670798 0.67292881 0.075899601
-0.019440796 0.44335383 0.16397667
-0.019765796 0.74785584 0.03963232
-0.019480797 0.48382884 0.14870453
-0.019903796 0.8245818 -0.012752533
-0.019553797 0.55740881 0.1206975
-0.019594796 0.59840983 0.10509157
-0.019809797 -0.28299016 0.022979259
-0.020308796 -1.0392692 -0.16780853
-0.020089796 -0.76491123 -0.08384037
-0.020026797 -0.67817217 -0.060047626
-0.019718796 -0.22313017 0.057659626
-0.020026797 -0.60307723 -0.059822559
-0.019640796 -0.10350114 0.087435246
-0.025235796 0.17254484 0.1476965
-0.025120797 0.32410085 0.1805625
-0.025093798 0.36773485 0.18827248
-0.025273796 0.12261385 0.13686752
-0.025436796 0.64100087 0.090132236
-0.025179796 0.4433428 0.16385937
-0.025550798 0.71709782 0.057326317
-0.025603797 0.74795681 0.042394638
-0.025281796 0.5245688 0.13444328
-0.025690796 0.79236984 0.017370701
-0.025675796 -0.28323215 0.021722317
-0.026348798 -1.0402691 -0.17118645
-0.026287796 -0.98297518 -0.15364361
-0.025965797 -0.67849416 -0.061336517
-0.025554797 -0.22336119 0.056413651
-0.025466796 -0.045954168 0.081614494
-0.025861796 -0.48992318 -0.03175354
-0.030952796 0.20716685 0.15558434
-0.030914797 0.24717581 0.16425943
-0.031188797 0.043300807 0.10136557
-0.030841798 0.32413781 0.18094969
-0.030810798 0.3677218 0.1881566
-0.031153796 0.081059813 0.10955048
-0.031232797 0.64106584 0.091362476
-0.030876797 0.41458583 0.17302561
-0.030916797 0.44333082 0.16374445
-0.031368796 0.71721083 0.060072422
-0.031434797 0.74805784 0.045154572
-0.030973796 0.48397481 0.15062046
-0.031534795 0.79251182 0.022087574
-0.031093797 0.55756682 0.12313366
-0.031161796 0.59855384 0.10753727
-0.031713795 0.87829483 -0.018899441
-0.032217797 -0.91001314 -0.1343565
-0.032127798 -0.84266621 -0.11372852
-0.032025795 -0.7666232 -0.090434551
-0.031390797 -0.22359222 0.055167675
-0.031764794 -0.55468613 -0.030509472
-0.031775795 -0.49020821 -0.033028603
-0.031626794 -0.4331792 0.00093126297
-0.036595795 0.29398781 0.17478943
-0.036526795 0.36770785 0.18804264
-0.036935795 0.081110835 0.10994434
-0.036790796 0.12271082 0.13765144
-0.037026796 0.64112985 0.092589378
-0.036605794 0.41457283 0.17291069
-0.036654796 0.44331884 0.16362858
-0.037182793 0.71732378 0.06281662
-0.037260793 0.74815881 0.04791069
-0.036941797 0.59862483 0.1087594
-0.037563793 0.91293383 -0.010057449
-0.037510794 -0.35760814 8.3446503e-05
-0.037410796 -0.2837202 0.019209385
-0.038350794 -0.98492318 -0.1603756
-0.038232796 -0.91094822 -0.13770247
-0.038001794 -0.76748317 -0.093738556
-0.037248794 -0.16436714 0.050094604
-0.037066795 -0.10392314 0.08494854
-0.037690796 -0.49049419 -0.034306526
-0.037512794 -0.43345314 -0.00033473969
-0.042817794 0.64119279 0.093817234
-0.042335793 0.41455984 0.17279434
-0.042392794 0.4433068 0.16351223
-0.042994794 0.7174058 0.06482935
-0.043081794 0.74825883 0.050662518
-0.042472795 0.48395181 0.15038729
-0.042552795 0.52475983 0.13721132
-0.043384794 0.91306984 0.0011324883
-0.043401796 0.95436883 -0.0017156601
-0.043398794 -0.35786813 -0.0011796951
-0.043281794 -0.28396612 0.017951488
-0.044498794 -1.0432882 -0.18134451
-0.044252794 -0.91188616 -0.14105272
-0.043069795 -0.22405821 0.05267334
-0.042879794 -0.10413224 0.083712578
-0.042905796 -0.046303213 0.079470634
-0.043608796 -0.4907822 -0.035583496
-0.048229795 0.17272484 0.14925766
-0.048176795 0.20729482 0.15675068
-0.048116796 0.24729782 0.1654253
-0.047999796 0.32424682 0.1821084
-0.048498794 0.081209838 0.11073065
-0.048304796 0.12280482 0.13843346
-0.048809797 0.71745586 0.066068649
-0.048313797 0.5247488 0.1370945
-0.049168795 0.82527381 0.014763355
-0.048388794 0.55777884 0.12642956
-0.049186796 0.91320282 0.012055397
-0.049205795 0.95443583 0.0094385147
-0.049288794 -0.35813016 -0.0024456978
-0.049154796 -0.28421313 0.016693592
-0.050560795 -1.0442991 -0.18473959
-0.050437793 -0.9868812 -0.16712475
-0.050134797 -0.84537119 -0.12371445
-0.048912793 -0.22429317 0.05142355
-0.049770795 -0.6058622 -0.071526527
-0.053977795 0.17276782 0.14964628
-0.053770795 0.29409981 0.17595148
-0.054365795 0.043123841 0.10026932
-0.053719796 0.32428181 0.18249464
-0.053678796 0.3676638 0.18769741
-0.054288793 0.081116796 0.1101017
-0.054062795 0.12285084 0.13882446
-0.054396793 0.64131981 0.096274376
-0.053797796 0.41453284 0.17256546
-0.054716796 0.74843585 0.055546284
-0.054076795 0.52473783 0.13697863
-0.055003796 0.82537985 0.019028664
-0.054160796 0.55776787 0.1263113
-0.055022795 0.8789078 0.016654491
-0.055007793 0.91328084 0.018536568
-0.054991797 0.95450282 0.020559311
-0.055181794 -0.35839218 -0.0037093163
-0.055031795 -0.2844612 0.015433311
-0.056630794 -1.0453143 -0.18813848
-0.056492794 -0.98786515 -0.17050648
-0.056313794 -0.91377121 -0.14776754
-0.054788794 -0.16503519 0.046356678
-0.054548796 -0.046701133 0.077002525
-0.055463795 -0.49166113 -0.039510727
-0.055185795 -0.4342832 -0.0041365623
-0.059658796 0.20737684 0.1575284
-0.059582796 0.24737585 0.16620064
-0.059437796 0.3243168 0.1828804
-0.059396796 0.36764884 0.1875844
-0.060082793 0.080941796 0.10887861
-0.060182795 0.64138281 0.097501278
-0.060434796 0.71755582 0.068544388
-0.060537796 0.7484808 0.056788445
-0.059838794 0.52472579 0.13686037
-0.059931796 0.55775678 0.12619448
-0.060047794 0.59886384 0.11292028
-0.062727794 -1.0470953 -0.19413567
-0.062550798 -0.98885018 -0.17389059
-0.062171794 -0.84718817 -0.13039446
-0.060639795 -0.16525918 0.045110703
-0.061394796 -0.55721813 -0.041372299
-0.060371794 -0.04690212 0.075766563
-0.061080795 -0.43456322 -0.0054073334
-0.065469794 0.17285281 0.15042639
-0.065314792 0.24741381 0.16658926
-0.065216795 0.29417181 0.17672443
-0.065154798 0.32435083 0.18326664
-0.065113798 0.36763281 0.18746948
-0.065879792 0.080765843 0.10765553
-0.065591797 0.12269485 0.13774347
-0.065965794 0.6414448 0.098730564
-0.066243798 0.71760482 0.069782257
-0.065474793 0.4839018 0.14992428
-0.065600798 0.52471381 0.1367445
-0.066677794 0.82551783 0.024582386
-0.066638798 0.87911379 0.028683662
-0.066973798 -0.35892218 -0.0062427521
-0.066789798 -0.28496021 0.012912273
-0.068627797 -0.99021119 -0.17857552
-0.066455796 -0.22500318 0.047674656
-0.066157795 -0.10498017 0.078763485
-0.066978797 -0.43487114 -0.0068054199
-0.071136795 0.20745683 0.1583066
-0.071045794 0.24745083 0.16697645
-0.070939794 0.2942068 0.17711163
-0.071679793 0.080588818 0.10643053
-0.071363792 0.52470183 0.13662958
-0.071474798 0.55773485 0.1259613
-0.072453797 0.87917882 0.032545567
-0.072408795 0.9135018 0.036799431
-0.072481796 0.95455784 0.029838562
-0.072671793 -0.28521222 0.011651516
-0.074958794 -1.0508401 -0.20673037
-0.074447796 -0.91661519 -0.15786362
-0.073983796 -0.77268916 -0.11363363
-0.073942795 -0.69047517 -0.10967636
-0.073295794 -0.55873615 -0.047891617
-0.071981795 -0.10519522 0.077522278
-0.072898798 -0.4355672 -0.010029316
-0.076662794 0.29424185 0.17749929
-0.077500798 0.00017482042 0.10364628
-0.076588795 0.32441682 0.18403864
-0.077554792 0.64144284 0.098808289
-0.077672794 0.67351681 0.088450432
-0.076723792 0.41447282 0.17210627
-0.077989794 0.74861181 0.060513496
-0.077248797 0.55772281 0.12584448
-0.078262798 0.8792448 0.036402702
-0.078214794 0.91354781 0.040652275
-0.078545794 -0.35538417 0.011502266
-0.078558795 -0.28546423 0.010387421
-0.080523796 -0.91802114 -0.1628685
-0.078206792 -0.16593915 0.04136467
-0.079673797 -0.60978514 -0.087939739
-0.079256795 -0.5594992 -0.051156521
-0.077858798 -0.047510207 0.072056293
-0.079271793 -0.49456221 -0.052504539
-0.078826793 -0.43626517 -0.013258457
-0.082759798 0.17241484 0.14710665
-0.082649797 0.20717883 0.15611553
-0.083406799 0.042200804 0.09412241
-0.082303792 0.32444984 0.1844244
-0.082918793 0.12218684 0.13408947
-0.083350793 0.64143282 0.098691463
-0.082455792 0.41445583 0.17199039
-0.082568794 0.4432078 0.16270542
-0.083658792 0.71775079 0.073493481
-0.083802797 0.74865484 0.061754704
-0.082890794 0.52467585 0.13639545
-0.084008798 0.79318482 0.044837475
-0.083020791 0.55770981 0.12572956
-0.083182797 0.59882182 0.11245155
-0.084731795 -0.3605842 -0.014332771
-0.084450796 -0.28580719 0.0086584091
-0.087236792 -1.0546052 -0.21937561
-0.086622797 -0.91977018 -0.16910553
-0.085977793 -0.69214123 -0.1163106
-0.084020793 -0.22572416 0.043916702
-0.085671797 -0.61057621 -0.091231346
-0.085221797 -0.56026417 -0.05442667
-0.083639793 -0.10562617 0.075042248
-0.085237794 -0.49529213 -0.055763721
-0.084758796 -0.43696517 -0.016488552
-0.088113792 0.29422784 0.17750645
-0.089112796 -0.00021517277 0.10118437
-0.089221798 0.042013824 0.092891693
-0.087989792 0.3675648 0.18701458
-0.089282796 0.6734978 0.088214397
-0.088308796 0.44319284 0.16259146
-0.088793792 0.55769783 0.12561131
-0.088966794 0.59881079 0.11233425
-0.089860797 0.87937582 0.044102669
-0.090200797 0.95448583 0.018118382
-0.090667792 -0.36124617 -0.017555714
-0.093392797 -1.0564961 -0.22571659
-0.093104795 -0.99750322 -0.2037034
-0.092055798 -0.77532321 -0.12363338
-0.089928798 -0.16639715 0.038865566
-0.091674797 -0.61136812 -0.094528675
-0.091192797 -0.56103021 -0.057697296
-0.090695798 -0.43766719 -0.019723415
-0.094298795 0.1720928 0.14467669
-0.093856797 0.29409081 0.17630243
-0.094922796 -0.00041216612 0.099954605
-0.093708798 0.36754584 0.18690157
-0.094900794 0.0798738 0.10152769
-0.094943792 0.64141178 0.098456383
-0.095427796 0.74872482 0.063798428
-0.094416797 0.52464879 0.13616323
-0.095657796 0.79325581 0.047331333
-0.094565794 0.55768478 0.12549448
-0.094751798 0.59879881 0.11221838
-0.095671795 0.87941283 0.046355247
-0.096119791 0.95446181 0.014202595
-0.096608795 -0.36191016 -0.02077961
-0.096286796 -0.28705519 0.0022525787
-0.099558793 -1.0583923 -0.23206854
-0.098493792 -0.85410815 -0.15578365
-0.098091796 -0.7762062 -0.12697458
-0.095740795 -0.22620922 0.041409492
-0.095793799 -0.16662818 0.037612438
-0.097684793 -0.61216313 -0.097828388
-0.097169794 -0.56179816 -0.060972691
-0.095305793 -0.10606223 0.072558403
-0.095364794 -0.048126161 0.06833744
-0.097188793 -0.49675816 -0.062291622
-0.099937797 0.20671582 0.15247965
-0.099601798 0.29395384 0.17509937
-0.10073479 -0.00060915947 0.098722458
-0.10071179 0.079692841 0.1002984
-0.10110679 0.71774882 0.073681355
-0.1012548 0.74871683 0.063679695
-0.1001808 0.52463484 0.13604832
-0.10147879 0.79329085 0.048577309
-0.10053679 0.59878683 0.11209965
-0.10148279 0.87944579 0.04833746
-0.1013938 0.91370982 0.054290295
-0.10221379 -0.28768224 -0.00095367432
-0.10573679 -1.0602932 -0.23843336
-0.10540979 -1.0011792 -0.21634054
-0.1036998 -0.61296016 -0.10113335
-0.1025888 -0.43907613 -0.026204586
-0.1055418 0.24679983 0.16170263
-0.10535079 0.29381585 0.17389536
-0.10522679 0.32414484 0.18176031
-0.1051838 0.36730081 0.18450737
-0.10652579 0.079510808 0.099071503
-0.10540579 0.41428781 0.17040634
-0.1055418 0.44310182 0.16175842
-0.10573979 0.48379982 0.14911652
-0.1074938 0.82583082 0.037484646
-0.1063228 0.59877479 0.1119833
-0.1072918 0.87947881 0.05031538
-0.1071988 0.91373283 0.056266308
-0.10798279 0.95441282 0.0063533783
-0.10851079 -0.36324316 -0.027242661
-0.1115808 -1.0030253 -0.22267962
-0.11113279 -0.92681319 -0.19417334
-0.1075168 -0.22722012 0.036036491
-0.1075628 -0.16744214 0.033092499
-0.10972279 -0.61376017 -0.10444164
-0.10914379 -0.5633412 -0.067534447
-0.10698179 -0.10650116 0.070073605
-0.1070478 -0.048541129 0.065856457
-0.1091638 -0.49823219 -0.068834305
-0.1085448 -0.43978316 -0.029450417
-0.1114758 0.20640284 0.15005255
-0.11236779 -0.001006186 0.096253395
-0.1125048 0.041256845 0.08795929
-0.11234179 0.079328835 0.097843647
-0.1118418 0.12132585 0.12798643
-0.1113058 0.44297183 0.16029644
-0.1129118 0.74870181 0.063441277
-0.11150879 0.48371083 0.14806652
-0.1118888 0.55764484 0.12514734
-0.1121088 0.5987618 0.11186647
-0.1130968 0.87951082 0.052293301
-0.1144688 -0.36391121 -0.030478477
-0.11728779 -0.92858618 -0.20047045
-0.1168578 -0.85920221 -0.17449665
-0.1134188 -0.22781819 0.032849312
-0.11282279 -0.10672218 0.068828583
-0.11289279 -0.048750222 0.064614296
-0.1145058 -0.44049317 -0.0327034
-0.1170648 0.24650282 0.15928364
-0.11685179 0.2935378 0.17148447
-0.1167148 0.32387882 0.17935753
-0.11781079 0.081899822 0.11658144
-0.1181348 0.64136779 0.097985268
-0.1169218 0.41401285 0.16749048
-0.1185658 0.71772283 0.073325634
-0.1175008 0.52449083 0.13432026
-0.11917479 0.82584882 0.038403511
-0.11767379 0.55758786 0.12438345
-0.1188978 0.87954384 0.054271698
-0.1198718 0.95436382 -0.0015125275
-0.12345479 -0.93036419 -0.20678043
-0.12300079 -0.86090916 -0.18075848
-0.1224888 -0.78261322 -0.15142632
-0.1193788 -0.16857821 0.026733398
-0.1218558 -0.61633116 -0.11517763
-0.1211388 -0.56489223 -0.074111462
-0.11867379 -0.10702318 0.06710434
-0.1211618 -0.4997142 -0.075391769
-0.12282979 0.24635381 0.15807152
-0.12400779 -0.0014072061 0.093784332
-0.1224248 0.3668558 0.18015242
-0.1234258 0.12097585 0.12554026
-0.1239358 0.64134783 0.097719669
-0.1241228 0.67343783 0.087507248
-0.12268379 0.4138748 0.16603231
-0.1243858 0.71771383 0.073206425
-0.1232918 0.52437884 0.1328454
-0.12483279 0.79328585 0.048798561
-0.12347479 0.55748284 0.12290335
-0.1245868 0.91380185 0.062187672
-0.1296328 -0.9321472 -0.21310139
-0.12861679 -0.78424519 -0.15764666
-0.1252418 -0.22902018 0.026468277
-0.1245548 -0.10756212 0.063948631
-0.1264458 -0.44191712 -0.039215565
-0.1289728 0.1711098 0.13737345
-0.1287998 0.20592982 0.14640951
-0.12836379 0.29325783 0.16907263
-0.1299928 0.040679812 0.084252357
-0.12941879 0.081531823 0.11412525
-0.12922379 0.12079984 0.12431669
-0.1297628 0.64126283 0.096226692
-0.1303988 0.74867684 0.063085556
-0.1288518 0.48334581 0.14366245
-0.12908779 0.52426583 0.13137054
-0.13067579 0.79327881 0.048679352
-0.12927879 0.55737782 0.12142467
-0.13054779 0.8795588 0.05536747
-0.1323828 -0.36592919 -0.040207386
-0.1319378 -0.29083818 -0.017036438
-0.1364308 -1.0112932 -0.25105762
-0.13532279 -0.86433917 -0.19332266
-0.13405779 -0.61926812 -0.12744856
-0.1332088 -0.50148422 -0.083240509
-0.1345778 0.20577085 0.14519358
-0.13412279 0.29311681 0.16786528
-0.13567379 -0.0019211769 0.090583324
-0.1358418 0.040371835 0.082219601
-0.13502179 0.12062281 0.1230917
-0.13559079 0.64117682 0.094735622
-0.1342188 0.41359782 0.16311264
-0.13605179 0.71764386 0.071760654
-0.13651779 0.79327184 0.048559666
-0.13508479 0.55727184 0.11994457
-0.13622479 0.91381085 0.06317234
-0.13776079 0.95429081 -0.013335705
-0.1420248 -0.93572718 -0.22578335
-0.1408048 -0.70433921 -0.16499138
-0.13708979 -0.23022813 0.020070553
-0.1371478 -0.17029423 0.017167568
-0.1364048 -0.050449193 0.054178238
-0.13928579 -0.50284213 -0.089312553
-0.14035879 0.20561182 0.14397669
-0.14013979 0.24590081 0.15443659
-0.14154279 -0.0024091601 0.087445259
-0.14142179 0.64109182 0.093242645
-0.1416238 0.67323083 0.083584309
-0.13998879 0.41345781 0.16165352
-0.1401708 0.44231182 0.15298033
-0.14190279 0.71757686 0.070257664
-0.1420988 0.7485888 0.060939312
-0.14237979 0.79323685 0.047521591
-0.1425848 0.8258208 0.03772831
-0.1411528 0.59838283 0.10607624
-0.1421988 0.8795678 0.056141376
-0.1420438 0.91381383 0.063559532
-0.1491268 -1.0181203 -0.27459431
-0.1483088 -0.93846613 -0.23553467
-0.14768879 -0.86778623 -0.20592833
-0.14302179 -0.23083419 0.016867638
-0.1430818 -0.17086917 0.013972282
-0.14223379 -0.10918623 0.054458618
-0.14230579 -0.05096215 0.051019669
-0.14537279 -0.50420314 -0.095396519
-0.14440179 -0.44406921 -0.049014568
-0.14591379 0.24574882 0.15322256
-0.1475998 0.03943783 0.075949669
-0.14547579 0.32320482 0.17333555
-0.14595179 0.44217885 0.15151644
-0.1479608 0.74852884 0.059429646
-0.1464878 0.52392483 0.12694454
-0.14846779 0.82577884 0.036209583
-0.14786179 0.91381681 0.063945293
-0.14972079 0.95424181 -0.021239758
-0.1503478 -0.36796314 -0.049973488
-0.15550779 -1.0215552 -0.28642654
-0.15388879 -0.86951715 -0.21225357
-0.1532428 -0.79082221 -0.18264961
-0.1531298 -0.70746821 -0.17744541
-0.14902279 -0.17144614 0.010771275
-0.15243679 -0.62364715 -0.14570475
-0.14821279 -0.051477134 0.047857285
-0.1504028 -0.4448362 -0.052504539
-0.1519278 0.20528984 0.14154148
-0.1532988 -0.003390193 0.081161499
-0.15121679 0.36610281 0.17288446
-0.1527098 0.080495834 0.1071043
-0.15309179 0.64091885 0.09025526
-0.15153779 0.41317683 0.15872955
-0.1517348 0.44204479 0.15005064
-0.15382579 0.7484678 0.057920456
-0.15229279 0.52381086 0.12546635
-0.1543528 0.82573783 0.034688473
-0.15251879 0.55695379 0.1155014
-0.1536808 0.91381979 0.064332485
-0.1557118 0.95421684 -0.025199413
-0.15581979 -0.29339415 -0.029964447
-0.16101679 -0.94503719 -0.25896835
-0.15942779 -0.79247719 -0.18892956
-0.15930879 -0.7090382 -0.18369055
-0.1549028 -0.23205119 0.010447502
-0.1549688 -0.17202419 0.0075683594
-0.15793079 0.1702708 0.13126945
-0.15771779 0.20512784 0.14032269
-0.15747079 0.24544281 0.15079546
-0.1571828 0.2925458 0.16302824
-0.15857479 0.080046833 0.10398245
-0.1582858 0.11964983 0.11623764
-0.15916079 0.67299485 0.079089642
-0.1573188 0.41303581 0.15726757
-0.15781279 0.48272681 0.13630962
-0.16247979 -0.3703832 -0.061756611
-0.16180779 -0.29403716 -0.033204556
-0.1674058 -0.94834417 -0.27075243
-0.1665618 -0.87568516 -0.23496675
-0.1656258 -0.79413813 -0.19522333
-0.16551679 -0.71077114 -0.19059038
-0.16366979 -0.57381517 -0.11221647
-0.16004579 -0.052509129 0.041522503
-0.1637048 -0.50831121 -0.11371946
-0.1637598 0.1699478 0.12882566
-0.16350879 0.20496583 0.13910341
-0.1632528 0.24528885 0.14957857
-0.1627598 0.32279384 0.16971445
-0.16275379 0.36579782 0.16997242
-0.16501179 0.67291582 0.077590466
-0.16331279 0.4417758 0.14711666
-0.16556579 0.74834681 0.054900646
-0.1639138 0.52358079 0.12251043
-0.16415779 0.55673981 0.11253548
-0.16446079 0.59799582 0.10012531
-0.16785979 -0.29515821 -0.038953304
-0.1747818 -1.0319393 -0.32217073
-0.1729368 -0.87886316 -0.24666548
-0.17194979 -0.79703623 -0.20630932
-0.17184679 -0.71363419 -0.20207453
-0.1705018 -0.58182818 -0.14705849
-0.16588779 -0.11137313 0.04175663
-0.16983679 -0.5096882 -0.11984968
-0.1686358 -0.44877714 -0.070675373
-0.16903579 0.24513483 0.14836359
-0.16872579 0.29225785 0.16060734
-0.17118679 0.037555814 0.06337738
-0.1703178 0.079145849 0.097732544
-0.1700068 0.11878884 0.11000967
-0.1706208 0.64065778 0.085771561
-0.17086579 0.67283583 0.076090336
-0.1691048 0.44164079 0.14564943
-0.17120379 0.71723485 0.062731266
-0.1717888 0.79297781 0.039620399
-0.16998079 0.5566318 0.11105347
-0.17029479 0.59789783 0.098636627
-0.17373079 0.9541418 -0.037104607
-0.1746608 -0.37286812 -0.073839664
-0.18134379 -1.0364933 -0.33787966
-0.18024479 -0.95499414 -0.29443455
-0.17933279 -0.8820532 -0.2584033
-0.1728438 -0.17376715 -0.0020604134
-0.1718148 -0.11192316 0.038572311
-0.17190079 -0.053547204 0.035172462
-0.17598079 -0.51106817 -0.12599039
-0.17484979 0.24485683 0.14607763
-0.17687979 -0.0053661466 0.068555355
-0.1770978 0.037081838 0.06022644
-0.1742948 0.3225168 0.16729832
-0.1764708 0.64056385 0.084171295
-0.17673479 0.67273283 0.074102402
-0.1746718 0.41260982 0.15287733
-0.1748998 0.44150484 0.14418364
-0.1773528 0.74817282 0.050491333
-0.1752218 0.48235083 0.13188934
-0.1755448 0.52334881 0.11955357
-0.17580579 0.5565238 0.1095686
-0.1761318 0.59779984 0.097147465
-0.17733279 0.87946981 0.051262379
-0.17709979 0.91376281 0.060173512
-0.1797508 0.95411682 -0.041080475
-0.18076779 -0.37411517 -0.079898357
-0.1857498 -0.88525623 -0.27018452
-0.1846858 -0.80311424 -0.22955465
-0.17873879 -0.23450619 -0.0024323463
-0.1788138 -0.17435116 -0.0052785873
-0.1827458 -0.62611014 -0.15545559
-0.18285079 -0.58473617 -0.15945148
-0.18132679 0.16872984 0.11951542
-0.18103179 0.20387083 0.13040733
-0.1802938 0.29191381 0.15769053
-0.18301679 0.036606848 0.057071686
-0.18006679 0.3223778 0.16608953
-0.18263879 0.67257583 0.071014404
-0.18046379 0.41246682 0.15141344
-0.1806988 0.44136882 0.1427145
-0.18301579 0.7169888 0.057108402
-0.1832788 0.74805182 0.047382355
-0.18103179 0.48222381 0.13041449
-0.18137379 0.52321184 0.11778641
-0.18393379 0.82542783 0.023154259
-0.1820038 0.59763086 0.094482422
-0.1857798 0.95409185 -0.045062542
-0.1909668 -0.72228712 -0.23674774
-0.1848398 -0.17525417 -0.010325432
-0.18378079 -0.054591119 0.028808594
-0.1883038 -0.51384014 -0.13831139
-0.1868888 0.20348084 0.12730742
-0.18653679 0.24411982 0.13990641
-0.1887068 -0.0063611865 0.062234402
-0.1889388 0.036130846 0.053914547
-0.1858618 0.3221578 0.1641016
-0.1876338 0.11748981 0.10064268
-0.1862718 0.4122768 0.14942169
-0.1872398 0.52298379 0.11473942
-0.1895998 0.79268086 0.030251503
-0.1875308 0.55615783 0.10434628
-0.1878918 0.59743786 0.091415405
-0.18915479 0.87937683 0.046198368
-0.1918148 0.95406681 -0.049048424
-0.1986538 -0.89170223 -0.29387569
-0.19751079 -0.80924124 -0.25296354
-0.19732079 -0.72464412 -0.2461524
-0.19089979 -0.17631322 -0.016271591
-0.1949988 -0.62797016 -0.16303635
-0.1896348 -0.11358219 0.028997421
-0.19306579 0.16791284 0.1132946
-0.1927518 0.20308983 0.12420654
-0.19238879 0.24374884 0.13681746
-0.19196479 0.29122281 0.15154266
-0.19462779 -0.0068611503 0.059070587
-0.19168679 0.36488181 0.16117334
-0.1935208 0.11705381 0.097513676
-0.19211179 0.41199583 0.1464076
-0.19311179 0.52275479 0.11169338
-0.19585779 0.82524782 0.016365528
-0.1934118 0.5559448 0.1012907
-0.1947798 0.91367984 0.05382061
-0.20733279 -0.97945422 -0.38197374
-0.19696979 -0.17737514 -0.022227764
-0.2013568 -0.63070613 -0.17450047
-0.19568379 -0.055640161 0.022431374
-0.2004388 -0.51486522 -0.14264536
-0.19824579 0.2433778 0.13372326
-0.20080179 0.0351758 0.047587395
-0.1975258 0.32149583 0.15796566
-0.19941379 0.1166178 0.094382286
-0.2000818 0.63987279 0.071847439
-0.2003818 0.67210281 0.061739445
-0.20108579 0.74768883 0.038039684
-0.2015228 0.79246181 0.023314476
-0.1992988 0.55573082 0.098230362
-0.20070679 0.91364086 0.050797462
-0.20390679 0.9540168 -0.057034492
-0.2104218 -0.81541616 -0.27653456
-0.20773479 -0.63345414 -0.18600559
-0.2082738 -0.59513122 -0.20416164
-0.2016778 -0.056348145 0.018077374
-0.2065078 -0.51534516 -0.1446557
-0.2053998 -0.45675522 -0.10732651
-0.2048288 0.16709083 0.10705662
-0.20410879 0.24300581 0.13062859
-0.20365779 0.29052782 0.14538145
-0.20674279 0.034695804 0.044420242
-0.2033668 0.32116383 0.15489244
-0.2033588 0.36427283 0.15516567
-0.20599879 0.63969886 0.068758488
-0.2038108 0.41143084 0.14036942
-0.20408779 0.44035482 0.13129759
-0.20673479 0.71644282 0.044682503
-0.20703679 0.74756283 0.034803391
-0.2044798 0.4812448 0.11846828
-0.2048738 0.52229482 0.10559034
-0.20519179 0.55551684 0.095169544
-0.20558779 0.59685582 0.082200527
-0.2066398 0.91360182 0.047769547
-0.2099648 0.95399082 -0.061034679
-0.2171858 -0.82084614 -0.29738951
-0.2157958 -0.7261892 -0.25189352
-0.20914379 -0.17950815 -0.03417635
-0.2141358 -0.63621217 -0.19754934
-0.21468979 -0.59781414 -0.21568871
-0.20759979 -0.11575323 0.016374588
-0.2125808 -0.51582521 -0.14666367
-0.21072079 0.16667885 0.10393238
-0.2103768 0.20190984 0.11487865
-0.20997879 0.24263281 0.12752628
-0.2095148 0.29017884 0.14229441
-0.21242979 -0.0083681941 0.049553394
-0.2126908 0.034214795 0.041247368
-0.20921579 0.32083082 0.15181446
-0.2123138 0.072848797 0.053241253
-0.21121779 0.11574084 0.088107586
-0.2122408 0.67178583 0.055542469
-0.2096708 0.41114783 0.13734627
-0.2130578 0.74736285 0.029574394
-0.2103598 0.48099482 0.11542559
-0.2107648 0.52206481 0.10253525
-0.2160888 -0.30072814 -0.066883564
-0.22424479 -0.82838422 -0.32640457
-0.21513979 -0.24094218 -0.03669548
-0.21365879 -0.11676317 0.010444641
-0.21865879 -0.51630622 -0.14867067
-0.21661679 0.16626585 0.10080624
-0.2158538 0.24225885 0.12442446
-0.2153758 0.28982884 0.13920736
-0.21839179 -0.0089522004 0.045844555
-0.2150548 0.36366183 0.14914465
-0.21825479 0.072386801 0.050077438
-0.21785179 0.63934982 0.062574387
-0.21582779 0.43981481 0.12523127
-0.2166598 0.52183384 0.099477291
-0.2196288 0.79196984 0.0075554848
-0.22010079 0.82463783 -0.0070705414
-0.21699679 0.55508685 0.089035511
-0.2240548 -0.3843202 -0.12948751
-0.23136079 -0.83598918 -0.35566759
-0.22853179 -0.73026818 -0.26807356
-0.2270028 -0.64176017 -0.22075653
-0.22758779 -0.60321015 -0.23886442
-0.2197268 -0.11777622 0.0045056343
-0.2221548 0.20111883 0.10864258
-0.22173379 0.24188381 0.12131834
-0.2212438 0.28947783 0.13611555
-0.22092679 0.32016182 0.14565229
-0.22428179 0.071592808 0.044513702
-0.22378579 0.63917482 0.059477329
-0.22140279 0.4105798 0.13129425
-0.22473779 0.71584082 0.030767441
-0.22512479 0.74696183 0.019098282
-0.22213179 0.48049283 0.1093297
-0.22255979 0.5216018 0.096414566
-0.2233388 0.59626985 0.072957516
-0.2250758 0.87891483 0.020591259
-0.2304288 -0.38662618 -0.14077044
-0.22811879 -0.30161518 -0.071154594
-0.23560679 -0.73740619 -0.2968545
-0.2274898 -0.18273014 -0.052185535
-0.23446679 -0.60866922 -0.26249456
-0.22580679 -0.11879116 -0.0014457703
-0.22594379 -0.060165226 -0.0055775642
-0.23186579 -0.47319716 -0.18409443
-0.2284258 0.16543484 0.094542503
-0.2271158 0.28912681 0.1330204
-0.2308358 0.031624794 0.023777485
-0.2267908 0.31982583 0.14256859
-0.2303288 0.07075882 0.038662434
-0.22896679 0.11441785 0.078671455
-0.23020679 0.6711148 0.04223156
-0.23077579 0.71561384 0.02553463
-0.22846679 0.52136886 0.09335041
-0.23188479 0.79151684 -0.0070405006
-0.2306868 0.91335285 0.028150558
-0.2368238 -0.38894016 -0.15209055
-0.2427398 -0.74460417 -0.32587576
-0.23784879 -0.52379614 -0.18220234
-0.2383038 -0.47567314 -0.19556046
-0.2339578 0.20032281 0.10239267
-0.2335148 0.24112982 0.11509466
-0.2326628 0.31948882 0.13947725
-0.2326418 0.36273885 0.14009333
-0.23638779 0.069921851 0.03279829
-0.2334788 0.43899983 0.11611128
-0.2368248 0.71538782 0.020290375
-0.2372528 0.74653882 0.0080513954
-0.2343808 0.52113581 0.09028244
-0.2347468 0.55443782 0.079811573
-0.23739479 0.8786208 0.0039644241
-0.2367878 0.91326785 0.02136755
-0.23965879 -0.24549323 -0.060848713
-0.24692479 -0.61024016 -0.26893139
-0.2442998 -0.52637523 -0.19374561
-0.24476479 -0.47815818 -0.2070694
-0.23986779 0.19992381 0.099263668
-0.24299179 0.029873848 0.011982441
-0.24090579 0.11325085 0.070252419
-0.2418488 0.63831383 0.043922424
-0.24228279 0.6705898 0.031792641
-0.2390468 0.40972185 0.12219048
-0.23937379 0.43872684 0.11306667
-0.24288279 0.71515983 0.015041351
-0.24029879 0.52090281 0.087213516
-0.24127179 0.59545982 0.060029507
-0.2436388 0.87844282 -0.006102562
-0.2464688 0.95383781 -0.085157394
-0.24967979 -0.39359719 -0.17484856
-0.2531178 -0.61074322 -0.27091455
-0.24425979 -0.063055217 -0.023435593
-0.25076979 -0.52896112 -0.20531559
-0.24622479 0.16405481 0.084104538
-0.24477179 0.2880668 0.12371445
-0.2487078 -0.013526142 0.016367435
-0.2444208 0.3188138 0.13329029
-0.2485368 0.068241835 0.02104044
-0.2469458 0.11245084 0.064418316
-0.24493879 0.40943384 0.11915255
-0.24574779 0.4794808 0.097104549
-0.24626879 0.52057886 0.082885265
-0.2467268 0.55378681 0.07039547
-0.24729779 0.59513682 0.054842472
-0.25257879 0.95381284 -0.089196682
-0.2503868 -0.064023197 -0.029410362
-0.2572628 -0.53155822 -0.21692657
-0.2586028 -0.4880932 -0.25346756
-0.25174481 0.1989938 0.091924667
-0.25480482 -0.014448225 0.010439396
-0.25513381 0.028330803 0.0016584396
-0.2529968 0.11164981 0.058577538
-0.25439581 0.67006183 0.021319389
-0.25083679 0.40914583 0.11610937
-0.25586382 0.74556082 -0.017789364
-0.2573328 0.78998584 -0.056911469
-0.2558488 0.9127878 -0.017384529
-0.2595408 -0.31030113 -0.11571169
-0.25816381 -0.18757313 -0.079052448
-0.26702482 -0.62096316 -0.31506634
-0.2565248 -0.064994156 -0.035396576
-0.26438481 -0.53771323 -0.24474049
-0.26570582 -0.49375719 -0.2799387
-0.2582998 0.16254783 0.072478294
-0.25777581 0.19827282 0.086129665
-0.2561678 0.36149681 0.12798548
-0.2590588 0.11084682 0.052724361
-0.2599988 0.63744378 0.028259277
-0.26055282 0.66968983 0.01384449
-0.25674081 0.40885681 0.11306524
-0.26220682 0.74513084 -0.029219627
-0.2587778 0.55307281 0.060045242
-0.25937682 0.59448886 0.044443607
-0.2684688 -0.39722222 -0.19222355
-0.27191782 -0.49424416 -0.28200245
-0.26435682 0.1617918 0.066645622
-0.2638188 0.19754982 0.080321312
-0.26319882 0.23884684 0.096116543
-0.26703182 -0.016301215 -0.0014533997
-0.2620658 0.36118484 0.12495136
-0.2651338 0.11004084 0.046858311
-0.26609382 0.63712084 0.022429466
-0.2667678 0.66926283 0.0052614212
-0.2626828 0.40849781 0.10923243
-0.26432681 0.51942784 0.067407608
-0.26543382 0.59416282 0.039229393
-0.27461082 -0.39769322 -0.19433355
-0.27241182 -0.31470722 -0.13838053
-0.2728478 -0.26186615 -0.14946556
-0.2702558 -0.1884262 -0.083508492
-0.27813581 -0.4947322 -0.28406334
-0.2704218 0.1610328 0.060806274
-0.26849481 0.28637582 0.10878134
-0.2731618 -0.017231166 -0.0074167252
-0.2729688 0.064852834 -0.0026106834
-0.27121782 0.10923284 0.040983677
-0.2723068 0.63665283 0.013874531
-0.26868182 0.40802485 0.10412169
-0.27530682 0.74394584 -0.060823441
-0.26974082 0.47790885 0.07775259
-0.28075382 -0.39816517 -0.1964426
-0.27887982 -0.31692213 -0.14977169
-0.2793228 -0.26398212 -0.16082048
-0.27630782 -0.1888532 -0.085734367
-0.27649781 0.16027284 0.054955482
-0.27593482 0.1960988 0.068678379
-0.27452582 0.28573382 0.10301542
-0.27908081 0.026815832 -0.0079665184
-0.2739588 0.36036181 0.11682653
-0.2791048 0.063999832 -0.0085515976
-0.2792438 0.66840684 -0.0119524
-0.27469081 0.40755183 0.099004269
-0.27513981 0.43651581 0.088067532
-0.27641281 0.51865584 0.057046413
-0.27692881 0.5519948 0.044456482
-0.2853688 -0.31914622 -0.16120052
-0.2862398 -0.26797014 -0.18242931
-0.2825858 0.15951085 0.049095631
-0.28200981 0.19537085 0.062841415
-0.28134382 0.23678583 0.078719616
-0.27996081 0.35984981 0.11172867
-0.28528881 0.063020825 -0.015405655
-0.28478181 0.63571179 -0.0032973289
-0.28116781 0.43606281 0.082923412
-0.28246981 0.51826882 0.051855564
-0.2829988 0.55163383 0.039243698
-0.28382081 0.59294683 0.019625664
-0.28913981 -0.1926772 -0.10728836
-0.28809682 0.19464082 0.056992531
-0.28741682 0.23609483 0.072896481
-0.29108182 0.0260548 -0.012778759
-0.28597382 0.35933685 0.10662127
-0.2916618 0.061478794 -0.026329517
-0.2895388 0.10679585 0.023293495
-0.29104581 0.63523883 -0.011919498
-0.28673881 0.40660083 0.08874464
-0.28720781 0.43560982 0.077771664
-0.29507482 0.71003783 -0.10609055
-0.28787181 0.47664881 0.06224823
-0.2885398 0.51787984 0.046653271
-0.2941938 0.19390881 0.051133633
-0.2982218 -0.022439182 -0.041127682
-0.29715681 0.025450826 -0.016732693
-0.29216382 0.31497085 0.097622395
-0.29199481 0.35882181 0.10150766
-0.29732382 0.63476384 -0.020559311
-0.29461682 0.51749086 0.041443348
-0.30662781 -0.33309418 -0.23364973
-0.30274782 -0.14294213 -0.14479542
-0.30046082 -0.074181139 -0.092400551
-0.30091682 0.15721083 0.031445503
-0.30030182 0.19317484 0.045265675
-0.29876181 0.28314984 0.079843521
-0.30464181 -0.024140179 -0.052196503
-0.29822782 0.3143518 0.091835499
-0.3044678 0.058376849 -0.048283577
-0.30530682 0.6656878 -0.067120552
-0.29931381 0.43469882 0.067444324
-0.30000782 0.47580385 0.051872253
-0.30080682 0.51693583 0.033929348
-0.3025898 0.59135985 -0.0061225891
-0.3099868 -0.14751822 -0.17221069
-0.30653682 -0.07458812 -0.094733715
-0.30704981 0.15643984 0.025538445
-0.3064208 0.19243783 0.039382458
-0.30484781 0.28249985 0.074023247
-0.31296381 -0.032063186 -0.10471249
-0.3080698 0.10401684 0.0030622482
-0.31055582 0.63307679 -0.051674366
-0.3053818 0.43424284 0.062267303
-0.30786681 0.54946685 0.0075383186
-0.30887881 0.59082782 -0.014748573
-0.31894782 -0.27807719 -0.23648739
-0.31728381 -0.15213317 -0.19984531
-0.3126168 -0.07499522 -0.097066402
-0.3109448 0.28184783 0.068193436
-0.31969681 -0.034533203 -0.12089539
-0.3164078 0.020585835 -0.049823761
-0.31011581 0.35727185 0.08611536
-0.31735882 0.05525285 -0.070375443
-0.31446582 0.10253483 -0.0078697205
-0.31722781 0.63221586 -0.067546368
-0.31094781 0.40468383 0.068125248
-0.31145981 0.43378484 0.057083607
-0.3141498 0.54887986 -0.0010514259
-0.31871182 0.19091684 0.027226448
-0.31705582 0.28119385 0.062349319
-0.32698181 -0.038664162 -0.14813232
-0.31648681 0.3124848 0.074406624
-0.3238388 0.05368185 -0.081481457
-0.31702682 0.40420181 0.062949657
-0.31754881 0.43332481 0.051888466
-0.31856081 0.47407579 0.030430317
-0.31960481 0.51504982 0.0082902908
-0.3204518 0.54829085 -0.0096683502
-0.33058882 -0.2133202 -0.2246294
