# .PCD v0.7 - Point Cloud Data file format
VERSION 0.7
FIELDS x y z
SIZE 4 4 4
TYPE F F F
COUNT 1 1 1
WIDTH 1387
HEIGHT 1
VIEWPOINT 0 0 0 1 0 0 0
POINTS 1387
DATA ascii
0.7604984 0.099982083 0.1918869
0.7524274 -0.011975944 0.26384306
0.74913841 0.027991056 0.29316092
0.7535544 0.059816062 0.25378895
0.7708084 -0.2353729 0.099973679
0.76569843 -0.17326796 0.14552975
0.7602824 -0.10744894 0.19380999
0.75403339 0.10083908 0.19807577
0.75456339 0.21851307 0.19331503
0.74535239 -0.010118902 0.27608109
0.7691524 -0.30216897 0.062216759
0.75846744 -0.17104888 0.15823507
0.75311542 -0.10537994 0.2063241
0.7467894 0.10259807 0.21144772
0.74917644 0.21820605 0.1898241
0.74215239 -0.055902958 0.25344801
0.75785339 0.28323907 0.11122894
0.75625741 -0.2306639 0.12568712
0.74597943 -0.10331988 0.2187829
0.73930639 0.10465705 0.22722578
0.74301839 0.13399506 0.19333172
0.73509043 -0.053957939 0.26571989
0.73129141 -0.0064299107 0.30040789
0.75353539 0.28195906 0.097302914
0.72811741 0.033276081 0.32938671
0.74409741 -0.16664398 0.18347883
0.7318604 0.10670608 0.24292612
0.73956543 0.21642506 0.17199993
0.72805643 -0.052020907 0.27794504
0.76482439 0.26681405 -0.060513973
0.72116643 0.03502208 0.34136581
0.73695642 -0.16445589 0.19602299
0.7317934 -0.099227905 0.24354792
0.72996539 0.1358341 0.20737076
0.73365343 0.21661407 0.17313671
0.72104841 -0.050092936 0.29012299
0.7173394 -0.0027729273 0.324543
0.7569834 0.26852709 -0.043370247
0.71424139 0.036761045 0.35330105
0.74002439 -0.29220092 0.11401367
0.73465443 -0.2236799 0.16385603
0.72984141 -0.16227794 0.20851994
0.71707839 0.11077207 0.27409792
0.72252142 0.1378091 0.2231679
0.70734441 0.03849107 0.36518288
0.70938843 0.072574079 0.34605598
0.73281741 -0.28973699 0.12682867
0.72751141 -0.22137296 0.17647409
0.70974439 0.11278808 0.28956699
0.71511739 0.13977206 0.23887205
0.72039443 0.17275804 0.18908072
0.70711941 -0.046261907 0.31432676
0.7247324 0.24381608 0.14814997
0.70047539 0.040215075 0.37701988
0.7021544 0.074661076 0.36117077
0.7256394 -0.2872839 0.13959169
0.71400541 0.17350107 0.19497108
0.71850741 0.21455407 0.1521368
0.70019639 -0.044358909 0.32635593
0.6966204 0.0026520491 0.36038113
0.73370844 0.27361006 0.0075159073
0.69495642 0.076739073 0.37621689
0.70867443 -0.15580094 0.24569798
0.70375639 -0.091151953 0.29249001
0.7004174 0.14366806 0.270051
0.70659041 0.17538208 0.21082211
0.69330043 -0.042463899 0.3383379
0.71612442 0.24097705 0.11934805
0.7260294 0.27528608 0.024303913
0.68681639 0.043639064 0.40055513
0.71137041 -0.28241193 0.164958
0.7016744 -0.15366089 0.25798988
0.68795741 0.11877304 0.3354969
0.68642944 -0.040576935 0.35027599
0.68066239 0.080862045 0.40608978
0.69922739 -0.21224499 0.226439
0.68990344 -0.087165952 0.31666803
0.6807664 0.12074804 0.35066414
0.68585944 0.14752609 0.30094814
0.69186842 0.17911708 0.24229813
0.69905144 0.21690005 0.172194
0.67958742 -0.038698912 0.36216211
0.70323539 0.24233508 0.13136005
0.71078944 0.27861106 0.057629108
0.69165039 0.21867609 0.18815088
0.67277241 -0.036828935 0.37400293
0.69631839 0.24351007 0.1421957
0.70322841 0.2802611 0.074174881
0.66887242 0.0455181 0.41240406
0.68985444 0.054408073 0.20583868
0.6852544 -0.20774198 0.25111675
0.66648942 0.12466705 0.38077688
0.6714474 0.15134406 0.33154011
0.66598439 -0.034966946 0.38579702
0.68889141 0.24522609 0.15829992
0.68252039 0.019147098 0.22156811
0.68334943 0.055481076 0.21333885
0.72245842 -0.3996079 -0.17505217
0.68317443 -0.27279592 0.21507883
0.66019744 0.12561208 0.38775301
0.68149942 0.24693406 0.174335
0.68822044 0.2835331 0.10699368
0.6760394 0.020260096 0.2290349
0.66252339 -0.079298973 0.36444807
0.65488839 0.12532908 0.38494301
0.65717441 0.1551221 0.36183882
0.68077642 0.28515506 0.12326908
0.66025239 -0.14101589 0.3307271
0.65570343 0.18828207 0.31963491
0.66241342 0.2256881 0.25119877
0.66683042 0.25032204 0.20615482
0.67336839 0.28676909 0.13947201
0.66312844 0.022476077 0.24390507
0.6639294 0.058681071 0.23573494
0.6534434 -0.13893998 0.34268093
0.65851039 0.10636705 0.23265076
0.64498639 0.1564551 0.3718338
0.64069039 -0.030080914 0.41603708
0.65748942 0.059740067 0.24316168
0.65542543 -0.26334798 0.26439381
0.65207344 0.10736805 0.24008512
0.64952743 -0.010062933 0.26652813
0.65028042 0.024679065 0.25870609
0.69271243 -0.4003619 -0.18196297
0.63557041 -0.071566939 0.41147614
0.6456514 0.10836607 0.24750376
0.64634639 0.1407581 0.24021912
0.63515943 0.19279104 0.35746574
0.64313442 -0.0089259148 0.27388477
0.6513654 0.29156107 0.18761206
0.64387941 0.025775075 0.26607895
0.64465344 0.061851084 0.25796604
0.64171541 -0.25868595 0.28875875
0.63317543 -0.13276792 0.37826204
0.6292094 -0.070170939 0.41983414
0.6392464 0.10936105 0.25490284
0.6358884 -0.048762918 0.29042578
0.63792843 0.25699109 0.26884604
0.63825941 0.06290108 0.2653389
0.6304574 -0.19011998 0.34787893
0.62647343 -0.13072789 0.39002705
0.63285643 0.11035305 0.26228285
0.63353539 0.14266706 0.25503302
0.6266734 0.2342521 0.32831001
0.63188142 0.063948095 0.27269602
0.62405241 -0.0055339336 0.29584074
0.62369043 0.26027405 0.29973984
0.62551844 0.06499207 0.28003502
0.66892743 -0.40106094 -0.18789911
0.61314541 -0.12667596 0.41341972
0.6147154 0.23517007 0.33583975
0.61688143 -0.045236945 0.31226492
0.61843139 0.030127048 0.2953949
0.66298139 -0.40124798 -0.18943501
0.61034644 -0.1836679 0.38338184
0.61605644 -0.085331917 0.3212409
0.61377943 0.11331105 0.28432083
0.61443442 0.14551008 0.27712107
0.61519641 0.18295205 0.26874876
0.61609238 0.22697306 0.25890589
0.61057639 -0.044068933 0.31950998
0.60995841 0.2631101 0.32630777
0.61542642 0.2993781 0.26622486
0.61283839 0.067070067 0.29466009
0.65703642 -0.40144098 -0.19099712
0.60154843 -0.12562788 0.41872072
0.60976142 -0.084116936 0.32846498
0.60745144 0.11429107 0.29162979
0.60428739 -0.042904913 0.32673788
0.60458344 0.26286906 0.32345772
0.60834444 0.30091804 0.28172207
0.60652244 0.068104088 0.30194473
0.61495143 0.34203809 0.20841789
0.6012274 -0.2449429 0.36068773
0.60238743 -0.1373049 0.34782076
0.60348243 -0.082905889 0.3356719
0.60252243 0.18474406 0.2834239
0.59882343 -0.0010599494 0.32487297
0.60129839 0.30244905 0.29714108
0.5995084 0.033356071 0.31719494
0.64514941 -0.40184391 -0.19419432
0.59613639 -0.13603389 0.3549819
0.59547442 0.14832705 0.29904795
0.59620839 0.18563604 0.29073477
0.59175444 -0.040586948 0.34113979
0.59763241 0.25795507 0.27462196
0.59468544 0.30353808 0.30797005
0.59393543 0.070163071 0.31646395
0.58458644 -0.17655587 0.42225504
0.58990043 -0.13476789 0.36212587
0.58855939 0.11721307 0.31345606
0.58990842 0.18652606 0.2980299
0.58629942 0.0011570454 0.3392849
0.58696741 0.035493076 0.33164406
0.5876624 0.071188092 0.323699
0.59362841 0.34635407 0.25551367
0.58133543 -0.23820496 0.39601898
0.5792824 -0.17695296 0.41948986
0.58367741 -0.13350499 0.36925411
0.58290839 0.15019107 0.31358194
0.58446741 0.23117405 0.29557896
0.58006042 0.0022600889 0.34646368
0.5850144 0.25956106 0.28926802
0.58140743 0.072210073 0.33091497
0.58659142 0.34777707 0.2710557
0.62731642 -0.40248692 -0.19915199
0.57650441 -0.18243194 0.38752174
0.57735741 0.18829709 0.3125639
0.5730654 -0.037134945 0.36261892
0.57383639 0.0033600926 0.35362768
0.5795154 0.30170006 0.28738499
0.56820244 -0.23375988 0.41934395
0.56980443 0.12010807 0.33512402
0.57110339 0.18917805 0.3198061
0.5719254 0.23283607 0.31012297
0.56762743 0.0044570565 0.36077309
0.5682714 0.038674057 0.35318375
0.56224543 -0.23278499 0.42420387
0.56611842 -0.075715899 0.37855387
0.56540143 0.18932509 0.32062483
0.5685994 0.3489241 0.28254795
0.55803043 -0.17855191 0.40840673
0.56143439 0.26092207 0.30062199
0.5622524 0.30216306 0.29077578
0.55773342 0.074351072 0.34516001
0.56317544 0.34871107 0.27967072
0.55369842 -0.12905693 0.39371872
0.55476642 -0.075206935 0.38086414
0.55388343 0.15170109 0.32378483
0.55546743 0.23238605 0.30451488
0.55019844 -0.035953939 0.36860275
0.55166042 0.038539052 0.35081291
0.55235839 0.074037075 0.34233284
0.55774641 0.34849608 0.27679205
0.5463084 -0.23404896 0.41591501
0.54738241 -0.17935896 0.40285206
0.54942042 -0.075573921 0.37806606
0.54920942 0.18850809 0.312078
0.5448404 -0.036307931 0.36579609
0.54562443 0.004058063 0.3561511
0.55060744 0.26042908 0.2948947
0.5916484 -0.40391791 -0.209692
0.5409894 -0.23447394 0.41314507
0.54302239 -0.12983096 0.38814306
0.5430904 0.1511271 0.31809568
0.54380441 0.18823409 0.30922508
0.54025543 0.0037170649 0.353333
0.54091239 0.037883043 0.34516668
0.53566539 -0.23489892 0.41037369
0.53671843 -0.18016994 0.39729071
0.53922343 0.23161107 0.29592896
0.53411144 -0.037018955 0.36017513
0.53553039 0.037554085 0.34233999
0.53620642 0.073090076 0.33384085
0.5313794 -0.18057692 0.39450788
0.53167844 0.11861908 0.32003593
0.52950239 0.0030331016 0.34769297
0.53511339 0.30100006 0.27640009
0.53014642 0.037224054 0.33951187
0.57380843 -0.40470588 -0.2152729
0.5260374 -0.18098593 0.39172268
0.52627438 0.11831808 0.31719112
0.52837539 0.2310921 0.29019594
0.51967043 -0.23618197 0.40205002
0.52069139 -0.18139493 0.38893414
0.52162242 -0.13139093 0.37696505
0.52262843 -0.077425957 0.36404705
0.52213937 0.18713105 0.29779291
0.5179894 -0.038092911 0.35172892
0.5187344 0.0023450851 0.34204578
0.52422941 0.30053008 0.27063513
0.52508837 0.34719908 0.25946903
0.5153414 -0.1818049 0.38614702
0.51626343 -0.13178396 0.37416697
0.51725739 -0.077798903 0.361238
0.51603442 0.1496771 0.30383492
0.51671243 0.18685305 0.29492903
0.51334339 0.0020000935 0.33921814
0.51802641 0.25893205 0.27765894
0.5187794 0.3002941 0.26774788
0.51396739 0.036228061 0.33101606
0.55596238 -0.4055419 -0.22106314
0.51061141 0.14938509 0.30097675
0.51128238 0.1865741 0.29206276
0.50721937 -0.038813949 0.34608889
0.50794941 0.0016540885 0.33638906
0.51258141 0.25868005 0.27477884
0.51332742 0.30005807 0.26486111
0.50920838 0.071495056 0.31964779
0.50518543 0.14909208 0.29811668
0.50584739 0.18629509 0.28919601
0.50662738 0.23004407 0.27870369
0.50316137 0.035559058 0.32534409
0.5037964 0.071174085 0.31680298
0.5087024 0.34654206 0.25077677
0.54406244 -0.40612698 -0.2250371
0.49828842 -0.23790896 0.39092588
0.49926642 -0.18304396 0.37776709
0.5011214 -0.078924954 0.35279894
0.49919042 0.11679804 0.30293274
0.49975342 0.14879906 0.29525471
0.4964354 -0.039537907 0.3404417
0.49775243 0.03522408 0.32250404
0.49838042 0.070851088 0.31395578
0.53811044 -0.40642691 -0.22705793
0.49431843 0.14850408 0.29239082
0.4949674 0.18573409 0.2834549
0.4923394 0.034887075 0.31966305
0.53215742 -0.40673292 -0.22910595
0.48757342 -0.2387799 0.38535213
0.48940241 -0.13376296 0.36014414
0.49034441 -0.07968092 0.34716177
0.48887742 0.1482091 0.28952503
0.4856334 -0.040266931 0.33478498
0.4863314 0.00026005507 0.32505369
0.4869214 0.034550071 0.31681681
0.52620238 -0.40704489 -0.2311759
0.4822084 -0.23921692 0.38255978
0.48494843 -0.080059886 0.3443408
0.48343441 0.1479131 0.28665686
0.48091641 -9.0956688e-05 0.32221413
0.48150042 0.034212053 0.31397295
0.48679742 0.34565705 0.23915768
0.52024639 -0.40736091 -0.23326731
0.47684142 -0.2396549 0.37976885
0.47798643 0.14761609 0.28378582
0.4793494 0.22871804 0.26429176
0.4798274 0.25715506 0.25745678
0.47607443 0.033872068 0.3111248
0.51429039 -0.4076829 -0.23538113
0.47323743 -0.13496292 0.35170698
0.47253442 0.14731807 0.28091383
0.47315341 0.18460405 0.27194691
0.46940142 -0.041366935 0.32628679
0.47435442 0.25689906 0.25456285
0.47064543 0.033532083 0.30827475
0.47581941 0.34521109 0.23333693
0.50833237 -0.40801096 -0.23752308
0.4660944 -0.2405349 0.37418079
0.4678404 -0.13536596 0.34889078
0.4687404 -0.081203938 0.33586693
0.46840942 0.22818309 0.25851297
0.4639824 -0.041735947 0.32345009
0.46887642 0.25664109 0.25166702
0.46521142 0.033191085 0.30542278
0.46161643 -0.18597198 0.35815096
0.4633294 -0.081587911 0.3330369
0.46109641 0.11463606 0.28288412
0.45855743 -0.042105913 0.32061195
0.4592154 -0.0015049577 0.31083775
0.46406442 0.29790109 0.23877907
0.45532942 -0.24141991 0.36858273
0.45791242 -0.081971884 0.33020592
0.45615143 0.14642006 0.27228403
0.45857042 0.2976591 0.23587084
0.45490143 0.068240047 0.29110909
0.45931941 0.34453809 0.22458792
0.49044842 -0.40902698 -0.24408388
0.45162541 -0.13657892 0.34042978
0.45068341 0.14611906 0.26940298
0.44769943 -0.042848945 0.3149271
0.44834042 -0.0022169352 0.30514002
0.45241541 0.2558651 0.24296474
0.44706941 -0.082743883 0.32453871
0.44520941 0.1458171 0.26652002
0.44579241 0.18317306 0.25751686
0.44692042 0.2556051 0.24005985
0.44756842 0.29717106 0.23004913
0.4434334 0.031818092 0.29399586
0.44399041 0.067578077 0.28537798
0.44829941 0.34408605 0.21874475
0.4391534 -0.24275589 0.3601737
0.43973041 0.14551407 0.26363468
0.4368214 -0.043594956 0.3092351
0.44205943 0.29692608 0.22713375
0.43852642 0.067246079 0.2825079
0.43376142 0.11306608 0.26850271
0.4342494 0.1452111 0.26074791
0.43591642 0.25508308 0.23424196
0.4365474 0.29668105 0.22421694
0.43251741 0.031126082 0.28827
0.4665814 -0.41045892 -0.25316811
0.43077141 -0.083909869 0.31602192
0.42932341 0.18230605 0.24883175
0.42998141 0.22628605 0.23821783
0.43040842 0.25482106 0.23133087
0.43103141 0.29643506 0.22129774
0.4275904 0.066579044 0.27676296
0.42451742 -0.13862288 0.3262887
0.4244754 0.22601205 0.23531008
0.4210774 -0.0040139556 0.29085302
0.42489642 0.25455809 0.22841787
0.42211542 0.066244066 0.27388811
0.45463741 -0.41120696 -0.25784588
0.41988641 -0.084692955 0.31033278
0.41896442 0.22573709 0.23240089
0.41938043 0.2542941 0.22550297
0.41998541 0.2959401 0.21545172
0.41663641 0.065908074 0.27100992
0.42067042 0.34294605 0.20409775
0.41364542 -0.13944793 0.32062006
0.41443741 -0.085084915 0.30748701
0.4118154 0.11179507 0.25695896
0.4122774 0.14398909 0.24917793
0.41344741 0.22546208 0.2294879
0.4095574 -0.04547894 0.29497004
0.41445541 0.29569209 0.21252489
0.41063643 0.029730082 0.276793
0.40747842 -0.19025195 0.32995892
0.40820143 -0.13986194 0.31778097
0.40898243 -0.085478902 0.30463791
0.40730441 0.1811381 0.2372241
0.40409142 -0.04585892 0.29211092
0.40892142 0.29544306 0.20959568
0.43670541 -0.41237187 -0.26505327
0.40126041 -0.24591494 0.34048271
0.40204141 -0.19068599 0.32712984
0.40275541 -0.14027798 0.31494093
0.40081742 0.11115509 0.25117588
0.40280241 0.25349909 0.21674109
0.4307234 -0.41277194 -0.26750231
0.39583042 -0.24637091 0.33766079
0.39806342 -0.086269975 0.29893303
0.39531142 0.11083305 0.24827814
0.39370841 -0.0058359504 0.27651501
0.39784041 0.29494405 0.20373106
0.39418241 0.028674066 0.26816273
0.39848742 0.34202206 0.1923399
0.39259741 -0.086666942 0.29607677
0.39023641 0.14275408 0.2375741
0.38766742 -0.047003925 0.28351974
0.38917342 0.064216077 0.25659084
0.38570443 -0.19199598 0.31862688
0.3871254 -0.087064981 0.29322004
0.38428542 0.11018807 0.24248171
0.38471541 0.14244407 0.23466778
0.38272843 -0.0065709352 0.27076483
0.3867414 0.29444104 0.19785881
0.38025042 -0.19243491 0.31578779
0.3791894 0.14213204 0.23175907
0.37968242 0.1796611 0.22266483
0.37669742 -0.047772944 0.27778292
0.38063741 0.25242907 0.20502996
0.37406641 -0.24820793 0.32635784
0.37617141 -0.087863922 0.287498
0.37366042 0.14181906 0.22884893
0.37173343 -0.0073109269 0.26500702
0.3721804 0.027252078 0.25662708
0.37264442 0.063190043 0.24791384
0.3762334 0.34108907 0.18054485
0.40077943 -0.41485298 -0.28011417
0.37068743 -0.088264942 0.28463602
0.36570942 -0.048544943 0.27203798
0.36622941 -0.0076819062 0.26212502
0.3700594 0.29368305 0.18903208
0.36712542 0.062846065 0.24501705
0.37065941 0.34085405 0.17759085
0.36218143 0.10888606 0.23085976
0.36305541 0.17876506 0.21390104
0.36360842 0.22295105 0.20317793
0.36448941 0.29342908 0.18608475
0.36115143 0.026536047 0.25084496
0.3650794 0.34061909 0.17463398
0.35769841 -0.24959791 0.31785774
0.35902342 -0.14364088 0.29214382
0.35970542 -0.089070916 0.27890205
0.35664541 0.10855806 0.22794771
0.3570424 0.14087707 0.22010279
0.35750443 0.17846507 0.21097708
0.35470343 -0.049321949 0.26628304
0.3584004 0.25134808 0.1932869
0.35563141 0.026176095 0.24795198
0.35607442 0.062156081 0.23921585
0.3827804 -0.41616893 -0.28797531
0.35223442 -0.2500639 0.31502199
0.35420942 -0.08947587 0.27603102
0.35110343 0.10823005 0.2250371
0.3514944 0.14056104 0.21718168
0.35248441 0.22238505 0.19730806
0.34968841 -0.0088009238 0.25346375
0.35283041 0.25107604 0.19034481
0.35333642 0.29291809 0.18018579
0.35054243 0.061809063 0.23631287
0.37677541 -0.41661894 -0.29064417
0.34743541 -0.19509292 0.29871607
0.34804741 -0.14449298 0.28642607
0.34870842 -0.089880943 0.27315903
0.3455584 0.1079011 0.22212172
0.34594241 0.14024508 0.21426201
0.34691542 0.22210008 0.19436979
0.34368041 -0.050102949 0.26052094
0.34416643 -0.0091759562 0.25057507
0.34725642 0.25080305 0.18740177
0.34775341 0.29266208 0.17723179
0.34457842 0.025454044 0.24215889
0.34831542 0.33990908 0.16575098
0.37076843 -0.41707492 -0.29333687
0.3419514 -0.19553995 0.29586506
0.34320241 -0.090287924 0.27028608
0.34000641 0.10757005 0.219203
0.34038442 0.13992804 0.21133709
0.34082341 0.17756009 0.20218706
0.34134042 0.22181505 0.19142675
0.3416754 0.25053006 0.18445492
0.34216443 0.29240507 0.17427492
0.33946341 0.06111306 0.23049784
0.3358134 -0.2514689 0.30649805
0.33646142 -0.19598794 0.2930088
0.33769143 -0.090694904 0.26740789
0.33445141 0.10724008 0.21628475
0.3326374 -0.050887942 0.25474691
0.33657241 0.29214805 0.1713171
0.33391842 0.060764074 0.22758913
0.35874242 -0.41800296 -0.29879808
0.33018041 0.22124308 0.18553877
0.32711041 -0.051281929 0.25185871
0.32757241 -0.010306954 0.24188709
0.33097541 0.29188907 0.16835594
0.3279624 0.024363101 0.23344994
0.32368642 0.13897008 0.20255089
0.32157943 -0.051676929 0.24896669
0.32203242 -0.010685921 0.23898697
0.3249104 0.24970508 0.17560005
0.32589743 0.33895308 0.15387487
0.34670541 -0.41895497 -0.30436087
0.3205294 -0.14664197 0.272089
0.3181124 0.13865006 0.19961786
0.31900141 0.22066808 0.17964077
0.31604341 -0.052072942 0.24607468
0.31931341 0.24942809 0.17264509
0.3168644 0.02363205 0.22763395
0.31725541 0.059710085 0.21884584
0.32028142 0.33871305 0.15089893
0.3138594 -0.25335896 0.29510498
0.31446242 -0.19779289 0.281569
0.31560642 -0.092335939 0.25588179
0.31218642 0.10590708 0.20458269
0.31050041 -0.052470922 0.24317884
0.3109374 -0.011446953 0.233181
0.31370941 0.24915105 0.16968489
0.31415641 0.29111105 0.15946198
0.31130642 0.02326405 0.22472286
0.3094894 -0.14750993 0.26633978
0.31007242 -0.09274888 0.25299406
0.30734041 0.17572808 0.1845479
0.30780342 0.22009009 0.17373371
0.30574641 0.022896051 0.22180891
0.30903542 0.33823007 0.14494181
0.30453542 -0.093163967 0.2501049
0.2998254 -0.012211919 0.22736692
0.3005504 0.058649063 0.21008301
0.2973454 -0.25478995 0.28653574
0.29791442 -0.19915891 0.27296686
0.29899442 -0.093578935 0.24721289
0.29385141 -0.053667903 0.2344799
0.2949734 0.058293045 0.20715714
0.29183242 -0.25526989 0.28367567
0.28984642 0.10456008 0.19284582
0.29016542 0.13703305 0.18491793
0.28829142 -0.054069936 0.23157406
0.28869441 -0.012980938 0.22154284
0.29125342 0.24803507 0.1578269
0.28903541 0.02178508 0.2130537
0.31051043 -0.42194593 -0.32164192
0.28789541 -0.094411969 0.24142408
0.28425041 0.10422105 0.18990612
0.28456241 0.13670707 0.18197107
0.28535143 0.21892506 0.16189575
0.2827284 -0.05447191 0.22866774
0.28312242 -0.013366938 0.21862888
0.2797274 0.21863109 0.15892982
0.27999741 0.24747306 0.15188408
0.27821243 0.057220101 0.19836712
0.2752654 -0.25671589 0.27508307
0.27304542 0.10354006 0.18401909
0.27334341 0.13605309 0.17607069
0.2715874 -0.055279911 0.22284889
0.2719644 -0.014141917 0.21279192
0.2743634 0.24719006 0.14891005
0.27261642 0.056860089 0.19543314
0.2923654 -0.42351997 -0.33062315
0.2702454 -0.20145988 0.25858688
0.27071241 -0.15058291 0.24614811
0.26846442 0.21804208 0.15299082
0.2687234 0.24690706 0.14593172
0.26910141 0.28900409 0.13563776
0.26669142 0.02029109 0.20135212
0.26419839 -0.2576859 0.26934385
0.26515439 -0.15102589 0.24325609
0.2607874 -0.014921904 0.20694494
0.26109239 0.019915044 0.19842005
0.25865641 -0.25817287 0.26646996
0.25914541 -0.20238888 0.25282001
0.25647742 0.13506508 0.16720295
0.2568014 0.17292506 0.15793371
0.25718141 0.21745008 0.14703989
0.2551924 -0.01531291 0.20401907
0.25548941 0.019538045 0.19548607
0.25579941 0.05577606 0.18661404
0.25358841 -0.20285392 0.24993372
0.25402442 -0.15191698 0.23746109
0.2544944 -0.096938968 0.22400188
0.25057539 0.1021691 0.17221785
0.25153342 0.21715307 0.14406395
0.2492484 -0.056908906 0.21118212
0.24959239 -0.01570493 0.20108986
0.2517744 0.24605405 0.13698578
0.2501854 0.055413067 0.183671
0.2681154 -0.4257009 -0.34295511
0.24494641 0.10182405 0.16926289
0.2442714 0.018781066 0.18961096
0.2445664 0.055049062 0.1807251
0.2620424 -0.42625988 -0.34610033
0.2428764 -0.15281188 0.23165989
0.2433234 -0.097789884 0.21817684
0.2393114 0.10147709 0.16630411
0.23837639 -0.01649195 0.19522381
0.2404514 0.24548107 0.1310091
0.24078541 0.28766406 0.12066889
0.23865339 0.018401086 0.18666983
0.2389404 0.054683089 0.17777491
0.23729339 -0.15326095 0.2287569
0.2377294 -0.098216891 0.21526098
0.2336724 0.10113007 0.163342
0.2345594 0.2162571 0.13511372
0.23244441 -0.058140934 0.20240879
0.23303241 0.018020093 0.18372679
0.2333114 0.054317057 0.17482471
0.2308844 -0.26062691 0.25207281
0.2313154 -0.20473099 0.23836279
0.2280294 0.10078305 0.16037893
0.22855839 0.17134005 0.14306498
0.2288924 0.21595705 0.1321249
0.22714441 -0.017282903 0.18935204
0.22910939 0.24490505 0.12502289
0.2294264 0.28712308 0.11466503
0.2274064 0.017638087 0.18078089
0.2276784 0.053950071 0.17187214
0.24379739 -0.42797589 -0.35569906
0.2261184 -0.15416288 0.22294092
0.2265314 -0.09907496 0.20942307
0.2223814 0.10043406 0.15741396
0.2226194 0.13306606 0.14940214
0.22152039 -0.01767993 0.1864109
0.22343139 0.24461609 0.12202597
0.2237394 0.28685206 0.11165905
0.2217754 0.017255068 0.17783403
0.23770639 -0.42855895 -0.35894728
0.2205234 -0.15461588 0.22002983
0.21754339 0.21535408 0.12614298
0.2177484 0.24432606 0.11902809
0.2316114 -0.42914796 -0.3622241
0.2141664 -0.26211393 0.24340868
0.2149234 -0.15506995 0.21711493
0.2153134 -0.099936962 0.2035737
0.2112934 0.13239306 0.14344883
0.21025839 -0.018477917 0.18052292
0.21205939 0.24403608 0.11602497
0.2123494 0.2863071 0.10563993
0.21049839 0.016487062 0.17193174
0.21074741 0.052843094 0.16299677
0.2089664 -0.20662689 0.226758
0.2056244 0.13205504 0.14047003
0.20434541 -0.06021595 0.18773985
0.20462039 -0.018877923 0.17757702
0.2063674 0.24374509 0.1130209
0.2048524 0.016101062 0.16897678
0.2050944 0.052472055 0.1600337
0.2037084 -0.1559819 0.21128273
0.1999504 0.13171709 0.13748789
0.2004824 0.2144441 0.11714888
0.1987114 -0.060634911 0.18479872
0.20066939 0.24345207 0.11001396
0.2009424 0.28575909 0.099610806
0.1974034 -0.26361299 0.23472404
0.1977644 -0.20758295 0.22094202
0.1984494 -0.10123897 0.19478512
0.1940674 0.098676085 0.14254999
0.19450741 0.16941005 0.12514687
0.1935484 0.015326083 0.16305971
0.1937744 0.05172807 0.1541028
0.20718341 -0.43156791 -0.37560129
0.1928194 -0.10167491 0.19185114
0.18838839 0.098322093 0.13956785
0.1885854 0.13103604 0.13151598
0.1888144 0.1690861 0.12215185
0.1876764 -0.020084918 0.16872072
0.1895124 0.28520906 0.093570709
0.1881064 0.051354051 0.15113211
0.1862054 -0.26461887 0.22892189
0.1868504 -0.15735793 0.20251513
0.18289641 0.13069504 0.12852573
0.1833774 0.21352607 0.10813284
0.1817784 -0.061895907 0.17596292
0.1820194 -0.020489931 0.1657629
0.1837914 0.28493309 0.090548038
0.18243439 0.050979078 0.14816093
0.19493839 -0.43281198 -0.38244009
0.18059939 -0.26512396 0.22601795
0.1809244 -0.20902491 0.21220112
0.1770194 0.09761107 0.13360214
0.1774154 0.16843408 0.11615467
0.1776664 0.21321905 0.10512304
0.1763574 -0.020894945 0.16280508
0.1780654 0.28465509 0.08752203
0.1765534 0.014156044 0.1541667
0.1767564 0.050603092 0.14518595
0.1749884 -0.26563096 0.22311068
0.1755884 -0.15828097 0.19666004
0.1758984 -0.10298991 0.18303394
0.1713274 0.097254097 0.13061571
0.17150439 0.13001007 0.12254
0.17170841 0.16810709 0.11315489
0.1719494 0.21291107 0.10211182
0.17046739 -0.062742949 0.17005968
0.1721064 0.24198109 0.094944954
0.1710754 0.050227046 0.1422081
0.16967539 -0.20999289 0.20636082
0.1699504 -0.15874398 0.19372797
0.1702484 -0.10342991 0.18008995
0.1656314 0.096896052 0.12762594
0.16580039 0.12966508 0.11954212
0.1659974 0.16777909 0.11014986
0.1662284 0.21260208 0.099094868
0.16637939 0.24168509 0.091923714
0.16659839 0.28409904 0.081463814
0.1651994 0.01337105 0.14822769
0.1643084 -0.15920889 0.19079304
0.1645934 -0.10387194 0.177145
0.1600904 0.12932009 0.11654282
0.16027839 0.16745007 0.10714197
0.16050141 0.21229208 0.096076965
0.1593404 -0.022117913 0.15391302
0.1595134 0.012977064 0.14525175
0.1596944 0.04947108 0.13624668
0.1581264 -0.26715589 0.21438074
0.1589324 -0.10431492 0.17419577
0.1542214 0.096178055 0.12163782
0.15455739 0.16712105 0.1041317
0.15476941 0.21198207 0.093058109
0.1534614 -0.064020932 0.16118813
0.15490741 0.24108905 0.085871696
0.1538244 0.012582064 0.14227486
0.15399739 0.049091101 0.13326311
0.16423739 -0.43603098 -0.40001392
0.1527624 -0.21145391 0.19758701
0.1485094 0.095817089 0.11863995
0.1488304 0.16679007 0.10111904
0.1481304 0.01218605 0.13929796
0.14711641 -0.21194291 0.1946559
0.1427924 0.095456064 0.11564207
0.1429344 0.12828004 0.10753012
0.1430984 0.16645908 0.098104954
0.14210141 -0.064877927 0.15526199
0.14243141 0.011789083 0.13631582
0.1412214 -0.26869392 0.20562792
0.1414644 -0.21243393 0.19172478
0.14192541 -0.10564995 0.16533804
0.1372034 0.12793207 0.10451984
0.13766441 0.24019009 0.076776981
0.13672641 0.011392057 0.13333273
0.1355754 -0.26920998 0.20270395
0.1358064 -0.21292591 0.18878889
0.1362444 -0.10609794 0.16237879
0.1316184 0.16579407 0.092064857
0.13207141 0.28241307 0.063223839
0.13034441 -0.16202188 0.17314005
0.1256104 0.09436506 0.10662889
0.12603641 0.21041709 0.077919006
0.1262994 0.28213006 0.060176849
0.1253034 0.010592043 0.12735701
0.12543741 0.04717809 0.11830378
0.1248714 -0.10699594 0.15645599
0.11998741 0.12688106 0.095477104
0.12011941 0.16512507 0.086018085
0.1193184 -0.066605926 0.14338112
0.1203754 0.2392841 0.067659855
0.1195844 0.010191083 0.12436581
0.11971041 0.046793044 0.1153059
0.11460341 0.23898107 0.064615726
0.1129484 -0.27128398 0.19099283
0.1131314 -0.21490598 0.17702913
0.11329841 -0.16344392 0.16428185
0.10848241 0.12617606 0.089437008
0.1085984 0.16445309 0.079958916
0.10802241 -0.025842905 0.12710571
0.1089524 0.28127509 0.051013947
0.1081294 0.0093860626 0.11837673
0.11482341 -0.44150293 -0.42954111
0.10760441 -0.16392088 0.16132402
0.1077724 -0.10835195 0.14755392
0.10295741 0.20915109 0.065762997
0.10315941 0.2809881 0.047955036
0.10239441 0.0089820623 0.11537886
0.1024984 0.045631051 0.10629272
0.10176241 -0.21590388 0.17113304
0.1020634 -0.10880589 0.14458084
0.096873403 0.092530072 0.091555119
0.097175404 0.20883209 0.062716961
0.096455403 -0.068350911 0.13145876
0.096564405 -0.026682913 0.12112284
0.097362407 0.2807011 0.044892788
0.096655406 0.0085770488 0.11237812
0.096071407 -0.21640491 0.16818285
0.091111407 0.092160046 0.088531971
0.091189407 0.12511206 0.080359936
0.090727404 -0.068790913 0.12847281
0.091559403 0.28041309 0.041830063
0.085415401 0.1247561 0.077328682
0.084994406 -0.069230914 0.12548399
0.085085407 -0.027525902 0.11512995
0.085161403 0.007764101 0.10636902
0.085241407 0.044460058 0.097258091
0.084551401 -0.27390695 0.17630005
0.079633407 0.12439805 0.074295044
0.079255402 -0.069671929 0.12249279
0.079336405 -0.027949929 0.11212873
0.079853401 0.2371431 0.046294689
0.083742402 -0.44512689 -0.44889402
0.078855403 -0.27443588 0.17335367
0.078965403 -0.21791494 0.15931368
0.073915407 0.1624161 0.061721802
0.073511407 -0.070114911 0.11949968
0.074044406 0.23683405 0.043231964
0.077507406 -0.44586992 -0.452847
0.073156402 -0.27496493 0.17040491
0.073440403 -0.11109495 0.12968302
0.068116404 0.16207409 0.058673859
0.068185404 0.20722705 0.047451019
0.067763403 -0.070557952 0.11650276
0.067826405 -0.028799951 0.10612106
0.068294406 0.27925408 0.02954483
0.067880407 0.0065360665 0.097334862
0.067452401 -0.27549696 0.16745567
0.067616403 -0.16729093 0.140553
0.062262401 0.12332004 0.06517601
0.062371403 0.2069031 0.044388771
0.062158406 0.042884052 0.085175991
0.065017402 -0.44737697 -0.46084118
0.061883405 -0.1677779 0.13757706
0.056502402 0.16138607 0.052569866
0.056294404 -0.02965492 0.10010099
0.056583405 0.23590308 0.0340271
0.056629404 0.27867007 0.023386955
0.056373402 0.042488098 0.082149982
0.058759406 -0.44813991 -0.46487808
0.056026407 -0.27656293 0.16154575
0.056144401 -0.16826594 0.13459492
0.050654404 0.1225971 0.059082031
0.050727405 0.20625407 0.038257122
0.050789405 0.27837706 0.020302773
0.050552405 0.0052980781 0.088279724
0.050356403 -0.22045791 0.1444869
0.050401405 -0.16875494 0.13161373
0.044821404 0.089166045 0.064261913
0.044868402 0.16069508 0.046453953
0.044897404 0.20592809 0.035188675
0.044944406 0.27808309 0.017216682
0.044766404 0.0048840642 0.0852561
0.044790402 0.041692078 0.076087952
0.044653405 -0.16924393 0.12862968
0.044689402 -0.11341298 0.11472273
0.039012402 0.088787079 0.061215878
0.039043404 0.16034806 0.043391705
0.039075404 0.23496407 0.024799824
0.038975403 0.0044680834 0.082230091
0.038877405 -0.22148395 0.13853788
0.038899403 -0.16973591 0.12564278
0.033204403 0.12150508 0.04992485
0.033222403 0.20527405 0.029041767
0.033229403 0.23464906 0.021718025
0.033238403 0.27749306 0.011037827
0.033187404 0.040892065 0.070015907
0.033668403 -0.45125687 -0.48132229
0.033117406 -0.27871192 0.14970112
0.033129405 -0.22199893 0.13556099
0.033153404 -0.11434889 0.10872173
0.027375404 0.08802706 0.055119038
0.027375404 0.15965205 0.037261009
0.027375404 -0.031809926 0.085010052
0.027375404 0.27719706 0.0079441071
0.027375404 0.0036340952 0.076169014
0.027375404 -0.17072189 0.11966085
0.021550404 0.087646067 0.052066803
0.021543404 0.12077308 0.043805122
0.021534404 0.15930206 0.034191132
0.021525403 0.20461607 0.022884846
0.021585405 -0.07414794 0.092442036
0.021509403 0.27690005 0.0048480034
0.021560404 0.040088058 0.063932896
0.021594405 -0.11528897 0.10270786
0.015719404 0.087264061 0.049011707
0.015688404 0.15895206 0.031117916
0.015668403 0.2042861 0.019802094
0.015772404 -0.032678902 0.078957081
0.015656404 0.23370105 0.012457848
0.015637405 0.27660209 0.0017490387
0.015756404 0.0027951002 0.070097923
0.015880404 -0.28033888 0.14079094
0.015855404 -0.22355092 0.12661171
0.015832404 -0.17171288 0.11367083
0.0098834038 0.086881101 0.045954704
0.0098074041 0.20395505 0.016716003
0.0099144038 0.039280057 0.057840824
0.010124404 -0.28088391 0.13781595
0.010087404 -0.22407091 0.1236248
0.0041454043 -0.033553898 0.072889805
0.0038754046 0.27600509 -0.0044589043
0.0041144043 0.0019530654 0.064016819
0.0040824041 0.03887409 0.054789066
0.0043614041 -0.28142989 0.1348381
0.0042184032 -0.11670792 0.093670845
-0.0018055961 0.086111069 0.039830685
-0.0018425956 0.11929709 0.031534672
-0.0016295966 -0.075970948 0.080349922
-0.0019655954 0.23274505 0.0031719208
-0.0017135963 0.0015300512 0.060972691
-0.0017535966 0.038468063 0.051735878
-0.0041915942 -0.45612895 -0.50685215
-0.0015235953 -0.17320991 0.1046629
-0.0015845951 -0.11718392 0.09065485
-0.0076585952 0.085725069 0.036765099
-0.0078115966 0.20295709 0.0074439049
-0.0075005945 -0.034431934 0.066814899
-0.0075475965 0.0011060834 0.057924747
-0.013515597 0.085338056 0.033694744
-0.012952598 -0.28307593 0.12589073
-0.013039595 -0.22616494 0.11164808
-0.013204595 -0.11813796 0.084612846
-0.019504597 0.15683109 0.012628078
-0.019583596 0.20228708 0.0012478828
-0.019095598 -0.077348948 0.07125473
-0.019230595 0.0002540946 0.051824093
-0.019295597 0.037242055 0.042562008
-0.018734595 -0.28362799 0.12290382
-0.018834596 -0.22669196 0.10864687
-0.025390597 0.15647405 0.0095348358
-0.025622597 0.27449805 -0.020026207
-0.024848597 -0.11909795 0.078558922
-0.031122597 0.084170043 0.024470806
-0.0312806 0.15611607 0.00644207
-0.031379595 0.20161408 -0.0049591064
-0.030859595 -0.036202908 0.054633141
-0.031018594 0.036420047 0.036430836
-0.030316597 -0.28473592 0.11692095
-0.030440597 -0.22774887 0.10263872
-0.030554594 -0.17572892 0.08960104
-0.037002593 0.083779097 0.021390915
-0.037175596 0.15575808 0.0033459663
-0.037356593 0.23081207 -0.015470982
-0.037459597 0.27389008 -0.026270866
-0.036887594 0.036007047 0.033362865
-0.036376595 -0.17623699 0.086581707
-0.043076597 0.15539807 0.00024604797
-0.043273591 0.23048705 -0.018588066
-0.042067595 -0.22881198 0.096620083
-0.042204596 -0.17674589 0.08355999
-0.048874594 0.11630005 0.0068659782
-0.049114592 0.20059907 -0.014289856
-0.048436597 -0.037541926 0.0454669
-0.049198598 0.23016107 -0.021708965
-0.048537597 -0.0018929243 0.036520958
-0.048643596 0.035178065 0.027215004
-0.055107594 -0.46299791 -0.54254532
-0.047727592 -0.28640795 0.10792685
-0.054675594 0.082600057 0.012134075
-0.054896593 0.15467709 -0.005961895
-0.055036597 0.20025808 -0.017405987
-0.054176591 -0.080138922 0.05298996
-0.055127591 0.22983509 -0.024832249
-0.054415591 -0.0023249388 0.033452034
-0.054528594 0.034763098 0.024138927
-0.061508596 -0.46388793 -0.54714394
-0.053541593 -0.28696692 0.10492468
-0.053876594 -0.17776787 0.077505112
-0.054049596 -0.12151694 0.063380718
-0.060577594 0.082205057 0.0090427399
-0.060686596 0.1155411 0.00066900253
-0.060180597 -0.038440943 0.039343834
-0.061061591 0.22950709 -0.027956963
-0.061203592 0.27266407 -0.038798332
-0.060297593 -0.0027589202 0.030380726
-0.060419597 0.034346044 0.02105999
-0.059361592 -0.28752887 0.10192013
-0.059720591 -0.17828095 0.074474812
-0.066484593 0.081809044 0.0059499741
-0.066897593 0.19957507 -0.023645878
-0.065912597 -0.081077933 0.046881676
-0.067152597 0.27235609 -0.041935921
-0.066316597 0.033928096 0.017976761
-0.074336596 -0.46568692 -0.55642891
-0.065386593 -0.23095393 0.084550858
-0.065569595 -0.17879391 0.071443081
-0.065767594 -0.12249398 0.057291031
-0.072836593 0.1992321 -0.026770115
-0.071789593 -0.081548929 0.043823719
-0.071946591 -0.039343953 0.033209801
-0.072946593 0.22885007 -0.034218311
-0.071016595 -0.28865588 0.095901966
-0.071424596 -0.17930996 0.068406105
-0.078448594 0.11439508 -0.008644104
-0.078602597 0.1532231 -0.01841116
-0.078782596 0.19888908 -0.029898167
-0.077839591 -0.039797902 0.030138969
-0.078899592 0.2285201 -0.037352085
-0.07907059 0.2717371 -0.048222065
-0.087202594 -0.46751487 -0.56584311
-0.076853596 -0.28922093 0.092889786
-0.077508591 -0.12347496 0.051190853
-0.084380597 0.11401206 -0.011753082
-0.084732592 0.19854409 -0.033028126
-0.083560593 -0.082494974 0.037696838
-0.083736591 -0.040251911 0.027065754
-0.084040597 0.032668054 0.0087108612
-0.093646593 -0.46843791 -0.57059002
-0.082933597 -0.23257399 0.075471878
-0.083151594 -0.18034494 0.062325954
-0.090317592 0.11362708 -0.014867306
-0.090488598 0.15249109 -0.024652004
-0.090688594 0.19819909 -0.036160946
-0.090819597 0.22785705 -0.043628216
-0.088541597 -0.29035687 0.086855888
-0.089023598 -0.18086398 0.059281826
-0.095351592 -0.083445907 0.031561852
-0.095547594 -0.041163921 0.020909786
-0.095712595 -0.005384922 0.011893749
-0.095884591 0.031822085 0.0025229454
-0.10656459 -0.47030687 -0.58018923
-0.1020486 0.079411089 -0.012671947
-0.10221059 0.11285508 -0.021100998
-0.1023986 0.15175408 -0.030905247
-0.1012576 -0.083922982 0.028490067
-0.1027636 0.22719204 -0.049917221
-0.10181559 0.031398058 -0.00057506561
-0.11303859 -0.47125196 -0.58503008
-0.10025359 -0.29149795 0.08081007
-0.10078359 -0.18190598 0.053186893
-0.10799459 0.079008043 -0.015787125
-0.1081646 0.11246705 -0.024221897
-0.10859259 0.19715708 -0.045577049
-0.10896259 0.27017605 -0.063988209
-0.1195196 -0.4722029 -0.58990192
-0.10640659 -0.23475289 0.063329697
-0.10667159 -0.18242896 0.050135136
-0.10695759 -0.12594998 0.035892963
-0.11394759 0.078604043 -0.018902302
-0.11412359 0.11207908 -0.027347088
-0.11457159 0.1968081 -0.048721313
-0.11308359 -0.084880948 0.02233696
-0.11330759 -0.042540908 0.0116539
-0.11369359 0.030547082 -0.0067801476
-0.1119856 -0.29264498 0.074755669
-0.1125646 -0.18295395 0.04708004
-0.1199056 0.078199089 -0.022019863
-0.11923759 -0.04300195 0.008564949
-0.12072059 0.22618705 -0.059370995
-0.12095859 0.26954609 -0.070314884
-0.1196406 0.030119061 -0.0098872185
-0.1325116 -0.47412896 -0.59975004
-0.11785959 -0.29322088 0.071723938
-0.1187756 -0.12694788 0.029753685
-0.1258686 0.077793062 -0.025143147
-0.12654661 0.19610804 -0.055016994
-0.1249316 -0.085843921 0.016172886
-0.1267176 0.22585005 -0.062528133
-0.1269656 0.26923007 -0.073481083
-0.12537961 -0.0076029301 -0.0035848618
-0.1255936 0.0296911 -0.01299715
-0.1240686 -0.23640192 0.054195881
-0.1243686 -0.18400598 0.04096508
-0.1246926 -0.12744892 0.0266819
-0.13203961 0.11090708 -0.036735058
-0.13254461 0.19575608 -0.058171272
-0.1329806 0.26891309 -0.076653004
-0.13133161 -0.0080499053 -0.0066900253
-0.13155361 0.029262066 -0.016109943
-0.14554261 -0.47608292 -0.60972309
-0.1296266 -0.2943759 0.065652847
-0.1299686 -0.23695397 0.051145077
-0.13781559 0.076977074 -0.031395912
-0.1380226 0.11051506 -0.039872169
-0.1368036 -0.086810946 0.009999752
-0.1370656 -0.044392943 -0.00072288513
-0.1387306 0.22517407 -0.068851948
-0.1372876 -0.0084979534 -0.0097970963
-0.1358726 -0.23750794 0.048091888
-0.1361966 -0.18506396 0.034835815
-0.1440116 0.11012208 -0.043010235
-0.1427476 -0.087296963 0.0069079399
-0.1447456 0.2248351 -0.072017193
-0.1450236 0.26827705 -0.083003044
-0.1434876 0.02839905 -0.022345066
-0.1586116 -0.47806597 -0.61982727
-0.15000561 0.10972708 -0.046152115
-0.1505686 0.19469607 -0.067647934
-0.14897861 -0.045325935 -0.0069289207
-0.1507656 0.22449505 -0.075187206
-0.15105361 0.26795709 -0.086183071
-0.14946361 0.027966082 -0.025466919
-0.1565896 0.19434106 -0.070813179
-0.15465461 -0.088271976 0.00071668625
-0.1549456 -0.045793951 -0.010035992
-0.1570916 0.26763707 -0.089365959
-0.1551916 -0.0098489523 -0.019135952
-0.1554476 0.027532101 -0.028593063
-0.1539806 -0.18666089 0.025623798
-0.1617756 0.075335085 -0.043935299
-0.16061561 -0.088760972 -0.0023841858
-0.1609156 -0.046263933 -0.013146877
-0.1628266 0.22381204 -0.081534863
-0.1591406 -0.29728997 0.050429821
-0.16032059 -0.13048196 0.0081830025
-0.1680256 0.10853809 -0.055593967
-0.1686466 0.19362807 -0.077152252
-0.16715561 -0.010754943 -0.02537632
-0.1674286 0.026661098 -0.034851074
-0.1662776 -0.13099194 0.0050897598
-0.1743376 0.14726007 -0.068664074
-0.1746846 0.1932711 -0.08032608
-0.1728756 -0.047205925 -0.019375324
-0.17141761 -0.24085891 0.029717922
-0.17181361 -0.18826997 0.016386032
-0.1722406 -0.13150299 0.001994133
-0.1798066 0.07409209 -0.053369045
-0.1788636 -0.047678947 -0.022492886
-0.1782096 -0.13201594 -0.0011029243
-0.18583061 0.073675096 -0.056521893
-0.18609861 0.1073401 -0.065062046
-0.1867786 0.19255209 -0.086684227
-0.1845196 -0.090729952 -0.014811039
-0.1848596 -0.048152924 -0.025616169
-0.18701661 0.22243708 -0.094264984
-0.1851466 -0.012122929 -0.034758091
-0.1924556 0.14611506 -0.078167915
-0.1908596 -0.048627913 -0.028739929
-0.19343661 0.26569909 -0.10852432
-0.2112976 -0.48628795 -0.6615243
-0.1892686 -0.24255288 0.020493031
-0.19016661 -0.13304496 -0.0073080063
-0.19789261 0.072840095 -0.062830925
-0.19850661 0.14573109 -0.081344128
-0.19889461 0.19183105 -0.093050957
-0.1968656 -0.049104929 -0.031867027
-0.1991466 0.22174406 -0.10064793
-0.1995146 0.26537406 -0.11172819
-0.1974846 0.024465084 -0.050547123
-0.2179306 -0.48734796 -0.66688013
-0.1952306 -0.24312091 0.017411709
-0.1961536 -0.1335609 -0.010415077
-0.2042236 0.10613304 -0.074557304
-0.2045626 0.14534706 -0.084519863
-0.2049616 0.19146806 -0.096240044
-0.2052206 0.22139609 -0.10384417
-0.20351361 0.024022043 -0.053693295
-0.2016536 -0.19097793 0.00093412399
-0.2106276 0.14496207 -0.087702274
-0.20889661 -0.050060928 -0.038131237
-0.21130261 0.22104806 -0.10704422
-0.20954961 0.023578048 -0.056847095
-0.2312306 -0.48949289 -0.67770624
-0.2076406 -0.19152391 -0.0021653175
-0.2081456 -0.13459694 -0.016638279
-0.2160316 0.071578085 -0.072319984
-0.2163386 0.10532308 -0.080903053
-0.21711659 0.19074106 -0.10262632
-0.2145316 -0.093218923 -0.030411243
-0.21315061 -0.24483192 0.0081548691
-0.2136316 -0.19207096 -0.0052661896
-0.21414959 -0.13511693 -0.019752979
-0.2220896 0.071155071 -0.075489044
-0.22277062 0.14418805 -0.094071865
-0.2205516 -0.093720913 -0.033540249
-0.22094961 -0.051021934 -0.04440403
-0.22348161 0.22034806 -0.113451
-0.22128659 -0.014887929 -0.053595066
-0.22163761 0.022688091 -0.063157082
-0.21859661 -0.30322695 0.019776821
-0.2288516 0.14380008 -0.097261906
-0.22657661 -0.094222903 -0.036670208
-0.22999759 0.26373309 -0.12779427
-0.22563161 -0.19316888 -0.011477947
-0.23422359 0.070307076 -0.08183527
-0.23455359 0.10410208 -0.090442181
-0.23493861 0.14341009 -0.10045433
-0.23539059 0.1896441 -0.11222887
-0.2326086 -0.094727874 -0.039803982
-0.23302661 -0.051987946 -0.050692081
-0.23568459 0.21964508 -0.11987114
-0.23611261 0.26340204 -0.13101625
-0.2333806 -0.015818954 -0.05989933
-0.2337486 0.021793067 -0.069478035
-0.24030061 0.069881082 -0.085012913
-0.2422346 0.26307106 -0.1342411
-0.23654659 -0.30503595 0.010527134
-0.2371266 -0.2471329 -0.0042290688
-0.23765661 -0.19427192 -0.017701149
-0.23822759 -0.13721097 -0.032244205
-0.24638261 0.069454074 -0.088193893
-0.2467296 0.10328209 -0.09681797
-0.24713261 0.14262909 -0.10684919
-0.24760561 0.1889081 -0.1186471
-0.2451296 -0.052958906 -0.056990147
-0.24550061 -0.016754925 -0.066215038
-0.2507416 -0.096246958 -0.04922533
-0.25118959 -0.053445935 -0.060142994
-0.25449559 0.2624051 -0.14070129
-0.24854259 -0.30624998 0.0043468475
-0.2497036 -0.19538093 -0.023935318
-0.25892758 0.10245806 -0.10320425
-0.2593486 0.14184409 -0.11325502
-0.2572546 -0.053934932 -0.063300133
-0.2606346 0.26207107 -0.14393616
-0.2576426 -0.017695904 -0.072543144
-0.25804558 0.019989073 -0.082159042
-0.25573558 -0.19593787 -0.027057171
-0.2650376 0.10204405 -0.1064043
-0.26332858 -0.054423928 -0.066461086
-0.2637246 -0.018167913 -0.075712204
-0.26056358 -0.30746996 -0.001844883
-0.2611976 -0.24945688 -0.01665926
-0.2617766 -0.19649589 -0.030181885
-0.27115259 0.10163009 -0.10960531
-0.27159157 0.14105409 -0.11967516
-0.27210858 0.18742406 -0.13151932
-0.26940659 -0.054914951 -0.06962204
-0.27293357 0.26140106 -0.1504159
-0.27023157 0.019080043 -0.088518143
-0.26658258 -0.30808294 -0.0049452782
-0.26845858 -0.13985693 -0.047923088
-0.27772158 0.14065808 -0.12289
-0.27824959 0.18705106 -0.13474607
-0.27859259 0.2171551 -0.14243889
-0.27909258 0.26106405 -0.15366125
-0.27590358 -0.019114912 -0.082056999
-0.27260759 -0.30869591 -0.0080480576
-0.27452359 -0.14038992 -0.051065922
-0.2810826 -0.098804951 -0.064985275
-0.2815806 -0.055899918 -0.075954914
-0.28244057 0.018167078 -0.094890118
-0.27931258 -0.25121498 -0.026010036
-0.28059357 -0.14092398 -0.054214001
-0.2891306 0.066437066 -0.11054325
-0.29000059 0.13986307 -0.1293273
-0.28716859 -0.099319935 -0.068145275
-0.29142758 0.26038909 -0.16015911
-0.28467458 -0.30992794 -0.014264107
-0.29526457 0.066002071 -0.11374998
-0.29567358 0.099962056 -0.12244129
-0.2932626 -0.099836946 -0.071310997
-0.2970756 0.21607506 -0.15215921
-0.29760659 0.26005006 -0.16341305
-0.29421958 -0.0205459 -0.091599941
-0.2920616 -0.19930589 -0.045851231
-0.30140159 0.06556505 -0.1169591
-0.30181959 0.099542081 -0.12565708
-0.30287758 0.18554908 -0.14768124
-0.29676759 -0.31116593 -0.020489216
-0.29748359 -0.25298595 -0.035388947
-0.29813659 -0.1998719 -0.048991203
-0.30846658 0.13866305 -0.13900709
-0.30546558 -0.10087287 -0.077647209
-0.30997959 0.25936908 -0.16992998
-0.3069346 0.016328096 -0.10766792
-0.30282259 -0.31178796 -0.023607254
-0.30421859 -0.20043993 -0.052135944
-0.3049376 -0.14307487 -0.066833973
-0.31212559 -0.058383942 -0.091840267
-0.3156136 0.2149871 -0.16190529
-0.31617558 0.25902808 -0.17319298
-0.31307259 0.015865088 -0.11086988
-0.30888358 -0.31240988 -0.026728153
-0.31103858 -0.14361596 -0.069997311
-0.31921959 0.015401065 -0.11407614
-0.31495258 -0.31303489 -0.02985096
-0.31570959 -0.25477087 -0.044794083
-0.31640059 -0.20157897 -0.058435917
-0.3171466 -0.14415896 -0.073163033
-0.32601658 0.063809097 -0.12982321
-0.32699057 0.13745409 -0.14871788
-0.32760659 0.18403208 -0.1606679
-0.32800558 0.21425706 -0.16842222
-0.32537058 0.01493609 -0.1172843
-0.32250059 -0.20215094 -0.061591148
-0.33380458 0.18365109 -0.16392231
-0.3310186 -0.023437917 -0.11076593
-0.33152857 0.0144701 -0.12049532
-0.32860658 -0.20272398 -0.064748287
-0.33836159 0.062924087 -0.13627386
-0.33937058 0.13664305 -0.15520525
-0.33608457 -0.10348797 -0.093542099
-0.34102559 0.25765407 -0.18628025
-0.33717358 -0.023923934 -0.11397219
-0.33398959 -0.25656796 -0.054225922
-0.34454358 0.062480092 -0.13950396
-0.34501758 0.096576095 -0.14826488
-0.34556958 0.13623607 -0.15845299
-0.34222659 -0.10401487 -0.096731186
-0.34282658 -0.0608989 -0.1078043
-0.34386259 0.013534069 -0.12692928
-0.33928359 -0.31554794 -0.042374134
-0.34009558 -0.25716996 -0.057374954
-0.35286558 0.21278608 -0.18148899
-0.34950358 -0.0248999 -0.12039232
-0.35004058 0.0130651 -0.13015032
-0.3453826 -0.31617987 -0.045514107
-0.34620959 -0.25777388 -0.060529232
-0.34777758 -0.14688993 -0.089035034
-0.35515258 -0.061912954 -0.11421204
-0.35909659 0.21241605 -0.18476486
-0.35232759 -0.25837898 -0.063683987
-0.35309458 -0.20503092 -0.07740593
-0.35392258 -0.14744091 -0.092218876
-0.36312959 0.061141074 -0.14921618
-0.36489159 0.18172908 -0.18024206
-0.3613236 -0.062422931 -0.1174221
-0.3659806 0.25626606 -0.19942093
-0.36241359 0.012122095 -0.13660097
-0.35759759 -0.31744897 -0.051797867
-0.35923159 -0.20561087 -0.080579281
-0.36933658 0.060693085 -0.15245819
-0.36984459 0.09485805 -0.16125298
-0.37157759 0.21167409 -0.19132519
-0.3645826 -0.25959289 -0.07000494
-0.36537558 -0.20619297 -0.083753109
-0.36623159 -0.14854598 -0.098596096
-0.3755506 0.060244083 -0.15570402
-0.37666559 0.13418609 -0.17474794
-0.3730346 -0.10666895 -0.11271811
-0.37368658 -0.063444912 -0.12384701
-0.37071958 -0.26020193 -0.073170185
-0.37152559 -0.2067759 -0.086933136
-0.38177359 0.059793055 -0.1589551
-0.38229659 0.093992054 -0.167768
-0.38290557 0.13377309 -0.17801714
-0.37987858 -0.06395793 -0.12706709
-0.38408658 0.21092707 -0.19789886
-0.3847656 0.25521505 -0.20931101
-0.3768656 -0.26081395 -0.076339245
-0.37768358 -0.20735991 -0.090114117
-0.38800058 0.059341073 -0.16220808
-0.38540357 -0.10773897 -0.11913729
-0.3860766 -0.0644719 -0.13028812
-0.38664559 -0.027855933 -0.13972712
-0.38723758 0.010222077 -0.14954519
-0.38210458 -0.32000494 -0.064405918
-0.38384658 -0.20794594 -0.093299866
-0.39423358 0.058889091 -0.16546202
-0.39477459 0.093123078 -0.17429304
-0.39614159 0.17978305 -0.19664717
-0.3922796 -0.064986944 -0.13351107
-0.39285758 -0.028352916 -0.14296103
-0.39345858 0.0097450614 -0.15278816
-0.3882466 -0.32064795 -0.067564011
-0.3909266 -0.15077198 -0.11138725
-0.40047458 0.058434069 -0.16872311
-0.40102258 0.092686057 -0.17756224
-0.39848959 -0.065503955 -0.1367383
-0.4028976 0.20980108 -0.20778418
-0.40360758 0.25415808 -0.21923113
-0.39907658 -0.028850913 -0.14619732
-0.39619058 -0.20912194 -0.099677086
-0.40672258 0.057979047 -0.1719861
-0.40727958 0.092248082 -0.18083286
-0.40400457 -0.10935497 -0.12878323
-0.40150458 -0.26327193 -0.089041233
-0.40331358 -0.1518929 -0.11780214
-0.41297558 0.057523072 -0.17525196
-0.41419858 0.13169307 -0.19441128
-0.41497159 0.17860407 -0.20652914
-0.4121646 0.0083040595 -0.16253805
-0.40767959 -0.26389098 -0.092225075
-0.40951657 -0.15245593 -0.12101507
-0.41980958 0.091370046 -0.18738604
-0.41643658 -0.11043787 -0.13523102
-0.42176959 0.20866609 -0.2177
-0.41777459 -0.030353904 -0.15592813
-0.4184126 0.0078220963 -0.16579294
-0.41475758 -0.21089697 -0.10926914
-0.4255026 0.056608081 -0.18179321
-0.42608458 0.090929091 -0.19066811
-0.42755657 0.17781305 -0.21313429
-0.42807359 0.20828605 -0.22101212
-0.42402059 -0.030856907 -0.15917826
-0.4246676 0.007338047 -0.16905308
-0.41905358 -0.32388592 -0.083406925
-0.42004958 -0.26513195 -0.098599911
-0.42095858 -0.21149194 -0.11247301
