# .PCD v0.7 - Point Cloud Data file format
VERSION 0.7
FIELDS x y z
SIZE 4 4 4
TYPE F F F
COUNT 1 1 1
WIDTH 1377
HEIGHT 1
VIEWPOINT 0 0 0 1 0 0 0
POINTS 1377
DATA ascii
0.30688849 0.12508976 0.02362299
0.31342548 -0.13852721 -0.12315989
0.31222248 -0.090011239 -0.09614706
0.30487847 0.20614678 0.06875515
0.31121448 -0.049375236 -0.073520184
0.31017649 -0.0075182319 -0.050214291
0.29815847 0.53954875 0.2196579
0.30062747 0.37759477 0.16421795
0.29955748 0.42072678 0.18823385
0.29870048 0.45528078 0.20747375
0.33477747 -0.9995752 -0.6025939
0.31781048 -0.31535226 -0.22161722
0.30274647 0.046576798 -0.015130043
0.29885748 0.20670581 0.073964119
0.29774448 0.2524938 0.099439144
0.29650348 0.30358481 0.12786579
0.29281047 0.4556278 0.21246099
0.31669548 -0.52762324 -0.33460999
0.31151447 -0.31431919 -0.21592999
0.31000149 -0.2520352 -0.18127489
0.30839148 -0.18577427 -0.14440823
0.29577947 0.08401382 0.010636806
0.29477149 0.12634981 0.034174919
0.30103147 -0.1367932 -0.11212587
0.29891449 -0.047803223 -0.062650204
0.28980747 0.33503979 0.1502018
0.28877547 0.37841779 0.17431974
0.32147449 -0.99615818 -0.58991623
0.31909248 -0.89600116 -0.53423119
0.31690648 -0.80411917 -0.48314619
0.30375049 -0.25106424 -0.17565823
0.28758347 0.17619079 0.066779137
0.29372448 -0.087547183 -0.079746246
0.28684747 0.20782077 0.084352016
0.29180947 -0.0052772164 -0.034038067
0.28459549 0.30453277 0.13808107
0.28286546 0.37882781 0.17935801
0.28186348 0.42185178 0.2032609
0.28106049 0.4563188 0.22240877
0.28007248 0.49877578 0.24599695
0.30391449 -0.52515823 -0.32286787
0.31251249 -0.89440316 -0.52800989
0.30056646 -0.38137323 -0.24298716
0.29895747 -0.31226224 -0.20458889
0.31037548 -0.8026132 -0.47701406
0.30920047 -0.75217825 -0.44899416
0.29750949 -0.25009519 -0.17005205
0.30737948 -0.67394823 -0.40553093
0.28449547 0.048668802 0.0008687973
0.27981648 0.25404477 0.11488485
0.27822047 0.56820083 0.15377378
0.27598447 0.42222378 0.20825195
0.29754049 -0.52393121 -0.31701517
0.29567748 -0.44212717 -0.27160215
0.30594447 -0.89280921 -0.52180004
0.30385548 -0.80111319 -0.47089529
0.29128048 -0.24912924 -0.16445589
0.28977448 -0.18305117 -0.12777185
0.30092749 -0.67257625 -0.39953613
0.29957849 -0.61335522 -0.36665821
0.27843049 0.049361765 0.0061860085
0.27761349 0.086001813 0.026509762
0.27557847 0.17735481 0.077189922
0.28252047 -0.13420922 -0.095652103
0.27385849 0.2545588 0.12001801
0.28054246 -0.045462191 -0.046419144
0.27272347 0.30547577 0.14826393
0.27107146 0.37964481 0.18941116
0.26865748 0.49901479 0.24951506
0.30161148 -0.99106818 -0.5709939
0.28644148 -0.31021625 -0.19329023
0.29622447 -0.74928015 -0.43686104
0.29316649 -0.61204416 -0.36073017
0.27637148 -0.13335317 -0.090178967
0.26890448 0.20948178 0.099868774
0.26791146 0.25507182 0.12514114
0.26680347 0.3059448 0.15334177
0.26518947 0.38005078 0.19442177
0.26425448 0.42296678 0.21821213
0.26302749 0.49902278 0.24943304
0.28482449 -0.52148622 -0.30533791
0.29501548 -0.98938125 -0.56471109
0.28170249 -0.37811226 -0.22585917
0.28020146 -0.30919725 -0.18765593
0.27885047 -0.24720424 -0.15329123
0.28805646 -0.66984218 -0.38757801
0.26361448 0.1785118 0.087563038
0.26834747 -0.043912232 -0.035645962
0.26746249 -0.0023182034 -0.01260519
0.25931647 0.38045681 0.19942713
0.25840446 0.4233368 0.22317886
0.27848446 -0.52026922 -0.2995162
0.27674848 -0.43870026 -0.25433207
0.28843147 -0.98769921 -0.55844116
0.28631046 -0.88805419 -0.50324488
0.27265248 -0.24624521 -0.14772511
0.28163847 -0.66848022 -0.38161612
0.26310349 -0.083483219 -0.052604198
0.25604647 0.2560938 0.13536072
0.26226449 -0.043140233 -0.030272961
0.25435048 0.33770281 0.18053293
0.25185046 0.45802978 0.24713802
0.28185847 -0.98602122 -0.5521841
0.27978948 -0.88647717 -0.49708414
0.27684948 -0.74496526 -0.41875219
0.26646549 -0.24528927 -0.14216805
0.26509747 -0.17945427 -0.10572624
0.27523148 -0.66712219 -0.37566519
0.25427547 0.052117765 0.027351856
0.25353548 0.088628769 0.047547817
0.25268146 0.13070577 0.070821762
0.25168946 0.17966378 0.097900867
0.25700948 -0.082677186 -0.047204018
0.25012848 0.25660276 0.14045811
0.25619248 -0.0423702 -0.024910927
0.24909946 0.30734581 0.16852474
0.24673146 0.42407379 0.23308897
0.24603647 0.45836878 0.25205898
0.24614146 0.4990468 0.24918795
0.26583546 -0.51784521 -0.28790522
0.27529746 -0.98434824 -0.54593897
0.26293647 -0.37487918 -0.20882797
0.26154247 -0.30615717 -0.17081594
0.26028848 -0.24433619 -0.136621
0.24826047 0.052802801 0.032623768
0.24670747 0.13132179 0.076022148
0.24573946 0.18023682 0.10305786
0.25092548 -0.081873238 -0.041812897
0.24511746 0.21167576 0.12043571
0.24062146 0.54107475 0.24603271
0.24321546 0.30781078 0.17357016
0.24260646 0.33858079 0.19057703
0.24175446 0.38166779 0.21439219
0.24090846 0.4244408 0.23803377
0.24023046 0.45870778 0.25697374
0.25952646 -0.51663727 -0.28211403
0.25791746 -0.43530124 -0.23715782
0.26678148 -0.88333815 -0.48479605
0.26398748 -0.74210721 -0.40673399
0.26245049 -0.66441721 -0.36379385
0.24074346 0.13193578 0.081213951
0.23980147 0.18080878 0.1082058
0.24485247 -0.081071198 -0.03643322
0.23919547 0.21222079 0.12555504
0.23831946 0.25761682 0.15062809
0.24407546 -0.040835202 -0.014210224
0.24327646 0.0006107688 0.0086798668
0.23443446 0.4590458 0.26187801
0.23488346 0.49906078 0.24902582
0.25322947 -0.51543325 -0.27633619
0.25166246 -0.43417424 -0.23145485
0.26220948 -0.98101526 -0.53348112
0.24669746 -0.17678219 -0.08929491
0.25607747 -0.66307122 -0.35787821
0.23626246 0.054165781 0.043132782
0.23387246 0.1813798 0.11334515
0.23969047 -0.12826127 -0.057548046
0.23878947 -0.080271184 -0.031062126
0.23803346 -0.040071189 -0.0088748932
0.22917546 0.54137576 0.25128603
0.23147947 0.30873579 0.18363285
0.22929147 0.42517179 0.24789381
0.24541846 -0.43305022 -0.22576189
0.25731248 -1.0660462 -0.57511616
0.24297646 -0.30314118 -0.15406513
0.25211146 -0.78925222 -0.42235088
0.24181846 -0.24149019 -0.12003994
0.24058546 -0.17589623 -0.083837032
0.23027846 0.054844797 0.048376083
0.23361346 -0.1274212 -0.052143097
0.22737946 0.21330678 0.13576794
0.22562547 0.30919677 0.18865299
0.22506346 0.33988976 0.20557976
0.22427747 0.38286877 0.2292819
0.24066846 -0.51303524 -0.26481009
0.23918447 -0.43192917 -0.22007895
0.25075346 -1.0643041 -0.56883621
0.23806246 -0.37060815 -0.18626118
0.23680946 -0.30214125 -0.14850187
0.23448446 -0.17501217 -0.078389168
0.22291046 0.1337688 0.096734047
0.22204246 0.1825158 0.1235981
0.22148447 0.2138468 0.14086294
0.22067846 0.25912678 0.16581774
0.22524147 0.0027868152 0.024549007
0.21774846 0.54167581 0.25653505
0.21977946 0.3096568 0.19366407
0.21923347 0.34032381 0.21056509
0.21710247 0.4600538 0.27654696
0.23440246 -0.51184016 -0.25905991
0.23295946 -0.43081123 -0.21440697
0.24266547 -0.97605222 -0.51488686
0.24090347 -0.87711018 -0.46036005
0.23928747 -0.78632718 -0.41032887
0.22955646 -0.2396062 -0.10903311
0.22839047 -0.17413121 -0.072949886
0.21770947 0.092517793 0.078836918
0.22065847 -0.077884197 -0.015003204
0.21996446 -0.037791193 0.0070757866
0.21394347 0.3101148 0.1986661
0.21341346 0.34075677 0.21554089
0.21778846 0.60922682 0.076316833
0.21267146 0.38366479 0.23917103
0.21237147 0.4990868 0.24870491
0.23617446 -0.97440618 -0.50871325
0.22568846 -0.36848921 -0.17503786
0.22450547 -0.30014926 -0.1374011
0.23203146 -0.73503226 -0.37689018
0.22344147 -0.23866826 -0.10354519
0.22230947 -0.17325217 -0.067522049
0.22967947 -0.59913021 -0.30205011
0.21238346 0.056871772 0.064052105
0.21177347 0.093160808 0.084021091
0.21107046 0.13498276 0.10703516
0.21463546 -0.07709223 -0.0096669197
0.20634246 0.54197383 0.26177597
0.20865446 0.56988382 0.18609571
0.20811747 0.3105728 0.20366096
0.21192347 0.60934979 0.079091072
0.22190547 -0.50946122 -0.24759817
0.22054546 -0.42858523 -0.2030921
0.22803447 -0.87402219 -0.44821215
0.21951747 -0.3674342 -0.16944122
0.21836947 -0.2991572 -0.13186789
0.22651146 -0.78341919 -0.39835501
0.20643847 0.057543814 0.069259167
0.20386046 0.21546078 0.15609503
0.20796946 -0.036281228 0.017663956
0.20230146 0.31102878 0.20864773
0.20180246 0.34161979 0.22546816
0.20606446 0.6094718 0.081862926
0.20040846 0.42698279 0.27240896
0.19996746 0.4607988 0.2872858
0.20111746 0.49909779 0.24854708
0.21567246 -0.50827616 -0.24188089
0.21435346 -0.42747623 -0.19745016
0.22161646 -0.87248427 -0.44215727
0.21335647 -0.36638325 -0.16385603
0.20050247 0.05821377 0.074454784
0.19992946 0.094439805 0.094361782
0.19849946 0.18477076 0.1439991
0.19729047 0.26112378 0.18595409
0.19649346 0.3114838 0.21362495
0.19533247 0.3848508 0.25394011
0.19465946 0.4273428 0.27728796
0.20945047 -0.50709516 -0.23617601
0.21813346 -1.0556612 -0.53760815
0.20720646 -0.36533326 -0.15827894
0.20612846 -0.29718119 -0.12083006
0.20412447 -0.1706292 -0.051290989
0.19457546 0.058881819 0.079646111
0.19402047 0.095076799 0.09951973
0.19735546 -0.12242323 -0.019906044
0.19022547 0.3424778 0.23536491
0.19435847 0.60971677 0.087419987
0.18891846 0.42770079 0.28216076
0.20002146 -0.29619724 -0.11532402
0.20666647 -0.72944123 -0.35321426
0.19908147 -0.23494023 -0.081687927
0.19808246 -0.16975921 -0.045898914
0.20548446 -0.65242821 -0.31092691
0.18812147 0.095712781 0.10466909
0.19134846 -0.12159818 -0.014567852
0.18632047 0.21706277 0.17125273
0.19004846 -0.034031212 0.033480167
0.18490446 0.3123908 0.22355795
0.18851446 0.60983878 0.090178967
0.18381746 0.38563678 0.26374578
0.18318747 0.4280588 0.28702402
0.18318646 0.4608148 0.28704977
0.20388846 -0.96624726 -0.47801828
0.19301747 -0.23401421 -0.076249123
0.19205046 -0.1688922 -0.040516853
0.18275246 0.060213804 0.089996815
0.18223347 0.096345782 0.10980797
0.18093947 0.18644679 0.15921116
0.18049246 0.21759278 0.17628717
0.17988546 0.57057083 0.19948912
0.17912446 0.31284177 0.22851086
0.18267547 0.60995978 0.092936993
0.17807446 0.38602778 0.26863909
0.17746547 0.42841581 0.29188013
0.17759447 0.46081978 0.28697109
0.17860846 0.49911678 0.2482338
0.19746646 -0.96462923 -0.47191525
0.19605546 -0.86637622 -0.41804314
0.18784146 -0.2942372 -0.10434484
0.19476147 -0.77621716 -0.36860991
0.18696347 -0.23309022 -0.070818901
0.19294646 -0.64980417 -0.29929924
0.19210947 -0.59154922 -0.26735783
0.17467447 0.21812278 0.18131495
0.17815046 -0.032541215 0.043976784
0.17293146 0.34375679 0.25014782
0.17684147 0.61008078 0.095699787
0.17175247 0.42877179 0.29672813
0.17200147 0.4608238 0.28689384
0.18466647 -0.50240022 -0.21345425
0.19105446 -0.96301526 -0.46582317
0.18091847 -0.23216921 -0.065397263
0.18001746 -0.16716427 -0.029780865
0.17048246 0.097608805 0.12006617
0.17274746 -0.071611226 0.027418137
0.16886346 0.21865082 0.18633604
0.16657247 0.54300582 0.28006697
0.17101046 0.61020178 0.098458767
0.17287347 0.63840675 0.022245884
0.16661346 0.3868078 0.27839994
0.16604646 0.4291268 0.30156898
0.17742047 -0.42088526 -0.16380787
0.17660746 -0.36012918 -0.13054514
0.17569946 -0.29228717 -0.093400955
0.18147546 -0.72391123 -0.32971287
0.17488347 -0.23125118 -0.059985161
0.18044846 -0.64719421 -0.28771114
0.16508746 0.062197804 0.10546207
0.16346346 0.18810982 0.17434788
0.16741446 -0.11831921 0.0067019463
0.16248447 0.2640788 0.21590996
0.16628946 -0.031059206 0.054440975
0.16091046 0.5431518 0.28267288
0.16268246 0.57097876 0.20750189
0.16144647 0.34460378 0.25996494
0.16089647 0.3871958 0.28326702
0.16035147 0.42947978 0.30640173
0.16172846 0.49912778 0.2480011
0.17936847 -1.0454471 -0.50052691
0.17051846 -0.35909718 -0.12502813
0.16964446 -0.29131621 -0.087944984
0.17584147 -0.77194315 -0.35089493
0.16145547 -0.11750525 0.011993885
0.16086747 -0.070063233 0.037930965
0.15671547 0.26456779 0.22087479
0.16037446 -0.030321181 0.059659004
0.15609446 0.31463677 0.24824715
0.15936847 0.61044276 0.10397673
0.16109547 0.63862479 0.027892113
0.15466547 0.42983279 0.31122494
0.15610147 0.49913079 0.24792385
0.17067146 -0.86033422 -0.3941102
0.15550646 -0.11669225 0.017280102
0.15494147 -0.069293201 0.043176174
0.15095647 0.26505381 0.22583008
0.15446846 -0.029585183 0.064867973
0.14960246 0.54344279 0.2878809
0.14999746 0.34544677 0.26975012
0.15521346 0.6387338 0.030711174
0.14898746 0.43018579 0.31604195
0.15289447 0.71907681 0.13700771
0.14963046 0.46083879 0.28658676
0.16004947 -0.49775726 -0.19089699
0.16744547 -1.1182301 -0.52986526
0.16653746 -1.0420802 -0.48826408
0.16435346 -0.85883421 -0.38815403
0.16269647 -0.71980315 -0.31220198
0.15683946 -0.2285102 -0.043806076
0.15606746 -0.16373616 -0.0084190369
0.16178447 -0.64330524 -0.27041006
0.14750846 0.064166784 0.12084675
0.14956747 -0.11588222 0.022556782
0.14902547 -0.068524182 0.048409939
0.14571746 0.2207498 0.20632696
0.14857246 -0.028850198 0.070066929
0.14463447 0.31552678 0.25806618
0.14737646 0.64229882 0.12714386
0.14339146 0.4302918 0.31741285
0.14403847 0.46084079 0.28651094
0.14484946 0.49913678 0.24777079
0.15392147 -0.49660319 -0.18528318
0.15916346 -0.95501226 -0.43553114
0.15804647 -0.85733825 -0.38221121
0.15154046 -0.28841919 -0.071632862
0.15645747 -0.71844119 -0.30638504
0.15084447 -0.22760123 -0.038432121
0.15492146 -0.58409125 -0.23304224
0.14127246 0.1007368 0.14555216
0.14081946 0.14213479 0.16813612
0.14311746 -0.067757189 0.053637981
0.13831146 0.54373276 0.29308414
0.13981546 0.57151783 0.21816397
0.14180847 0.6110788 0.11888218
0.14116746 0.64317679 0.15080881
0.13811846 0.38873878 0.30266094
0.13782446 0.43029478 0.31733894
0.14042747 0.68843681 0.18765974
0.13844447 0.4608438 0.28643417
0.13922246 0.4991388 0.24769497
0.14780146 -0.49545318 -0.17967606
0.14692546 -0.41547316 -0.13604593
0.15375046 -1.0387323 -0.47604322
0.15281646 -0.95342523 -0.42950583
0.14552346 -0.28745919 -0.066213131
0.14485846 -0.22669524 -0.033064842
0.14875846 -0.58285922 -0.22735786
0.13545847 0.10135782 0.15062475
0.13502546 0.14272082 0.17317295
0.13771546 -0.11426818 0.033082962
0.13722046 -0.066992223 0.058854103
0.13419847 0.2217918 0.21627617
0.13373047 0.2665078 0.24065113
0.13637947 0.013413787 0.10268593
0.13267347 0.54387677 0.29568195
0.13411047 0.57165182 0.22082615
0.13592246 0.61139977 0.12647772
0.13225947 0.43029678 0.31726313
0.13518347 0.71979278 0.16497993
0.13285246 0.4608458 0.28635883
0.13121746 0.5065518 0.37150908
0.14085746 -0.41440016 -0.13052511
0.14816946 -1.1129863 -0.51133728
0.13951847 -0.28650123 -0.06080389
0.14321247 -0.63944823 -0.25320292
0.12965447 0.10197681 0.15568876
0.13133347 -0.066230237 0.064063072
0.12704046 0.54402077 0.29827976
0.12841147 0.57178581 0.22348404
0.12720646 0.34711981 0.2892251
0.13005346 0.61171281 0.13389206
0.12930147 0.64407581 0.17492104
0.12678346 0.38950479 0.31231213
0.12669447 0.43029878 0.31718683
0.12561247 0.50684083 0.3762331
0.13559546 -0.49316221 -0.16849899
0.13479847 -0.41332918 -0.12501192
0.13918747 -0.85287422 -0.36444187
0.13352346 -0.28554517 -0.055404186
0.13704346 -0.63816923 -0.24748707
0.13646646 -0.58040625 -0.21602201
0.12300947 0.19193977 0.20937681
0.12545547 -0.065469205 0.069261074
0.12507947 -0.025932193 0.090783119
0.12153146 0.34753478 0.29407406
0.12422746 0.61195481 0.13959789
0.12366446 0.71997178 0.17186594
0.12950847 -0.49202222 -0.1629262
0.12875047 -0.41226119 -0.11950827
0.13537547 -1.1095142 -0.49904585
0.13465546 -1.0337441 -0.45780087
0.13207446 -0.76210517 -0.30993891
0.11839347 0.067413807 0.14632177
0.11807046 0.10320979 0.16579199
0.11769846 0.14446878 0.18823481
0.11958546 -0.0647102 0.074453831
0.11698746 0.22334379 0.23113775
0.11578746 0.54430783 0.30346918
0.11702546 0.57205379 0.2288208
0.11613546 0.3177318 0.28247976
0.11586346 0.3479498 0.29891586
0.11841046 0.61219579 0.14529371
0.11548147 0.39026579 0.32193279
0.11556246 0.43030179 0.31703901
0.11722946 0.68931979 0.21652603
0.11792246 0.72004676 0.17471409
0.11607546 0.46085081 0.28613377
0.12342946 -0.49088424 -0.15735912
0.12271047 -0.41119617 -0.1140132
0.12831047 -1.0320902 -0.45174217
0.12216746 -0.35093516 -0.081235886
0.12156046 -0.28364223 -0.044631958
0.12586346 -0.76071519 -0.30413103
0.12542047 -0.71168619 -0.27746296
0.12101346 -0.22309417 -0.011698246
0.12043247 -0.15866119 0.023350716
0.12421446 -0.57796723 -0.20472813
0.11372646 -0.063954234 0.079636097
0.11046346 0.31816977 0.28733683
0.11256547 0.61254179 0.15352106
0.10999747 0.43030378 0.3169651
0.11048346 0.46085179 0.28605986
0.10884447 0.50770283 0.39036274
0.11736146 -0.48974925 -0.15180302
0.11966346 -0.75932926 -0.29833412
0.11924546 -0.71034724 -0.27170897
0.11452746 -0.15782326 0.028614044
0.11859646 -0.63435322 -0.2304039
0.11810447 -0.57675225 -0.19909382
0.10681346 0.06870079 0.15645218
0.10652547 0.10443681 0.17586088
0.10619346 0.14562678 0.19823408
0.10580746 0.19355977 0.22426987
0.10825546 -0.11027122 0.059240818
0.10723146 0.016863763 0.12829494
0.10455547 0.5445928 0.30865192
0.10566146 0.57231778 0.23410988
0.10479946 0.31860679 0.29218912
0.10421547 0.39102378 0.33152294
0.10443246 0.43030378 0.31689215
0.10578647 0.68960178 0.22567892
0.10327347 0.50798881 0.39505672
0.11130446 -0.4886182 -0.14626026
0.11565746 -1.0287971 -0.43966103
0.11419246 -0.84698015 -0.3409071
0.11017846 -0.34892219 -0.070383072
0.10963746 -0.28174824 -0.033896923
0.10103646 0.069341779 0.16150379
0.10045446 0.14620382 0.2032218
0.10203546 -0.062446237 0.089973927
0.10173746 -0.023044229 0.11136007
0.098945461 0.54473579 0.31124115
0.099985465 0.5724498 0.23676109
0.10040646 0.64526379 0.20664692
0.10073347 0.72026777 0.18322277
0.099299461 0.46085379 0.28591299
0.10465446 -0.40801817 -0.09758997
0.10991947 -1.1026273 -0.47459984
0.10369046 -0.28080624 -0.028543949
0.10729646 -0.75656825 -0.28676987
0.10635047 -0.63182718 -0.21906614
0.10591546 -0.57433218 -0.18786001
0.095016465 0.10565782 0.18589783
0.094724461 0.14677876 0.20820093
0.09620446 -0.061696231 0.095129967
0.094315462 0.57258177 0.23940802
0.093497463 0.31947577 0.30186796
0.094902463 0.61425978 0.19456291
0.094690464 0.64541781 0.21074915
0.092155464 0.5085578 0.40442705
0.096757464 0.76992577 0.052867889
0.099219464 -0.48636419 -0.13519907
0.10304746 -1.0255213 -0.42762613
0.09822946 -0.34692019 -0.059567928
0.099835463 -0.57312721 -0.18225813
0.08927346 0.10626578 0.19090605
0.090691462 -0.10789824 0.074831009
0.09038046 -0.060947239 0.1002779
0.088481463 0.22590381 0.25574684
0.087858461 0.31990981 0.30669594
0.087659463 0.35000581 0.32300901
0.089178465 0.61443478 0.19868612
0.089097463 0.64521879 0.20527601
0.088725463 0.68991178 0.23573112
0.093190461 -0.48524123 -0.12968206
0.09555646 -0.84260124 -0.32336712
0.092267461 -0.34592217 -0.054173946
0.094645463 -0.70502323 -0.24880219
0.08354146 0.10687178 0.19590378
0.082995459 0.19570076 0.24401283
0.082533464 0.27079982 0.28468513
0.084326461 -0.020898223 0.12670374
0.082229465 0.32034177 0.31151772
0.083178461 0.68967581 0.22783709
0.083588466 0.72048777 0.19171
0.085097462 0.77002978 0.058757782
0.090941466 -1.0975122 -0.45638609
0.090479463 -1.0222642 -0.41563225
0.089960463 -0.93778926 -0.36988115
0.086317465 -0.34492821 -0.048789978
0.085905463 -0.27799219 -0.012537003
0.088821463 -0.75245422 -0.26950407
0.085142463 -0.1536662 0.054795742
0.078019463 0.071888804 0.18163204
0.078312464 0.020268798 0.15369511
0.076553464 0.54530078 0.32158899
0.077331461 0.57297575 0.24735975
0.076609462 0.32077277 0.31632996
0.077769466 0.61472476 0.20553112
0.077404462 0.69005477 0.24033976
0.076930463 0.46085179 0.28562117
0.081164464 -0.48300523 -0.11868
0.084637463 -1.0958173 -0.45033884
0.084211461 -1.0206423 -0.40965319
0.080376461 -0.34393626 -0.04341507
0.08240746 -0.70238322 -0.23740911
0.081979461 -0.62681419 -0.19651127
0.081655465 -0.56953222 -0.16551018
0.072288468 0.072520792 0.18664408
0.07321246 -0.10554421 0.090342045
0.071253464 0.27173978 0.29438591
0.07255546 0.020944774 0.15875006
0.070841461 0.35122579 0.33737183
0.071942464 0.64586681 0.22264671
0.075166464 -0.48189121 -0.11319304
0.07475546 -0.40277821 -0.070406914
0.078344464 -1.0941262 -0.44430304
0.077517465 -0.93471318 -0.35808802
0.077016465 -0.83825916 -0.30592394
0.076557465 -0.74973017 -0.25804615
0.07378646 -0.21600527 0.030602932
0.066397466 0.1086818 0.21084785
0.067404464 -0.10476321 0.095496178
0.067183465 -0.057971239 0.12078285
0.065835468 0.2279278 0.27529097
0.065626465 0.27220881 0.2992239
0.066999465 -0.018769205 0.14196873
0.065252468 0.35163081 0.34214592
0.066277467 0.64594078 0.22461414
0.069178462 -0.48078126 -0.10771608
0.068805464 -0.40173823 -0.064999104
0.072062463 -1.0924401 -0.43827724
0.071709462 -1.0174122 -0.39772797
0.071311466 -0.93318123 -0.35220814
0.070857465 -0.83681923 -0.30012989
0.068523467 -0.34196025 -0.032692909
0.068208463 -0.27520126 0.0033860207
0.070210464 -0.69975823 -0.22605801
0.067623466 -0.15119916 0.070400715
0.069855466 -0.6243282 -0.18529415
0.069585465 -0.56715018 -0.1543932
0.060699463 0.10928178 0.21581411
0.060526464 0.15019977 0.23791075
0.060194463 0.22843081 0.28015995
0.060006462 0.27267581 0.30405378
0.061239462 -0.018063188 0.14704418
0.060389463 0.57336676 0.25529099
0.059797462 0.3220588 0.33072376
0.059910461 0.43029878 0.31631279
0.060471464 0.69019783 0.24492884
0.060800463 0.72077882 0.20299387
0.059057463 0.5098058 0.42495394
0.065905467 -1.0948572 -0.44704819
0.065114468 -0.9316532 -0.34633589
0.062326461 -0.27427524 0.0086770058
0.064331464 -0.74702018 -0.24662685
0.064125463 -0.69845027 -0.22039795
0.062072463 -0.21425623 0.041090012
0.063806467 -0.62309021 -0.17969894
0.054857463 0.15076476 0.242836
0.054678462 0.19834578 0.26851416
0.054396462 0.2731418 0.30887794
0.055339463 0.022960782 0.17386484
0.053359464 0.55254781 0.45743608
0.054752462 0.57349682 0.25792694
0.054345462 0.43029678 0.31624413
0.054854464 0.69015181 0.24336004
0.055116463 0.72085083 0.20581102
0.054561462 0.4608458 0.28533506
0.053643461 0.50932276 0.41682291
0.056931462 -0.3996672 -0.054209232
0.059786461 -1.0993052 -0.46313906
0.059246462 -1.0141993 -0.38584709
0.056455463 -0.27335221 0.013957024
0.058052462 -0.69714624 -0.214746
0.055989463 -0.14956421 0.080760002
0.049198464 0.1513288 0.24775314
0.049041461 0.19887078 0.27338982
0.050034463 -0.1024332 0.11090517
0.049880464 -0.055760205 0.13607502
0.049618464 0.023629785 0.17888689
0.047853462 0.58365476 0.46794081
0.049391463 0.61517382 0.21608305
0.048780464 0.43029478 0.31617308
0.049264465 0.68995577 0.236835
0.051269464 -0.47746724 -0.091340065
0.051009461 -0.39863521 -0.048829079
0.053100463 -1.0155692 -0.39099598
0.051553462 -0.56360322 -0.13779211
0.043547463 0.15189081 0.25265884
0.043413464 0.19939381 0.2782588
0.044262461 -0.10166019 0.11602402
0.044131462 -0.055027187 0.14115381
0.043202464 0.27406979 0.318501
0.042587463 0.55140281 0.43588305
0.042979464 0.35324079 0.36116505
0.043732464 0.61522079 0.21717691
0.043215461 0.4302918 0.31610203
0.045319464 -0.47636825 -0.08590126
0.045097463 -0.39760727 -0.043457985
0.047464464 -1.1082673 -0.49554586
0.046320464 -0.83109921 -0.27706099
0.045723464 -0.61939627 -0.16297817
0.045562465 -0.56242627 -0.13227701
0.037791464 0.19991678 0.28312111
0.038297463 -0.015258193 0.16724873
0.038202465 0.02496177 0.18890715
0.037500463 0.32375878 0.34981108
0.037430465 0.35363978 0.36590099
0.037648465 0.43028879 0.31603193
0.038092464 0.72106576 0.21424675
0.037156463 0.47033879 0.42875195
0.039378464 -0.47527224 -0.080469131
0.041260462 -1.1127841 -0.51186895
0.040210463 -0.82967824 -0.27131891
0.039890464 -0.69325417 -0.19785404
0.039580464 -0.56125325 -0.12677097
0.031626463 0.58263481 0.44676971
0.031948462 0.32418078 0.35456371
0.031892464 0.35403877 0.37062979
0.032422464 0.61528379 0.21864986
0.032428462 0.72113776 0.2170558
0.031672463 0.4706468 0.433393
0.031778462 0.5085088 0.40310001
0.032888465 0.77049279 0.085154057
0.033447463 -0.47417921 -0.075048923
0.034371465 -0.92989427 -0.33969307
0.034112465 -0.8282612 -0.26558685
0.033856463 -0.69196516 -0.19224405
0.032951463 -0.20992321 0.067152023
0.033609465 -0.56008321 -0.1212759
0.026644465 0.15356779 0.26733685
0.026577465 0.20095676 0.29282093
0.026935466 -0.05283922 0.15634489
0.026823465 0.026286781 0.19889402
0.026203465 0.58211279 0.43595076
0.026213463 0.4705638 0.43211508
0.026298463 0.50830376 0.39966202
0.027526464 -0.47308916 -0.069638252
0.028274465 -0.9339202 -0.35531425
0.027332462 -0.33512622 0.0045490265
0.027239464 -0.26877326 0.040228844
0.027901463 -0.73898023 -0.21261597
0.027833465 -0.69067818 -0.18664408
0.027155463 -0.20906419 0.072338104
0.027065463 -0.14551622 0.10650873
0.021027464 0.1541248 0.27221394
0.020983465 0.20147479 0.29765797
0.021221463 -0.052113235 0.16139317
0.020955464 0.23191381 0.31401491
0.020913463 0.27591181 0.33765697
0.021147463 0.026946783 0.20387602
0.021114465 0.7212798 0.22266579
0.020754464 0.47033879 0.42870617
0.021541465 -0.39351922 -0.022064209
0.022482464 -1.1264651 -0.56127882
0.021954464 -0.82650918 -0.25850105
0.021423463 -0.26786524 0.045456886
0.021864463 -0.7376532 -0.20698404
0.021367464 -0.20820624 0.077516079
0.021308463 -0.14471227 0.11163378
0.021748465 -0.6145162 -0.14081717
0.021695465 -0.55775326 -0.11031485
0.015455464 0.078757763 0.23631477
0.015397464 0.2019918 0.30248785
0.015538463 -0.097828209 0.1414938
0.015516464 -0.051389217 0.16643095
0.015498464 -0.012481213 0.18732214
0.015300464 0.58106375 0.41424608
0.015386464 0.43027279 0.3157568
0.015290463 0.47011378 0.42529488
0.015579464 0.77064478 0.093911171
0.015713464 -0.47091824 -0.058845043
0.016166463 -1.1310711 -0.57790518
0.015648464 -0.33319718 0.015109062
0.015617464 -0.26695925 0.050676823
0.015589464 -0.20735127 0.08268404
0.015779464 -0.61330515 -0.13530111
0.015753463 -0.55659217 -0.10484791
0.0098184636 0.11461282 0.26014996
0.0098184636 0.23289782 0.32361889
0.0098184636 0.27682579 0.34719181
0.0098184636 -0.011792183 0.19232178
0.0098184636 0.5479148 0.37030888
0.0098184636 0.35562378 0.38947296
0.0098184636 0.64576077 0.21948671
0.0098184636 0.43026879 0.31568909
0.0098184636 0.77069581 0.096826077
0.0098184636 -0.46983618 -0.053459167
0.0098184636 -0.26605517 0.055888176
0.0098184636 -0.73500818 -0.19574404
0.0098184636 -0.20649821 0.087844849
0.0098184636 -0.61209625 -0.12979412
0.0042274636 0.15578479 0.28679895
0.004250464 0.20302081 0.31212807
0.0041314638 -0.049948215 0.17648411
0.0041764639 0.72140682 0.22767115
0.004064464 0.77074581 0.099733829
0.0035234638 -1.0500882 -0.51982689
0.0036124638 -0.95022017 -0.41851807
0.0039994637 -0.33127826 0.025633812
0.0038954639 -0.55428022 -0.093942165
-0.0013105366 0.20353377 0.31693602
-0.0012825364 0.23387676 0.33319378
-0.0012415359 0.27773577 0.35669518
-0.0012555365 0.54674578 0.34836912
-0.0011985358 0.57947481 0.38140106
-0.0011815364 0.35574681 0.39095306
-0.0014465358 0.69002676 0.23906374
-0.001865536 -0.38947421 -0.00081396103
-0.0027995361 -1.0545001 -0.53627014
-0.002241536 -0.73991817 -0.21662188
-0.0016925363 -0.20479923 0.098140717
-0.0016335361 -0.1415202 0.13204575
-0.0020185364 -0.55312926 -0.088502884
-0.0070345355 0.081207812 0.25596285
-0.0069855368 0.1163618 0.274786
-0.0072815353 -0.094798207 0.16172075
-0.0068205362 0.23436379 0.33796978
-0.0068025356 0.5465588 0.34487009
-0.0066905366 0.32710576 0.38762808
-0.0066545354 0.62288582 0.40131092
-0.007141537 0.64560777 0.21537304
-0.0067795357 0.39277479 0.35340977
-0.0065595368 0.4389618 0.43771601
-0.0066275364 0.46920779 0.41161585
-0.0076935356 -0.38847023 0.0044760704
-0.0085835354 -0.84547216 -0.33552694
-0.0076105362 -0.32936925 0.036120892
-0.0081645353 -0.68809217 -0.17534685
-0.0080015371 -0.60849124 -0.11333323
-0.012571537 0.11694181 0.27964878
-0.012408537 0.20455581 0.32652998
-0.012965537 -0.094045222 0.16675806
-0.012807536 -0.0090512037 0.21223497
-0.012732537 0.030871809 0.23359776
-0.012178536 0.32751977 0.39232397
-0.012151537 0.62282979 0.39997482
-0.012314537 0.3927688 0.35334396
-0.012757537 0.72137779 0.2265501
-0.012237537 0.5068568 0.37548399
-0.015177536 -0.96266025 -0.46669483
-0.014773536 -0.84932119 -0.35114717
-0.013280536 -0.26246315 0.076643944
-0.018229537 0.082422793 0.26573992
-0.018053535 0.15797782 0.30613899
-0.018639535 -0.093294203 0.17178679
-0.017873537 0.23533481 0.34749985
-0.018441536 -0.0083712339 0.21719408
-0.017915536 0.54618382 0.33786297
-0.017869536 0.57786679 0.34820795
-0.017656535 0.32793278 0.39700985
-0.017670535 0.62257379 0.39384174
-0.018403538 0.72136176 0.22596693
-0.021496538 -0.96684724 -0.48290014
-0.019186538 -0.32746917 0.046576977
-0.020532537 -0.75062221 -0.26209593
-0.020284537 -0.69494623 -0.20524025
-0.018746536 -0.13914722 0.14726877
-0.019904535 -0.60952622 -0.11801004
-0.023602538 0.15852278 0.31095314
-0.023470536 0.20557177 0.33609295
-0.024304539 -0.092546225 0.17680597
-0.024175536 -0.046376228 0.20147514
-0.023386538 0.2358188 0.35225296
-0.023263536 0.27954078 0.37561417
-0.024067536 -0.0076922178 0.22214317
-0.023480538 0.54599476 0.33435297
-0.023225538 0.6221168 0.38287973
-0.024127536 0.6454348 0.21075106
-0.024632536 0.7709958 0.11425304
-0.028387535 -1.0723741 -0.60282087
-0.027844537 -0.97105616 -0.49918318
-0.027234536 -0.8570742 -0.38259315
-0.024959538 -0.3265242 0.051790714
-0.024775539 -0.26068217 0.086968899
-0.026384536 -0.69839722 -0.22028494
-0.024433538 -0.1383602 0.15232706
-0.025925536 -0.61274916 -0.13267517
-0.029143538 0.1590668 0.315763
-0.029811539 -0.045667231 0.20644903
-0.029685538 -0.0070152283 0.22708607
-0.029051539 0.54580581 0.33083916
-0.029081538 0.57678479 0.32588387
-0.028589536 0.32875377 0.40636301
-0.028481536 0.43798479 0.42409515
-0.028641537 0.4682928 0.39788103
-0.030356538 0.77104479 0.11715174
-0.034857538 -1.0768993 -0.61965513
-0.034221537 -0.97528523 -0.51554203
-0.033506539 -0.86097926 -0.39842415
-0.030724537 -0.32558018 0.056995869
-0.030509539 -0.25979525 0.09211874
-0.032860536 -0.75784427 -0.29275084
-0.030316535 -0.20059127 0.12373114
-0.030110538 -0.13757616 0.15737581
-0.034225538 0.2804358 0.38502979
-0.035293538 -0.0063391924 0.2320199
-0.034187537 0.3557018 0.39056396
-0.035425536 0.64552081 0.21315289
-0.036075536 0.7710948 0.12004805
-0.036988538 -0.46128815 -0.010714054
-0.036698539 -0.38348824 0.030791759
-0.041357536 -1.0814471 -0.63656998
-0.040627535 -0.97953624 -0.53197718
-0.039806537 -0.86490422 -0.41432905
-0.037584536 -0.55475515 -0.096017838
-0.040516537 0.084834814 0.28520012
-0.040201537 0.1601488 0.32535505
-0.041250538 -0.090311229 0.19181776
-0.041057538 -0.044255197 0.21637297
-0.039878536 0.23726279 0.36647081
-0.039695539 0.28088176 0.38972807
-0.040729538 0.034095764 0.25814915
-0.040213536 0.54542679 0.32380199
-0.039492536 0.32957178 0.41568899
-0.039689537 0.35569382 0.39050102
-0.040010538 0.62073076 0.34968615
-0.041134536 0.64527476 0.20652294
-0.039479539 0.4374918 0.41726208
-0.041026536 0.68945682 0.22036076
-0.041015536 0.72125077 0.22171116
-0.042847537 -0.46145326 -0.011492252
-0.042473536 -0.38249916 0.036030769
-0.047064535 -0.98380917 -0.54849195
-0.045299537 -0.76513916 -0.32369184
-0.044844538 -0.70885223 -0.26582813
-0.041441537 -0.13601226 0.1674509
-0.043625537 -0.55785519 -0.11059713
-0.045717537 0.16068882 0.33014202
-0.045499537 0.20758981 0.35512972
-0.046881538 -0.089571238 0.19680405
-0.045156538 0.28132677 0.39441872
-0.046303537 0.034734786 0.26303387
-0.044961538 0.32966381 0.41677094
-0.045539536 0.65058881 0.35051107
-0.044705536 0.39995378 0.44615173
-0.044987537 0.4372448 0.41384077
-0.046740536 0.6892308 0.2129221
-0.045503538 0.50559676 0.35462189
-0.047500536 0.77119279 0.12583399
-0.048238538 -0.38151222 0.041260719
-0.05445154 -1.0906143 -0.67064619
-0.047660537 -0.25714725 0.1075201
-0.051052537 -0.71237117 -0.28114414
-0.047385536 -0.19809216 0.13898516
-0.050274536 -0.62579817 -0.19199514
-0.049691536 -0.56096917 -0.12523699
-0.051431537 0.12096077 0.31348181
-0.050985537 0.20809078 0.35987186
-0.052503537 -0.0888322 0.20178318
-0.052268539 -0.04285121 0.22626495
-0.051649537 0.57507575 0.29071903
-0.050500538 0.4369978 0.41041803
-0.052415539 0.68916976 0.21096802
-0.052406538 0.72099978 0.21186876
-0.050753538 0.46736878 0.38408804
-0.053994536 -0.38052815 0.046484947
-0.058880538 -0.87679619 -0.46248817
-0.057847537 -0.77250415 -0.35491085
-0.052736536 -0.13445824 0.17749071
-0.05578354 -0.56409818 -0.13994122
-0.056464538 0.20858979 0.36460495
-0.057275534 0.57490075 0.28715801
-0.056971535 0.6193288 0.31614876
-0.055681534 0.39941978 0.43937111
-0.056020536 0.43674979 0.406991
-0.058195539 0.68881476 0.19924498
-0.058904536 0.77129078 0.13161087
-0.060851537 -0.47008425 -0.054325104
-0.05990354 -0.38250321 0.036168098
-0.06654954 -0.99675626 -0.59850025
-0.06529554 -0.88080019 -0.47869015
-0.059414536 -0.32090122 0.082895756
-0.063549533 -0.71946019 -0.31198597
-0.058720537 -0.19643718 0.14911175
-0.062607534 -0.63241726 -0.2220521
-0.062670536 0.087221801 0.30454016
-0.062217534 0.16229779 0.34445572
-0.061935537 0.2090888 0.36933184
-0.063723534 -0.08735919 0.21171999
-0.06321454 -0.0029882193 0.25657797
-0.061698534 0.35565478 0.39025307
-0.062666535 0.61885679 0.30488777
-0.061846539 0.46690378 0.37717009
-0.062221535 0.50495982 0.34414196
-0.065874539 -0.38518423 0.022147179
-0.065126538 -0.31997222 0.08805275
-0.064732537 -0.25452024 0.12284613
-0.070509538 -0.77994221 -0.38642025
-0.06437654 -0.19561321 0.15416479
-0.063998535 -0.13291019 0.18750191
-0.068816535 -0.63575119 -0.237185
-0.068049535 -0.5704022 -0.16955185
-0.067962535 0.12266177 0.32786989
-0.067701533 0.16283178 0.34921217
-0.067397535 0.20958579 0.37405205
-0.069320537 -0.086626232 0.21667385
-0.069022536 -0.040758193 0.241045
-0.066920534 0.28309476 0.41310596
-0.068227537 0.5444718 0.30614281
-0.066878535 0.32962179 0.41652679
-0.066414535 0.36104381 0.45452595
-0.067984536 0.64967579 0.32602596
-0.069697537 0.6884048 0.18579817
-0.072984539 -0.47590822 -0.08319521
-0.078215539 -0.88886815 -0.51132488
-0.070404537 -0.25364822 0.12794113
-0.07688354 -0.7836892 -0.40228224
-0.076160535 -0.72662026 -0.34311724
-0.069616534 -0.13214022 0.19249392
-0.072643541 0.24011678 0.39471006
-0.072341539 0.28353381 0.4177599
-0.074048534 0.037909806 0.28735399
-0.074115537 0.61790979 0.28225374
-0.072963536 0.4664368 0.37023878
-0.079089537 -0.47884017 -0.097724915
-0.086309537 -1.0099032 -0.64922905
-0.076068535 -0.25277919 0.13302708
-0.083284535 -0.78745323 -0.41821623
-0.082506537 -0.73022622 -0.35878706
-0.075660534 -0.19397122 0.16424417
-0.081313536 -0.6424672 -0.26765013
-0.08048854 -0.085165203 0.22656393
-0.080149539 -0.039371192 0.25085878
-0.077754535 0.2839728 0.42241001
-0.079865538 -0.00099921227 0.27121782
-0.079476535 0.5440858 0.29905415
-0.077257536 0.36131978 0.45795393
-0.079870537 0.61743283 0.27087498
-0.077707537 0.39834279 0.42576599
-0.081252538 0.68797982 0.17184687
-0.078993537 0.50431883 0.33363008
-0.082103536 0.7709288 0.1109271
-0.085220538 -0.48178619 -0.11231709
-0.092956536 -1.0143292 -0.66629696
-0.081916533 -0.2543022 0.12432289
-0.080825537 -0.13060516 0.20245504
-0.083736539 0.21106976 0.38816595
-0.083500534 0.24105877 0.40406513
-0.08515954 0.64842081 0.29224014
-0.083228536 0.39807278 0.42235613
-0.083711535 0.43549979 0.38979816
-0.087052539 0.6877588 0.16461086
-0.08710254 0.71971083 0.1612401
-0.097815536 -0.90112215 -0.56084824
-0.095286541 -0.73749119 -0.39034224
-0.08690954 -0.19233626 0.1742959
-0.092900537 -0.58319122 -0.22955799
-0.090178534 0.090171814 0.32854414
-0.091244534 -0.037991226 0.26064396
-0.09059754 0.039793789 0.30185413
-0.091165535 0.57384181 0.26571083
-0.088799536 0.32957381 0.4162879
-0.08927054 0.43524778 0.38634777
-0.097565539 -0.48772126 -0.14170313
-0.093816534 -0.25907618 0.096954823
-0.10266754 -0.79886216 -0.4664712
-0.10172053 -0.74115115 -0.40623188
-0.092747539 -0.19388622 0.16500092
-0.099183537 -0.58642918 -0.24473286
-0.09565454 0.090756774 0.333323
-0.094590537 0.21205276 0.39754009
-0.094327539 0.24199581 0.41339397
-0.096443534 0.00097477436 0.28578997
-0.096399538 0.54350483 0.28839016
-0.093756534 0.36044878 0.44782209
-0.097260535 0.61599076 0.23648882
-0.094291538 0.3975288 0.41552496
-0.09483254 0.4349958 0.38289404
-0.099029534 0.6867038 0.1298089
-0.10177854 0.71472281 -0.035987854
-0.09582454 0.50367278 0.32308102
-0.10223053 -0.40153319 -0.063250065
-0.11308854 -1.0277472 -0.71800613
-0.10918654 -0.8027032 -0.48270512
-0.098669536 -0.19612926 0.15151501
-0.09757854 -0.12831718 0.21734571
-0.10664453 -0.65609723 -0.32941723
-0.10080354 0.12602377 0.35644293
-0.10272653 -0.082266212 0.24625206
-0.10158854 0.041042805 0.31148386
-0.10205354 0.54330981 0.28482914
-0.098882534 0.33399677 0.46648598
-0.099267535 0.36015677 0.44443703
-0.10309853 0.61550677 0.22494602
-0.10760254 0.7147938 -0.033092976
-0.11986154 -1.0322661 -0.73540783
-0.10581454 -0.26389521 0.069355965
-0.11573553 -0.8065632 -0.49901485
-0.10461654 -0.19838315 0.13797092
-0.10335654 -0.12945527 0.21016407
-0.11304754 -0.6595462 -0.34503412
-0.10658453 0.09192282 0.34285688
-0.10586154 0.16652977 0.38230085
-0.10541054 0.21303082 0.40688705
-0.10830454 -0.081871212 0.24898481
-0.10782354 -0.035935223 0.27526474
-0.10512154 0.24292779 0.42269182
-0.10470254 0.28614581 0.44553995
-0.10707153 0.041663766 0.31628609
-0.10819554 0.5733068 0.25493574
-0.10436754 0.33375281 0.46381712
-0.10478453 0.35986382 0.4410491
-0.10537754 0.39698279 0.40868187
-0.10597754 0.4344888 0.37597895
-0.11342154 0.71486378 -0.030200005
-0.12437753 -0.91775221 -0.627985
-0.12231454 -0.81044227 -0.51540089
-0.11058854 -0.20064718 0.1243701
-0.10926054 -0.13155121 0.19686317
-0.11168753 0.12713277 0.36591101
-0.11333454 -0.035253227 0.28012609
-0.11294754 0.0029348135 0.30029678
-0.11254854 0.042284787 0.32108307
-0.11338153 0.5429188 0.27769089
-0.11030953 0.3595708 0.43765688
-0.11093154 0.39670879 0.40525389
-0.11156054 0.4342348 0.37251472
-0.11346254 0.69102877 0.27347279
-0.11207253 0.4647828 0.34586191
-0.11271254 0.50302178 0.31250095
-0.12076354 -0.4098832 -0.10680008
-0.12892553 -0.81434315 -0.53186798
-0.12774754 -0.75597423 -0.47052526
-0.11658753 -0.20292217 0.11070871
-0.11711654 0.12768477 0.37063074
-0.11669354 0.16757381 0.39169073
-0.11542854 0.28700781 0.45474482
-0.11801554 0.042903781 0.32587481
-0.12031953 0.6149168 0.2110939
-0.12006953 0.64586282 0.22354603
-0.11649054 0.39643478 0.40182304
-0.11714853 0.43397978 0.36904716
-0.11911653 0.69095182 0.27100706
-0.11768454 0.46454379 0.34236717
-0.12400454 -0.27120823 0.027507782
-0.13432854 -0.75972623 -0.48678589
-0.12114254 -0.1357742 0.17008686
-0.13243254 -0.66999716 -0.39232302
-0.12253854 0.12823582 0.37534618
-0.12079453 0.28736478 0.45858002
-0.12347454 0.043520808 0.33065891
-0.12496254 0.69060278 0.2595849
-0.13085154 0.71507478 -0.02153492
-0.12330253 0.4643048 0.33886385
-0.12400253 0.50258577 0.30542803
-0.13368154 0.7662878 -0.15664101
-0.13524854 -0.50587124 -0.23143816
-0.13325253 -0.41551715 -0.13615227
-0.13176253 -0.34808224 -0.065034866
-0.13011853 -0.27366823 0.013440132
-0.14223653 -0.82220024 -0.56502819
-0.12865753 -0.20750326 0.083213806
-0.13895154 -0.67351526 -0.40822983
-0.12834854 0.094237804 0.36184502
-0.12696053 0.21497178 0.42549372
-0.12623954 0.28734779 0.45852518
-0.12892553 0.044136763 0.33543587
-0.13187353 0.64499581 0.20031977
-0.13665153 0.7151438 -0.018651009
-0.12892653 0.46406478 0.335361
-0.13959654 0.7663368 -0.15364218
-0.13953754 -0.41835421 -0.15092611
-0.15144053 -0.93472725 -0.69641829
-0.13797954 -0.35074419 -0.079503059
-0.13625954 -0.27614015 -0.00069189072
-0.14893754 -0.82615823 -0.58172798
-0.14758053 -0.76728624 -0.51953506
-0.13335754 0.12933379 0.38475895
-0.13288154 0.1691308 0.40572071
-0.13232754 0.2154538 0.43012571
-0.13197154 0.24523681 0.44581795
-0.13573353 7.6770782e-05 0.28004074
-0.13470854 0.04276979 0.32522106
-0.13611154 0.54213083 0.26337385
-0.13246554 0.35839081 0.4240551
-0.13780753 0.64456081 0.18864393
-0.13320453 0.39560679 0.39151096
-0.13671854 0.68990278 0.2366271
-0.14244653 0.71521378 -0.015768051
-0.13455753 0.46382478 0.33185291
-0.13531853 0.50214678 0.29833984
-0.15828554 -0.93902522 -0.7137332
-0.15567054 -0.83013719 -0.59850597
-0.15207954 -0.68060416 -0.44026804
-0.15045354 -0.61289519 -0.3686161
-0.13922054 0.09519577 0.369771
-0.14268754 -0.043583214 0.22265816
-0.13731954 0.24569577 0.45042372
-0.13678554 0.28871882 0.47307777
-0.14164254 -0.0017381907 0.26701593
-0.14243753 0.5722248 0.23327684
-0.14376554 0.64412278 0.17692089
-0.13956554 0.4329538 0.35514212
-0.14098753 0.50192678 0.29478884
-0.15446754 -0.5151462 -0.2772212
-0.14862154 -0.28111917 -0.029141903
-0.15699454 -0.61627823 -0.38442707
-0.14505154 0.093598783 0.35711193
-0.14645953 0.039333761 0.29948902
-0.14751853 0.5417338 0.25619078
-0.14906754 0.61412978 0.19280577
-0.14437954 0.39505178 0.3846159
-0.14518453 0.43269679 0.35165596
-0.14856154 0.68919683 0.21348476
-0.15402354 0.71535182 -0.010004044
-0.14666153 0.50170577 0.29123592
-0.16093054 -0.51826817 -0.29262114
-0.15856054 -0.42694718 -0.19564915
-0.17207554 -0.94768924 -0.74861717
-0.16769154 -0.77877218 -0.56924725
-0.14900054 0.17067677 0.41969872
-0.15466054 -0.047434211 0.19608593
-0.14799054 0.24660879 0.45961285
-0.15390253 0.57186079 0.22602701
-0.14856754 0.33127779 0.43678713
-0.14914954 0.35749781 0.41381788
-0.15549354 0.64360476 0.16317701
-0.15081154 0.43243778 0.34816694
-0.15451454 0.68884182 0.20185089
-0.15149154 0.46310079 0.32130575
-0.15234254 0.50148475 0.28767872
-0.16495754 -0.42983919 -0.21069002
-0.17901854 -0.9520542 -0.76618528
-0.16108854 -0.28614515 -0.057837009
-0.15738654 -0.14867622 0.088391781
-0.17199954 -0.69137126 -0.48888826
-0.15372254 0.21737176 0.44860172
-0.16209954 -0.10008723 0.12867689
-0.16068454 -0.049374223 0.18271589
-0.15830654 0.035865784 0.27354574
-0.15894954 0.54133475 0.24899387
-0.16129354 0.64346278 0.15947294
-0.15644354 0.4321788 0.34467411
-0.16048954 0.68848479 0.19017696
-0.15714754 0.46285778 0.31778193
-0.15802954 0.5012638 0.28411913
-0.17394353 -0.52455825 -0.32363129
-0.17138253 -0.43274516 -0.22579718
-0.18292053 -0.84625715 -0.66642714
-0.18125354 -0.78652626 -0.60277891
-0.16351654 -0.15086216 0.074572086
-0.17869954 -0.69499618 -0.50524712
-0.16160953 0.12613279 0.35870695
-0.16820353 -0.10215819 0.11502218
-0.15867154 0.28811282 0.46730518
-0.16467653 0.54113483 0.24538708
-0.15968154 0.33065182 0.42999506
-0.16030353 0.3568998 0.40697479
-0.16710153 0.64331979 0.1557641
-0.16118954 0.3942138 0.37424707
-0.18049654 -0.52772719 -0.33924723
-0.19300653 -0.96085519 -0.80158615
-0.17366454 -0.2912212 -0.086791992
-0.18981454 -0.85034019 -0.68361712
-0.17171954 -0.22387725 -0.014904976
-0.18543254 -0.69864017 -0.52168798
-0.16749753 0.12459278 0.34600115
-0.16420254 0.28777677 0.46394491
-0.17025253 0.032366812 0.24738312
-0.17040853 0.5409348 0.24177694
-0.17115353 0.57131183 0.21511984
-0.16524653 0.33033776 0.42659378
-0.16680554 0.39393279 0.37078476
-0.16772954 0.4316588 0.337677
-0.17152254 0.7206918 0.20189905
-0.18707654 -0.53091019 -0.35492992
-0.18431954 -0.4386012 -0.25622416
-0.19673954 -0.85444325 -0.70088625
-0.17797653 -0.2262612 -0.029168129
-0.19219553 -0.70230216 -0.5381999
-0.17208354 0.1660068 0.37926006
-0.17798354 0.61333179 0.17441702
-0.17873554 0.6430338 0.14833593
-0.17242754 0.39365178 0.36731815
-0.17338154 0.4313978 0.33417273
-0.19082953 -0.44154924 -0.27153826
-0.20369753 -0.85856718 -0.71823597
-0.18054254 0.083864808 0.28005314
-0.17934453 0.12149179 0.32042885
-0.17797354 0.16455078 0.36663103
-0.17528453 0.28710181 0.45721579
-0.18229553 0.028835773 0.22100401
-0.18189354 0.54053175 0.23454905
-0.18268654 0.57094276 0.20782804
-0.17639554 0.32970679 0.41978216
-0.17708154 0.35599577 0.39668417
-0.18378754 0.61317182 0.17072582
-0.17805554 0.39336979 0.36384773
-0.17904054 0.4311358 0.33066511
-0.18460953 0.68704277 0.14304113
-0.18084554 0.5003708 0.26983404
-0.19057253 -0.23106116 -0.057878017
-0.18829954 -0.15970618 0.018687725
-0.18530454 0.1199308 0.30756187
-0.18388654 0.1630888 0.35395288
-0.19287354 -0.1105392 0.059823036
-0.19118753 -0.059204221 0.11500502
-0.18120754 0.24467778 0.44165611
-0.18083453 0.28676277 0.45384502
-0.18835454 0.027057767 0.20772982
-0.18197954 0.32939076 0.41636992
-0.18268654 0.35569382 0.39324713
-0.19069354 0.68667877 0.13115215
-0.18553154 0.46163678 0.30010891
-0.18656653 0.50014675 0.26625299
-0.20393954 -0.44749123 -0.30237818
-0.20165953 -0.37807423 -0.22775984
-0.21771353 -0.86687917 -0.75319386
-0.21267253 -0.71339923 -0.58821201
-0.18982653 0.16161978 0.34121895
-0.18813653 0.21153879 0.3949728
-0.19736654 -0.061199188 0.10128403
-0.18639253 0.2864238 0.45047092
-0.19591954 -0.018442214 0.14732504
-0.19340654 0.54012775 0.22730112
-0.18933354 0.39280379 0.35689497
-0.19122954 0.46138978 0.29656172
-0.19229454 0.4999218 0.26266813
-0.21054053 -0.45048422 -0.31790686
-0.22271554 -0.8102712 -0.70533514
-0.20085153 -0.16419226 -0.009622097
-0.21956354 -0.71713716 -0.60504627
-0.19861954 0.078896761 0.24079275
-0.19729854 0.11678779 0.2816658
-0.20055054 0.023477793 0.18101215
-0.19316854 0.3287558 0.40953493
-0.19391754 0.35508579 0.38636112
-0.20124054 0.61268783 0.15962791
-0.19498153 0.3925198 0.35341215
-0.20293254 0.68594581 0.10723782
-0.20177454 0.7191838 0.14309502
-0.19693254 0.46114379 0.29301214
-0.23186454 -0.87527925 -0.78849506
-0.22974053 -0.81430024 -0.72271729
-0.19883053 0.2408058 0.40436506
-0.19752453 0.28574181 0.44371414
-0.20826054 -0.022249222 0.12010098
-0.19877253 0.32843679 0.4061141
-0.20707154 0.61252582 0.15592098
-0.20794253 0.64231277 0.12968683
-0.20174153 0.4300828 0.31659508
-0.20264153 0.46089578 0.28945875
-0.22131854 -0.38653523 -0.27355289
-0.23679854 -0.81835026 -0.74018192
-0.21609454 -0.24080116 -0.11607027
-0.23344053 -0.72466725 -0.63894606
-0.23092954 -0.6546182 -0.56325006
-0.21079454 0.075547814 0.21434498
-0.21605654 -0.067236185 0.059779167
-0.20475154 0.2395038 0.39183378
-0.21284653 0.019864798 0.15406799
-0.21072453 0.53951681 0.21640205
-0.21163954 0.57001376 0.18952799
-0.21403153 0.71857178 0.11926508
-0.20835854 0.4606488 0.28590202
-0.20951554 0.4992438 0.25189018
-0.23051654 -0.4595502 -0.36491394
-0.22793053 -0.38938326 -0.28895617
-0.24615155 -0.88376719 -0.82414389
-0.24389054 -0.82242125 -0.75773382
-0.22254454 -0.24326521 -0.13077927
-0.23783854 -0.65821022 -0.57996988
-0.21692154 0.073860765 0.20103502
-0.21547654 0.11201876 0.24241495
-0.21382354 0.1556778 0.28976107
-0.21191554 0.20605481 0.34439087
-0.22431053 -0.12123817 -0.010540009
-0.21069853 0.23819578 0.3792491
-0.20895153 0.2843228 0.42926979
-0.21903554 0.01804477 0.14050579
-0.21745154 0.56982678 0.18585396
-0.21081154 0.35416979 0.37600374
-0.21875654 0.61219978 0.14849186
-0.24081053 -0.55695921 -0.48305607
-0.23457354 -0.39224523 -0.30443287
-0.25334853 -0.88804525 -0.842103
-0.25101852 -0.82651418 -0.77537823
-0.24478154 -0.66182119 -0.59677505
-0.21792054 0.20466781 0.33161688
-0.23067854 -0.12340921 -0.024796963
-0.22524853 0.016217768 0.12689018
-0.22230554 0.5391078 0.20911407
-0.21562254 0.32747579 0.39582491
-0.21645553 0.35386276 0.37254477
-0.22555053 0.6418758 0.11844778
-0.21883754 0.42928678 0.30600309
-0.22691654 0.68510979 0.080304146
-0.22103253 0.49878979 0.24468517
-0.24766652 -0.56028825 -0.49941111
-0.23553154 -0.24823016 -0.16039801
-0.25450352 -0.73611122 -0.69042015
-0.25175652 -0.66545016 -0.61365604
-0.22924954 0.07046479 0.17425108
-0.22395054 0.2032758 0.31878901
-0.23707354 -0.12558919 -0.039115906
-0.23498954 -0.073359191 0.017726898
-0.22266154 0.2355628 0.35392809
-0.22081254 0.28189677 0.40435314
-0.23325853 -0.029971182 0.064946175
-0.23148854 0.014381766 0.11321592
-0.23143354 0.64172977 0.11469316
-0.22454853 0.42901978 0.30246496
-0.23283453 0.6849888 0.076503754
-0.22554854 0.4599008 0.27520418
-0.22679953 0.49856079 0.24107695
-0.25076851 -0.46875316 -0.41258192
-0.26784453 -0.89666718 -0.87828398
-0.26537451 -0.83476323 -0.81091404
-0.26159152 -0.73996526 -0.70774412
-0.25876352 -0.66909724 -0.6306181
-0.23545353 0.068754792 0.1607728
-0.23208053 0.15115076 0.25060511
-0.23000453 0.20187682 0.30590773
-0.23957354 -0.031923234 0.051010132
-0.23775454 0.012536764 0.099483013
-0.23391254 0.53869581 0.20180988
-0.22688654 0.32683182 0.38894796
-0.23732454 0.64158279 0.11093187
