# .PCD v0.7 - Point Cloud Data file format
VERSION 0.7
FIELDS x y z
SIZE 4 4 4
TYPE F F F
COUNT 1 1 1
WIDTH 1347
HEIGHT 1
VIEWPOINT 0 0 0 1 0 0 0
POINTS 1347
DATA ascii
0.27345523 0.054822743 0.096683025
0.28034523 0.36188275 -0.07485199
0.28127623 0.40339673 -0.098042011
0.28221422 0.44519272 -0.12139082
0.28392524 0.52142274 -0.16397667
0.26938024 0.1326257 0.052307129
0.27020022 0.1700117 0.031420231
0.27116922 0.21414173 0.0067653656
0.27180022 0.24286872 -0.0092849731
0.26689324 0.019325733 0.11560917
0.27887923 0.56537175 -0.18947077
0.27376822 0.3325327 -0.059381962
0.26800922 -0.10806233 0.087198257
0.26286823 0.10050273 0.069346428
0.26355523 0.13254869 0.051439285
0.26592222 0.24280173 -0.010168552
0.26188323 0.054655731 0.094964981
0.26784724 0.33247471 -0.060274601
0.26847622 0.36177069 -0.076646805
0.26936722 0.40329272 -0.099847794
0.27190122 0.52134168 -0.16581297
0.27117622 -0.26185733 -0.14692974
0.25705823 0.10042274 0.068482399
0.25380123 -0.054797292 0.15523005
0.25535223 0.019151688 0.11390114
0.26254022 0.36171472 -0.077543736
0.26990122 -0.34705728 -0.27361059
0.25575122 -0.10547525 0.10328007
0.25267023 0.16978973 0.028801441
0.25416422 0.24266672 -0.01193285
0.25030723 0.054486692 0.093248367
0.25600222 0.33235574 -0.06206274
0.25900623 0.4789277 -0.14398766
0.25987324 0.52125871 -0.16764879
0.24312721 -0.01498729 0.13117933
0.24912222 0.28464371 -0.036318779
0.24451521 0.054400742 0.092389107
0.25473621 0.56522369 -0.19315958
0.25066221 0.3616007 -0.079339981
0.25233021 0.44495073 -0.12593269
0.25385621 0.52121675 -0.1685667
0.25697622 -0.34371132 -0.25572777
0.25215721 -0.25726134 -0.12110281
0.24793421 -0.18150026 -0.0031189919
0.24183822 0.21378869 0.0023713112
0.24415021 0.33223569 -0.06385088
0.24701221 0.47883472 -0.14581394
0.25054023 -0.34204727 -0.2468257
0.23747721 -0.10162634 0.12724304
0.23512721 0.1695627 0.026183128
0.23596822 0.21371675 0.0014944077
0.23161021 -0.015172303 0.12948132
0.23651521 0.24245971 -0.014577866
0.23731622 0.28451371 -0.038093567
0.23225722 0.018794715 0.11048603
0.23878121 0.36148471 -0.081133842
0.24101421 0.4787887 -0.14672565
0.24831422 -0.4196263 -0.36111498
0.23956022 -0.25422233 -0.10400581
0.23556322 -0.17870325 0.013388157
0.23141621 -0.10035127 0.13518715
0.23063122 0.24238974 -0.015460014
0.23229522 0.33211273 -0.065637589
0.23438622 0.4448007 -0.12865782
0.23328622 -0.25271124 -0.095493793
0.22940122 -0.17731231 0.021609306
0.22217122 0.099927723 0.063300133
0.22474322 0.2423197 -0.016341686
0.22134222 0.054051697 0.088959217
0.22764522 0.40291673 -0.10616779
0.22901422 0.47869372 -0.14855194
0.22325221 -0.17592531 0.029811382
0.21933821 -0.097815335 0.15101433
0.21635321 0.09984374 0.062436104
0.21835122 0.21349674 -0.0011405945
0.21362221 -0.055475295 0.14932013
0.21432622 -0.015456259 0.12693405
0.21885622 0.24224871 -0.017224789
0.21492322 0.018520713 0.10792828
0.22094922 0.36130869 -0.083824635
0.22168021 0.40286171 -0.10706997
0.22241521 0.44469872 -0.13047266
0.21053421 0.099758744 0.061575413
0.21172121 0.16925174 0.022694111
0.20787822 -0.055575311 0.14847708
0.20914321 0.01842773 0.10707521
0.21571422 0.40280575 -0.10797262
0.21642922 0.44464672 -0.13138199
0.21773322 0.52095872 -0.17407656
0.22233221 -0.41251832 -0.32459068
0.21860722 -0.3338123 -0.20268679
0.21100521 -0.17316526 0.046141148
0.20732021 -0.09529525 0.16675711
0.20471321 0.099672735 0.060711384
0.20524621 0.13174874 0.042763233
0.20586722 0.1691727 0.021821022
0.20213321 -0.055675268 0.14763403
0.20905621 0.3611877 -0.08562088
0.21227121 -0.33218223 -0.19393492
0.19940922 0.13166571 0.041897297
0.20001221 0.16909271 0.020951271
0.19638722 -0.055776298 0.14679241
0.19703221 -0.015746295 0.12439013
0.20186621 0.28411072 -0.043416023
0.19758022 0.01824069 0.105371
0.20263521 0.33179975 -0.070103645
0.20377821 0.40269369 -0.10977888
0.20445222 0.44454271 -0.13319778
0.20215021 -0.24522823 -0.053274632
0.19881821 -0.17042333 0.062383175
0.19356921 0.13158172 0.041028976
0.19063821 -0.055878282 0.14595127
0.19529422 0.24195969 -0.020748615
0.19179522 0.01814574 0.10451937
0.19780621 0.40263671 -0.11067963
0.19274621 -0.16905934 0.070476055
0.19002621 -0.095042288 0.167871
0.18772921 0.13149673 0.040161133
0.18896522 0.2131207 -0.0055289268
0.18488921 -0.055980265 0.14510822
0.18549621 -0.015943289 0.1226964
0.18654822 0.053508699 0.083817005
0.19076121 0.3316707 -0.071889877
0.19246921 0.44443771 -0.13501501
0.19662221 -0.40550834 -0.28848171
0.18669021 -0.16769928 0.078543186
0.18429622 -0.095148265 0.1670332
0.18141821 0.09932369 0.05726099
0.18188821 0.13141173 0.03929615
0.18243721 0.16885072 0.018336296
0.18308522 0.21304369 -0.0064058304
0.18350722 0.24181169 -0.022511959
0.18074521 0.053416729 0.082961082
0.18525322 0.36094272 -0.089207649
0.18647622 0.44438472 -0.13592291
0.18759622 0.52073574 -0.17866373
0.18708521 -0.32571524 -0.15916491
0.17338821 -0.056188285 0.14342403
0.17820722 0.28383273 -0.046962738
0.17443821 0.017856717 0.10196543
0.18096422 0.47830272 -0.15585279
0.17752321 -0.23933131 -0.019914627
0.17462422 -0.16499323 0.094613075
0.17131822 0.2128877 -0.0081596375
0.16763422 -0.056293309 0.14258337
0.16818221 -0.016243279 0.12015533
0.17171222 0.24166173 -0.024273872
0.16864821 0.01775974 0.10111332
0.17751421 -0.40031224 -0.26166677
0.16861121 -0.16364723 0.10261726
0.16709821 -0.095471323 0.16452217
0.16393322 0.099054694 0.054675102
0.16188121 -0.056398273 0.14174128
0.16581422 0.24158674 -0.025153637
0.16699922 0.33140874 -0.075461864
0.16738722 0.36075473 -0.091897964
0.16848822 0.44422171 -0.1386466
0.17117821 -0.39859229 -0.25278187
0.16530122 -0.23641223 -0.0033698082
0.16261521 -0.1623053 0.11059999
0.15612622 -0.056504309 0.14089918
0.15706821 0.017562687 0.099411011
0.16485922 -0.39687926 -0.24391985
0.16215521 -0.31933624 -0.1247797
0.15921322 -0.23496026 0.0048680305
0.15227121 0.098872721 0.05295229
0.15086022 -0.016550303 0.11761522
0.15547021 0.3606267 -0.093690872
0.14681521 0.1308887 0.034099102
0.14725421 0.1683507 0.013110161
0.14860521 0.28347373 -0.051393986
0.14548221 0.017362714 0.097709179
0.14589921 0.05284673 0.077826977
0.14951022 0.36056173 -0.09458971
0.14471321 -0.1583063 0.13441706
0.14096321 0.13079971 0.033234119
0.14188221 0.21248972 -0.012543678
0.13885321 -0.056827307 0.13837719
0.13930321 -0.016758263 0.11592436
0.13968621 0.017261744 0.096858978
0.14008522 0.052749693 0.076972008
0.14321722 0.33113873 -0.079032898
0.14448622 0.44400072 -0.14227867
0.14362222 -0.31460732 -0.099236965
0.13841221 -0.096025288 0.16034412
0.13476722 0.098595738 0.050369263
0.13511221 0.13070971 0.032369137
0.13551521 0.16817969 0.011369228
0.13352421 -0.016863286 0.11507845
0.13630122 0.24120075 -0.029556751
0.13726822 0.33106971 -0.079926014
0.13758421 0.36043173 -0.096380711
0.13747722 -0.31304127 -0.090770721
0.13501221 -0.22919828 0.037600994
0.13285021 -0.15566128 0.15019512
0.13267121 -0.096138299 0.15950823
0.12926021 0.1306197 0.031503201
0.13009922 0.21232671 -0.014297009
0.12809321 0.017057717 0.0951581
0.13247821 0.44388771 -0.1440959
0.13282721 0.47788972 -0.16315365
0.13134621 -0.3114813 -0.082327843
0.12694022 -0.15434533 0.15804911
0.12340622 0.13052869 0.030638218
0.12377322 0.1680057 0.0096282959
0.12420622 0.21224469 -0.015172958
0.12565422 0.36029971 -0.098173618
0.12606221 0.4019227 -0.1215086
0.12727922 -0.38671631 -0.19126797
0.12523122 -0.30992633 -0.073907852
0.12300121 -0.22634631 0.053834438
0.11725121 0.098312736 0.047786236
0.11754921 0.13043672 0.029773235
0.11830921 0.21216172 -0.016048908
0.11580421 -0.057267308 0.1350174
0.11857721 0.24096274 -0.032197952
0.11649321 0.016851723 0.093460083
0.11968622 0.36023271 -0.09907198
0.12007321 0.40186071 -0.12241173
0.11701621 -0.22492725 0.061919212
0.11544021 -0.096481264 0.15700436
0.11202321 0.16782969 0.0078883171
0.11241321 0.21207774 -0.016924858
0.11003921 -0.057379305 0.13417721
0.11069221 0.016747713 0.092609406
0.11100522 0.052253723 0.07269907
0.11371721 0.36016572 -0.099967957
0.11475322 0.47772872 -0.16589069
0.11304422 -0.30683023 -0.057132721
0.10614721 0.16774172 0.0070180893
0.10460621 -0.017398298 0.11085224
0.10675521 0.24080169 -0.033957005
0.11105421 -0.48568326 -0.32374763
0.10870321 -0.3817113 -0.16526985
0.10394622 -0.096714318 0.15533638
0.099976212 0.13015872 0.027180195
0.098505214 -0.057605267 0.13249922
0.09908621 0.016536713 0.090911388
0.10177621 0.36003071 -0.10175991
0.098198213 -0.096831262 0.15450239
0.093879215 0.097925723 0.044345379
0.094716214 0.21182472 -0.019551754
0.09523721 0.28279674 -0.059367657
0.093281217 0.016430736 0.090063095
0.096110217 0.40160871 -0.12602091
0.094881214 -0.30222732 -0.032147884
0.093229212 -0.2192983 0.094044209
0.092448212 -0.096950233 0.15366936
0.088252217 0.12996972 0.02545023
0.088812217 0.21173871 -0.020428658
0.086965211 -0.057834268 0.13082123
0.089627214 0.33050472 -0.087065697
0.090114214 0.40154374 -0.12692356
0.09040121 0.44348073 -0.15045357
0.092189215 -0.48021525 -0.29676676
0.090267211 -0.37675625 -0.13948488
0.086331211 -0.15018231 0.18263626
0.086696215 -0.097069323 0.15283537
0.082627214 0.16738069 0.0035390854
0.082909212 0.2116527 -0.021303654
0.081193216 -0.057950258 0.12998199
0.081448212 -0.017839313 0.10747528
0.083093211 0.24047369 -0.037475586
0.08166521 0.016216695 0.088365078
0.084385216 0.44342071 -0.15136194
0.084153213 -0.37511629 -0.13093758
0.080605216 -0.15030724 0.18181038
0.076335214 0.097629726 0.041765213
0.076524213 0.12977874 0.023722172
0.075656213 -0.01795131 0.10663223
0.077422217 0.28256273 -0.062024593
0.077703215 0.33035874 -0.088850021
0.07787621 0.35975373 -0.10534573
0.07487721 -0.15043324 0.18098307
0.07518921 -0.097309291 0.15117025
0.070485212 0.097529709 0.040904999
0.071099214 0.21147871 -0.0230546
0.071254216 0.24030674 -0.039235592
0.071481213 0.2824837 -0.062909603
0.07004521 0.015999734 0.086669445
0.070237212 0.051531732 0.0667243
0.071897216 0.35968369 -0.10624266
0.071971215 -0.37185234 -0.11391592
0.069669217 -0.21374124 0.12583113
0.069148213 -0.15056032 0.18015909
0.064633213 0.097429693 0.040046215
0.063870214 -0.05830127 0.12746811
0.064067215 -0.018177271 0.10494423
0.065332219 0.24022174 -0.040115833
0.064408213 0.051425695 0.065871239
0.065773219 0.3302117 -0.090632915
0.067261219 -0.47301334 -0.26114988
0.063815214 -0.2123633 0.13372421
0.059085216 0.16701072 6.3419342e-05
0.059281219 0.2113027 -0.024806023
0.059408218 0.24013674 -0.040994644
0.059594218 0.28232372 -0.064680576
0.058419216 0.015779734 0.084972382
0.061068218 -0.47122723 -0.25230598
0.057974216 -0.21099025 0.14159822
0.057918217 -0.097675264 0.1486721
0.053197216 0.16691673 -0.00080680847
0.052470218 -0.018406272 0.10325718
0.053483218 0.24005169 -0.041873932
0.053649217 0.28224373 -0.065565586
0.052743219 0.051212728 0.064164162
0.053952217 0.35947073 -0.10893059
0.054280218 0.44311672 -0.1559
0.054891217 -0.46944827 -0.24348688
0.053809218 -0.36699623 -0.088553905
0.052159216 -0.097798288 0.14784002
0.046788216 0.015556693 0.083277225
0.048110217 0.40108371 -0.13323975
0.048254218 0.44305572 -0.15680599
0.047092218 -0.29017133 0.033510208
0.046216216 -0.1510753 0.17685938
0.041075218 0.050996721 0.062460423
0.041895218 0.3299107 -0.094201565
0.041982219 0.35932571 -0.11072397
0.042585216 -0.46590728 -0.22592688
0.040480219 -0.15120631 0.17603445
0.035350215 0.096916735 0.035750389
0.035428215 0.12909174 0.017676353
0.035520215 0.1666317 -0.0034127235
0.035629217 0.21094471 -0.028306007
0.034968216 -0.058900297 0.12328243
0.035700217 0.23979169 -0.044511795
0.035237215 0.050887704 0.061608315
0.035920218 0.3298347 -0.095093727
0.035993215 0.3592537 -0.11162186
0.036095217 0.4009487 -0.13504362
0.035782218 -0.36218923 -0.063398838
0.034741215 -0.15133828 0.17520905
0.034871217 -0.09817332 0.14534426
0.029552218 0.12899071 0.016812325
0.029769216 0.23970473 -0.045389652
0.030339215 -0.46239024 -0.20845985
0.029409215 -0.28573126 0.057771206
0.029002216 -0.15147024 0.17438698
0.023838215 0.23961574 -0.04626894
0.023970217 0.32968074 -0.096877575
0.024239216 -0.46064132 -0.19976473
0.023223218 -0.20284325 0.18841124
0.023262218 -0.15160328 0.173563
0.017611217 -0.059269309 0.12077236
0.017651215 -0.019109309 0.098203182
0.017946217 0.28174973 -0.070877552
0.017993215 0.32960272 -0.097769737
0.018062215 0.40074271 -0.13775158
0.017520215 -0.15173727 0.17273903
0.017573215 -0.098555267 0.1428504
0.011899216 0.096495688 0.032315254
0.011933217 0.16624373 -0.0068869591
0.011955217 0.21057773 -0.031804562
0.011843216 -0.01922828 0.097362041
0.012014216 0.3295247 -0.0986619
0.012028216 0.35895771 -0.11520576
0.011856217 -0.28133529 0.081838131
0.011753216 -0.20091933 0.19948721
0.011777217 -0.15187234 0.17191601
0.0060312166 0.096389711 0.031459332
0.0060312166 -0.019349277 0.096520424
0.0060312166 0.28158075 -0.072646618
0.0060312166 0.35888273 -0.1161027
0.0060312166 0.40060371 -0.13955593
0.0060312166 -0.45542723 -0.17381859
0.0060312166 -0.35428327 -0.021922588
0.0060312166 -0.15200728 0.17109299
0.0060312166 -0.098813236 0.1411891
0.00012921635 0.16604573 -0.0086236
0.0002402165 -0.059643269 0.1182642
7.321639e-05 0.28149569 -0.073532581
3.5216566e-05 0.35880673 -0.11699772
1.4216173e-05 0.40053374 -0.14045858
-6.7837536e-06 -0.45370132 -0.16521788
0.00012521632 -0.35271734 -0.01369381
0.00028621638 -0.15214425 0.17027044
0.00025921641 -0.098943293 0.1403594
-0.0057057841 0.096173704 0.029741287
-0.0057737837 0.16594672 -0.0094919205
-0.0055527836 -0.059770286 0.1174283
-0.0058867838 0.28141069 -0.074416637
-0.0059627835 0.35873169 -0.1178937
-0.006003784 0.40046269 -0.14135981
-0.0057667838 -0.35115725 -0.0054888725
-0.0055727838 -0.27698225 0.10571718
-0.011575784 0.0960657 0.028884411
-0.011678784 0.16584569 -0.010359764
-0.011346784 -0.059897304 0.11659336
-0.011405784 -0.019714296 0.093995094
-0.011848784 0.28132474 -0.075301647
-0.011455785 0.014402688 0.074808121
-0.011962784 0.35865474 -0.11879063
-0.011137784 -0.20148927 0.19622135
-0.012485784 -0.56398934 -0.31842756
-0.017449785 0.095955729 0.028027058
-0.017586783 0.16574472 -0.011227608
-0.017289784 0.014283717 0.073963165
-0.017965782 0.35857773 -0.11968756
-0.016961783 -0.15255827 0.16780329
-0.017066784 -0.099338233 0.13786936
-0.023494784 0.16564369 -0.012094975
-0.023603782 0.21001071 -0.037052631
-0.022940785 -0.060154259 0.114923
-0.022877783 -0.27267128 0.12941122
-0.022593785 -0.20177823 0.19459009
-0.022713784 -0.15269727 0.16698027
-0.024753783 -0.56020528 -0.30053902
-0.029404782 0.16554171 -0.012962818
-0.030095782 0.4001767 -0.1449666
-0.035315782 0.16543972 -0.013830662
-0.035468783 0.20981669 -0.038800716
-0.034539782 -0.060413301 0.11325312
-0.035713784 0.2809757 -0.078841686
-0.034795783 0.013922691 0.071425438
-0.035979781 0.35834569 -0.12237597
-0.034221783 -0.15297824 0.16533804
-0.041228782 0.16533673 -0.014698982
-0.041403782 0.20971972 -0.039673805
-0.040499784 -0.020337284 0.089792252
-0.041682784 0.28088671 -0.079725742
-0.040633783 0.01380074 0.070580006
-0.041863784 -0.44177932 -0.10566759
-0.040058784 -0.26840228 0.15291643
-0.039977781 -0.15312034 0.1645174
-0.046978783 0.12762874 0.0055990219
-0.046632782 0.049293697 0.049690247
-0.045519784 -0.20236725 0.19133329
-0.045736782 -0.15326327 0.16369534
-0.049104784 -0.55271727 -0.26506567
-0.052717783 0.095286727 0.022881985
-0.053060781 0.16512871 -0.016433716
-0.053278781 0.20952272 -0.041423798
-0.052148782 -0.020591259 0.088111401
-0.053628784 0.28070873 -0.081494808
-0.052491784 0.049174726 0.048839092
-0.053692784 -0.43842334 -0.088857651
-0.05860078 0.095173717 0.022025108
-0.057757784 -0.060941279 0.10991526
-0.059862781 0.3285507 -0.10936499
-0.058165785 -0.33734125 0.067396164
-0.057120781 -0.26417524 0.1762414
-0.056991782 -0.2026673 0.18970633
-0.057256784 -0.15355128 0.16205406
-0.057544779 -0.10028726 0.1320672
-0.061188783 -0.54901034 -0.24747658
-0.064485788 0.095058739 0.021168232
-0.064675786 0.12729973 0.003013134
-0.064897783 0.16491771 -0.018167973
-0.063565783 -0.06107527 0.10908127
-0.065579787 0.28052771 -0.083264828
-0.065462783 -0.43509132 -0.072143555
-0.063018784 -0.15369624 0.16123343
-0.063333787 -0.10042626 0.13123941
-0.070820786 0.16481173 -0.019033909
-0.071103789 0.20922369 -0.044044971
-0.069633789 -0.020978272 0.085591316
-0.069851786 0.013181746 0.066355228
-0.07205379 0.35786772 -0.12775469
-0.069658786 -0.33432633 0.083361149
-0.068784788 -0.15384227 0.16041422
-0.069124788 -0.10056525 0.13041115
-0.073213786 -0.54532832 -0.22998285
-0.076261789 0.094828725 0.019455433
-0.076742783 0.16470569 -0.019901752
-0.075464785 -0.02110827 0.084753036
-0.077538788 0.28034574 -0.085033894
-0.075699784 0.013055742 0.06551218
-0.077868789 0.32829672 -0.112041
-0.082151785 0.094712734 0.01859808
-0.082389787 0.1269657 0.00043010712
-0.082666785 0.1645987 -0.020769596
-0.082994789 0.20902073 -0.04579258
-0.080999784 -0.061481297 0.10658121
-0.081296787 -0.021239281 0.083913326
-0.083207786 0.23794073 -0.062083721
-0.084090784 0.3577047 -0.12954664
-0.081095785 -0.33133131 0.099238396
-0.079684786 -0.25860125 0.2070632
-0.085177787 -0.54167229 -0.21258688
-0.08859279 0.1644907 -0.021636009
-0.087679788 0.048448741 0.043740273
-0.089879788 0.3281247 -0.11382484
-0.090111785 0.35762274 -0.13044262
-0.086794786 -0.32984024 0.10714817
-0.085292786 -0.25721925 0.2147193
-0.086504787 -0.10098833 0.12792921
-0.092707783 -0.61572033 -0.31629801
-0.091138788 -0.53985327 -0.20392561
-0.093935788 0.094477713 0.016886234
-0.094891787 0.20881671 -0.047539711
-0.092629783 -0.0617553 0.10491419
-0.092966788 -0.02150327 0.082235336
-0.093549788 0.048324704 0.042891026
-0.094642788 -0.42685324 -0.030739784
-0.098746784 -0.6137833 -0.30737972
-0.098804787 -0.021636307 0.081396103
-0.10110079 0.23764473 -0.064716816
-0.10147579 0.2799747 -0.088572025
-0.099423788 0.048200727 0.042040348
-0.098099783 -0.10127324 0.12627411
-0.10602979 0.12651169 -0.003015995
-0.10426778 -0.062032282 0.10324907
-0.10464378 -0.021770298 0.080557346
-0.10746378 0.2798807 -0.089455605
-0.10621779 -0.42359728 -0.014332771
-0.10294179 -0.20389825 0.18320513
-0.10389978 -0.10141724 0.12544727
-0.10893279 -0.53443223 -0.17807961
-0.11162578 0.094121695 0.014315128
-0.11275179 0.20850569 -0.050160885
-0.11345278 0.27978671 -0.090339661
-0.11117179 0.047950745 0.040342331
-0.11421578 0.35729074 -0.13402462
-0.11677679 -0.60801131 -0.28077269
-0.11483479 -0.5326373 -0.1695118
-0.11752579 0.09400171 0.013460159
-0.11591078 -0.062312305 0.10158539
-0.11704879 0.04782474 0.039493084
-0.11994079 0.32768774 -0.11828375
-0.11773579 -0.42036134 0.0019850731
-0.11508979 -0.32246131 0.14638329
-0.11444478 -0.20421427 0.1815834
-0.11550379 -0.10170728 0.12379503
-0.12275678 -0.60610133 -0.27195358
-0.12466779 0.20829672 -0.051908016
-0.12173578 -0.06245327 0.10075235
-0.12217179 -0.022175312 0.078041077
-0.12498079 0.2372427 -0.068228722
-0.12543878 0.27959573 -0.09210968
-0.12595879 0.32759869 -0.11917591
-0.12347679 -0.4187513 0.0101161
-0.12073179 -0.15519029 0.15304136
-0.12130979 -0.10185426 0.12296724
-0.12933178 0.093759716 0.011748314
-0.13062678 0.20819074 -0.052781582
-0.13143378 0.27949971 -0.09299469
-0.12840478 0.011890709 0.057915211
-0.12880878 0.047570705 0.037796021
-0.12920178 -0.41714734 0.018221378
-0.12534779 -0.25816625 0.21020508
-0.12651178 -0.15534431 0.15222311
-0.12711579 -0.10200125 0.12214136
-0.13245678 -0.52728826 -0.14394474
-0.13469079 0.047441721 0.03694725
-0.13799779 0.3274197 -0.12095881
-0.13190979 -0.31808931 0.16968536
-0.13107778 -0.25833434 0.20940399
-0.13171178 -0.20469433 0.17915106
-0.13292278 -0.10214931 0.12131405
-0.14060979 -0.6004073 -0.2456398
-0.14290778 0.23693573 -0.07086277
-0.14342879 0.27930671 -0.094763756
-0.14057378 0.04731369 0.036098003
-0.14401978 0.3273297 -0.12185192
-0.13746978 -0.20485634 0.17834044
-0.13873279 -0.10229725 0.12048912
-0.14851579 0.20786971 -0.055400848
-0.14556378 -0.022726297 0.074690342
-0.14888678 0.23683274 -0.07173872
-0.14942978 0.27920872 -0.095647812
-0.14629678 -0.41236526 0.042412281
-0.14254278 -0.2586723 0.20779705
-0.15389279 0.16326672 -0.031169891
-0.15448378 0.2077617 -0.056274891
-0.15088178 -0.063170254 0.09659338
-0.15141779 -0.022866309 0.073852062
-0.15187278 0.011355698 0.054544449
-0.15607178 0.32714772 -0.12363482
-0.15575479 -0.52023929 -0.11017895
-0.15931879 0.12545371 -0.010760784
-0.15774378 0.01121974 0.053701401
-0.15823579 0.046922743 0.033553123
-0.15762779 -0.40920228 0.058437347
-0.15415679 -0.31232733 0.20047522
-0.15475678 -0.20534724 0.17590904
-0.15543579 -0.15612632 0.14813423
-0.16420978 -0.59290332 -0.21089077
-0.16524778 0.12533271 -0.011622906
-0.16642278 0.20754373 -0.058020592
-0.16255079 -0.063462257 0.094930172
-0.16361579 0.011083722 0.052858353
-0.16052179 -0.20551223 0.17510128
-0.16198778 -0.10289925 0.11718941
-0.17070179 0.09289372 0.0057601929
-0.17239478 0.20743471 -0.058893681
-0.17344978 0.27881372 -0.09918499
-0.17001779 0.046659708 0.031857014
-0.16890478 -0.40606123 0.074375153
-0.16549478 -0.2593593 0.20459223
-0.16780579 -0.10305232 0.11636209
-0.17661978 0.092766702 0.0049052238
-0.17768979 0.16280371 -0.03463459
-0.17422879 -0.0637573 0.093269348
-0.17881279 0.23630673 -0.076129913
-0.17946079 0.2787137 -0.10006857
-0.17591378 0.04652673 0.031009197
-0.17362678 -0.10320526 0.11553717
-0.17882979 -0.51328331 -0.076773643
-0.18364279 0.16268671 -0.035501003
-0.18480279 0.23620069 -0.077007771
-0.18013078 -0.40293926 0.090232372
-0.17623779 -0.30688924 0.22963238
-0.17782879 -0.20601231 0.17267227
-0.17860478 -0.15676528 0.14486742
-0.18758179 -0.5855003 -0.17651796
-0.18456478 -0.51155931 -0.068478584
-0.18959878 0.1625697 -0.03636694
-0.19079478 0.2360937 -0.077884674
-0.18572378 -0.40138727 0.098129272
-0.18195878 -0.30707127 0.22883701
-0.18526979 -0.1035133 0.11388922
-0.19438079 0.092383742 0.0023403168
-0.19555579 0.16245073 -0.037232876
-0.19243279 -0.023862302 0.06799221
-0.19749878 0.27841073 -0.10272169
-0.19130379 -0.39983934 0.10600615
-0.18847279 -0.26006025 0.20138836
-0.19918379 -0.58183628 -0.1594739
-0.20030479 0.092254698 0.0014853477
-0.20151378 0.1623317 -0.038097858
-0.19760178 -0.064356267 0.08994627
-0.19829878 -0.024008274 0.067156315
-0.20278379 0.23587769 -0.079639912
-0.20351578 0.27830869 -0.10360765
-0.19888979 0.010250688 0.047805309
-0.19687179 -0.3982963 0.11386299
-0.19422178 -0.26023728 0.20058918
-0.19514878 -0.20652026 0.17024708
-0.20496279 -0.58001333 -0.15098476
-0.20680679 0.12447172 -0.017642975
-0.20345078 -0.064507306 0.089116096
-0.20953579 0.27820671 -0.10449171
-0.20477578 0.010109723 0.046963215
-0.20242679 -0.3967573 0.12170219
-0.19997279 -0.26041526 0.19978905
-0.21073079 -0.57819623 -0.14251757
-0.20736779 -0.50471729 -0.035516739
-0.21425179 0.20665169 -0.065004826
-0.20930079 -0.064660251 0.0882864
-0.21003678 -0.024300277 0.06548214
-0.21131478 0.04571569 0.025924206
-0.20796879 -0.39522523 0.12951708
-0.22115079 -0.67571431 -0.27859879
-0.21869579 0.12421972 -0.019362926
-0.22023879 0.20653671 -0.065878868
-0.21590878 -0.024448276 0.064647198
-0.22078279 0.23554969 -0.082273006
-0.21655078 0.0098257065 0.04527998
-0.21722078 0.045578718 0.025076389
-0.21059279 -0.30799431 0.22487307
-0.22700378 -0.67375034 -0.26982498
-0.21340978 -0.15774924 0.13997221
-0.22222179 -0.57458025 -0.12565374
-0.22464278 0.1240927 -0.020220757
-0.22536878 0.16185069 -0.04156065
-0.22100478 -0.064967334 0.086625099
-0.22178179 -0.024596274 0.063811302
-0.22678478 0.23543972 -0.083150864
-0.21901479 -0.3921743 0.1450901
-0.21826778 -0.20721024 0.16701603
-0.23284279 -0.67179328 -0.26107693
-0.21921679 -0.15791625 0.1391573
-0.22024478 -0.10445827 0.10894632
-0.22432978 -0.49964529 -0.011023998
-0.23133878 0.16172874 -0.042426586
-0.22765778 -0.024745286 0.062973976
-0.23279178 0.23532873 -0.084028721
-0.22833478 0.0095387101 0.043597221
-0.22205979 -0.30837029 0.22328806
-0.22405279 -0.20738429 0.16620922
-0.23866978 -0.6698423 -0.25234985
-0.22502579 -0.15808433 0.13834238
-0.22608179 -0.10461825 0.10812235
-0.23365979 -0.57098824 -0.10887957
-0.22995879 -0.49796528 -0.0028986931
-0.23730879 0.16160673 -0.043292999
-0.23821078 0.20619172 -0.068497658
-0.23965779 0.2776857 -0.10891485
-0.23422879 0.009393692 0.042756081
-0.22779478 -0.30855924 0.22249842
-0.23083679 -0.1582523 0.13752842
-0.23191878 -0.1047793 0.10729837
-0.23557279 -0.49629134 0.005200386
-0.24328078 0.16148371 -0.044157982
-0.23857579 -0.065433323 0.08413744
-0.2456878 0.27758074 -0.10979795
-0.24086578 0.045021713 0.021687984
-0.23548979 -0.38763434 0.16830111
-0.23451078 -0.26150423 0.19499445
-0.25027776 -0.66596133 -0.234972
-0.23664878 -0.15842134 0.13671303
-0.24504177 -0.5674203 -0.092196941
-0.24776478 0.091200709 -0.0053520203
-0.24845178 0.12357974 -0.023658752
-0.25020078 0.20595771 -0.070242882
-0.23926979 -0.30894023 0.22091532
-0.24027379 -0.26168829 0.19419718
-0.24246179 -0.15859133 0.13589811
-0.25071278 -0.56564528 -0.083887577
-0.2467628 -0.49295932 0.021337986
-0.25522977 0.16123569 -0.045889854
-0.25619876 0.20584071 -0.071115971
-0.25682977 0.23487973 -0.087537766
-0.24641077 -0.38463134 0.18367624
-0.2460378 -0.2618733 0.193398
-0.24720578 -0.20809132 0.16298103
-0.26182976 -0.66210526 -0.21768665
-0.2482778 -0.15876228 0.13508415
-0.26220077 0.20572269 -0.071987629
-0.25616378 -0.065905273 0.081651211
-0.25185376 -0.38313729 0.1913352
-0.25299978 -0.2082693 0.16217518
-0.25409678 -0.1589343 0.13427019
-0.25528577 -0.10543126 0.1040082
-0.26559377 0.090794742 -0.0079135895
-0.26718876 0.16098571 -0.047620773
-0.26820177 0.20560372 -0.072861671
-0.26886177 0.23465174 -0.08929491
-0.27332878 -0.65827531 -0.20049477
-0.27229178 0.12305671 -0.027097702
-0.26883578 -0.025807261 0.057126045
-0.27487978 0.23453671 -0.09017086
-0.26334178 -0.26243526 0.19100523
-0.26459077 -0.20862931 0.16056299
-0.27326778 -0.55860227 -0.050871849
-0.26898977 -0.48636025 0.05336237
-0.27748778 0.09052074 -0.0096206665
-0.27825576 0.12292373 -0.027956963
-0.27915278 0.16073275 -0.049350739
-0.28090078 0.23442173 -0.091048717
-0.26799077 -0.30990833 0.2169652
-0.26911277 -0.26262432 0.19020605
-0.27155876 -0.15945429 0.13182926
-0.27451476 -0.48472434 0.061318398
-0.28343979 0.090382695 -0.010475636
-0.28231677 0.044021726 0.015762329
-0.27350178 -0.37720925 0.22177839
-0.27738577 -0.15962929 0.13101625
-0.28002778 -0.48309332 0.069253445
-0.28939077 0.09024471 -0.011328697
-0.29019177 0.12265772 -0.029675007
-0.29112676 0.1604777 -0.051081657
-0.28551278 -0.06670934 0.07750845
-0.29294878 0.23418969 -0.092803955
-0.28735977 0.0080597401 0.035189152
-0.27949277 -0.31030232 0.21538639
-0.28066176 -0.26300424 0.18861437
-0.28199178 -0.20917529 0.15814638
-0.29534477 0.090105712 -0.012181759
-0.29824176 0.20500273 -0.077224731
-0.29138777 -0.066872299 0.076680183
-0.29240677 -0.026430309 0.053787231
-0.28425276 -0.37427324 0.23688412
-0.28903976 -0.15998131 0.12939024
-0.29101476 -0.4798463 0.085058212
-0.29830477 -0.026587307 0.05295229
-0.29918778 0.0077556968 0.033508301
-0.29221576 -0.26338834 0.18702126
-0.30749679 -0.64693934 -0.14947367
-0.29624677 -0.1066013 0.098254204
-0.30725878 0.089824736 -0.01388979
-0.30420378 -0.026746273 0.052119255
-0.31103277 0.23383671 -0.095436573
-0.30604276 0.043435693 0.012378216
-0.29675677 -0.31090027 0.21301937
-0.30210578 -0.10677129 0.09743309
-0.31321979 0.089683712 -0.014743805
-0.31408578 0.12211674 -0.033111572
-0.31628978 0.20463473 -0.079844952
-0.31706676 0.23371869 -0.096313953
-0.31198078 0.043287694 0.01153326
-0.30251577 -0.3111003 0.21223021
-0.32309878 -0.70704633 -0.22421694
-0.30653778 -0.16051632 0.12695122
-0.32006377 0.12198073 -0.033969879
-0.32109377 0.15982974 -0.055408955
-0.31600878 -0.027065277 0.050449371
-0.32310078 0.23359972 -0.097191811
-0.31694376 0.0072947145 0.030987263
-0.30956379 -0.26397032 0.18463421
-0.31237376 -0.16069633 0.12613821
-0.31775376 -0.54479223 0.014132023
-0.32514578 0.089399695 -0.016450882
-0.32079276 -0.067697227 0.072542191
-0.31534976 -0.2641663 0.18383837
-0.31821176 -0.16087729 0.12532616
-0.31969577 -0.10728723 0.094970226
-0.33111078 0.089256704 -0.017303944
-0.33202678 0.1217047 -0.035688877
-0.33309376 0.1595667 -0.05713892
-0.32980177 0.042838693 0.0089950562
-0.32265678 -0.21048027 0.15251398
-0.34013078 -0.70119828 -0.19848871
-0.32874778 -0.54139632 0.030170441
-0.33708078 0.089112699 -0.018158913
-0.33801177 0.12156671 -0.036547661
-0.33256978 -0.068033278 0.070887089
-0.33373177 -0.027548313 0.047947407
-0.34121677 0.23323971 -0.099820614
-0.32380778 -0.37325734 0.24383926
-0.32692778 -0.26456124 0.18224716
-0.34118876 -0.63582534 -0.099260807
-0.32989377 -0.16124028 0.1237011
-0.33422777 -0.53970534 0.038160324
-0.34399778 0.12142771 -0.037405014
-0.34169376 0.042535722 0.0073041916
-0.32954478 -0.37347132 0.24306107
-0.33429378 -0.21086031 0.15090704
-0.33730376 -0.10780925 0.092507362
-0.35111177 0.15916669 -0.059734821
-0.34435278 -0.068371236 0.069234371
-0.34555578 -0.027874291 0.046280384
-0.34764278 0.04238373 0.0064592361
-0.33528277 -0.37368733 0.2422843
-0.35704577 -0.69540828 -0.17296457
-0.34514678 -0.53634232 0.054076195
-0.35499576 0.088677704 -0.020715714
-0.35597676 0.12114674 -0.039121628
-0.35146978 -0.028038263 0.04544735
-0.35359278 0.042229712 0.005613327
-0.34287676 -0.31253427 0.20671701
-0.36265677 -0.69349128 -0.16450071
-0.35785878 -0.63035125 -0.074454784
-0.34742978 -0.16179234 0.12126827
-0.34904978 -0.10816222 0.090865135
-0.35058779 -0.53466934 0.062001228
-0.35614276 -0.068713248 0.067580223
-0.34676579 -0.37412125 0.24073029
-0.34865078 -0.31274229 0.20593214
-0.35010478 -0.26536125 0.17906904
-0.36338976 -0.62853831 -0.06622982
-0.35492676 -0.10833925 0.090047359
-0.35056576 -0.4623633 0.17056799
-0.37054276 0.20350069 -0.087697983
-0.36330777 -0.028369308 0.043779373
-0.35442677 -0.31295127 0.20514631
-0.35590577 -0.26556331 0.17827511
-0.35913277 -0.16216427 0.11964607
-0.37396076 0.1207217 -0.041699886
-0.37031978 0.0058727264 0.023433208
-0.35825777 -0.37455934 0.23917818
-0.36170676 -0.26576728 0.17748117
-0.36668676 -0.10869628 0.088406086
-0.36123776 -0.45925027 0.18586302
-0.38117978 0.1584897 -0.064058781
-0.37515077 -0.028702259 0.042114258
-0.36400476 -0.37477928 0.23840237
-0.36924678 -0.21202224 0.14608812
-0.37990978 -0.62313527 -0.041677952
-0.38595977 0.1204347 -0.043416977
-0.37176377 -0.31358534 0.20278835
-0.39052078 -0.68400031 -0.12252474
-0.37669778 -0.16272932 0.11721325
-0.37845376 -0.10905629 0.086767197
-0.37761378 -0.52638227 0.10133743
-0.37186277 -0.45615727 0.20107937
-0.37754676 -0.31379825 0.20200205
-0.39605576 -0.68212134 -0.11419678
-0.39085877 -0.61956328 -0.025420666
-0.38298178 -0.52474123 0.1091423
-0.37715676 -0.45461828 0.20865917
-0.39530578 0.041139722 -0.0003027916
-0.38126177 -0.37544626 0.23607635
-0.38333276 -0.31401223 0.20121717
-0.38675076 -0.21261424 0.143682
-0.39886478 -0.029378295 0.038781166
-0.40004277 0.0050567389 0.019237995
-0.38911977 -0.31422728 0.2004323
-0.41703478 -0.79484826 -0.26261187
-0.39074177 -0.26679629 0.17351532
-0.39258876 -0.21281427 0.14288044
-0.40708676 -0.67838126 -0.097603798
-0.39428276 -0.16330129 0.11478233
-0.39611977 -0.10960323 0.084308147
-0.40998477 0.11985373 -0.046849728
-0.41130176 0.15779573 -0.068385601
-0.40338978 -0.070110261 0.060970306
-0.39277476 -0.37589628 0.23452711
-0.39842877 -0.21301323 0.14207935
-0.41258377 -0.67652029 -0.08934164
-0.40719178 -0.61424834 -0.0011878014
-0.40014777 -0.16349334 0.11397314
-0.39901876 -0.51984924 0.13244629
-0.41485077 0.087184727 -0.029246807
-0.41599578 0.1197077 -0.047707558
-0.40069878 -0.31466025 0.19886303
-0.42825577 -0.79076928 -0.2453208
-0.39822176 -0.44851023 0.23878908
-0.42084876 0.087031722 -0.030099869
-0.42201078 0.11955971 -0.048566818
-0.41522276 -0.070468247 0.059318066
-0.41790277 0.0045596957 0.016723156
-0.40965077 -0.5166133 0.14788437
-0.40346077 -0.44699532 0.24627924
-0.42802578 0.11941171 -0.049424648
-0.42940077 0.15737271 -0.070981026
-0.42261177 -0.030066311 0.035451412
-0.42516178 0.040339708 -0.0045256615
-0.41006076 -0.37657827 0.23220444
-0.43942577 -0.78671724 -0.22812271
-0.41400677 -0.26763529 0.17034626
-0.40868676 -0.44548529 0.25374508
-0.43284878 0.086723745 -0.031804562
-0.43404377 0.1192627 -0.050283909
-0.43543777 0.15723073 -0.071846008
-0.42855376 -0.030239284 0.034618378
-0.44498977 -0.78470129 -0.21955681
-0.42181176 -0.21382231 0.13887405
-0.42879778 -0.60724229 0.030831337
-0.42363077 -0.16427034 0.11073399
-0.41390076 -0.44398028 0.26119614
-0.44006377 0.11911374 -0.051142693
-0.43298578 -0.071009338 0.056842327
-0.43449676 -0.030414283 0.033787251
-0.45054176 -0.78269225 -0.21101665
-0.41915178 -0.4426313 0.2679143
-0.43891078 -0.071191251 0.056018353
-0.44044277 -0.030589283 0.032954216
-0.43351376 -0.21423227 0.13727236
-0.43952876 -0.6037733 0.046716213
-0.43741277 -0.1109063 0.078577995
-0.45211077 0.11881274 -0.052858829
-0.44771078 0.003715694 0.012532234
-0.44908577 0.039686739 -0.0079059601
-0.43313578 -0.37750024 0.22911215
-0.46160978 -0.77869326 -0.19400072
-0.43730378 -0.2684893 0.16717911
-0.43936977 -0.21443826 0.13647223
-0.44126576 -0.16486233 0.10830641
-0.44332078 -0.11109525 0.07776022
-0.43602777 -0.50861531 0.1861372
-0.45960876 0.15665573 -0.075304985
-0.45076877 -0.071557343 0.054367065
-0.45234278 -0.030942261 0.031290054
-0.45367777 0.0035446882 0.011694431
-0.43890879 -0.37773329 0.2283392
-0.44129276 -0.3162033 0.19337845
-0.46712378 -0.77670425 -0.1855278
-0.44313276 -0.26870531 0.16638803
-0.45021278 -0.60032624 0.062524319
-0.44714677 -0.1650613 0.10749817
-0.44126776 -0.50703126 0.19373226
-0.46416578 0.11850971 -0.05457592
-0.46565676 0.15651071 -0.076170921
-0.45964777 0.0033727288 0.010856152
-0.44468376 -0.3779673 0.2275672
-0.44709876 -0.31642824 0.19259405
-0.47262478 -0.77472228 -0.17707682
-0.45108476 -0.21485323 0.13487244
-0.46263376 -0.071926296 0.052718163
-0.46561977 0.0032007098 0.010018349
-0.46705076 0.03919071 -0.010437965
-0.47811377 -0.77274626 -0.16864872
-0.45479578 -0.26913923 0.16480732
-0.46687177 -0.65824527 -0.0078816414
-0.45171577 -0.5038783 0.20886421
-0.47623178 0.11820471 -0.056290627
-0.47020677 -0.031477273 0.028794289
-0.47159576 0.0030277371 0.009180069
-0.47223479 -0.65645033 0.0001502037
-0.46697178 -0.11186129 0.074487209
-0.48093876 0.085466743 -0.038625717
-0.47757277 0.0028536916 0.0083422661
-0.46202376 -0.37867528 0.2252512
-0.48905578 -0.76881331 -0.15185499
-0.46211976 -0.50074428 0.2239213
-0.48355076 0.0026797056 0.0075039864
-0.48503676 0.038687706 -0.012970924
-0.46780777 -0.3789143 0.2244792
-0.47671676 -0.59180731 0.10168839
-0.47658879 -0.16606933 0.10345411
-0.46730378 -0.49918526 0.23142099
-0.49434376 0.11774069 -0.058866978
-0.48639178 -0.072674334 0.049420357
-0.49994576 -0.7649073 -0.13515282
-0.47815078 -0.27001923 0.16164637
-0.48041078 -0.21590632 0.1308732
-0.48198277 -0.59012026 0.10946035
-0.47084978 -0.44484025 0.26106215
-0.49900877 0.084983706 -0.041181564
-0.49405479 -0.032200277 0.025468349
-0.49703676 0.038348734 -0.014658928
-0.48198476 -0.31779426 0.18790245
-0.48399377 -0.27024132 0.16085625
-0.48837978 -0.16647834 0.10183907
-0.49065578 -0.11263925 0.07121706
-0.50503778 0.084821701 -0.042034626
-0.49828476 -0.0730533 0.047770977
-0.5015018 0.0021517277 0.0049920082
-0.48517177 -0.37963325 0.22216511
-0.51078975 -0.76102632 -0.118536
-0.49886978 -0.64756328 0.039996147
-0.49248177 -0.5867613 0.12495136
-0.49428076 -0.16668326 0.10103226
-0.49658376 -0.11283523 0.070401192
-0.48279276 -0.49453729 0.25381422
-0.50748879 0.0019736886 0.0041532516
-0.50904876 0.038007736 -0.016345978
-0.51619279 -0.75909525 -0.11026192
-0.50416076 -0.64580232 0.047906399
-0.49771374 -0.58509034 0.13266516
-0.50018179 -0.16689032 0.10022306
-0.51852775 0.11711371 -0.062298775
-0.51018476 -0.073435247 0.046122074
-0.51347876 0.0017957091 0.0033164024
-0.49675775 -0.38011831 0.22062445
-0.5060848 -0.16709727 0.09941721
-0.52313375 0.084331691 -0.044591904
-0.52457875 0.1169557 -0.063156605
-0.51613879 -0.073627293 0.0452981
-0.51794076 -0.032935262 0.02214241
-0.5210678 0.037662745 -0.018034935
-0.5073908 -0.27113932 0.15769815
-0.51470977 -0.64230031 0.063662052
-0.50814277 -0.58176428 0.14803934
-0.51198977 -0.16730529 0.098609447
-0.5254668 0.0014377236 0.0016422272
-0.52708179 0.037489712 -0.018877983
-0.50835377 -0.38060731 0.21908522
-0.51111478 -0.31895834 0.1839962
-0.5323298 -0.75334126 -0.085562706
-0.51324677 -0.2713663 0.15690804
-0.51567376 -0.21719831 0.12608004
-0.5133428 -0.58010823 0.15569735
-0.5178988 -0.16751426 0.097802162
-0.52031279 -0.11362928 0.067131996
-0.50349879 -0.48898929 0.28077221
-0.52989775 -0.033307254 0.020480156
-0.53146374 0.0012567043 0.00080442429
-0.51415378 -0.38085324 0.21831512
-0.51910377 -0.27159327 0.15612125
-0.52155775 -0.2174173 0.12528229
-0.52624977 -0.11383027 0.066315174
-0.50924379 -0.48925334 0.28002024
-0.53911376 0.03714174 -0.020564556
-0.52744377 -0.21763629 0.12448215
-0.53044778 -0.63708729 0.08714819
-0.52370477 -0.57681423 0.17095423
-0.53997576 -0.074403226 0.042005062
-0.54513377 0.036965728 -0.021408558
-0.52576077 -0.38134831 0.21677637
-0.5286178 -0.31966728 0.18165636
-0.53563476 -0.16814727 0.09538126
-0.53813177 -0.11423427 0.064683437
-0.52073878 -0.48978323 0.2785182
-0.52271479 -0.44713229 0.25423336
-0.54784775 -0.033871293 0.017988205
-0.55115575 0.036789715 -0.02225256
-0.53156775 -0.38159734 0.21600723
-0.55367875 -0.74575633 -0.052932739
-0.53668576 -0.27228123 0.15375519
-0.52848679 -0.44739133 0.25347519
-0.55190974 -0.074796259 0.040357113
-0.53737777 -0.38184732 0.21523809
-0.5589878 -0.74387532 -0.0448246
-0.54255176 -0.27251333 0.15296841
-0.53916776 -0.57191223 0.19370127
-0.55002379 -0.1146403 0.06305027
-0.55787879 -0.074993312 0.039534092
-0.55982774 -0.034251273 0.016326427
-0.56148279 0.00034469366 -0.0033807755
-0.54318875 -0.3820973 0.21447039
-0.54841977 -0.27274531 0.15218019
-0.54429978 -0.57028824 0.20124531
-0.55339277 -0.1687873 0.092962265
-0.55597275 -0.11484534 0.062235355
-0.53799975 -0.49058729 0.27626801
-0.57149678 0.082993746 -0.051408768
-0.56923777 0.036257744 -0.024784565
-0.58435476 -0.86596924 -0.20294189
-0.56956875 -0.74013323 -0.02867794
-0.55691075 -0.21874624 0.12049532
-0.56192374 -0.11505026 0.06141901
-0.54375678 -0.4908573 0.27551937
-0.57181478 -0.034634292 0.014665127
-0.57526976 0.036078691 -0.025626659
-0.5548178 -0.38260227 0.21293306
-0.55783278 -0.32087034 0.17775822
-0.58974576 -0.86391634 -0.19449377
-0.56161976 -0.62681228 0.13359308
-0.5652408 -0.16921824 0.091348171
-0.56787676 -0.11525732 0.060603142
-0.55160177 -0.44844133 0.25044823
-0.57580179 -0.075591266 0.037064075
-0.57952279 -0.00021231174 -0.0058917999
-0.58130479 0.035899699 -0.026469707
-0.56063676 -0.38285631 0.21216631
-0.56368375 -0.32111329 0.17697811
-0.59512675 -0.86186832 -0.18606472
-0.56603676 -0.27344733 0.14981699
-0.56871378 -0.21919626 0.11890125
-0.56677675 -0.62511927 0.14126921
-0.55963176 -0.56544822 0.22376823
-0.57116979 -0.16943425 0.09054327
-0.55738676 -0.44870633 0.24969244
-0.58178079 -0.075791299 0.036241055
-0.58381379 -0.035020292 0.013003349
-0.56645679 -0.3831113 0.21139812
-0.56953579 -0.32135731 0.1762023
-0.58535475 -0.73456424 -0.0046076775
-0.57461876 -0.21942228 0.11810541
-0.57710075 -0.16965228 0.089737415
-0.57979178 -0.11567229 0.058971405
-0.56317276 -0.44897228 0.24893522
-0.5722788 -0.38336724 0.21063137
-0.57538974 -0.32160228 0.17542219
-0.57779175 -0.27392024 0.148242
-0.56979877 -0.56224734 0.23869228
-0.58303279 -0.16987032 0.088931084
-0.58575177 -0.11588126 0.058156013
-0.56895977 -0.44923931 0.24817944
-0.59758174 -0.00077527761 -0.0084018707
-0.61119378 -0.85576934 -0.16091871
-0.59582078 -0.73088127 0.011336327
-0.58367175 -0.2741583 0.14745617
-0.58643377 -0.21987826 0.11651134
-0.5821808 -0.62007231 0.16417217
-0.5889678 -0.17009026 0.088125229
-0.57257676 -0.49222332 0.2717762
-0.60182679 -0.035604298 0.010513306
-0.58955479 -0.27439731 0.14666939
-0.58054274 -0.44977731 0.24666834
-0.59544277 -0.27463728 0.14588213
-0.59826076 -0.22033733 0.11491823
-0.5923968 -0.61673325 0.17935133
-0.61171079 -0.07680732 0.03212738
-0.61384875 -0.035997272 0.008852005
-0.61566478 -0.0013442636 -0.010912895
-0.62715578 -0.84972924 -0.13596678
-0.61143678 -0.7254023 0.035101414
-0.60132974 -0.27487725 0.1450963
-0.58989578 -0.49305624 0.26953316
-0.59213579 -0.45031828 0.2451582
-0.61770278 -0.077012241 0.031305313
-0.61661977 -0.72358829 0.042982101
-0.61559075 -0.11693734 0.054078102
-0.62369776 -0.077218235 0.030482292
-0.62587875 -0.036394298 0.0071921349
-0.62966377 0.034437716 -0.033218861
-0.60004777 -0.55276531 0.28303099
-0.61867678 -0.17119926 0.084099293
-0.60373574 -0.45086426 0.24364901
-0.61309779 -0.38518625 0.20526218
-0.62695378 -0.71997625 0.058688164
-0.62193877 -0.22126633 0.11173201
-0.60723478 -0.49389833 0.26729202
-0.60954076 -0.45113832 0.24289417
-0.63980877 -0.002114296 -0.014258862
-0.64177877 0.03406471 -0.03490591
-0.63210279 -0.71817929 0.066511154
-0.63057876 -0.17164928 0.082489014
-0.63352275 -0.11758024 0.051634312
-0.64585078 -0.0023092628 -0.015095711
-0.62477976 -0.38571531 0.20373201
-0.65352678 -0.83979529 -0.09481287
-0.63724178 -0.71638829 0.07431221
-0.63080478 -0.27609426 0.14116621
-0.63653177 -0.1718753 0.081684113
-0.64997077 -0.037196279 0.0038733482
-0.65390277 0.033689737 -0.03659296
-0.63062477 -0.38598126 0.20296717
-0.63670576 -0.27634031 0.14038038
-0.62781477 -0.60521728 0.23188639
-0.64248776 -0.17210227 0.080879211
-0.62459177 -0.49475032 0.26505518
-0.62696475 -0.45196825 0.2406354
-0.65794176 -0.0026992559 -0.016768932
-0.63993579 -0.32436329 0.16687107
-0.64565378 -0.22220927 0.10855103
-0.64844579 -0.17233032 0.080075264
-0.66399276 -0.0028963089 -0.017604828
-0.66921276 -0.83391327 -0.07036972
-0.65159076 -0.22244734 0.10775614
-0.63784075 -0.60197324 0.24673223
-0.65746474 -0.11844927 0.048376083
-0.67210877 0.033120692 -0.039122581
-0.65752774 -0.22268623 0.1069603
-0.63881278 -0.55101532 0.29445934
-0.66345578 -0.11866933 0.047560215
-0.64441079 -0.45280725 0.23837519
-0.67609876 -0.0032913089 -0.019277573
-0.67818177 0.032929718 -0.039964676
-0.65402776 -0.38705426 0.1999073
-0.65758878 -0.32513624 0.16454315
-0.64782476 -0.59875029 0.26150513
-0.66633677 -0.17301923 0.077661991
-0.65022975 -0.4530893 0.23762226
-0.68215477 -0.0034902692 -0.020114899
-0.68425679 0.032737732 -0.040807724
-0.66347677 -0.32539624 0.16376829
-0.67230475 -0.17325026 0.07685709
-0.65356678 -0.49619228 0.26133013
-0.6861828 -0.038422287 -0.001106739
-0.67216879 -0.27783734 0.13567209
-0.67535478 -0.22340828 0.10457706
-0.68981075 -0.079540312 0.021439075
-0.69222677 -0.038629293 -0.0019369125
-0.69641775 0.032352746 -0.04249382
-0.67796779 -0.70226532 0.13604212
-0.68130177 -0.22365123 0.10378218
-0.66770375 -0.45394129 0.23536634
-0.69583577 -0.07975632 0.020617008
-0.69827276 -0.038837254 -0.0027656555
-0.70034176 -0.0040912628 -0.022622585
-0.68400776 -0.27834326 0.13410425
-0.67098075 -0.49707025 0.2590971
-0.70186275 -0.079972327 0.019796371
-0.68705678 -0.32644433 0.16066504
-0.6899308 -0.27859825 0.13332033
-0.69320178 -0.22413927 0.10219431
-0.67260778 -0.59078127 0.29813433
-0.69620275 -0.17418426 0.073642254
-0.67936277 -0.45451432 0.23386335
-0.71037179 -0.039255261 -0.004424572
-0.71247876 -0.0044952631 -0.024295807
-0.69295675 -0.32670933 0.15989113
-0.69306475 -0.69706231 0.15887833
-0.69915676 -0.22438425 0.10139942
-0.67753476 -0.58920223 0.30540705
-0.70218378 -0.1744203 0.072838306
-0.70546675 -0.12022823 0.041861057
-0.68259978 -0.49766034 0.25761223
-0.69886178 -0.32697433 0.15911627
-0.6980778 -0.69533831 0.16645432
-0.70178574 -0.27911025 0.13175106
-0.70511478 -0.2246303 0.10060501
-0.68287879 -0.58857232 0.30867243
-0.70816779 -0.17465729 0.072035313
-0.71147978 -0.12045425 0.041047096
-0.68841475 -0.49795824 0.25686932
-0.70771676 -0.27936834 0.13096809
-0.71107376 -0.2248773 0.099812031
-0.68864679 -0.58888632 0.30794716
-0.71749377 -0.12068123 0.040234089
-0.72599876 -0.080847323 0.016509056
-0.73070377 -0.0051072836 -0.02680397
-0.7068218 -0.38953024 0.19303513
-0.71067476 -0.32750827 0.15756607
-0.69441676 -0.58920127 0.30722141
-0.69660079 -0.5540573 0.2871232
-0.72350979 -0.12090927 0.039420128
-0.73678374 -0.0053132772 -0.027639866
-0.71269977 -0.38981026 0.19227314
-0.71305078 -0.69020134 0.18906641
-0.72299975 -0.22537428 0.098223209
-0.72952878 -0.12113732 0.038605213
-0.72896779 -0.22562426 0.097429276
-0.71440279 -0.45625931 0.2293601
-0.74412775 -0.081511319 0.014045238
-0.72841477 -0.32831722 0.1552453
-0.72298276 -0.68680328 0.20405006
-0.71174377 -0.5901553 0.30504417
-0.71398276 -0.55499226 0.28492832
-0.74157578 -0.12159723 0.036979198
-0.71751875 -0.49945933 0.25315619
-0.75017577 -0.08173424 0.013224125
-0.72334576 -0.49976331 0.25241613
-0.72609979 -0.45684928 0.2278614
-0.75622576 -0.081958234 0.012403011
-0.76113075 -0.0061422586 -0.030984879
-0.7362358 -0.39094132 0.1892252
-0.72558177 -0.55562025 0.28346634
-0.75011975 -0.1763373 0.066413403
-0.75363177 -0.12206024 0.03535223
-0.73195279 -0.45714623 0.22711229
-0.74617475 -0.32913429 0.15292406
-0.75612277 -0.17658132 0.065610409
-0.73500878 -0.5003733 0.25093222
-0.76833576 -0.082408249 0.010760307
-0.74801975 -0.39151329 0.18770123
-0.75210178 -0.32940823 0.15215111
-0.73487878 -0.59144324 0.3021493
-0.76569974 -0.12252623 0.033725262
-0.76813877 -0.17707127 0.064005375
-0.7717368 -0.12276131 0.032912254
-0.75981176 -0.39208823 0.18617916
-0.76395977 -0.32996029 0.1506052
-0.76716179 -0.28199428 0.12314034
-0.74881077 -0.55689234 0.28054428
-0.77414978 -0.17731732 0.063202381
-0.77777576 -0.12299627 0.032099247
-0.76989275 -0.33023733 0.1498332
-0.78381878 -0.12323231 0.03128624
-0.75836378 -0.50160724 0.24797201
-0.76125377 -0.45864528 0.22336817
-0.77908176 -0.28253132 0.12157631
-0.76043975 -0.55753428 0.27908421
-0.78986478 -0.12346929 0.030473232
-0.76420975 -0.50191933 0.24723244
-0.80146074 -0.042490304 -0.016864777
-0.77752078 -0.3929593 0.18389702
-0.79219979 -0.17806131 0.060796261
-0.77299279 -0.45925325 0.22187233
-0.80755377 -0.042712271 -0.017693996
-0.7720778 -0.55818123 0.27762699
-0.7759068 -0.5025453 0.24575233
-0.7788648 -0.45955831 0.22112417
-0.79365075 -0.3313573 0.14674425
-0.80424577 -0.17856127 0.059191227
-0.78175879 -0.50285929 0.24501324
-0.78473979 -0.45986527 0.22037601
-0.81027275 -0.17881328 0.058389187
-0.80554575 -0.33192223 0.1451993
-0.82013178 -0.12466723 0.026408195
-0.79649878 -0.46048027 0.21888208
-0.81490278 -0.28416532 0.11688709
-0.81877977 -0.22948128 0.085541248
-0.8261928 -0.12490934 0.025597095
-0.81744975 -0.33249229 0.14365625
-0.82088178 -0.28444034 0.11610699
-0.82837075 -0.17957324 0.05598402
-0.83225679 -0.12515229 0.024782181
-0.80826575 -0.46110123 0.21738911
-0.84121579 -0.085179269 0.00091028214
-0.83440775 -0.17982823 0.05518198
-0.83832276 -0.12539631 0.023970127
-0.81415379 -0.46141225 0.21664429
-0.84730679 -0.085415304 8.9168549e-05
-0.85340178 -0.085652292 -0.00073194504
-0.83078378 -0.39562923 0.17706108
-0.83532774 -0.33335429 0.14134216
-0.82593775 -0.46203929 0.21515226
-0.83671474 -0.3959313 0.17630243
-0.84129179 -0.33364326 0.14057112
-0.84482574 -0.28555328 0.11298513
-0.84884775 -0.23081332 0.081583977
-0.85253775 -0.18059927 0.052778244
-0.84725875 -0.33393329 0.13980007
-0.8508178 -0.2858333 0.11220407
-0.84858376 -0.39653832 0.17478609
-0.85322779 -0.33422524 0.13902998
-0.86089379 -0.23135227 0.080001354
-0.86463779 -0.18111724 0.051176071
-0.84363174 -0.46298832 0.21291637
-0.85452378 -0.39684325 0.17402744
-0.86281276 -0.28639728 0.11064434
-0.87478375 -0.12687725 0.019096375
-0.88391274 -0.086849272 -0.0048327446
-0.86046475 -0.39714926 0.17326927
-0.8688128 -0.28668028 0.10986328
-0.87295276 -0.23189527 0.078418255
-0.87674975 -0.18163925 0.049571991
-0.88086879 -0.12712628 0.018285275
-0.89002275 -0.087091267 -0.0056538582
-0.86640877 -0.39745623 0.17251205
-0.87115377 -0.33510524 0.13671732
