# .PCD v0.7 - Point Cloud Data file format
VERSION 0.7
FIELDS x y z
SIZE 4 4 4
TYPE F F F
COUNT 1 1 1
WIDTH 1393
HEIGHT 1
VIEWPOINT 0 0 0 1 0 0 0
POINTS 1393
DATA ascii
0.55429602 -0.23108196 -0.18476439
0.54798001 -0.017660022 -0.17940426
0.54913998 0.054924965 -0.19414234
0.55034798 0.13053596 -0.20949125
0.549209 -0.46145105 -0.19501543
0.55659598 -1.01192 -0.28888416
0.554061 -0.85300899 -0.25667429
0.54883397 -0.40681899 -0.19026041
0.54762 -0.22944999 -0.17482615
0.550228 -0.61032903 -0.20797348
0.54109198 0.018319011 -0.16656208
0.54170501 0.057226002 -0.17443848
0.54242498 0.10295701 -0.18369627
0.54289198 0.13261497 -0.18969917
0.54763502 -0.85140395 -0.25063324
0.54136896 -0.28769302 -0.17012119
0.53319299 -0.012649 -0.14028549
0.533741 -0.13807899 -0.14739752
0.53349102 -0.10067999 -0.14415407
0.535873 -0.45747697 -0.17511129
0.54368901 -1.008392 -0.2766943
0.54254299 -0.93478501 -0.26180124
0.53825599 -0.65943503 -0.20608711
0.53744799 -0.60749996 -0.19558334
0.52713299 -0.13660198 -0.13757324
0.52811301 0.13673401 -0.15045834
0.52877098 0.17971498 -0.1591053
0.53868997 -1.073211 -0.28950834
0.53481698 -0.84820497 -0.23858833
0.53360701 -0.76954806 -0.22268343
0.52810597 -0.284271 -0.15036535
0.51966202 0.064043999 -0.11601925
0.52226502 -0.39924204 -0.15063047
0.52186698 -0.33808303 -0.14533854
0.527233 -0.76803398 -0.21670818
0.52475399 -0.604792 -0.18373537
0.51959401 0.37626499 -0.19355154
0.51724398 -0.52464306 -0.16193151
0.51528203 -0.33630204 -0.13552332
0.51492602 -0.28087401 -0.1307354
0.51920199 -0.65522504 -0.18827915
0.50664198 -0.0070750117 -0.097490311
0.50771403 -0.176301 -0.1120863
0.50689799 0.18542397 -0.10096836
0.50925201 0.346176 -0.13303232
0.51470202 0.418181 -0.20724249
0.50799 -0.21978104 -0.11583853
0.49966702 0.06813401 -0.081453323
0.50090903 -0.13074702 -0.098581314
0.500678 -0.093636036 -0.095385075
0.50465602 -0.52211201 -0.15021229
0.50278699 -0.39421904 -0.12445116
0.50818503 -0.76351798 -0.19885111
0.49342203 0.029645979 -0.07523632
0.49289101 0.11569297 -0.067835331
0.49270701 0.14569598 -0.065256119
0.49362403 0.26622701 -0.078054428
0.49421102 0.307558 -0.086249352
0.49586803 0.424101 -0.10935736
0.49837703 -0.52085102 -0.14436722
0.49733102 -0.44832802 -0.12977314
0.501858 -0.76201999 -0.19292021
0.50123298 -0.71869695 -0.18419933
0.49530503 -0.275823 -0.10151148
0.48671001 0.070419967 -0.062234402
0.48791602 -0.12785 -0.079262257
0.48624602 0.14671999 -0.055682182
0.49859002 0.54014599 -0.23001719
0.48810703 0.38377798 -0.081956387
0.49108103 -0.44714105 -0.12396717
0.50013798 -1.0620281 -0.25188732
0.49029502 -0.39195001 -0.11287022
0.48171201 -0.170237 -0.073407173
0.48145002 -0.12641001 -0.06964922
0.48099801 -0.051199019 -0.06319809
0.47925201 0.24004596 -0.038222313
0.47938603 0.26948601 -0.040136337
0.48406801 -0.39081895 -0.10709429
0.48924303 -0.75903797 -0.18109751
0.48240802 -0.27268195 -0.083359241
0.47283903 0.24092299 -0.028730392
0.47288501 0.31207502 -0.029396534
0.47344303 0.35314998 -0.037469387
0.47861603 -0.44477701 -0.11238909
0.48776603 -1.059859 -0.24490929
0.48653501 -0.99400306 -0.22707415
0.47551703 -0.21187997 -0.067508221
0.48141903 -0.646909 -0.15298033
0.48070502 -0.59543002 -0.14264011
0.46715602 0.11995 -0.029684067
0.46883002 -0.16723698 -0.054246426
0.46857601 -0.12354404 -0.050508499
0.47438702 0.57553101 -0.1357584
0.46684903 0.387622 -0.025181293
0.48159102 -1.058778 -0.24142408
0.47900403 -0.91859007 -0.20347643
0.46921504 -0.21062398 -0.059887409
0.46145403 0.0016739964 -0.030405521
0.46094102 0.47235799 -0.022781372
0.45941901 0.35586998 -0.00016117096
0.48601604 -1.169526 -0.39538145
0.47287002 -0.91759801 -0.20003939
0.46386501 -0.26964903 -0.066227436
0.45577702 -0.12069803 -0.031481266
0.45535403 -0.045944989 -0.025105476
0.45395803 0.47337598 -0.0040912628
0.45371401 0.24353498 -0.00042152405
0.45331001 0.31489098 0.0056629181
0.46415302 -0.75312102 -0.15758133
0.45770702 -0.26864302 -0.060539246
0.44920301 -0.082624018 -0.018889427
0.44899103 -0.044642985 -0.015654087
0.44701603 0.474388 0.014488697
0.44811502 0.50559902 -0.0022802353
0.44737801 0.24439901 0.0089588165
0.45064902 0.548132 -0.040943146
0.45315701 0.57766598 -0.079206467
0.46310601 -1.055554 -0.23100233
0.45229402 -0.323524 -0.066042423
0.45791003 -0.751652 -0.15173149
0.45734602 -0.70862603 -0.14311934
0.45646402 -0.64144003 -0.1296711
0.45579201 -0.59016097 -0.11940622
0.46627501 -1.162341 -0.37159729
0.45581201 -0.98882997 -0.20979929
0.45302203 -0.82912898 -0.16664934
0.43587503 0.040309966 0.010158539
0.43798301 -0.16223902 -0.022881508
0.43437603 0.317155 0.033664703
0.44149402 -0.43776298 -0.077922344
0.45081702 -1.053417 -0.22407532
0.44841003 -0.91365802 -0.18633413
0.44693801 -0.82819903 -0.16325521
0.44079602 -0.38299406 -0.066978455
0.43853903 -0.20589304 -0.031600475
0.42873803 0.19872099 0.032838821
0.43087003 -0.08000499 -0.0010380745
0.43038702 -0.041545033 0.0066385269
0.43173301 0.54926896 -0.014763355
0.42810303 0.317904 0.042943478
0.45268103 -1.155255 -0.34772348
0.44468501 -1.052354 -0.2206192
0.44086203 -0.82727206 -0.15986538
0.42480502 -0.079186022 0.004532814
0.42222002 0.24782699 0.046197891
0.42548403 0.54963195 -0.006424427
0.42163002 0.36001599 0.055695534
0.43010101 -0.50721097 -0.08083725
0.43855801 -1.051293 -0.21716642
0.42777503 -0.31932807 -0.043355465
0.42634901 -0.20401907 -0.02036047
0.41768304 0.0092419982 0.027550697
0.41920301 -0.11547202 0.0027008057
0.41875002 -0.078370035 0.010093689
0.41607401 0.50840598 0.053853512
0.42597902 0.62151396 -0.1080904
0.41501302 0.435197 0.07120657
0.42099601 -0.26266706 -0.026627541
0.42027003 -0.20308602 -0.014756203
0.41124803 0.044039965 0.039852619
0.41036502 0.12931401 0.05450058
0.41021502 0.15873301 0.056985855
0.40920201 0.477667 0.073785782
0.40960401 0.27885002 0.067125797
0.40918401 0.36137798 0.074093819
0.42427203 0.65241599 -0.17617846
0.40901503 0.39460498 0.076896667
0.42632702 -1.049179 -0.21027517
0.42267603 -0.82450402 -0.14971828
0.41558403 -0.31724799 -0.03207922
0.42068702 -0.70206404 -0.11671114
0.41420302 -0.20215499 -0.0091633797
0.41876802 -0.58236396 -0.084882259
0.40564001 0.010706961 0.038579464
0.40399903 0.15971202 0.066194534
0.40298602 0.36205599 0.08325386
0.40261403 0.436335 0.089515686
0.41171902 -0.50356102 -0.0637393
0.42022002 -1.048126 -0.20683432
0.41662601 -0.82358599 -0.14634228
0.39963603 0.011436999 0.044081688
0.39824703 0.13080996 0.067807674
0.40159401 -0.15689099 0.010625839
0.39790103 0.16051596 0.073711872
0.39815503 0.50920796 0.069386482
0.39664501 0.395861 0.095174789
0.40865701 -0.70037496 -0.11003733
0.40209901 -0.20030105 0.0019955635
0.40758702 -0.63247299 -0.091748238
0.39364201 0.012163997 0.049569607
0.39556801 -0.15600902 0.016171932
0.39420402 -0.03687799 0.039830685
0.39108202 0.478798 0.093982697
0.39084801 0.32234499 0.09803772
0.39992002 0.62303001 -0.059298515
0.40384501 0.65367699 -0.12737417
0.40936503 -1.118806 -0.22311544
0.40701702 -0.98069096 -0.18238354
0.39808002 -0.37531602 -0.027395248
0.40160003 -0.63167202 -0.08843708
0.38766003 0.012888968 0.055048466
0.38598302 0.16169697 0.08457756
0.38549802 0.20473099 0.09311676
0.38864201 -0.074319005 0.037745476
0.38627201 0.50972903 0.079493523
0.38415402 0.43802699 0.1167779
0.39852202 -0.82084596 -0.13624334
0.39071003 -0.257761 0.0013375282
0.39562002 -0.63087296 -0.085130215
0.38222903 -0.035338998 0.050815582
0.37906602 0.47954598 0.10737371
0.38034302 0.50998795 0.084537506
0.39039403 0.65450698 -0.095236301
0.39488503 -0.97868299 -0.17557144
0.38529703 -0.31209505 -0.0040683746
0.37535504 0.048211992 0.072691917
0.37755302 -0.15337402 0.032755852
0.37410501 0.162871 0.095406532
0.37625802 -0.034573019 0.056292534
0.37442601 0.51024699 0.089570522
0.39524603 0.704045 -0.28874636
0.38883102 -0.97768199 -0.17217207
0.38774103 -0.90398002 -0.1523633
0.38367704 -0.62928104 -0.078529358
0.37110102 -0.10874301 0.046926498
0.37029803 -0.033807993 0.061757565
0.36689201 0.28387398 0.12464046
0.36618802 0.366074 0.13764668
0.37503001 0.62408602 -0.025619507
0.37477201 -0.426175 -0.020867348
0.38477203 -1.113363 -0.20549631
0.37326002 -0.31005406 0.0070614815
0.37696603 -0.57687998 -0.061364174
0.36383402 0.015771985 0.076870918
0.36347702 0.049587965 0.083559513
0.36306503 0.088725984 0.091300488
0.36131203 0.25502199 0.12418985
0.36100301 0.28434896 0.12999058
0.36440003 0.55279696 0.066237926
0.36056903 0.32558298 0.13814449
0.36013502 0.366712 0.14628077
0.36990303 -0.49773598 -0.037034512
0.37674204 -0.97569001 -0.16538715
0.37568903 -0.90207505 -0.14561844
0.37273103 -0.69536102 -0.090110302
0.35790402 0.016488016 0.082300663
0.35673401 0.51101995 0.10462284
0.35542902 0.25552201 0.12953758
0.35512501 0.28482199 0.13532877
0.35980201 0.58248597 0.04609251
0.37262902 -1.111218 -0.19865847
0.37070704 -0.97469699 -0.16200018
0.36848003 -0.81632602 -0.11949253
0.36219901 -0.36990607 0.00034284592
0.36737603 -0.73789203 -0.098441124
0.36676702 -0.69453204 -0.086802483
0.35077801 0.13570797 0.11112261
0.35256901 0.55324298 0.07635355
0.35862002 0.65591699 -0.04106617
0.34808302 0.40054399 0.16341686
0.36366102 -0.90017903 -0.13888931
0.35632101 -0.36926603 0.0035557747
0.36140603 -0.737041 -0.095124245
0.35987303 -0.62611997 -0.065366268
0.34489202 0.13631296 0.1164937
0.34498703 0.51153195 0.11461973
0.34339803 0.28576601 0.14597988
0.34257701 0.367908 0.16218567
0.35040203 0.62512898 0.0077095032
0.34247303 0.44099399 0.16423082
0.35119602 -0.42348504 -0.0079512596
0.35865703 -0.97272003 -0.1552372
0.35765901 -0.89923501 -0.13553238
0.34885603 -0.25130403 0.038232803
0.35393801 -0.62533402 -0.062084198
0.36001202 0.73882097 -0.2999053
0.35358602 -1.037148 -0.17081213
0.34376401 -0.30642796 0.026472569
0.34891102 -0.69205999 -0.076903343
0.34302104 -0.25073302 0.041405678
0.33428901 0.019333005 0.10392761
0.33315101 0.137519 0.1272068
0.33547601 -0.103791 0.079665661
0.33199501 0.25750798 0.15084076
0.33131802 0.32775399 0.16467762
0.34015101 0.65657401 -0.01592207
0.33944601 -0.42215097 -0.0015163422
0.34765401 -1.036661 -0.16934633
0.34663501 -0.97075295 -0.14849329
0.33872801 -0.36735404 0.013169765
0.33719203 -0.25016201 0.044573784
0.34208801 -0.62377 -0.055535316
0.33004302 -0.14663303 0.075318813
0.32588503 0.28717101 0.16188478
0.32902601 0.554129 0.09649086
0.33014202 0.583543 0.073254585
0.34201202 0.74036497 -0.17385912
0.33860102 -0.81186402 -0.10284328
0.33617103 -0.62299097 -0.052265167
0.33551002 -0.57159102 -0.038501263
0.32254303 0.020743966 0.11468077
0.31940201 0.442081 0.18129683
0.33538002 0.74056697 -0.15752935
0.33111301 -0.68960595 -0.067037106
0.33026204 -0.62221396 -0.04899931
0.31668702 0.02144599 0.12004185
0.31792301 -0.10171402 0.093328476
0.31534803 0.16864902 0.1489687
0.31496102 0.21122199 0.1573348
0.31426102 0.28810197 0.17244053
0.31388903 0.32904398 0.18048573
0.31351802 0.36988199 0.18850946
0.31329003 0.40263999 0.19343281
0.32186702 -0.42016196 0.0081105232
0.33095902 -1.107662 -0.18831015
0.32519403 -0.68879306 -0.06375742
0.31974101 -0.24846005 0.054058552
0.31900403 -0.18900406 0.0699687
0.31054103 0.055688977 0.1319809
0.31019503 0.094511986 0.13960648
0.31127203 -0.026275992 0.11588192
0.31147102 0.55478698 0.11150646
0.30757001 0.40291998 0.19741249
0.33014902 -1.191319 -0.29982519
0.32190302 -0.89433396 -0.11823416
0.31980503 -0.73114204 -0.072023392
0.31928101 -0.68798101 -0.060480118
0.30397603 0.140504 0.15382481
0.30639303 -0.10074699 0.099553585
0.30372003 0.16978598 0.15956783
0.30334902 0.21228397 0.1679039
0.30815503 0.62676501 0.059991837
0.31521302 0.74129701 -0.098484516
0.31580901 0.81721598 -0.11187029
0.31103501 -0.49067199 -0.0046873093
0.31602803 -0.89389503 -0.11679554
0.29889002 0.057025015 0.14263487
0.29855803 0.095779002 0.15023375
0.29757401 0.48324099 0.17276955
0.30082002 0.58451998 0.098422527
0.29620203 0.37105399 0.2041955
0.30364302 0.65787101 0.033782482
0.29663703 0.44291598 0.19423866
0.30828801 0.741615 -0.072623253
0.30575702 0.78248197 -0.0146451
0.30299202 -0.30225098 0.048685551
0.30609003 -0.56787002 -0.02228117
0.29347202 0.023914993 0.13880873
0.29308602 0.057676017 0.14782572
0.29275602 0.096409976 0.15553188
0.29538602 -0.14358902 0.09406662
0.29177603 0.213341 0.17843962
0.29402903 -0.024869025 0.12577772
0.29137701 0.260934 0.18776178
0.29079202 0.33074698 0.2014327
0.29641002 0.62708598 0.070126534
0.29897001 0.74262899 0.010307789
0.30721602 -1.105671 -0.18242311
0.30531001 -0.96740198 -0.13788128
0.30207103 -0.72864699 -0.062179089
0.28775802 0.024327993 0.14187574
0.28659201 0.142277 0.16967964
0.28914103 -0.099305987 0.10886765
0.28620803 0.48359099 0.17884684
0.28688601 0.51398396 0.16268253
0.28819603 0.55565703 0.13141966
0.28471002 0.37182999 0.2146039
0.28476503 0.404035 0.21329069
0.29397503 0.709005 -0.0064702034
0.30123302 0.81716698 -0.17963839
0.29349703 -0.48858798 0.0049476624
0.29942203 -0.96694696 -0.13643312
0.29841903 -0.89258802 -0.1124835
0.29208401 -0.36232603 0.038646698
0.29569101 -0.68475604 -0.047411442
0.29077902 -0.24565303 0.069795609
0.29689401 0.861296 -0.2167635
0.28058401 0.17204297 0.18065262
0.28258401 -0.023992002 0.1319356
0.27963102 0.29086602 0.20388985
0.28334302 0.58510101 0.11342669
0.27930403 0.33159199 0.2118516
0.27897802 0.372217 0.2197957
0.28470603 0.62740499 0.080227852
0.27908301 0.40431198 0.21724558
0.29255503 -0.892156 -0.11105013
0.29142502 -0.80658996 -0.083494186
0.28628203 -0.36170506 0.041817665
0.27556801 0.097838998 0.16739082
0.27813801 -0.142084 0.10339451
0.27686802 -0.023554981 0.13501072
0.27551201 0.514301 0.16877985
0.29127401 0.81713498 -0.22367239
0.28183502 -0.48720706 0.011353493
0.28558701 -0.80618203 -0.082074165
0.28321502 -0.61606801 -0.023010254
0.28266701 -0.56492805 -0.0093722343
0.26875103 0.21543598 0.1993947
0.26838702 0.26286298 0.20865488
0.27601403 -0.48652005 0.014548779
0.28352201 -1.1037101 -0.17655945
0.27820402 -0.68316996 -0.04118824
0.26496002 0.025968015 0.15411472
0.263751 0.14407301 0.18558788
0.26302001 0.21595699 0.20460892
0.26545802 -0.022684991 0.14114857
0.26354402 0.48428398 0.19096565
0.28087002 0.81710899 -0.26004028
0.27019903 -0.485834 0.01774168
0.26711202 -0.18426704 0.098089695
0.25855002 0.098949015 0.17649651
0.25809503 0.144418 0.18860769
0.257377 0.21627802 0.20774984
0.25976202 -0.022252023 0.14421272
0.25789303 0.484456 0.19398785
0.258497 0.51477396 0.1779027
0.27475202 0.78103697 -0.25508118
0.263675 -0.41363907 0.039973736
0.26913002 -0.89044201 -0.10532331
0.265172 -0.56277502 0.0001115799
0.25326902 0.06041801 0.16916847
0.25480002 -0.096455991 0.12740374
0.25444201 -0.059759021 0.1371727
0.25054601 0.37397698 0.24341965
0.25078303 0.405687 0.23695374
0.26852101 0.78108799 -0.24679613
0.27002102 0.81708896 -0.28769827
0.266599 -1.159513 -0.19437551
0.26328102 -0.89001799 -0.10389423
0.26227301 -0.80456698 -0.076403141
0.25622401 -0.24232996 0.08856678
0.26002702 -0.61414897 -0.015144348
0.249511 -0.13960201 0.11887264
0.24611601 0.21689099 0.21374369
0.24981701 0.628353 0.11033773
0.25055501 0.65933698 0.089727879
0.25684202 0.74147797 -0.085913181
0.25210902 -0.41235399 0.046303749
0.25904602 -1.029568 -0.14748716
0.24992201 -0.18271196 0.10740185
0.25425902 -0.61379898 -0.013756275
0.24158302 0.10005099 0.18557453
0.24380401 -0.13910902 0.12195969
0.24088901 0.17473197 0.20543861
0.24305901 -0.058858037 0.14330482
0.24470901 0.65950096 0.096036911
0.24703401 -0.48330796 0.029480934
0.24420401 -0.18219602 0.11049652
0.24849501 -0.61345005 -0.01237011
0.247915 -0.56176603 0.0042495728
0.253371 0.86190498 -0.32339525
0.23593903 0.10041702 0.18859482
0.23552802 0.14579099 0.2006588
0.23703402 -0.020529985 0.15643787
0.23589 0.51539898 0.19002581
0.237174 0.58660001 0.15232468
0.23381802 0.33475199 0.25089788
0.23367301 0.374856 0.25515556
0.23794001 0.71139598 0.12980652
0.24549001 0.74141002 -0.091948509
0.24131 -0.48299503 0.030846596
0.24056801 -0.41107607 0.052618504
0.24216801 -0.561432 0.0056285858
0.230643 0.061962962 0.18129349
0.232023 -0.094581008 0.13969278
0.22859502 0.29430801 0.24304056
0.22823602 0.33499599 0.2538538
0.22807503 0.375121 0.25869846
0.23980802 0.74137497 -0.094969273
0.23481902 -0.41050804 0.055413723
0.239914 -0.88833702 -0.098189354
0.23330602 -0.24014306 0.10101461
0.232786 -0.18116796 0.11668491
0.225703 -0.01967603 0.1625309
0.22410402 0.48548099 0.2120595
0.22462001 0.51570898 0.19606972
0.22583601 0.58683896 0.15844059
0.22912002 -0.41021502 0.056767464
0.23627901 -1.099878 -0.16488838
0.23484802 -0.96205902 -0.1205945
0.23237503 -0.72376299 -0.044007301
0.22759002 -0.23959899 0.10412073
0.22708502 -0.18065596 0.11977291
0.230683 -0.56076801 0.0083794594
0.21964401 0.029199004 0.17843485
0.23655403 0.862113 -0.35966444
0.23663801 0.90158498 -0.36232328
0.22004801 -0.019250035 0.16557169
0.21766803 0.26590496 0.24128151
0.21742702 0.29483598 0.24896383
0.21708801 0.335482 0.25975657
0.21718702 0.40706298 0.25661755
0.23187801 0.781313 -0.21086311
0.22965902 -1.027293 -0.14026308
0.22899601 -0.96162498 -0.11916113
0.22615102 -0.67987406 -0.028624535
0.23072201 0.901622 -0.36568642
0.21288702 0.48581898 0.21806049
0.21208701 0.26618201 0.24424648
0.21404901 0.55778998 0.18002367
0.214522 0.58707798 0.16454792
0.21152303 0.335724 0.26270056
0.211445 0.37562698 0.2652669
0.21844003 -0.48175204 0.036300659
0.21773201 -0.40963197 0.059470654
0.21662501 -0.29354799 0.095716476
0.22038102 -0.679515 -0.027234077
0.21617901 -0.23851705 0.11031675
0.225135 0.86223102 -0.38031912
0.20780402 0.10223001 0.20364285
0.20728701 0.48598799 0.22105646
0.20972303 0.66061401 0.13898993
0.206126 0.40731898 0.26016378
0.20666 0.44597998 0.24219179
0.21204302 -0.409343 0.060821533
0.21917102 -1.154627 -0.17935419
0.21792501 -1.026395 -0.13738012
0.21729901 -0.96076202 -0.11630011
0.21578002 -0.80141103 -0.065114498
0.20274502 0.030394018 0.18750048
0.20311502 -0.017980039 0.17467451
0.20377702 0.62964499 0.15167665
0.211319 0.74120098 -0.11011314
0.21449101 0.78126001 -0.22024727
0.21272901 -1.098006 -0.15908337
0.21206301 -1.025949 -0.13594246
0.211456 -0.96033299 -0.11487007
0.20479101 -0.23743999 0.1164999
0.21342602 0.86230302 -0.39314222
0.21311101 0.901802 -0.38187408
0.19658801 0.10294896 0.2096405
0.197593 0.58743298 0.17368364
0.19810101 0.62976497 0.1554985
0.197483 0.66159898 0.1776185
0.20868403 0.78124201 -0.22338533
0.20418403 -0.80063701 -0.062302113
0.20017901 -0.35400403 0.081103802
0.19866902 -0.17811704 0.13516378
0.20201802 -0.55913103 0.015240669
0.19150701 0.031184971 0.19352865
0.19126701 0.064629018 0.20238876
0.19099 0.10330701 0.21263552
0.19066602 0.14849401 0.22460461
0.19051901 0.48649099 0.23002768
0.18960801 0.29614198 0.2637167
0.192433 0.629884 0.15931273
0.189978 0.446475 0.25001383
0.19747302 0.70870799 -0.02695322
0.20554203 0.81706297 -0.32514954
0.20162302 -1.15477 -0.18033838
0.19674203 -0.61037397 5.4836273e-05
0.184589 0.22020799 0.24648476
0.19182602 0.70866001 -0.029916286
0.189309 -0.40819597 0.066213608
0.193939 -0.95905602 -0.11058807
0.19260103 -0.79986906 -0.059496403
0.188333 -0.29206204 0.10348749
0.19157502 -0.67774105 -0.020298481
0.18786702 -0.23657095 0.12129974
0.19057202 -0.55848503 0.017977715
0.18029201 0.031973004 0.19954586
0.179809 0.10402 0.21861267
0.17950702 0.14916098 0.23055983
0.17902902 0.220505 0.24944162
0.18111801 0.63012302 0.16692781
0.180462 0.66199398 0.19283772
0.18421802 -0.47992504 0.044451714
0.18938902 -1.098039 -0.15983152
0.188106 -0.95863402 -0.10916328
0.18750501 -0.88464904 -0.085422516
0.18681401 -0.79948699 -0.058094501
0.18617502 -0.72082901 -0.032853127
0.18582201 -0.67738998 -0.018914223
0.18527201 -0.60970497 0.0028057098
0.189659 0.90211797 -0.40990114
0.17393401 0.14949298 0.23353386
0.17374602 0.17859697 0.24123383
0.173801 0.48698997 0.23897362
0.17316702 0.268103 0.26490974
0.17298102 0.29691696 0.27253151
0.172719 0.33739999 0.28324175
0.17546901 0.63024199 0.17073059
0.17305201 0.40800399 0.26962757
0.182704 0.74102598 -0.12531328
0.18782502 0.817056 -0.33484936
0.17852202 -0.47962403 0.045807838
0.18228403 -0.95831001 -0.10810137
0.18102702 -0.79910696 -0.056693077
0.17752901 -0.35292006 0.086457729
0.176613 -0.23608804 0.1239419
0.16889 0.066130996 0.21437454
0.16861302 0.51723695 0.22611284
0.16913003 0.55884695 0.20420551
0.16949102 0.58801901 0.18885088
0.169824 0.63036698 0.17475653
0.18190902 0.81705397 -0.33808947
0.172831 -0.47932506 0.047160625
0.17140901 -0.29129803 0.1074748
0.17432302 -0.67669201 -0.01614809
0.170542 -0.176579 0.14427471
0.16462401 -0.13314903 0.15943956
0.16379902 -0.015053034 0.19581366
0.16352302 0.66238701 0.20798349
0.16205201 0.40822998 0.2727766
0.175989 0.81705201 -0.34133148
0.17189202 -1.098202 -0.16082048
0.17071101 -0.95841098 -0.1087513
0.16622001 -0.35238397 0.089129925
0.17210901 0.86255997 -0.43838644
0.156405 0.29768699 0.28132153
0.156881 0.447092 0.25951767
0.15975302 -0.23536897 0.1279006
0.15933803 -0.17613 0.14689493
0.15216601 0.067247987 0.22333384
0.15345001 -0.13272101 0.16204977
0.15089002 0.29794198 0.28424358
0.15081501 0.377345 0.28782558
0.15286601 0.63083696 0.18993664
0.15227702 0.66264701 0.21803951
0.15972501 0.74088401 -0.13751221
0.16205102 0.78109598 -0.24856043
0.15528902 -0.40650904 0.07427454
0.15965602 -1.025107 -0.13421011
0.15791503 -0.79760206 -0.051102161
0.15492201 -0.35185206 0.091798782
0.154138 -0.23513198 0.12921667
0.14660102 0.067618012 0.22631359
0.14710501 -0.014288008 0.20124483
0.14538002 0.29819697 0.28716564
0.145228 0.33833799 0.29472351
0.14962602 -0.406232 0.07561779
0.15439302 -1.09838 -0.16181421
0.14852402 -0.23489606 0.13053465
0.150592 -0.55626607 0.027527809
0.14105201 0.067930996 0.22881889
0.154239 0.86267197 -0.45795536
0.14062002 0.15146899 0.25130987
0.14026001 0.22256297 0.27006292
0.14066702 0.48755699 0.24888659
0.14088902 0.51780701 0.2373085
0.14647701 0.70826697 -0.053688526
0.148204 0.740812 -0.14363146
0.14441001 -0.47784698 0.053918839
0.14396802 -0.40595603 0.076956749
0.14702201 -0.88355803 -0.082094193
0.14589003 -0.71833801 -0.023150444
0.14816901 0.90267998 -0.45948839
0.13645002 -0.088459015 0.17993259
0.13494702 0.18079597 0.26190662
0.13593301 0.58875698 0.20813751
0.13873401 -0.47755504 0.055266857
0.14125802 -0.88361406 -0.082419395
0.14066902 -0.79731405 -0.050270081
0.13763201 -0.28979802 0.11542273
0.13989201 -0.67463398 -0.0078773499
0.13919301 -0.55564296 0.030247688
0.13019802 0.034736991 0.22062778
0.13088602 -0.088258982 0.18122673
0.129426 0.181108 0.26484966
0.13035101 0.58889902 0.21188974
0.12891601 0.377821 0.2940855
0.129123 0.40889698 0.28220558
0.13265902 -0.40540695 0.079631805
0.13416302 -0.67429602 -0.0065021515
0.13170201 -0.23419201 0.13447857
0.12467001 0.034907997 0.22190475
0.12449201 0.068422973 0.23263788
0.13614202 0.902798 -0.46989918
0.12428601 0.10715902 0.24504471
0.12555501 -0.13166702 0.16855383
0.12512901 -0.051415026 0.19425774
0.12441501 0.63228101 0.23729992
0.12364402 0.40900698 0.28377485
0.12388901 0.447696 0.26898956
0.13088402 0.740704 -0.15282822
0.13273302 0.78100401 -0.2643671
0.13438702 0.81703597 -0.36410809
0.12972701 -0.88373101 -0.083074093
0.12919402 -0.79742503 -0.050919533
0.12639201 -0.28930604 0.11806583
0.12843502 -0.67395902 -0.0051293373
0.11998402 -0.131459 0.16985273
0.11840902 0.181665 0.27011871
0.11822502 0.22372198 0.28178167
0.11939001 -0.013374031 0.20766449
0.11882401 0.518134 0.24367666
0.11803101 0.27078801 0.29417467
0.12842301 0.81703299 -0.36737108
0.12479202 -1.025481 -0.13619947
0.12108401 -0.35028398 0.099781513
0.12049802 -0.23372805 0.13710451
0.11306601 0.15266597 0.26204681
0.11420801 -0.087664008 0.18510485
0.11314401 0.488004 0.25681448
0.11330001 0.632559 0.24632168
0.11571302 -0.40459299 0.083639622
0.11938501 -1.098781 -0.16382122
0.11861201 -0.95894301 -0.11171341
0.11771902 -0.79754102 -0.051571369
0.11799502 0.90293998 -0.48252535
0.10778201 0.10761899 0.24884081
0.10884901 -0.13104498 0.17244673
0.10726102 0.22415501 0.28614378
0.10832101 -0.013014019 0.21022654
0.10781001 0.51829499 0.24685669
0.10813201 0.589351 0.22377157
0.10722902 0.40933499 0.28847647
0.11039101 -0.47611201 0.061994553
0.10982601 -0.349769 0.10243654
0.11193101 0.90298796 -0.4867444
0.10310201 -0.087271988 0.18768549
0.10179701 0.22428197 0.28739071
0.10230701 0.51837599 0.24844456
0.10159902 0.27154696 0.30251789
0.10251601 0.56007499 0.23251152
0.10260301 0.58943099 0.22585964
0.10176301 0.40944299 0.29004288
0.10772102 0.74055797 -0.16512632
0.10918602 0.78092897 -0.27706528
0.11049701 0.81702602 -0.37717533
0.10799001 -1.155792 -0.18568754
0.10420101 -0.34951401 0.10376072
0.096941017 0.069230974 0.23898888
0.10591001 0.86288297 -0.49510717
0.09678901 0.10792297 0.25136852
0.096613012 0.15309298 0.26582193
0.09740901 -0.050473988 0.20068693
0.096149012 0.27166301 0.30375957
0.097076014 0.58950996 0.22794676
0.10328501 0.78091097 -0.28025007
0.098790012 -0.40378797 0.087638855
0.10154101 -1.025763 -0.13753843
0.10050301 -0.79772401 -0.05255127
0.098577015 -0.34925902 0.10508585
0.098338015 -0.28809297 0.12465668
0.097890012 -0.17372102 0.16125154
0.099827014 0.86290699 -0.49923611
0.099782012 0.90308297 -0.4951973
0.091133013 0.15323502 0.26707888
0.091872014 -0.050288022 0.20196962
0.091178015 0.48835599 0.26314449
0.091309011 0.51853597 0.25161982
0.093527012 0.65858102 0.056094646
0.095078014 0.70781499 -0.080592155
0.098517016 0.81702197 -0.38372612
0.095128015 -0.88411796 -0.085055351
0.092734016 -0.28785396 0.12597275
0.093952015 -0.60586405 0.018645763
0.085937016 0.069548965 0.24152279
0.093738012 0.86293 -0.50337029
0.093697011 0.90313101 -0.49942923
0.086460017 -0.086688995 0.19155169
0.085815012 0.51861501 0.25320673
0.085136011 0.34021598 0.31801176
0.08776401 -0.47503102 0.067103863
0.087521017 -0.40325701 0.09030056
0.090200014 -1.09916 -0.16551018
0.089914016 -1.025912 -0.1382103
0.088713013 -0.71822703 -0.023530483
0.086948015 -0.23235703 0.14496088
0.088275015 -0.60592103 0.018324852
0.080542013 0.036251009 0.2320919
0.080439016 0.06970799 0.24278975
0.087641016 0.86295402 -0.50750732
0.087605014 0.90318 -0.50366831
0.080690011 -0.012126029 0.21662188
0.079730012 0.30075496 0.31667471
0.080521017 0.58974802 0.23419762
0.079812013 0.378869 0.30812454
0.079925016 0.40987298 0.2962985
0.080067009 0.44848299 0.28157568
0.082128018 -0.47508299 0.066786766
0.084362015 -1.099241 -0.16585112
0.083592013 -0.88425696 -0.085718155
0.082841016 -0.67436206 -0.007484436
0.081365012 -0.23213196 0.14626789
0.082597017 -0.60597897 0.01800251
0.082411014 -0.55396104 0.037388802
0.074735016 0.488617 0.26788187
0.074835017 0.51877403 0.25637674
0.074473009 0.40998 0.29786253
0.078648016 0.74037397 -0.1805563
0.078708008 -1.156201 -0.18739319
0.077824011 -0.88433003 -0.086051464
0.076110013 -0.34825206 0.11037683
0.076749012 -0.55401707 0.037069798
0.069237009 0.15379298 0.27209949
0.069949016 -0.12962401 0.18150282
0.069164008 0.18287897 0.28139687
0.069260016 0.63326502 0.26924753
0.071024016 0.65829498 0.044570923
0.070643015 -0.40268004 0.093177795
0.072682008 -1.099407 -0.16653252
0.072468013 -1.026149 -0.13922548
0.071086012 -0.55407596 0.036746502
0.063611016 0.22515398 0.29611349
0.063866012 0.51893103 0.25954485
0.063505009 0.27234799 0.31119776
0.063986018 0.59005201 0.24230051
0.063577011 0.41019198 0.30098581
0.06367901 0.448773 0.28628349
0.065218017 -0.47524703 0.065830708
0.065030009 -0.40273201 0.092860699
0.066652015 -1.0262311 -0.13956308
0.066283017 -0.88447905 -0.086719513
0.065737009 -0.67455304 -0.0084614754
0.064498015 -0.17245203 0.16904163
0.06542401 -0.55413496 0.036424637
0.058627013 -0.011429012 0.22172165
0.058017012 0.30118299 0.32161283
0.062446013 0.81700701 -0.40345812
0.061135013 -1.156608 -0.18890715
0.060684014 -0.95967805 -0.11506128
0.060513012 -0.88455498 -0.087054253
0.059291013 -0.34773898 0.11306286
0.059056014 -0.23124206 0.15148592
0.053036012 0.037068009 0.23843479
0.052849013 0.48896098 0.2741847
0.052642014 0.27257299 0.31367064
0.052594014 0.30128896 0.32284546
0.052983012 0.560763 0.2485857
0.054817013 0.70745701 -0.10164022
0.056415014 0.81700498 -0.40676022
0.053943012 -0.47536206 0.065191746
0.055162013 -1.099669 -0.16755915
0.054742012 -0.88463306 -0.087389469
0.047541015 0.037230015 0.23970079
0.050896011 0.90347099 -0.52920914
0.047378011 0.15434301 0.27710867
0.047712013 -0.085358024 0.20054579
0.047279015 0.22552001 0.29984283
0.047493011 0.56085098 0.2506566
0.047226012 0.37914398 0.31176186
0.047267012 0.410299 0.30251455
0.049431011 -1.157949 -0.1935215
0.049092013 -0.95984399 -0.11573744
0.048829012 -0.79835105 -0.055525303
0.048628014 -0.67475498 -0.0094432831
0.047832012 -0.17183 0.17292547
0.044753015 0.90351999 -0.53348351
0.042234011 -0.12863404 0.1879468
0.042186014 -0.085171998 0.20182657
0.041886013 0.18353301 0.28763676
0.041839011 0.22564101 0.30108356
0.041922014 0.48913199 0.27733374
0.041787013 0.27279598 0.31614256
0.042008013 0.560938 0.2527256
0.043266013 0.70735401 -0.10767651
0.043585014 0.74014997 -0.19912052
0.044333011 0.81699997 -0.41337347
0.042665012 -0.47548103 0.064550877
0.043487012 -1.1006091 -0.17088509
0.043296013 -0.95992804 -0.11607647
0.043198012 -0.884794 -0.088062286
0.036560014 0.037550986 0.24223185
0.038605012 0.86313498 -0.53902054
0.038598016 0.903552 -0.53627014
0.036462013 0.15461397 0.27960873
0.036632013 -0.04847002 0.21476555
0.036494013 0.51932001 0.26744986
0.036376014 0.379199 0.31249475
0.036470011 0.63349402 0.27666855
0.036400013 0.41034999 0.30324888
0.037484013 0.70730197 -0.11070633
0.037723012 0.74011302 -0.20222521
0.038020015 0.78070098 -0.31546307
0.037564013 -1.026665 -0.14126825
0.037341014 -0.79850602 -0.056192398
0.037220016 -0.67489696 -0.010102272
0.037103012 -0.55444896 0.034809589
0.030991014 0.18379098 0.29012871
0.031121014 -0.048291981 0.21604252
0.031028014 0.51939702 0.26902771
0.030942013 0.27301598 0.31861067
0.030988013 0.44913 0.29211569
0.031386014 -0.47560406 0.06390667
0.031339012 -0.40306807 0.090952873
0.031596012 -0.79858506 -0.056528091
0.031303015 -0.34800696 0.11148167
0.031263012 -0.28630805 0.13448668
0.031516016 -0.67497003 -0.010432243
0.025634013 -0.12805003 0.19180489
0.025547013 0.18391901 0.29137373
0.025741013 0.62724197 0.069399834
0.025905013 0.70716101 -0.11883116
0.025983013 0.74003696 -0.2084465
0.025904013 -0.96019197 -0.11709642
0.020103013 0.15501601 0.28335476
0.020103013 -0.084432006 0.20694685
0.020103013 0.18404698 0.2926178
0.020103013 -0.010237038 0.23062181
0.020103013 0.27323496 0.32107782
0.020103013 0.30168599 0.32748985
0.020103013 0.70687801 -0.13525248
0.020103013 0.81699097 -0.42663527
0.020103013 -0.40318799 0.090312481
0.020103013 -0.17121303 0.17681265
0.020103013 -0.55465102 0.03383255
0.014623013 0.038183987 0.24728489
0.013929013 0.86318898 -0.54833651
0.013931014 0.90365201 -0.54498434
0.014675014 0.22623801 0.30728054
0.014599014 -0.047764003 0.21986389
0.014609013 -0.010070026 0.23189068
0.014688013 0.27334398 0.32231092
0.014681013 0.37930498 0.31395864
0.014463013 0.62706798 0.063640594
0.014275013 0.70659298 -0.1517334
0.014209013 0.73981696 -0.22656631
0.014486013 -0.40324903 0.089992523
0.014276013 -1.029132 -0.1501894
0.014524013 -0.28647101 0.13353968
0.014397014 -0.67519498 -0.011423111
0.014419014 -0.60677099 0.01409483
0.0091450131 0.038339972 0.24854565
0.0077500138 0.86320299 -0.55066824
0.0091850134 0.11026502 0.27148771
0.0090460135 -0.12796903 0.19235277
0.009075013 -0.084183991 0.20868063
0.009226013 0.18430001 0.29510355
0.0092020137 0.48936498 0.28167868
0.0091870138 0.519575 0.27271557
0.0092750136 0.27345198 0.32354164
0.0091730133 0.561454 0.26511478
0.0092590135 0.37932998 0.31432676
0.0092430133 0.41047299 0.30508471
0.0092230132 0.44921798 0.29358864
0.0081310133 0.780599 -0.33231544
0.0088200131 -0.47586298 0.062616825
0.0085530132 -0.88535297 -0.090257168
0.0089030135 -0.34823906 0.1102109
0.0086620133 -0.71923101 -0.028150082
0.0086900136 -0.67527306 -0.011757374
0.0089800134 -0.23080802 0.15400267
0.008769013 -0.55479205 0.03317976
0.0015760139 0.90370297 -0.54934931
0.0035960134 -0.047461033 0.22208357
0.0036280137 -0.0097370148 0.23442554
0.0037790127 0.59189296 0.29205084
0.0038680136 0.34086898 0.32611275
0.001871014 0.81698298 -0.43661118
0.0024590138 -1.163402 -0.21207237
0.0028620139 -0.79900098 -0.058206081
0.0033020135 -0.34829998 0.10989189
0.002940014 -0.71931303 -0.028484344
0.0034750141 -0.171363 0.17587757
0.0031000134 -0.55486405 0.032851696
-0.0046219863 0.86322999 -0.55533934
-0.0046089869 0.90372801 -0.55153322
-0.0015979875 0.22658998 0.31099176
-0.0019089859 -0.047505021 0.22177792
-0.0017289873 0.51960897 0.27345753
-0.001583986 0.37937999 0.31505871
-0.0042189863 0.81698102 -0.43994236
-0.003431987 -1.164093 -0.21440125
-0.0030139871 -0.88652003 -0.094752312
-0.0028879866 -0.79908895 -0.058544159
-0.0026379861 -0.60699606 0.013105869
-0.0074139871 -0.047551036 0.22146893
-0.0073519871 -0.0095829964 0.2356286
-0.0069519859 0.27377397 0.32723379
-0.0083299875 0.657462 0.011445522
-0.0070439875 0.41054198 0.30618858
-0.0089469869 -0.96367407 -0.13001823
-0.0088029858 -0.88710606 -0.097002506
-0.0082389861 -0.55501199 0.032194614
-0.017008986 0.863258 -0.56001329
-0.016986985 0.90377998 -0.5559063
-0.012628987 0.110825 0.27649069
-0.013075985 -0.12816703 0.19110775
-0.012434985 0.22682202 0.31346369
-0.012593988 0.48943898 0.28315973
-0.012640987 0.51964295 0.27419949
-0.012356985 0.27388102 0.3284626
-0.013817988 0.62663496 0.049371719
-0.012530986 0.44930199 0.2950635
-0.014758985 0.70696098 -0.13031149
-0.013754986 -0.47614002 0.061314583
-0.014595985 -0.887694 -0.099254131
-0.013384987 -0.28675997 0.13195467
-0.013159987 -0.17151999 0.17493868
-0.018226985 0.038899004 0.25313282
-0.023207985 0.863271 -0.56235409
-0.023181986 0.90380502 -0.5580945
-0.018336985 -0.0096719861 0.23501492
-0.017967988 0.44932199 0.29543257
-0.022521988 0.81697297 -0.44995737
-0.019234985 -0.40363896 0.088062763
-0.020392988 -0.88828504 -0.10151052
-0.020160988 -0.80034506 -0.063565254
-0.019579988 -0.55516398 0.031535625
-0.023616988 0.072423995 0.26534748
-0.024025988 -0.084472001 0.20682383
-0.023830988 -0.0097180009 0.23470688
-0.023486987 0.48947498 0.28389883
-0.023549985 0.51967597 0.27494383
-0.023158986 0.27409202 0.33091974
-0.023259986 0.37947699 0.31652784
-0.027372986 0.739254 -0.27261829
-0.028174985 0.78026402 -0.38759613
-0.035584986 0.90385699 -0.56247854
-0.028971985 0.11115599 0.27950668
-0.029004987 0.519692 0.27531385
-0.028541986 0.30224097 0.3342886
-0.028816987 0.59215403 0.29930592
-0.028678987 0.3795 0.31689262
-0.030846987 0.62637299 0.040775776
-0.034237988 0.78024399 -0.39087152
-0.032942988 -1.167585 -0.22608519
-0.031701986 -0.80146396 -0.068029404
-0.031426985 -0.72042704 -0.033043385
-0.031277988 -0.67585206 -0.014092445
-0.030924987 -0.55532002 0.030875683
-0.041832987 0.86331296 -0.56938553
-0.034427986 0.11111599 0.27920389
-0.035064988 -0.08457303 0.20619965
-0.034457985 0.51970798 0.27568579
-0.037261985 0.65601802 -0.04553318
-0.038107987 0.70674801 -0.14250326
-0.036103986 -0.40384805 0.087089539
-0.038354985 -1.0349261 -0.17083836
-0.037477985 -0.80202496 -0.070264339
-0.037171986 -0.72095799 -0.035254478
-0.035348985 -0.17174 0.17368269
-0.036597986 -0.55540001 0.030545712
-0.039721988 0.15631199 0.29577589
-0.040584985 -0.084625006 0.20588875
-0.039824985 0.48952699 0.28500986
-0.042041987 0.62677097 0.054088593
-0.049784988 0.73340797 -0.75248718
-0.047008984 0.81696397 -0.46336031
-0.041987985 -0.47651005 0.059679508
-0.041727986 -0.40391898 0.086764812
-0.044776984 -1.168996 -0.23077345
-0.044222988 -1.035581 -0.17314434
-0.041530985 -0.34881806 0.10732365
-0.042920984 -0.72149003 -0.03746748
-0.045340985 0.11103499 0.27859592
-0.046275988 -0.128488 0.18923187
-0.04610499 -0.084677994 0.2055769
-0.045362987 0.51973796 0.27642775
-0.044733986 0.30241799 0.33655262
-0.048796989 0.65586495 -0.051453114
-0.055476986 0.77843797 -0.68931007
-0.05314599 0.81696099 -0.46671629
-0.050963983 0.072211981 0.26382256
-0.050607987 0.15623599 0.29517174
-0.050483987 0.18537998 0.30604458
-0.051310986 -0.009954989 0.23316479
-0.05013299 0.27461201 0.33704948
-0.056169987 0.705836 -0.19509315
-0.056729987 0.73959297 -0.2444911
-0.055638984 -0.96866906 -0.14827442
-0.055261984 -0.89186406 -0.1150794
-0.052484989 -0.28720403 0.12972069
-0.05443199 -0.722561 -0.041900158
-0.056586988 0.038586974 0.25098562
-0.056050986 0.15619701 0.29486847
-0.057348989 -0.12860101 0.18860388
-0.056981988 -0.047991991 0.21868181
-0.056249984 0.561997 0.27860165
-0.058903985 0.62698603 0.061394691
-0.058936983 -0.47674596 0.058692932
-0.062250987 -1.112705 -0.21256638
-0.06185399 -1.037555 -0.18007517
-0.072886989 0.90401298 -0.57566309
-0.061494984 0.15615702 0.29456663
-0.062671989 -0.08484 0.20463991
-0.061352983 0.18530399 0.30544281
-0.062306985 -0.010053992 0.23254681
-0.061600983 0.489593 0.28649187
-0.06452699 0.62703097 0.062952518
-0.066140987 0.65563595 -0.06031847
-0.06144499 0.44947398 0.29838753
-0.068494983 -1.171847 -0.2401824
-0.067738988 -1.038218 -0.18239117
-0.066416986 -0.80486107 -0.081468105
-0.065957986 -0.72363806 -0.046341419
-0.065309986 -0.60930204 0.0031118393
-0.067551985 0.038492978 0.2503705
-0.079156987 0.86338097 -0.58071423
-0.067174986 0.11086601 0.27737665
-0.068194985 -0.084896028 0.20432568
-0.06716799 0.51979697 0.27791357
-0.066329986 0.27467102 0.33791256
-0.066313989 0.30260396 0.33902884
-0.077777989 0.81694996 -0.4819212
-0.071455985 -0.67940998 -0.029195309
-0.068959989 -0.23164201 0.14956665
-0.072849989 0.072030008 0.26259565
-0.073961988 -0.12877601 0.18765974
-0.072222985 0.18522698 0.3048377
-0.073514983 -0.04815203 0.21774769
-0.07172399 0.30255002 0.33845758
-0.072137989 0.41079298 0.31060457
-0.072307989 0.44950899 0.29912472
-0.083944984 0.81694698 -0.48525238
-0.075487986 -0.40437102 0.084804535
-0.077211984 -0.67993605 -0.03140831
-0.078096986 0.11077899 0.27676678
-0.077831984 0.15603501 0.29365683
-0.079501987 -0.12883604 0.1873436
-0.077926986 0.48964 0.2876029
-0.078057989 0.51985598 0.27929068
-0.077572986 0.59253401 0.31015491
-0.07725399 0.341149 0.33046675
-0.077559985 0.41081199 0.31097269
-0.086532988 0.73939598 -0.26024532
-0.08159399 -0.47772098 0.054148674
-0.08541999 -1.040217 -0.18935013
-0.084954984 -0.97185504 -0.15975952
-0.084430985 -0.89489806 -0.1264472
-0.08383099 -0.80658305 -0.088217258
-0.08079499 -0.34932196 0.1050539
-0.080432989 -0.28754902 0.1281085
-0.082499988 -0.61079895 -0.003464222
-0.097811989 0.863397 -0.58308744
-0.083277985 0.15599298 0.29335165
-0.082837984 0.37966898 0.31993151
-0.091979988 0.705199 -0.23142338
-0.09234599 -1.175864 -0.25346613
-0.089642987 -0.80716097 -0.090471268
-0.086023986 -0.28762102 0.12778568
-0.08530999 -0.17228502 0.17083454
-0.088236988 -0.61130106 -0.0056605339
-0.088535987 0.18510699 0.30392981
-0.088807985 0.489669 0.28834486
-0.088941984 0.51991403 0.2806716
-0.087981984 0.27443796 0.33562756
-0.087962985 0.30238402 0.33674192
-0.088384986 0.59261596 0.3125596
-0.088269986 0.37960598 0.31912851
-0.088599987 0.44955999 0.30023575
-0.098493986 0.739317 -0.26658535
-0.09297099 -0.47862601 0.049830914
-0.098351985 -1.177367 -0.2584672
-0.096127987 -0.89612496 -0.1310091
-0.09450499 -0.68152201 -0.038057327
-0.09582299 -0.085184991 0.20275784
-0.093684986 0.22729796 0.31938982
-0.095570989 -0.048373997 0.21649647
-0.094246984 0.48968399 0.28871679
-0.093957983 0.56305003 0.30449867
-0.094029985 0.44957599 0.30060482
-0.10448299 0.73927701 -0.26977253
-0.11206198 0.77846998 -0.68325853
-0.10867699 0.81693697 -0.49860239
-0.10380699 -1.11871 -0.23285818
-0.099722989 -0.61230898 -0.010058403
-0.11647999 0.86341298 -0.58546114
-0.099111989 0.22725898 0.31908846
-0.099687986 0.48969799 0.28908777
-0.099190988 0.59269702 0.31496382
-0.099141985 0.37947699 0.31752062
-0.10894998 0.70585299 -0.19327116
-0.11834498 0.77847302 -0.68258715
-0.10905299 -1.042913 -0.19866323
-0.10784199 -0.89735997 -0.13558149
-0.10280399 -0.28784096 0.12681246
-0.10642799 -0.72746003 -0.061947346
-0.10240398 -0.23205101 0.14764071
-0.10197698 -0.172481 0.16987753
-0.12270599 0.86341798 -0.58625317
-0.10687999 -0.085305989 0.20212793
-0.10477699 0.563142 0.30690765
-0.10464599 0.59263498 0.3133955
-0.10457999 0.379412 0.31671762
-0.12462599 0.778476 -0.68191528
-0.10942598 -0.40629303 0.075297832
-0.11642798 -1.1818991 -0.27351427
-0.11437599 -0.97509098 -0.17130041
-0.11370499 -0.89797997 -0.13787031
-0.10893998 -0.35042298 0.099521637
-0.11222599 -0.72801304 -0.064185143
-0.11118098 0.071689963 0.26043987
-0.11087698 0.11050099 0.27492857
-0.11052299 0.15577501 0.29182863
-0.10996499 0.22718102 0.31848574
-0.11001899 0.379347 0.31591368
-0.11766598 0.65589499 -0.049184322
-0.11018399 0.41057798 0.3080287
-0.12248699 0.73915601 -0.2793293
-0.12729099 0.81692898 -0.5086503
-0.11510398 -0.40672302 0.073152542
-0.11802799 -0.728567 -0.066425323
-0.11698499 -0.61383402 -0.016669273
-0.13499999 0.90408099 -0.5804491
-0.11634298 0.11045301 0.27462149
-0.11597399 0.15573001 0.29152489
-0.11573599 0.18489701 0.30241251
-0.11507399 0.27413899 0.33276987
-0.13718498 0.77848297 -0.68057442
-0.12785098 -1.124568 -0.2527895
-0.12620598 -0.976794 -0.17740345
-0.12025598 -0.35124302 0.095262527
-0.11913498 -0.23226798 0.14667177
-0.14139199 0.86343402 -0.58863115
-0.14121699 0.90408802 -0.58091211
-0.12283499 -0.010650039 0.22912169
-0.12488999 0.58616799 0.13856792
-0.12917599 0.65586001 -0.050325394
-0.13451698 0.73907501 -0.28568935
-0.13388398 -1.126043 -0.25779343
-0.13131899 -0.89985204 -0.1447525
-0.12530398 -0.28905201 0.12029886
-0.12920099 -0.68473804 -0.051409245
-0.12798998 -0.56176603 0.0019507408
-0.127278 0.11035496 0.27400684
-0.12867799 -0.048730016 0.21461058
-0.12711099 0.51989698 0.2810955
-0.12589398 0.30198199 0.33273554
-0.13053599 0.58605897 0.1357708
-0.12611699 0.340516 0.32325888
-0.13400099 0.62475401 -0.011270523
-0.13159099 -0.35206699 0.090996742
-0.13309997 0.071483016 0.25920486
-0.15369499 0.90412098 -0.58348942
-0.13493398 -0.12947899 0.18416691
-0.13206598 0.18476498 0.30149984
-0.134197 -0.048792005 0.21429682
-0.13247398 0.48943299 0.2848258
-0.13257998 0.51986098 0.28047752
-0.13978198 0.62466198 -0.014193535
-0.13198599 0.41033199 0.30480289
-0.13222498 0.449191 0.29498863
-0.144613 0.70551801 -0.21189451
-0.14657199 0.738994 -0.2920475
-0.15601897 0.77849197 -0.67856216
-0.152165 0.81691998 -0.52088928
-0.14412999 -0.980847 -0.19210339
-0.143141 -0.90170395 -0.15165234
-0.14214399 -0.81244206 -0.11085415
-0.13659799 -0.289832 0.1160655
-0.15999499 0.90416396 -0.58706617
-0.137786 0.155545 0.2903018
-0.13751099 0.18471998 0.30119467
-0.13711098 0.22697598 0.31697273
-0.137945 0.48938298 0.28401279
-0.13674599 0.30184698 0.33138752
-0.13699299 0.34037098 0.32165575
-0.14663398 0.65562499 -0.059229374
-0.14355499 -0.40889502 0.062398911
-0.15204099 -1.1304901 -0.27285719
-0.151034 -1.052709 -0.23307514
-0.15012199 -0.98220503 -0.19701815
-0.14909598 -0.90299404 -0.15650845
-0.142939 -0.35289705 0.086722851
-0.14225 -0.29022396 0.11394548
-0.146606 -0.68636799 -0.058115482
-0.14162898 -0.233706 0.13849449
-0.14439198 0.037759006 0.24603081
-0.14607799 -0.12989801 0.18165684
-0.14523998 -0.048918009 0.21366358
-0.15246397 0.65554601 -0.062209129
-0.14289498 0.410207 0.3031888
-0.17016098 0.73355699 -0.73805332
-0.14925697 -0.40933299 0.060243607
-0.14954799 0.071321011 0.25827456
-0.17257199 0.86346197 -0.59259844
-0.14869797 0.15544897 0.28968763
-0.15167698 -0.13023102 0.17958069
-0.14840299 0.18462896 0.30058479
-0.148204 0.56314099 0.30792093
-0.15715799 0.62438399 -0.022945404
-0.14835399 0.410144 0.30238152
-0.17090899 0.816912 -0.53116131
-0.163113 -1.055558 -0.24304342
-0.15219399 -0.174128 0.16050148
-0.15538198 0.037643969 0.24540663
-0.15503198 0.071265996 0.2579627
-0.17880699 0.86346596 -0.59320831
-0.154627 0.11009902 0.27246571
-0.15304798 0.30160898 0.32899046
-0.15883598 0.58551598 0.12175751
-0.15359297 0.378813 0.30947781
-0.16177899 0.62556696 0.016419888
-0.164141 0.655388 -0.068155289
-0.17128798 -1.1971641 -0.32403326
-0.15999398 -0.35415101 0.08029747
-0.16404799 -0.68801403 -0.064840317
-0.16319799 -0.61796701 -0.034389496
-0.16232899 -0.086564004 0.19470692
-0.15994799 0.51967597 0.27738476
-0.15848398 0.27363598 0.32818651
-0.15848398 0.30152899 0.3281908
-0.15876499 0.340076 0.31844664
-0.15904698 0.37874398 0.3086729
-0.167548 0.62547499 0.013528824
-0.15927398 0.41001698 0.30076647
-0.18725199 0.77853596 -0.67049026
-0.17637998 -1.136476 -0.29306221
-0.16490099 -0.29180205 0.10545063
-0.168993 -0.61849105 -0.036615372
-0.16600198 0.071152985 0.25733852
-0.19126499 0.86347198 -0.59387732
-0.168495 -0.13123798 0.1733427
-0.16533098 0.489126 0.27994776
-0.17019197 0.58529598 0.1161375
-0.17583999 0.65522802 -0.074133396
-0.16473699 0.409953 0.29995871
-0.193452 0.77855301 -0.66755629
-0.17306298 -0.485111 0.019405842
-0.18248799 -1.137983 -0.29813528
-0.17900899 -0.9095 -0.18091154
-0.17138398 -0.35499299 0.076004505
-0.170573 -0.29219902 0.10332155
-0.175697 -0.68911898 -0.069334507
-0.17148799 0.071096003 0.25702667
-0.17104498 0.10993898 0.27153587
-0.17052799 0.15525097 0.28845978
-0.174108 -0.13157499 0.17126179
-0.16971198 0.22671402 0.31515074
-0.17081299 0.48907399 0.2791338
-0.17587799 0.585186 0.1133256
-0.18169698 0.65514797 -0.077126503
-0.17020097 0.40988898 0.29915285
-0.17050099 0.448789 0.28931761
-0.201435 0.73372799 -0.72313929
-0.18737799 -1.061303 -0.26307535
-0.18626699 -0.99043095 -0.22669029
-0.183588 -0.81965196 -0.13901854
-0.177084 -0.35541606 0.073854923
-0.176249 -0.29259801 0.10119057
-0.18155298 -0.68985903 -0.072388172
-0.17549598 -0.23595107 0.12584162
-0.17469299 -0.17553902 0.1521306
-0.177414 0.037238002 0.24280548
-0.17652097 0.10988396 0.27122593
-0.17911997 -0.087526023 0.18849659
-0.17564598 0.18439096 0.29905367
-0.17861098 -0.050284028 0.20470953
-0.174806 0.301287 0.32579279
-0.18157098 0.58507597 0.11050749
-0.175668 0.40982398 0.29834461
-0.19242498 0.70509797 -0.23486423
-0.20767599 0.73376197 -0.72016239
-0.20583898 0.77858597 -0.66169548
-0.18296897 0.036961973 0.24077177
-0.18199599 0.10982901 0.2709136
-0.181097 0.18434101 0.29874659
-0.18024898 0.30120498 0.32499075
-0.18085799 0.56302595 0.30612659
-0.18113598 0.40975899 0.2975359
-0.18145397 0.448672 0.28769493
-0.19956899 -1.064198 -0.27314329
-0.18596798 -0.17624998 0.14793253
-0.19221699 -0.62060297 -0.045535088
-0.18852898 0.03668499 0.23873281
-0.215996 0.86344999 -0.58925247
-0.187473 0.10976899 0.27056456
-0.18690997 0.15509599 0.28753471
-0.19097498 -0.13259399 0.16500187
-0.19033298 -0.088173032 0.18435192
-0.189239 -0.01245302 0.21733093
-0.18634298 0.37839699 0.30464458
-0.18660498 0.40969399 0.29672766
-0.195025 -0.41288602 0.042923927
-0.20446497 -0.99459505 -0.24164248
-0.19421297 -0.35669303 0.067395687
-0.1981 -0.62157595 -0.04978323
-0.19300798 0.10951799 0.26854658
-0.19146299 0.22653002 0.31393051
-0.19283399 0.51944602 0.27366686
-0.192076 0.409628 0.2959199
-0.19241199 0.448553 0.28607273
-0.21316999 -1.145577 -0.32363033
-0.207546 -0.82462096 -0.1584425
-0.199662 0.036127985 0.23465157
-0.22835299 0.86343896 -0.58694029
-0.19785398 0.154939 0.28643179
-0.20223999 -0.13327801 0.16081953
-0.20099598 -0.051524997 0.19644976
-0.23258999 0.73389602 -0.70828342
-0.22824699 0.816872 -0.58391333
-0.20650899 -0.41378796 0.038574696
-0.21355897 -0.82587206 -0.1633215
-0.20469499 -0.29461098 0.090509892
-0.21204698 -0.74177802 -0.12001133
-0.20470297 0.069813967 0.24741459
-0.20787799 -0.13362199 0.15872669
-0.20600098 -0.01334399 0.21116257
-0.202041 0.30087399 0.32178879
-0.20264497 0.56294596 0.30492687
-0.210109 0.58451998 0.096412659
-0.20337799 0.44843298 0.28444958
-0.23135197 0.77957499 -0.49708223
-0.23443699 0.81687301 -0.58326054
-0.213415 -0.48845804 0.0040445328
-0.222747 -0.99879098 -0.25666714
-0.22127098 -0.91875505 -0.21542215
-0.21957999 -0.82712603 -0.16820431
-0.21802798 -0.74295998 -0.12483215
-0.24070099 0.863428 -0.58463049
