# .PCD v0.7 - Point Cloud Data file format
VERSION 0.7
FIELDS x y z
SIZE 4 4 4
TYPE F F F
COUNT 1 1 1
WIDTH 1388
HEIGHT 1
VIEWPOINT 0 0 0 1 0 0 0
POINTS 1388
DATA ascii
0.62643069 -0.019473255 0.10787582
0.62383866 0.023412764 0.081987858
0.62746364 0.089084744 0.049665451
0.62975067 0.13079876 0.029283524
0.63268965 0.19822979 0.0030808449
0.62099266 -0.019460201 0.1073575
0.63434565 0.24374777 -0.011685371
0.61959469 0.054222763 0.070525646
0.62105668 0.090038776 0.05739069
0.61226666 -0.12630224 0.13637972
0.61317968 -0.052313209 0.12817144
0.62865466 0.31296676 -0.010890484
0.60283864 -0.080294251 0.1722374
0.60775363 -0.052292228 0.12772274
0.62411767 0.27179378 -0.020501614
0.60686564 -0.16643524 0.13576078
0.60604268 0.025066793 0.093347549
0.61041468 0.13358879 0.053424835
0.59883565 -0.082096219 0.15915346
0.61496067 0.19925779 0.011918545
0.61769164 0.24379277 -0.013018608
0.61856169 0.27180678 -0.020963192
0.61854166 0.31228977 -0.02077961
0.59980166 0.025991797 0.1001215
0.60198766 0.092833757 0.080004692
0.60401464 0.13450378 0.061341763
0.59323764 -0.12238824 0.16054344
0.60844469 0.20014876 0.020562649
0.61300665 0.27181876 -0.021425247
0.61315769 0.35265577 -0.022814274
0.59440267 0.057962775 0.099199772
0.59597367 0.093427777 0.084611416
0.60194665 0.20103675 0.029185772
0.59266466 -0.018004239 0.1153307
0.60744965 0.27182978 -0.021888256
0.60733068 0.35284376 -0.020786285
0.58852369 0.058461785 0.10276556
0.59229767 0.13528675 0.067448616
0.57843667 -0.11669225 0.19715548
0.59936666 0.24522674 0.0013027191
0.58202064 -0.16168422 0.1636157
0.58656567 0.1355598 0.069409847
0.57825667 -0.08339721 0.14781284
0.57996964 -0.051342249 0.13164663
0.59559864 0.27244276 -0.015816212
0.57578868 -0.16041821 0.17109442
0.57713366 0.059063792 0.10661459
0.58084065 0.13582975 0.071351528
0.56958067 -0.11933625 0.17848063
0.57283664 -0.083361208 0.14749861
0.57425565 -0.015292227 0.13400078
0.58902764 0.27327377 -0.0065493584
0.59254068 0.35159677 -0.039970398
0.59141469 0.38502777 -0.029256344
0.56451869 -0.11977625 0.17500257
0.56816465 -0.014418244 0.14001751
0.58559567 0.38520077 -0.02723217
0.56353867 -0.15814823 0.1843996
0.56797767 0.094259799 0.089006424
0.57255065 0.20281476 0.044748783
0.57466865 0.24747378 0.024255753
0.55866069 0.029773772 0.12624741
0.56075364 0.059171796 0.10582161
0.56241065 0.09439677 0.089645863
0.56680864 0.20305878 0.046718597
0.56890666 0.2476998 0.026239395
0.57019669 0.27512378 0.013656616
0.57380265 0.31259677 -0.02154541
0.57590365 0.35157177 -0.042044163
0.58360064 0.42034978 -0.11717129
0.55323869 -0.21312225 0.17916584
0.55299968 0.030081749 0.12814856
0.55507267 0.059469759 0.10774279
0.55671364 0.094682753 0.091589451
0.55851567 0.13633978 0.073842525
0.55923468 0.16387975 0.066765785
0.55098468 -0.013138235 0.14798355
0.57656568 0.42118376 -0.10385752
0.54718769 -0.2120012 0.18536663
0.54289365 -0.11955923 0.17423964
0.55351967 0.16413677 0.068716526
0.55533767 0.20354575 0.050658703
0.55739665 0.24815178 0.030207634
0.56471169 0.35162476 -0.042431355
0.54598969 0.09449774 0.088875771
0.54810065 0.16409177 0.067729473
0.53818369 -0.045891225 0.16708565
0.55290169 0.27576876 0.019628525
0.55966866 0.38399678 -0.048175335
0.55836767 0.42538276 -0.035137177
0.53411067 -0.15402621 0.20789051
0.53668666 0.030183792 0.12733459
0.54030067 0.094780743 0.090807438
0.54388368 0.2040298 0.054590702
0.54714668 0.27598178 0.021612644
0.54890466 0.31475076 0.0038456917
0.52922869 -0.20885324 0.20272255
0.53135669 0.030081749 0.12598562
0.53461665 0.095062792 0.092739582
0.54016566 0.24882478 0.036140442
0.54139566 0.27619475 0.02359581
0.54609168 0.35304278 -0.024289608
0.54766065 0.42513877 -0.040293217
0.53443265 0.24904776 0.03811264
0.53564966 0.27640778 0.025580406
0.53737366 0.31514677 0.0078406334
0.53956467 0.35376778 -0.014701366
0.52037966 0.030280769 0.12652445
0.52990866 0.27661979 0.027563572
0.53723967 0.38411576 -0.048576355
0.51139665 -0.20575523 0.21982241
0.51294768 -0.15435421 0.20370865
0.51939964 0.13735574 0.079545498
0.52057767 0.16431177 0.067204475
0.52103269 0.20498878 0.062432766
0.53701568 0.46361077 -0.10508728
0.52297664 0.24949175 0.042056561
0.53216368 0.42439878 -0.054231167
0.51040167 0.061039746 0.11653662
0.51371568 0.13761979 0.081485748
0.50317466 -0.075876236 0.19299364
0.50517064 -0.044793248 0.17187357
0.50214064 -0.15415823 0.20393467
0.50626069 0.096461773 0.10237265
0.50803566 0.13788277 0.083424568
0.49759966 -0.075535238 0.19485855
0.50918967 0.16481876 0.071098804
0.51271069 0.27725279 0.033501625
0.51436764 0.31593177 0.015807629
0.52091968 0.42446578 -0.054159164
0.49379969 -0.20291328 0.23543358
0.49673766 -0.15405923 0.20406485
0.50455564 0.20506477 0.061683655
0.49398565 -0.044133246 0.17563486
0.49600369 -0.011659205 0.1538806
0.51375866 0.46730977 -0.037520409
0.51027668 0.35500878 1.2397766e-05
0.51161367 0.38652578 -0.014399529
0.48981667 -0.25544524 0.22056675
0.49220765 0.03179276 0.13604546
0.49494767 0.097016752 0.10622263
0.49668664 0.13840675 0.087296486
0.50871068 0.46701476 -0.043556213
0.50289065 0.31632078 0.01978159
0.50584668 0.38669276 -0.012386322
0.48401266 -0.25454819 0.22522783
0.48658669 0.032093763 0.13794661
0.48783964 0.062199771 0.12418175
0.49213964 0.16557378 0.076933861
0.49877566 0.35536778 0.0040163994
0.47822064 -0.25365329 0.22988081
0.47455364 -0.19690728 0.2701726
0.47954965 -0.15206623 0.21527243
0.47577769 -0.074877203 0.19745541
0.48646569 0.16582376 0.078875542
0.47919565 -0.01071322 0.15953541
0.49303168 0.35554677 0.0060157776
0.49819565 0.42476177 -0.051281452
0.47658467 0.062775791 0.12800074
0.48079568 0.1660738 0.080815792
0.49315864 0.46633878 -0.057706356
0.48302668 0.25102878 0.055821419
0.48571068 0.31690177 0.025740623
0.48729366 0.35572478 0.008014679
0.46659368 -0.25173426 0.23994684
0.47843665 0.27850276 0.045338631
0.47999364 0.31709477 0.027727604
0.46534663 0.06334877 0.13180971
0.46674567 0.098389745 0.11581373
0.45718765 -0.11076826 0.22505856
0.45925468 -0.074098229 0.20144176
0.47103667 0.20583779 0.066761494
0.46109664 -0.04307425 0.18038464
0.48187166 0.46642476 -0.057078362
0.47165167 0.25146276 0.059741497
0.47427869 0.31728676 0.029711723
0.45517969 -0.25016725 0.24801445
0.45503968 -0.20000327 0.24961281
0.45659268 -0.14916223 0.23186684
0.46275067 0.13996178 0.09888649
0.45370764 -0.073765218 0.20329571
0.45552969 -0.042750239 0.18225765
0.47623163 0.46646777 -0.05676651
0.47485268 0.49867776 -0.0408535
0.46597064 0.25167876 0.061702728
0.46856964 0.31747776 0.031692505
0.47010165 0.35625678 0.0140028
0.44948566 -0.24938619 0.25203943
0.45088768 -0.14846325 0.23585463
0.45126867 -0.009150207 0.1689496
0.46977466 0.49840677 -0.046921253
0.46286565 0.31766877 0.033673763
0.44426769 -0.19968629 0.25060654
0.44852269 0.064202785 0.13751745
0.45147365 0.14047378 0.10273361
0.44317365 -0.074028254 0.2005496
0.46495467 0.46655178 -0.056137562
0.46463066 0.49816677 -0.052327156
0.45567566 0.27932578 0.053218842
0.45866466 0.35660976 0.017985821
0.43951565 -0.1470952 0.24366474
0.44177264 0.034464777 0.15310049
0.44426066 0.099476755 0.12346983
0.44584066 0.14072877 0.10465479
0.43511069 -0.10938424 0.2324338
0.44012564 -0.0085302591 0.17270947
0.45947766 0.49792677 -0.057742596
0.45565069 0.42731276 -0.012170315
0.43235064 -0.24684227 0.26530457
0.43384069 -0.14641321 0.24756241
0.43732667 0.064767778 0.1413188
0.43865067 0.09974575 0.12537861
0.44021267 0.14098376 0.1065774
0.43209565 -0.073364258 0.20426559
0.44271165 0.20699775 0.076504707
0.43456167 -0.0082222223 0.17458248
0.45367664 0.46663877 -0.055454254
0.45384866 0.49795976 -0.057527542
0.44342065 0.25240076 0.067979813
0.44431967 0.27973479 0.057148457
0.44843268 0.38834476 0.0076584816
0.43304467 0.10001475 0.12728357
0.43458867 0.14123875 0.10850382
0.42409766 -0.10869724 0.23611069
0.44819868 0.49800676 -0.057032585
0.43789768 0.25246578 0.068265438
0.43864965 0.27993774 0.059111595
0.45329869 0.53862876 -0.11906433
0.44009066 0.31842878 0.041583538
0.44271564 0.38850778 0.0096554756
0.44417965 0.42760876 -0.008149147
0.42273366 -0.19904423 0.25269985
0.42744368 0.10028279 0.12918854
0.42344666 -0.0076092482 0.17832565
0.44254965 0.49805278 -0.056535244
0.43236369 0.25254375 0.068704605
0.43700367 0.38866976 0.011651516
0.41547465 -0.24469328 0.27634954
0.41735467 -0.19888425 0.25323153
0.42056566 0.065610766 0.14700747
0.42184666 0.10054976 0.13109684
0.42576969 0.20768678 0.082334518
0.44046766 0.53944874 -0.10034037
0.43014765 0.35748178 0.027912617
0.41453066 -0.30915821 0.22202063
0.41498667 0.065888762 0.14889956
0.40998966 -0.07204622 0.21168566
0.41234666 -0.0069972277 0.18207359
0.43125564 0.49814376 -0.05554533
0.43003666 0.54197681 -0.040225506
0.40652767 -0.30301225 0.2551918
0.40424067 -0.24322724 0.28392649
0.40642166 -0.19819725 0.25652361
0.40941265 0.066167772 0.1507926
0.41066167 0.10108376 0.13491058
0.41738766 0.31917876 0.04945755
0.41877067 0.35782778 0.031878471
0.39863667 -0.24249721 0.28770781
0.40278167 0.036500752 0.1663065
0.40384167 0.066445768 0.15268564
0.40886468 0.20836979 0.088145733
0.40126365 -0.0063892007 0.18581581
0.41701266 0.46886078 -0.016544342
0.41997066 0.49823478 -0.054554462
0.41036266 0.28094679 0.068901539
0.41172266 0.31936577 0.051424503
0.39304265 -0.24177527 0.29144764
0.39525765 -0.1969862 0.26299763
0.39533666 -0.14368123 0.26197147
0.39722866 0.036787748 0.16818666
0.39115468 -0.10665822 0.24712944
0.39456865 -0.039247215 0.20275879
0.41128865 0.46899176 -0.014530182
0.40471867 0.28114575 0.070852757
0.40987167 0.42848876 0.0038785934
0.38968468 -0.19638324 0.26622868
0.39533967 0.14299977 0.12193251
0.38567767 -0.10632223 0.24895859
0.39626467 0.16973978 0.1097784
0.40556768 0.46912178 -0.012518406
0.39914465 0.25305778 0.071917534
0.39907765 0.28134578 0.07280159
0.40040466 0.31973678 0.055355549
0.40173867 0.35834378 0.037815571
0.38372165 -0.29914927 0.27466774
0.38094166 -0.23819828 0.31121254
0.38440967 -0.14298022 0.26562452
0.38715565 0.067274749 0.15835762
0.38975066 0.14324778 0.12384462
0.38020566 -0.10598725 0.25078678
0.38245067 -0.070421219 0.22092056
0.39066365 0.1699788 0.11169958
0.38466966 -0.0054842234 0.19141769
0.39344168 0.28154474 0.074753761
0.40226167 0.54196978 -0.042550564
0.40820965 0.56907475 -0.12166452
0.39607066 0.35851377 0.039788723
0.39713866 0.38979477 0.02558279
0.37473366 -0.23598325 0.32355452
0.37856266 -0.19518924 0.27263165
0.38787666 0.25347579 0.075802803
0.39040667 0.35868478 0.041760445
0.36933365 -0.23560524 0.3253355
0.37349966 -0.14228421 0.26926851
0.37146366 -0.069776237 0.22461271
0.39176166 0.54161876 -0.051791191
0.38346067 0.32028976 0.061241627
0.36393666 -0.23522818 0.32712078
0.36748567 -0.19403923 0.27879286
0.37050667 0.06809777 0.16401672
0.37165368 0.10292774 0.14821243
0.36381367 -0.10498625 0.25626755
0.37388468 0.17069376 0.11746454
0.36702266 -0.037688255 0.21203566
0.36811265 -0.0045852065 0.19700956
0.38374966 0.50010478 -0.018492222
0.37662566 0.25389075 0.079686642
0.37655967 0.28213775 0.080598831
0.37909067 0.35902378 0.045708656
0.36197266 -0.19350421 0.28163147
0.36260667 -0.14159322 0.27289581
0.36743066 0.14423674 0.1314888
0.36956868 0.20994174 0.10166883
0.36152467 -0.037379205 0.21388865
0.37703466 0.46976677 -0.0024933815
0.37100467 0.25409776 0.081628799
0.38050565 0.5416888 -0.050911427
0.35716465 -0.14124924 0.27470875
0.35603166 -0.037071228 0.21573973
0.35709366 -0.0039902329 0.20073462
0.36538967 0.25430375 0.083568573
0.37484765 0.5417428 -0.050014496
0.37366366 0.57242078 -0.033295155
0.36655468 0.32083878 0.067108631
0.36779165 0.35936177 0.049647808
0.37004367 0.42949677 0.017838478
0.35172766 -0.14090621 0.27652073
0.35629666 0.14472777 0.1353035
0.34953666 -0.068498254 0.23197985
0.35054266 -0.036763251 0.21758986
0.35159168 -0.0036942363 0.20259047
0.36661765 0.50046277 -0.012298584
0.36794466 0.57251078 -0.031263351
0.34238365 -0.23372519 0.33426666
0.34629467 -0.1405642 0.27833176
0.34836465 0.069183767 0.1715498
0.35073566 0.14497179 0.1372056
0.34362066 -0.067256212 0.24024582
0.35157067 0.17163479 0.12511063
0.35279065 0.21060675 0.10744286
0.34609267 -0.0033992529 0.20444775
0.36091965 0.50057876 -0.010285378
0.36222866 0.57259977 -0.029234409
0.35530567 0.32120275 0.071024418
0.35748667 0.39089778 0.039440632
0.33956766 -0.29414928 0.29895258
0.33700567 -0.23335218 0.3360467
0.33656865 -0.10333222 0.26540661
0.33815867 -0.066939235 0.24208641
0.34059867 -0.0031052232 0.20630264
0.35522667 0.50069475 -0.0082755089
0.34968767 0.32138377 0.072977543
0.35183966 0.39105278 0.041413784
0.33163166 -0.2329812 0.33782578
0.33731666 0.069723785 0.17531347
0.33962566 0.14545679 0.14100361
0.34162468 0.21104676 0.11128664
0.35223866 0.54195678 -0.046426296
0.35080865 0.57277775 -0.025179386
0.34737965 0.43006378 0.025774479
0.32626066 -0.23261023 0.33960485
0.33284366 0.10473776 0.16146183
0.34385067 0.50092578 -0.0042572021
0.34532866 0.57274276 -0.026500225
0.33961865 0.36019677 0.059472561
0.34172466 0.43020478 0.027758598
0.33950266 -0.38746822 0.061210632
0.32321966 -0.2925992 0.30636454
0.32540166 0.040458798 0.19255877
0.32026866 -0.10235125 0.27087784
0.32137465 -0.065073252 0.25400352
0.32932165 0.17256778 0.1327486
0.33047667 0.21148479 0.11513567
0.32315665 -0.03523922 0.22681475
0.33817068 0.50104076 -0.0022501945
0.33994567 0.57265079 -0.029334545
0.33285666 0.32192376 0.078827858
0.31778666 -0.29210126 0.30874348
0.31553167 -0.2318722 0.34315872
0.31918567 -0.13886225 0.28739977
0.31990466 0.040736794 0.19442749
0.32299066 0.14618176 0.14670563
0.32377067 0.17279875 0.13465261
0.32490867 0.21170378 0.1170578
0.31769165 -0.034936249 0.22866058
0.33249366 0.50115478 -0.00024652481
0.32837966 0.36052778 0.063384533
0.33042666 0.43048576 0.031726837
0.31235868 -0.29160428 0.31111956
0.31377566 -0.13852525 0.28920984
0.31441066 0.041012764 0.19629669
0.31527066 0.070792794 0.1828208
0.31627166 0.10550177 0.16711569
0.31745267 0.14642179 0.14860058
0.31984267 0.25700778 0.11115074
0.32055366 0.28408176 0.099998474
0.32962665 0.54219276 -0.042239189
0.31827468 -0.37305522 0.13571882
0.30692467 -0.29108119 0.31364584
0.30728465 -0.18854421 0.30800152
0.30836767 -0.13818824 0.29102039
0.30892166 0.041288793 0.19816065
0.30976966 0.071057796 0.18469143
0.31378368 0.21213776 0.12089062
0.32028866 0.47103077 0.017482758
0.31497565 0.28427374 0.10193539
0.32397765 0.54225278 -0.041137218
0.32377067 0.57237577 -0.037854195
0.31715566 0.36085677 0.067290783
0.31200066 -0.37041521 0.14921761
0.30149066 -0.29053926 0.3162818
0.30343667 0.041562796 0.20002079
0.30427265 0.071321785 0.18656063
0.30524465 0.10600877 0.17088461
0.30713767 0.17349178 0.14037848
0.30864665 0.25750279 0.11605167
0.31830966 0.54232681 -0.039709568
0.31833068 0.57230777 -0.040046215
0.29644567 -0.18765521 0.31271362
0.29756767 -0.13751924 0.29462862
0.30007967 0.14851576 0.1671567
0.29677767 -0.00077420473 0.22114277
0.30982965 0.5016098 0.0077514648
0.30308765 0.25770277 0.11797571
0.31229267 0.54264081 -0.032521248
0.30680767 0.39228478 0.057156563
0.29067168 -0.28956223 0.32097864
0.29053566 -0.23505127 0.3232007
0.29247966 0.042109787 0.20373964
0.29328868 0.071850777 0.19030952
0.29457065 0.14875275 0.16904259
0.28878868 -0.063211203 0.26496363
0.29131866 -0.00048625469 0.22299147
0.30334866 0.47140378 0.023443699
0.30629066 0.54295373 -0.025351524
0.30119768 0.39243677 0.059121609
0.30225366 0.43118078 0.041611671
0.28529668 -0.2891562 0.32288361
0.28518465 -0.23473024 0.32473278
0.28678265 -0.13685423 0.29823065
0.28780165 0.072112799 0.19217873
0.28906468 0.14898878 0.17093182
0.28336966 -0.062904239 0.26678753
0.28977567 0.17549676 0.15896082
0.29158166 0.21299976 0.12855148
0.28459665 -0.032249212 0.24612665
0.28586167 -0.00019925833 0.22483873
0.29198265 0.25810075 0.12181568
0.29270467 0.28503478 0.10965157
0.30034265 0.54323673 -0.018910408
0.30138168 0.57247978 -0.036398411
0.29662967 0.43131876 0.043588638
0.28753966 -0.36113119 0.19659042
0.27992368 -0.28875124 0.32478666
0.28356266 0.14922476 0.17281485
0.27795565 -0.062597215 0.26861048
0.28426367 0.17572379 0.16085052
0.28604266 0.21321374 0.13045883
0.27887666 -0.031273246 0.25288248
0.28643566 0.25829977 0.12373877
0.28815466 0.32334176 0.094365597
0.27455565 -0.28834724 0.32668972
0.27601066 -0.13619125 0.30183458
0.27684265 0.072634757 0.19590473
0.27806565 0.14946079 0.17470741
0.27976367 0.21466374 0.14525986
0.29008266 0.57260275 -0.033715248
0.28258666 0.32351676 0.096300602
0.29350966 0.61378878 -0.09314537
0.28439167 0.39288977 0.064994812
0.28539866 0.43159378 0.047525406
0.27603868 -0.35848522 0.2098465
0.26919267 -0.2879442 0.32858944
0.26914665 -0.23376322 0.3293767
0.26618767 -0.099140227 0.28901863
0.26713967 -0.061986208 0.27225256
0.27424267 0.21487677 0.1471715
0.26951766 0.0006557703 0.23037148
0.27535567 0.25869375 0.12756443
0.27604467 0.28559977 0.11543083
0.28266567 0.54401577 -0.00116539
0.27702066 0.32369176 0.098246574
0.27800167 0.36199576 0.080965519
0.26412866 -0.18526524 0.32528448
0.26525566 -0.13553321 0.30543184
0.26589766 0.073155761 0.19963884
0.26676968 0.10776079 0.18404055
0.26708168 0.14992779 0.17846441
0.26079968 -0.098824203 0.29082775
0.26774865 0.17639875 0.1665206
0.26407567 0.00093978643 0.23221874
0.26981968 0.25889075 0.12949085
0.27049765 0.28578675 0.11735058
0.27701268 0.5441128 0.0008354187
0.27320567 0.39319077 0.068914413
0.27418166 0.43186677 0.051463604
0.25845265 -0.28706527 0.33280659
0.26128966 0.10800678 0.18590784
0.26159567 0.15016079 0.18034744
0.26225266 0.17662275 0.16840744
0.25711867 -0.029888213 0.26170254
0.27032667 0.50239378 0.021696568
0.26495665 0.28597379 0.11927557
0.27136466 0.54420877 0.0028324127
0.26590067 0.32404077 0.10212469
0.26685065 0.36231676 0.084852695
0.27583367 0.61426377 -0.078364372
0.26762065 0.39333978 0.070859432
0.26858068 0.43200278 0.053430557
0.25340265 -0.18451625 0.32922745
0.25003666 -0.098194242 0.2944417
0.25675967 0.17684776 0.17030382
0.26396167 0.47226077 0.037320614
0.25941965 0.28615975 0.12119341
0.26572165 0.54430473 0.0048294067
0.26128167 0.36247677 0.086799622
0.24775365 -0.23230624 0.3365984
0.24804866 -0.18415123 0.33114862
0.24879766 0.044270754 0.2185955
0.25063565 0.15062475 0.18410158
0.24630666 -0.029306233 0.26534653
0.25835165 0.47238177 0.039293766
0.25323966 0.25947779 0.13523149
0.25571766 0.36263576 0.088737488
0.25646165 0.39363778 0.074765682
0.24776867 -0.35285425 0.23790884
0.24335566 0.044537783 0.22045469
0.24578565 0.17729276 0.17408085
0.24669766 0.21592975 0.15667772
0.24835566 0.28653175 0.12503672
0.25444567 0.54449576 0.00882864
0.25015667 0.36279476 0.090672493
0.23710766 -0.28560424 0.33967447
0.23968968 0.15108675 0.1878624
0.23391867 -0.097256243 0.29985571
0.23550865 -0.02872622 0.26899147
0.23626867 0.0040447712 0.25424576
0.24714267 0.47262278 0.043236732
0.24282965 0.28671575 0.12694454
0.25059265 0.57305175 -0.023706436
0.24459866 0.36295378 0.092614651
0.25254267 0.61480778 -0.061541557
0.23248067 0.045068741 0.22415161
0.23394367 0.1092338 0.19526386
0.23422366 0.15131778 0.18974161
0.23570567 0.21634674 0.16047144
0.23011667 -0.028437257 0.2708168
0.24223468 0.50294375 0.031604767
0.23730767 0.28689975 0.12886286
0.24318567 0.54468578 0.012823582
0.23975167 0.39408177 0.080619812
0.23137465 -0.35115921 0.24597168
0.22648066 -0.28497326 0.34259272
0.22641066 -0.23083723 0.34396076
0.22876066 0.15154678 0.19161749
0.22319266 -0.096634209 0.30346441
0.22935265 0.17795676 0.17973471
0.23021665 0.21655476 0.16236544
0.22472668 -0.028148234 0.27264261
0.23595166 0.47286278 0.047170639
0.23178968 0.28708375 0.13078165
0.23264065 0.32507077 0.11367846
0.23349565 0.36326978 0.096502781
0.22592166 -0.35059929 0.24864578
0.22141367 -0.18259424 0.3392005
0.22180867 0.076346755 0.22402859
0.21865067 -0.059279203 0.28859377
0.22473165 0.21676177 0.16425848
0.22006166 0.0048767924 0.2597394
0.23036167 0.47298178 0.049140453
0.23194265 0.54487479 0.016812801
0.23369566 0.57325578 -0.01901722
0.22795066 0.36342677 0.098432541
0.23513767 0.61522675 -0.048502445
0.24272966 -0.50492418 -0.20373726
0.22047368 -0.35004127 0.25131273
0.21433866 -0.22505426 0.37676382
0.21703666 -0.13261122 0.32158756
0.21727166 0.11069679 0.20731068
0.21327966 -0.058982253 0.2904067
0.21924865 0.21696776 0.16614866
0.22632566 0.54496878 0.018805504
0.22158366 0.32541177 0.11753464
0.21054468 -0.28396118 0.34736061
0.20904768 -0.22470522 0.37852144
0.21078566 -0.18199021 0.34234571
0.21079665 0.077256799 0.23111057
0.21183166 0.11093676 0.20916271
0.20712966 -0.095710218 0.30885983
0.21295366 0.17861378 0.1853714
0.21377167 0.21717274 0.1680336
0.20858067 -0.027287245 0.27810764
0.20927367 0.005428791 0.26339865
0.21469668 0.26081377 0.14841843
0.22071466 0.54506278 0.020793438
0.22243765 0.57339579 -0.015749454
0.21606165 0.32558176 0.11946583
0.22369066 0.61542976 -0.042313576
0.21834466 0.43320876 0.071061611
0.22840565 -0.49246526 -0.14229536
0.20959365 -0.34893119 0.25662756
0.20320567 -0.027003229 0.27992582
0.21510765 0.54515576 0.022778511
0.21680766 0.57347178 -0.013950348
0.21054468 0.32574975 0.12137556
0.21133667 0.36389676 0.10424948
0.21597067 0.61684078 0.0041255951
0.21198067 0.39481276 0.09034586
0.22197366 -0.48905122 -0.1255703
0.20425767 -0.34877419 0.25720644
0.19994566 -0.28332424 0.35035753
0.19847965 -0.22401023 0.38203764
0.19936466 0.048247755 0.24806356
0.19996667 0.077757776 0.23479462
0.20066866 0.11215174 0.21933651
0.19644067 -0.095096231 0.31245661
0.19719467 -0.05809623 0.29584169
0.20371667 0.26119477 0.15222263
0.20450068 0.28754276 0.13494968
0.20950466 0.54524875 0.024761677
0.20502967 0.32591978 0.12330866
0.20580766 0.36405277 0.10617542
0.20643866 0.39495778 0.092276573
0.20722467 0.43347278 0.074967861
0.21567267 -0.48608518 -0.1110673
0.19455767 0.078007758 0.23664141
0.19524565 0.11239076 0.22119856
0.19634366 0.15223378 0.19652748
0.19110066 -0.094791234 0.31425571
0.19823265 0.26138377 0.15412045
0.20390567 0.54534173 0.026743412
0.20028165 0.36420676 0.10810375
0.20473465 0.61697674 0.0081367493
0.20167068 0.43360478 0.076928616
0.20940065 -0.48313427 -0.096639156
0.19363368 -0.34864724 0.2573905
0.18857166 0.048766792 0.25174284
0.18915066 0.078257799 0.23849154
0.19062567 0.15313375 0.20470572
0.19189668 0.21799177 0.17559385
0.18710268 -0.026152253 0.28537655
0.18774366 0.0065227747 0.27070951
0.19275066 0.26157278 0.1560154
0.19401166 0.32625476 0.12714577
0.19912067 0.61704481 0.010140419
0.19611865 0.43373677 0.078882694
0.18832165 -0.3485862 0.25747871
0.18434566 -0.18076825 0.34853649
0.18374866 0.078505754 0.2403326
0.18043166 -0.094183207 0.31784964
0.18643767 0.21819478 0.1774807
0.18237066 0.0067947507 0.27253342
0.18727466 0.26176077 0.15791464
0.19432065 0.57377374 -0.0067682266
0.18850866 0.32642177 0.12906456
0.19057265 0.43386778 0.080832481
0.19700366 -0.47757626 -0.069467545
0.17886066 -0.28238821 0.35455942
0.17906567 -0.18052822 0.34976149
0.17973667 -0.13039023 0.33409786
0.17779568 0.049280763 0.25540161
0.17834967 0.078752756 0.24217463
0.17976367 0.15358078 0.20843554
0.17700067 0.0070647597 0.27435446
0.18634766 0.50402278 0.051353455
0.18257165 0.28816676 0.14144468
0.18301067 0.32658777 0.13097286
0.17770165 -0.34846926 0.25763941
0.16977766 -0.093578219 0.3214407
0.17482367 0.1801278 0.19849253
0.17553166 0.21859777 0.1812377
0.17761865 0.32655978 0.13038683
0.18230668 0.61724675 0.016130447
0.17878467 0.39567778 0.10197258
0.17949265 0.43412778 0.084720612
0.18523666 -0.47462523 -0.055246353
0.17239267 -0.34841228 0.25771666
0.16818066 0.11357474 0.2304697
0.16891566 0.15402675 0.21216679
0.16445467 -0.093277216 0.3232336
0.16511966 -0.056347251 0.30667543
0.17467466 0.47415876 0.068773746
0.17086567 0.26232475 0.16360664
0.17747766 0.5740118 -0.0010142326
0.17226066 0.32646078 0.12889242
0.17270866 0.36497477 0.11772251
0.16159967 -0.22160721 0.39431143
0.16326967 -0.17993021 0.3527317
0.16217466 0.079492748 0.24770164
0.15978666 -0.056059241 0.30847454
0.16091266 0.007871747 0.27981567
0.16587566 0.28923678 0.15351868
0.17186667 0.57409477 0.0010275841
0.16720566 0.36512876 0.11965561
0.15780166 -0.2814182 0.35901546
0.15634567 -0.22126818 0.3960638
0.15849966 -0.12913924 0.34123278
0.15628466 0.050302744 0.26273346
0.15738167 0.11404479 0.23417568
0.15824266 0.15402675 0.2117424
0.15382266 -0.092678249 0.32681561
0.15445766 -0.055771232 0.31027555
0.15555866 0.0081397891 0.28162861
0.16481766 0.54598576 0.040595531
0.16625966 0.57417876 0.0030708313
0.16130367 0.32674176 0.13208485
0.16223766 0.39610377 0.10776043
0.16289866 0.43451577 0.090554714
0.15319966 -0.12882823 0.34301472
0.14913167 -0.055483222 0.31208181
0.15376167 0.21939975 0.18876266
0.14965867 -0.024195254 0.29805756
0.15804666 0.47450477 0.074630737
0.15494266 0.28958976 0.15731382
0.15924966 0.54607576 0.042572498
0.15581766 0.32690677 0.13400364
0.15672967 0.39624476 0.10969257
0.16186467 -0.46878922 -0.027073383
0.14599666 -0.22128224 0.39558554
0.14603366 0.080225766 0.25322056
0.14659667 0.11451077 0.23786879
0.14769867 0.18118978 0.20783281
0.14837967 0.21946675 0.18925762
0.14485866 0.0086727738 0.28526878
0.15368566 0.54616678 0.044547558
0.15033467 0.32707077 0.13591957
0.14597766 -0.34878027 0.2547574
0.14091666 -0.22173619 0.39277649
0.14018866 0.051061749 0.26822186
0.14120866 0.11474174 0.23970842
0.13789867 -0.091785252 0.33218384
0.13848966 -0.05491221 0.31567478
0.14312467 0.21919179 0.1861968
0.14945966 0.57442778 0.0092024803
0.14529566 0.36560577 0.12553263
0.14633967 0.43489978 0.096369743
0.13586366 -0.22235024 0.38904762
0.13731967 -0.12790126 0.34835386
0.13528967 0.080711782 0.25690079
0.13668166 0.15467578 0.21703959
0.13317466 -0.054628253 0.31747055
0.13747266 0.21999377 0.19437885
0.14145066 0.47484878 0.080483437
0.14256766 0.54634774 0.048490524
0.13938066 0.32739776 0.13973951
0.14082767 0.43502778 0.098306656
0.13158266 -0.28050518 0.36305285
0.12992366 0.080953777 0.2587328
0.13205066 0.22019178 0.19625378
0.12833866 -0.02309525 0.30527639
0.13638367 0.50496876 0.069011688
0.13271166 0.26361877 0.17684364
0.13448967 0.36556876 0.1246357
0.13896766 0.61660075 -0.0069065094
0.13473566 0.39680678 0.11740255
0.13531967 0.43515477 0.10024261
0.13923366 -0.46614718 -0.014715195
0.12574166 -0.22358418 0.38157082
0.12654467 -0.17884123 0.35796642
0.12506966 0.11543375 0.24523973
0.12585667 0.15519375 0.22152042
0.12255466 -0.054062247 0.3210597
0.12301867 -0.022822201 0.30708075
0.12350166 0.009729743 0.29252243
0.13040566 0.47507578 0.084380627
0.12844266 0.32772177 0.14355278
0.12900767 0.36571777 0.12654877
0.13340166 0.61663675 -0.0059175491
0.12924667 0.39694577 0.11932564
0.13359967 -0.4655422 -0.011889458
0.12499666 -0.35003018 0.24745083
0.12131266 -0.17872423 0.35850048
0.11877666 0.052064776 0.27553368
0.12066266 0.18223876 0.2171526
0.11769967 -0.022549212 0.30888462
0.12591967 0.54661578 0.054389477
0.12708867 0.57478774 0.018203735
0.12297866 0.32788378 0.14545679
0.12431367 0.43540776 0.10411263
0.11974366 -0.35034728 0.24561262
0.11588566 -0.2800442 0.36505747
0.11607966 -0.17860723 0.35903358
0.11619566 -0.12667823 0.35545778
0.11432667 0.11589277 0.24892569
0.11498666 0.15591478 0.22792053
0.11698766 0.29028076 0.16423845
0.11827867 0.39722377 0.12316942
0.10809366 0.052559793 0.27917051
0.11116266 0.26384676 0.17872477
0.11154667 0.29045379 0.16612959
0.11484066 0.54679376 0.058316708
0.11258066 0.36616477 0.13229656
0.11280066 0.39736176 0.12508965
0.11672866 -0.46374118 -0.0034503937
0.10565466 -0.12607223 0.35900354
0.13315067 -0.64895427 -0.5409565
0.10275666 0.052807748 0.28099155
0.10176866 -0.021736205 0.31429052
0.10219966 0.010775745 0.2997694
0.10836066 0.47552678 0.092163563
0.11035167 0.5750618 0.025095463
0.10732666 0.39749977 0.12701082
0.10783467 0.43578476 0.10991049
0.10040066 -0.17830724 0.36036682
0.12614867 -0.64174521 -0.50714636
0.095590666 -0.089442253 0.34644651
0.096063659 -0.052660227 0.33001947
0.099593669 0.2213648 0.20749044
0.096882671 0.01103574 0.30158186
0.10478066 0.57515275 0.027413845
0.10164966 0.36645976 0.1361146
0.10188866 0.39756176 0.12780046
0.10234867 0.43590978 0.11184263
0.10563867 -0.46345723 -0.0023622513
0.094975665 -0.27942622 0.36780643
0.095126659 -0.12547022 0.36254168
0.09077467 -0.052381217 0.33181047
0.094194666 0.22155875 0.20936155
0.091568664 0.011293769 0.30338573
0.097733662 0.50568676 0.082672596
0.094911665 0.26432776 0.18369484
0.095244661 0.29096878 0.17180061
0.098249659 0.54705876 0.064203739
0.096864671 0.43603477 0.11377573
0.10010767 -0.46341825 -0.0023283958
0.089758664 -0.27932727 0.36820364
0.089951664 -0.17810422 0.3612957
0.08676666 0.05354476 0.28644848
0.086259663 0.011551797 0.30519152
0.091866657 0.47586176 0.097977638
0.089495659 0.26450777 0.18557262
0.093638659 0.57535177 0.032497406
0.08410567 -0.22280729 0.38478279
0.084611669 -0.12487221 0.36607885
0.082184657 0.11725277 0.25996161
0.080209658 -0.051827252 0.33538961
0.080953658 0.011808753 0.30699873
0.084083661 0.26468575 0.18745184
0.087208658 0.54723477 0.06812048
0.088074669 0.57545078 0.03503561
0.084835663 0.32900178 0.15875149
0.082989663 -0.35325623 0.22924757
0.079369664 -0.17703825 0.3674655
0.079359666 -0.12457424 0.36784458
0.077295661 0.15772778 0.24382973
0.079400659 0.32915878 0.16064262
0.07774967 -0.35387123 0.22588062
0.074291661 -0.28029418 0.3624835
0.073727667 -0.22276425 0.38475847
0.071125656 0.083565772 0.27884483
0.071498662 0.11770076 0.26362371
0.075730667 0.50609076 0.090459824
0.076180667 0.54740876 0.072033405
0.077888668 0.61692876 0.0021576881
0.074715659 0.39788577 0.13196945
0.074972659 0.43652877 0.12147045
0.068864658 -0.12398022 0.37137747
0.066160664 0.11792177 0.26544571
0.066583663 0.15814978 0.24751949
0.064000666 -0.087719202 0.35711479
0.064713657 -0.019866228 0.3268714
0.069924667 0.47630376 0.10572577
0.068541661 0.32947376 0.16443777
0.072351664 0.6169498 0.0027456284
0.06926167 0.39802077 0.13388348
0.069508657 0.43665177 0.12339258
0.072468668 -0.46325421 -0.0022244453
0.067252666 -0.35510719 0.21913052
0.063349664 -0.22272527 0.38473463
0.063622668 -0.12368423 0.37314177
0.060481668 0.084031761 0.28249073
0.060826659 0.11814475 0.26727867
0.06123367 0.15835977 0.24936676
0.058747664 -0.087435246 0.35888863
0.06164366 0.18384975 0.23128176
0.061887667 0.22270679 0.2205348
0.059761658 0.012830794 0.31421375
0.06273666 0.29198575 0.18309784
0.065864667 0.57584876 0.045268536
0.063500658 0.36748078 0.14946461
0.066814661 0.61697477 0.0034193993
0.063810661 0.39815578 0.1357975
0.058967665 -0.28264725 0.3492136
0.055886671 0.15856975 0.25121164
0.053854659 -0.050456226 0.34431839
0.056280658 0.18405175 0.23313665
0.059798658 0.54741979 0.071919441
0.060321659 0.57595277 0.047973633
0.056734666 -0.35635126 0.21235466
0.052972659 -0.22267818 0.38476658
0.049577668 0.055241764 0.29915476
0.048251666 -0.086868227 0.36243773
0.048594669 -0.05018425 0.34610271
0.051146671 0.22308475 0.22424841
0.053507671 0.47663176 0.11152267
0.051681668 0.26574779 0.19869471
0.051929668 0.29232174 0.18685865
0.054384664 0.54733181 0.069681644
0.053138658 0.43701878 0.12916279
0.055929661 -0.4635582 -0.0041055679
0.048715666 -0.28422618 0.34032774
0.044277661 0.055480778 0.30096579
0.043335661 -0.049913228 0.34788561
0.045564666 0.18445379 0.23684263
0.048041664 0.47674078 0.11345339
0.046529666 0.29248875 0.18874454
0.04720366 0.36791176 0.15517044
0.046192661 -0.35760319 0.20555353
0.043576665 -0.28502023 0.33586884
0.042825662 -0.1235882 0.37330246
0.038981661 0.055720747 0.30277967
0.039231665 0.084954798 0.28975773
0.039522663 0.11902779 0.27459764
0.037768662 -0.086306214 0.36598063
0.038346663 -0.018553257 0.33583355
0.038623661 0.013840795 0.32141542
0.043712661 0.57627678 0.056408405
0.041456662 0.33025178 0.17389059
0.036830664 -0.16906321 0.41479254
0.033928663 0.085184753 0.29157448
0.032531664 -0.086025238 0.3677516
0.032830663 -0.049374223 0.35144758
0.033084661 -0.018292248 0.3376236
0.037122667 0.47695675 0.1172986
0.03736566 0.50678676 0.10402584
0.038186662 0.57638478 0.059224606
0.039199665 0.61700779 0.0039596558
0.036799662 0.43738177 0.13491964
0.039459661 -0.46471918 -0.010213375
0.035629667 -0.35886323 0.19872761
0.031774662 -0.16999424 0.40905857
0.053790659 -0.75418317 -0.79215622
0.045345664 -0.60408425 -0.33138847
0.028400667 0.056194782 0.30638456
0.029203661 0.15960675 0.26039982
0.027824663 -0.018033206 0.33941078
0.030149661 0.26644576 0.20618153
0.030355662 0.29298776 0.19438076
0.03267166 0.54701674 0.061697483
0.033679664 0.61701077 0.0039715767
0.027027667 -0.22254121 0.38505077
0.04666166 -0.74266028 -0.73974514
0.039480664 -0.60342026 -0.32836342
0.02332966 0.085641742 0.2952075
0.023580663 0.11968476 0.28008366
0.02417466 0.18524975 0.2442255
0.025751665 0.39908776 0.14914846
0.025923662 0.43762177 0.13873959
0.022956662 -0.28827119 0.31765985
0.021838665 -0.22251618 0.38510561
0.022061661 -0.12378824 0.3716464
0.033619665 -0.6027602 -0.32534647
0.017831661 0.056667745 0.30999947
0.018273667 0.11990178 0.2819047
0.018553667 0.16001874 0.26407671
0.019102663 0.22360575 0.22909451
0.020768665 0.47727877 0.12307262
0.019403666 0.26679277 0.20992279
0.015324667 0.47738576 0.12498856
0.015520662 0.50717777 0.11175442
0.014211662 0.29348075 0.19999743
0.014708661 0.36876276 0.16654539
0.014909662 0.39935178 0.15296173
0.017452665 -0.46629524 -0.018427372
0.012630664 -0.29026628 0.30655384
0.026887663 -0.72387028 -0.6543932
0.0072776601 0.057137787 0.31361055
0.0076696649 0.12033379 0.2855444
0.0068176612 -0.017003238 0.3465476
0.007018663 0.015332758 0.33217764
0.0090706646 0.33117178 0.18521166
0.0061316639 -0.17214024 0.39565039
0.0021746606 0.086547792 0.30246782
0.0030626655 0.22416174 0.23466873
0.0015746653 -0.01674825 0.34832954
0.0017626658 0.015578747 0.33397055
0.0044476613 0.47759876 0.12883568
0.0033846647 0.2943368 0.21005249
0.0048546642 0.57782578 0.097747803
0.0036846623 0.33132377 0.18708849
0.003904663 0.36904377 0.17033768
0.0040816665 0.39961278 0.15675879
0.010236666 -0.60014522 -0.31336021
-0.0032653362 0.057605743 0.31722164
-0.0029223338 0.12076378 0.28918886
-0.0027053356 0.16083276 0.27139854
-0.0039913356 -0.08460921 0.37664366
-0.0038353354 -0.047510207 0.36388254
-0.00098733604 0.47770476 0.13075352
-0.00082533807 0.50746876 0.11754465
-0.0021223351 0.26803279 0.22365475
-0.0014933348 0.36918277 0.17222977
0.0044026673 -0.59949923 -0.31038237
-0.0085313395 0.057838798 0.31902647
-0.0082133338 0.12097776 0.29101181
-0.0091733336 -0.084751248 0.37563372
-0.0078803375 0.18708175 0.26168776
-0.0076163337 0.22452879 0.23837185
-0.0089043379 -0.016239226 0.35188961
-0.0087413341 0.01606977 0.3375535
-0.0064163357 0.47780976 0.13267279
-0.0074703395 0.26820475 0.22553062
-0.0073373392 0.29466075 0.21378279
-0.006064333 0.57797378 0.10162258
-0.0045923367 -0.46818125 -0.028113365
-0.0092613399 -0.22273529 0.38340569
-0.0093803331 -0.17240322 0.39385939
-0.0091863349 -0.12292022 0.37676048
-0.013658337 0.087219775 0.3078928
-0.013500333 0.12119079 0.29282475
-0.014356337 -0.08489722 0.37460041
-0.012949333 0.22471076 0.24021578
-0.011843339 0.47791478 0.13458872
-0.011705339 0.50766075 0.12140846
-0.012135334 0.40000176 0.16245651
-0.014552336 -0.17249322 0.39326239
-0.014420338 -0.1222952 0.38069677
-0.018784337 0.12140274 0.29463339
-0.019499335 -0.04672426 0.36919451
-0.019230336 0.016556799 0.34113359
-0.017983336 0.29445475 0.21121264
-0.019630335 -0.22282624 0.38277245
-0.019928336 -0.11710924 0.41380453
-0.024595335 -0.015481234 0.35723162
-0.024470337 0.016799748 0.34292269
-0.022928335 0.40025976 0.16624069
-0.024815336 -0.22287321 0.38245583
-0.018771335 -0.59938526 -0.31008959
-0.029562335 0.058761775 0.32622242
-0.029343337 0.12182879 0.29828358
-0.029820338 -0.015230238 0.3590126
-0.029708337 0.017041743 0.34471178
-0.027929336 0.50751674 0.11827374
-0.028688338 0.29477477 0.21493578
-0.027796336 0.54869473 0.10125065
-0.027529337 0.57671475 0.067295551
-0.029055335 -0.29837024 0.2616396
-0.029958338 -0.22388625 0.3765707
-0.030075338 -0.17275923 0.39151049
-0.022581335 -0.70362127 -0.56263638
-0.035137337 -0.045944214 0.37450647
-0.034413338 0.18804479 0.27085972
-0.034251336 0.22543579 0.24760246
-0.033515338 0.47833377 0.14225864
-0.034117337 0.26849079 0.22852039
-0.033388335 0.54964375 0.12401867
-0.033709336 0.40051576 0.17003345
-0.034309335 -0.29939723 0.25597048
-0.035106335 -0.22498524 0.37019348
-0.035251338 -0.17284721 0.39093781
-0.028650336 -0.70186329 -0.55466652
-0.040058337 0.059219778 0.32981777
-0.039780337 0.16223675 0.28420544
-0.040171336 0.017523766 0.34828377
-0.038924336 0.47843677 0.14416361
-0.038705338 0.50703681 0.10827971
-0.039451335 0.26865679 0.23036957
-0.039379336 0.29509574 0.21867847
-0.038813338 0.54972476 0.12594366
-0.038437337 0.5766108 0.064417839
-0.039094336 0.40064377 0.17193556
-0.037735336 -0.4726032 -0.050429344
-0.038863335 -0.37096918 0.13420963
-0.039572336 -0.30042624 0.25028849
-0.040543336 -0.11779922 0.40922976
-0.036148336 -0.59940124 -0.31029224
-0.045063335 0.16243476 0.28602886
-0.045525335 -0.045957208 0.37435246
-0.045002338 0.18842578 0.27451563
-0.044128336 0.50700581 0.10759354
-0.044633336 0.33266777 0.20397282
-0.044475336 0.40077078 0.17382669
-0.044846337 -0.30145919 0.24459362
-0.040700335 -0.70019329 -0.5471282
-0.050487336 0.088766754 0.32054281
-0.050344337 0.16263276 0.28785276
-0.050722338 -0.084878206 0.37445974
-0.050294336 0.18861479 0.27633762
-0.050623335 0.018002748 0.35185385
-0.050110336 0.26899177 0.23409843
-0.050058335 0.29541177 0.22239256
-0.049654335 0.54988873 0.12980747
-0.049358338 0.57651776 0.061844826
-0.049986336 0.33281478 0.20583773
-0.049810335 0.43926376 0.16540575
-0.049627334 -0.37299919 0.12348557
-0.050619334 -0.22830224 0.35096979
-0.050824337 -0.11956424 0.39789152
-0.047734335 -0.59942126 -0.3104496
-0.055735335 0.088984787 0.32234573
-0.055621337 0.16282874 0.28967381
-0.055931337 -0.084249258 0.3786335
-0.055906337 -0.046357214 0.3715167
-0.055522338 0.22676575 0.26137066
-0.055433337 0.26915777 0.23595047
-0.055392336 0.29556978 0.22424746
-0.054822337 0.57648176 0.060824394
-0.055335335 0.33296078 0.20770454
-0.055229336 0.40102378 0.17760563
-0.055194337 0.43937877 0.16730881
-0.054394335 -0.47484624 -0.061681271
-0.055020336 -0.3741262 0.1175456
-0.055966336 -0.17320925 0.38863564
-0.060940336 0.12308478 0.30916166
-0.061099336 -0.013738215 0.36966753
-0.061061338 0.018478751 0.35541964
-0.060522337 0.47871578 0.14929962
-0.060440335 0.50752079 0.11818886
-0.060680337 0.33310676 0.20957279
-0.060602337 0.40117577 0.17988062
-0.059960335 -0.47559726 -0.065441608
-0.060423337 -0.37525523 0.11159468
-0.061147336 -0.17330223 0.38805962
-0.066164337 0.16321975 0.29330349
-0.065951332 0.43960676 0.1710906
-0.066035338 -0.30608821 0.21913958
-0.065100335 -0.60065627 -0.31632519
-0.071471334 0.06057775 0.34058857
-0.071536332 -0.078713238 0.41551352
-0.071497336 -0.013561249 0.37092686
-0.071487337 0.018951774 0.35898161
-0.071294338 0.47812778 0.13823557
-0.071384333 0.26965076 0.24148846
-0.071259335 0.54855978 0.097831726
-0.071325339 0.43972078 0.17298174
-0.07110934 -0.47728825 -0.073880196
-0.071455337 -0.23317623 0.32280064
-0.070896335 -0.60114622 -0.31864548
-0.076697335 0.12370479 0.31458664
-0.076697335 -0.047323227 0.36473846
-0.076697335 0.22747475 0.26874161
-0.076697335 0.019187748 0.36076355
-0.076697335 0.50804079 0.1289115
-0.076697335 0.29619676 0.23167944
-0.076697335 0.5484848 0.096029758
-0.076697335 0.33354476 0.2151947
-0.076697335 0.40195277 0.19161463
-0.076697335 -0.37866521 0.093655586
-0.076697335 -0.30854428 0.20565939
-0.076697335 -0.23445618 0.31541777
-0.076697335 -0.87160623 -1.0074005
-0.076697335 -0.17362225 0.38610172
-0.076697335 -0.12024921 0.39345264
-0.076697335 -0.6016382 -0.32097054
-0.081866339 -0.080602229 0.40292263
-0.081898339 -0.046987236 0.36708975
-0.081982337 0.22764975 0.27057076
-0.082100339 0.47795278 0.13496161
-0.082014337 0.29635179 0.23353577
-0.082170337 0.57625675 0.054711819
-0.082028337 0.33368877 0.21705675
-0.08204934 0.40207776 0.19349861
-0.082064338 0.43994778 0.1767807
-0.08214134 -0.37980926 0.087649822
-0.08710134 -0.014309227 0.36551046
-0.087497339 0.47815278 0.13871956
-0.087328337 0.29654175 0.23580647
-0.087398335 0.40220076 0.19537258
-0.087427333 0.44006076 0.17867279
-0.08759734 -0.38095617 0.081629753
-0.087215334 -0.23702729 0.30059242
-0.092350334 0.061469793 0.34775162
-0.092197336 -0.041341245 0.40647173
-0.092499338 0.1901148 0.29096079
-0.092543334 0.22799778 0.2742238
-0.09288834 0.47835377 0.1425066
-0.092592336 0.27086979 0.25530052
-0.092683338 0.33397576 0.22077179
-0.092788339 0.44017178 0.18054867
-0.093508333 -0.48144019 -0.094546318
-0.092776336 -0.31225717 0.18531752
-0.092267334 -0.17472225 0.37946081
-0.092239335 -0.12076825 0.39015579
-0.09411934 -0.60312927 -0.32797718
-0.097608335 0.090706766 0.33673239
-0.097359337 -0.041092217 0.40822649
-0.097820334 0.22817278 0.27606583
-0.097523332 -0.014921248 0.36110544
-0.097512335 0.019629776 0.36414576
-0.09820734 0.5097878 0.16508961
-0.098004334 0.33417478 0.22335052
-0.098088339 0.40244877 0.19914055
-0.09816134 0.44004178 0.1783886
-0.099132337 -0.4824872 -0.099742413
-0.097786337 -0.23961627 0.28568649
-0.10277234 0.061910748 0.35132647
-0.10282834 0.090919793 0.33852863
-0.10289334 0.12472475 0.32361078
-0.10309234 0.2283448 0.27788448
-0.10273933 -0.015228212 0.35889864
-0.10272634 0.01933676 0.36194658
-0.10342833 0.40257177 0.20102453
-0.10476334 -0.48353624 -0.10494757
-0.10402834 -0.3844192 0.063484669
-0.10309134 -0.24091721 0.27820539
-0.10272034 -0.17739922 0.3632946
-0.10797834 0.062130749 0.3531127
-0.10804534 0.091130793 0.34031963
-0.10821533 0.16476578 0.30784559
-0.10827434 0.19066775 0.29642439
-0.10901934 0.47897276 0.15418339
-0.10910434 0.50847077 0.13790369
-0.10860834 0.33490378 0.23279476
-0.10876434 0.40269378 0.20289946
-0.11040334 -0.48458922 -0.11016321
-0.10952634 -0.38558018 0.057410717
-0.10896334 -0.31600726 0.16482162
-0.10840934 -0.24222219 0.27070475
-0.11260034 -0.6963712 -0.52970457
-0.11318034 0.062349796 0.35489655
-0.11345634 0.16495579 0.30966043
-0.11422534 0.48054877 0.18381166
-0.11451834 0.5083698 0.13584566
-0.11374334 0.27151376 0.26267052
-0.11381434 0.29781377 0.25106764
-0.11391534 0.33504575 0.23464584
-0.11435534 0.43908876 0.16253042
-0.11503534 -0.38674629 0.051318645
-0.11322834 -0.18009323 0.3470397
-0.11858533 -0.69641125 -0.52985048
-0.11846934 0.091552794 0.3439045
-0.11816233 -0.082875252 0.38790274
-0.11889134 0.22886276 0.2833724
-0.11806533 -0.0093402267 0.40168047
-0.11902334 0.27167279 0.26451063
-0.11933434 0.37260976 0.22001553
-0.11942734 0.40293777 0.20664883
-0.12171233 -0.48670423 -0.12063026
-0.12055434 -0.38791418 0.045215607
-0.11981533 -0.31852627 0.15107441
-0.11850434 -0.18144721 0.33887768
-0.12457034 -0.69645321 -0.53000546
-0.12326534 -0.60637617 -0.34315443
-0.12367834 0.091761768 0.34569645
-0.12379534 0.12552977 0.33081484
-0.12393233 0.16533476 0.31328058
-0.12322433 -0.0091032386 0.40343857
-0.12535334 0.50820178 0.13243675
-0.12430134 0.27183175 0.26634455
-0.12439234 0.29811877 0.25476742
-0.12505034 0.43958578 0.17091942
-0.12609234 -0.38923419 0.038322449
-0.12379634 -0.18280625 0.33068752
-0.12338033 -0.12182724 0.38354874
-0.12912133 -0.60726428 -0.34730339
-0.12885433 0.061813772 0.35071564
-0.12916534 0.16552377 0.31509161
-0.12855233 -0.083284259 0.38526058
-0.12926434 0.19139576 0.30368376
-0.12837833 -0.0088672042 0.40519571
-0.12880734 0.018535793 0.35605478
-0.13049033 0.47944778 0.16326284
-0.13656533 -0.69711423 -0.53292561
-0.13410734 0.091884792 0.34681559
-0.13422634 0.12592876 0.33441448
-0.13439433 0.16571176 0.31689644
-0.13375133 -0.083489239 0.38393974
-0.13450433 0.19157678 0.30549765
-0.13363233 -0.010097206 0.39632559
-0.13397333 0.019154787 0.36078644
-0.13589133 0.47932377 0.16097546
-0.13511333 0.33560878 0.24206877
-0.13527234 0.37299076 0.22548485
-0.13561134 0.40183678 0.19014072
-0.13571534 0.44008178 0.17930984
-0.13720633 -0.39198017 0.023990631
-0.13520133 -0.24881124 0.23289156
-0.13934934 0.061045766 0.34466457
-0.13943733 0.12612778 0.33621264
-0.13895133 -0.083695233 0.38261652
-0.13893533 -0.044579208 0.38420057
-0.13882634 0.023618758 0.39461565
-0.14164433 0.50785977 0.12550783
-0.14011133 0.27230674 0.2718606
-0.14023234 0.29857075 0.26029968
-0.13975433 -0.18691123 0.30598545
-0.14461534 0.091154754 0.34082365
-0.14516333 0.2297138 0.29250765
-0.14718933 -0.32534623 0.11392355
-0.15818134 -0.83679819 -0.85491848
-0.14510433 -0.18828923 0.29770184
-0.15461433 -0.69882023 -0.54052353
-0.14979534 0.061008751 0.34448767
-0.14915034 0.023957789 0.39729452
-0.15211333 0.47898176 0.15474367
-0.15252334 0.50764477 0.12120342
-0.15101834 0.33577576 0.24439955
-0.15145834 0.37176076 0.20840168
-0.15270934 -0.32680321 0.10599566
-0.16837633 -0.95642221 -1.1762862
-0.15046833 -0.18967122 0.28939342
-0.15495333 0.061606765 0.34934568
-0.15515435 0.090317786 0.33395863
-0.15519933 0.12546378 0.33056259
-0.15543234 0.19229376 0.31275177
-0.15455534 -0.012419224 0.37972164
-0.15687133 0.40265778 0.20279646
-0.15959033 -0.39752722 -0.0049004555
-0.17063233 -0.83532822 -0.84834337
-0.15584734 -0.19105822 0.28106356
-0.16048235 0.12505674 0.3270607
-0.15976933 -0.045489252 0.3781147
-0.16068435 0.1922648 0.31253242
-0.16138734 0.29870975 0.26221371
-0.16740134 -0.49640322 -0.16846418
-0.16521834 -0.39892519 -0.012169361
-0.17684934 -0.83459818 -0.84507036
-0.16019934 -0.12755722 0.34730673
-0.17270333 -0.70054924 -0.54817343
-0.16485533 0.066073775 0.38527679
-0.16577634 0.12461078 0.32321167
-0.16619834 0.22990376 0.29476357
-0.16886133 0.50734776 0.11528254
-0.16651034 0.27244276 0.27372742
-0.16675833 0.29826576 0.25700665
-0.16706434 0.40486878 0.23635864
-0.17316833 -0.49773729 -0.17502737
-0.17086034 -0.40032721 -0.019456387
-0.18306033 -0.83387125 -0.84180737
-0.16666934 -0.19407022 0.26297855
-0.17002234 0.066227794 0.38659048
-0.17120233 0.16508675 0.31151485
-0.17020534 -0.01311022 0.37493277
-0.17023933 0.020681798 0.37279749
-0.17381634 0.47845277 0.14511061
-0.17259733 0.37275577 0.22265863
-0.17235333 0.40498576 0.2382164
-0.17493233 -0.33268428 0.074054718
-0.17336634 -0.25914729 0.17375183
-0.19361833 -0.94220424 -1.1154504
-0.18927933 -0.83330619 -0.83924341
-0.17210934 -0.19561219 0.25372553
-0.17540133 0.064757764 0.37489653
-0.17664334 0.1909588 0.30001545
-0.17542934 -0.013357222 0.3732276
-0.17546633 0.020434797 0.37101841
-0.17750433 0.2975058 0.24811554
-0.17741734 0.37493578 0.25334263
-0.17782333 0.40436277 0.22888184
-0.18218333 -0.40314627 -0.034090519
-0.19996533 -0.94010127 -1.1064024
-0.19083634 -0.70230126 -0.55588436
-0.18810233 -0.61668718 -0.39103317
-0.18172434 0.16494375 0.31034756
-0.18090834 -0.087611258 0.35708952
-0.18069634 0.020187795 0.36923981
-0.18468633 0.47820678 0.14066458
-0.18272634 0.29790276 0.2529335
-0.18292534 0.33551577 0.2415204
-0.18268734 0.37506077 0.25518084
-0.18341833 0.40332577 0.2132988
-0.19054133 -0.50176525 -0.19481421
-0.20629634 -0.93800628 -1.0973845
-0.19691533 -0.7032162 -0.55995321
-0.18629934 -0.089093208 0.34730148
-0.19012633 0.47808677 0.13850784
-0.19175033 -0.33714724 0.049864769
-0.18995734 -0.26371324 0.14769268
-0.19148034 0.16909575 0.34939957
-0.19263734 0.22932279 0.28914356
-0.19557133 0.47796577 0.13634968
-0.19297233 0.27222377 0.27170944
-0.19314733 0.29869479 0.26257277
-0.20218433 -0.50447226 -0.2080884
-0.19403334 -0.20183623 0.21642971
-0.20911333 -0.70522928 -0.56890726
-0.19650733 0.062717795 0.35893679
-0.19633734 -0.04711026 0.36743069
-0.19640833 0.019442797 0.3638916
-0.19815134 0.33824876 0.27704048
-0.20025933 0.43958977 0.17202854
-0.20499334 -0.40887523 -0.063777447
-0.20109934 -0.26678419 0.1301856
-0.20186533 0.092366755 0.35186958
-0.20201334 0.12699276 0.34480381
-0.20172034 -0.048361242 0.35881281
-0.20207934 0.19517475 0.34169674
-0.20242433 0.23275876 0.32521772
