# .PCD v0.7 - Point Cloud Data file format
VERSION 0.7
FIELDS x y z
SIZE 4 4 4
TYPE F F F
COUNT 1 1 1
WIDTH 1316
HEIGHT 1
VIEWPOINT 0 0 0 1 0 0 0
POINTS 1316
DATA ascii
-0.0172922 -0.028230965 -0.081754208
-0.0172922 0.010712087 -0.082112312
-0.017200198 0.044171095 -0.13491297
-0.0234582 -0.028094947 -0.080815315
-0.023407198 0.043647051 -0.13888788
-0.029624199 -0.027959883 -0.079874992
-0.029624199 0.043194056 -0.14231205
-0.0357862 -0.027824938 -0.078935146
-0.035787199 0.011053085 -0.079639912
-0.035844199 0.042808056 -0.14523411
-0.041947201 -0.027691901 -0.077996254
-0.041948199 0.011166096 -0.078815937
-0.042068198 0.042483091 -0.14768505
-0.048106201 -0.027558863 -0.077058315
-0.048108198 0.011278093 -0.077992916
-0.048293199 0.0423401 -0.14875126
-0.054265201 -0.027427971 -0.076118946
-0.054269198 0.011389077 -0.077168941
-0.0545162 0.042440057 -0.14797688
-0.060426198 0.011499107 -0.076344013
-0.0607352 0.04253906 -0.14720106
-0.066575199 -0.027165949 -0.074244976
-0.066582203 0.011608064 -0.075520992
-0.066953197 0.042638063 -0.1464262
-0.072728202 -0.027036965 -0.073308945
-0.0788792 -0.026908934 -0.07237196
-0.078889199 0.011825085 -0.073872089
-0.079385199 0.04283309 -0.1448741
-0.085043199 0.011933088 -0.073047161
-0.085601196 0.042929053 -0.14409828
-0.091178194 -0.026653945 -0.070502281
-0.091193199 0.012040079 -0.072223186
-0.091814198 0.043025076 -0.14332199
-0.097325206 -0.026527941 -0.069567204
-0.097342193 0.012145102 -0.071399212
-0.098025203 0.043120086 -0.14254522
-0.10347021 -0.026402891 -0.068632126
-0.1034902 0.012250066 -0.070575237
-0.1042362 0.043215096 -0.14176893
-0.10961519 -0.026278913 -0.067698956
-0.1096382 0.012355089 -0.069748878
-0.1157572 -0.026154935 -0.066765308
-0.1157832 0.012458086 -0.068928242
-0.1166542 0.043402076 -0.14021301
-0.12189721 -0.026032865 -0.065833092
-0.1219272 0.012557089 -0.068131924
-0.12286121 0.043494105 -0.13943529
-0.1280362 -0.025910914 -0.064898968
-0.12807021 0.012656093 -0.067335129
-0.1290662 0.043586075 -0.13865709
-0.1341742 -0.025789917 -0.063969135
-0.1342122 0.012754083 -0.066536903
-0.13527019 0.043677092 -0.13787699
-0.14031219 -0.025669873 -0.063035965
-0.1403542 0.012851059 -0.065738201
-0.1414752 0.043767095 -0.13709831
-0.1464462 -0.025550902 -0.062106133
-0.1476772 0.043857098 -0.13631821
-0.1525792 -0.025431931 -0.0611763
-0.15263119 0.013043106 -0.064142227
-0.1538772 0.043947101 -0.1355381
-0.15871119 -0.025313914 -0.060244083
-0.15876819 0.013138056 -0.063344002
-0.1600772 0.044035077 -0.13475609
-0.1648432 -0.025197923 -0.059315205
-0.16490519 0.013232052 -0.062546253
-0.1662772 0.044123054 -0.13397312
-0.1709722 -0.025081933 -0.058386326
-0.17104019 0.013325095 -0.061747074
-0.17247419 0.044210076 -0.13319588
-0.1771002 -0.024965942 -0.05745697
-0.1771732 0.013418078 -0.060949326
-0.1786702 0.044296086 -0.13241434
-0.1832262 -0.024851978 -0.056529045
-0.18330519 0.013510108 -0.060148239
-0.18486519 0.044382095 -0.13163233
-0.19105819 0.044467092 -0.13085032
-0.19547619 -0.024625957 -0.054674149
-0.19556719 0.013692081 -0.058552265
-0.1972522 0.044552088 -0.13006687
-0.2015982 -0.0245139 -0.053747177
-0.2016962 0.013782084 -0.057753086
-0.2034442 0.044635057 -0.12928534
-0.20771819 -0.024402916 -0.052820206
-0.2078232 0.013871074 -0.056952953
-0.2096342 0.0447191 -0.12850189
-0.21394919 0.013960063 -0.056153297
-0.21582319 0.044801056 -0.12771893
-0.2199572 -0.024183929 -0.05096817
-0.22007619 0.014047086 -0.055354118
-0.22201319 0.044883072 -0.12693596
-0.22607419 -0.024074972 -0.050043106
-0.22620019 0.014134049 -0.054553986
-0.2282002 0.044964075 -0.12615204
-0.2332872 -0.029433906 -0.087220192
-0.23318319 0.010103106 -0.083604336
-0.2403062 -0.033540905 -0.11566591
-0.2401672 0.006301105 -0.11098194
-0.2408732 0.043777108 -0.13476896
-0.24568319 -0.029700935 -0.08871603
-0.2456532 0.0094810724 -0.087747097
-0.24636319 0.046898067 -0.11098003
-0.2518332 -0.029597938 -0.087805271
-0.25180522 0.0095680952 -0.086922169
-0.2525382 0.046969056 -0.1102562
-0.2579802 -0.029494941 -0.086893082
-0.25795421 0.0096550584 -0.086095333
-0.25871119 0.047038078 -0.10953093
-0.2641252 -0.029392898 -0.085979939
-0.26410219 0.0097410679 -0.085269928
-0.26488221 0.0471071 -0.10880613
-0.2702702 -0.029291928 -0.085070133
-0.2702482 0.0098270774 -0.084442139
-0.27105319 0.047176063 -0.10807896
-0.27641422 -0.029191911 -0.084157944
-0.2763952 0.0099120736 -0.083615303
-0.27722421 0.047244072 -0.10735226
-0.28869721 -0.028993905 -0.082338333
-0.28868321 0.010079086 -0.081962109
-0.28956121 0.047378063 -0.1058979
-0.29482621 0.010161102 -0.081135273
-0.29572821 0.047444105 -0.1051693
-0.3009752 -0.028799951 -0.080521107
-0.30096722 0.010243058 -0.080307007
-0.30189422 0.047509074 -0.10444021
-0.30711421 -0.028702915 -0.079611301
-0.30710921 0.010325074 -0.079480171
-0.30806121 0.047574103 -0.10371017
-0.31325021 -0.028607905 -0.078701019
-0.3132492 0.010405064 -0.078653336
-0.3193852 -0.028513968 -0.077793121
-0.3193872 0.010485053 -0.077825069
-0.32038921 0.047701061 -0.10224819
-0.3255192 -0.028419912 -0.076886177
-0.32552421 0.010564089 -0.07699728
-0.32655221 0.047764063 -0.10151625
-0.33165422 -0.028326929 -0.075977325
-0.33166221 0.010642052 -0.076169014
-0.33778521 -0.028234899 -0.075067997
-0.33779722 0.010719061 -0.075342178
-0.33887622 0.0478881 -0.10004997
-0.34391621 -0.028143942 -0.07416296
-0.34393221 0.01079607 -0.074513912
-0.34503621 0.047949076 -0.099317074
-0.3500452 -0.028052866 -0.073255062
-0.3500652 0.010872066 -0.073686123
-0.3511962 0.048010051 -0.098584175
-0.3561742 -0.027963936 -0.072348118
-0.35619721 0.010947108 -0.072858334
-0.35735422 0.04806906 -0.097847939
-0.3623032 -0.027874887 -0.071442127
-0.3635132 0.048128068 -0.097113132
-0.36842921 -0.027786911 -0.070536137
-0.36846122 0.01109606 -0.071201324
-0.36967021 0.048187077 -0.096375942
-0.37455422 -0.027699888 -0.0696311
-0.37459022 0.011169076 -0.070372105
-0.37582621 0.048245072 -0.095641136
-0.38067821 -0.027612865 -0.068725109
-0.38071921 0.011242092 -0.069544315
-0.38198122 0.048302054 -0.094902039
-0.38680321 -0.027527869 -0.067820072
-0.38684821 0.011314094 -0.068715096
-0.3881382 0.048359096 -0.094163895
-0.3929252 -0.027442873 -0.066915035
-0.39297521 0.011385083 -0.067884922
-0.39429122 0.048415065 -0.093425274
-0.4019672 -0.081900895 -0.12174511
-0.39904621 -0.027358949 -0.066010952
-0.3991012 0.011455059 -0.067057133
-0.40044421 0.04847008 -0.092685223
-0.40809822 -0.081707895 -0.12013197
-0.40516621 -0.02727598 -0.065105915
-0.4052262 0.011525095 -0.066226006
-0.41135022 0.011594057 -0.065397263
-0.41274822 0.048579097 -0.091206074
-0.42035621 -0.081325948 -0.11691809
-0.41740522 -0.027111948 -0.063299179
-0.41747522 0.011662066 -0.064568043
-0.41890022 0.048633099 -0.090464115
-0.42648122 -0.081137955 -0.11531925
-0.4235222 -0.027030885 -0.062395096
-0.42359722 0.011729062 -0.063737869
-0.4250502 0.048685074 -0.089722157
-0.43260422 -0.080950916 -0.11372423
-0.42963821 -0.026950896 -0.061491966
-0.42971921 0.011796057 -0.062909126
-0.43119922 0.048738062 -0.088980198
-0.4387252 -0.080764949 -0.11213207
-0.43583921 0.011862099 -0.062077999
-0.4373472 0.048789084 -0.088237286
-0.4448452 -0.080579937 -0.11054516
-0.44186822 -0.026792943 -0.059686184
-0.4419592 0.011927068 -0.061248302
-0.44349521 0.048840106 -0.087492943
-0.45096421 -0.08039695 -0.10896301
-0.44798321 -0.026715934 -0.058784962
-0.44808021 0.011992097 -0.060418129
-0.44964421 0.048891068 -0.086748123
-0.4570792 -0.080215871 -0.10738516
-0.45419821 0.012056053 -0.059587002
-0.45579022 0.048940063 -0.086004257
-0.46020621 -0.02656287 -0.056981087
-0.4603152 0.012119055 -0.058757305
-0.46930522 -0.079856932 -0.10424089
-0.46631721 -0.026487887 -0.056078911
-0.46643221 0.012181103 -0.057926178
-0.4754172 -0.079679906 -0.10267687
-0.4724282 -0.026413977 -0.055178165
-0.47422722 0.049086094 -0.083764076
-0.48152521 -0.079504907 -0.10111809
-0.4785372 -0.026339948 -0.054277897
-0.47866422 0.012304068 -0.056264877
-0.48037022 0.049133062 -0.083016872
-0.48763222 -0.079330862 -0.099561214
-0.4865132 0.04918009 -0.082267284
-0.49373621 -0.079157889 -0.098010063
-0.49075222 -0.026195943 -0.052476883
-0.49089122 0.012424052 -0.0546031
-0.4926562 0.049226105 -0.081519127
-0.49983922 -0.078986943 -0.09646225
-0.49685821 -0.026123941 -0.051577091
-0.49700421 0.01248306 -0.053771973
-0.49879721 0.049271107 -0.080769062
-0.50594318 -0.07881695 -0.094919205
-0.50296521 -0.026053965 -0.050678253
-0.50311822 0.012541056 -0.052939892
-0.50494021 0.049316108 -0.080019951
-0.51204222 -0.078648865 -0.093383312
-0.50907022 -0.025984943 -0.049777985
-0.50922918 0.012599051 -0.052108288
-0.51108021 0.049360096 -0.079267979
-0.51814121 -0.078481972 -0.091849327
-0.51517421 -0.025915921 -0.048879147
-0.5153392 0.012655079 -0.051277161
-0.5172202 0.049404085 -0.07851696
-0.52127618 -0.025847971 -0.047981262
-0.52335918 0.04944706 -0.077764988
-0.53033423 -0.078152955 -0.088795185
-0.52738017 -0.025780976 -0.047081947
-0.52755922 0.012767076 -0.049612045
-0.52949917 0.049489081 -0.077011108
-0.5364272 -0.077989876 -0.087275028
-0.53348118 -0.02571398 -0.046183109
-0.53366822 0.012821078 -0.048779964
-0.5356372 0.049531102 -0.076258183
-0.54251921 -0.077828944 -0.085760117
-0.53958219 -0.025648892 -0.045285225
-0.54177523 0.049572051 -0.075504303
-0.5486092 -0.077669919 -0.084247112
-0.54568219 -0.025583923 -0.044387341
-0.54588223 0.012928069 -0.047115326
-0.54791123 0.049612105 -0.074748039
-0.55469823 -0.077511966 -0.082742214
-0.55198818 0.012981057 -0.046282291
-0.55404723 0.0496521 -0.073993206
-0.56078619 -0.077354968 -0.081241131
-0.55788022 -0.025456965 -0.042591095
-0.55809522 0.013033092 -0.045449257
-0.56688422 -0.077222884 -0.079895973
-0.5639782 -0.025394976 -0.041695118
-0.56420022 0.013084054 -0.044616222
-0.56632018 0.049730062 -0.072481155
-0.57299721 -0.07712692 -0.078784943
-0.57007521 -0.025332868 -0.040799141
-0.57030421 0.013134062 -0.043783188
-0.57911021 -0.07703191 -0.077673912
-0.57640821 0.013184071 -0.0429492
-0.57858819 0.049805105 -0.07096529
-0.58522421 -0.076936901 -0.076565266
-0.58226722 -0.025212944 -0.03900528
-0.5825122 0.013233066 -0.042115211
-0.58836222 -0.025153935 -0.038109303
-0.58861524 0.013281107 -0.041283131
-0.59744424 -0.076751888 -0.074352264
-0.5944562 -0.025094926 -0.037213326
-0.59471619 0.013329089 -0.040447235
-0.5969882 0.049914062 -0.068686962
-0.60355324 -0.076660931 -0.07324791
-0.60312021 0.04994905 -0.067924976
-0.60966122 -0.076570928 -0.072145939
-0.60691822 0.013421059 -0.038781166
-0.61576921 -0.076481879 -0.071043968
-0.61273521 -0.024924934 -0.034528255
-0.61301923 0.013467073 -0.037946224
-0.61538422 0.050017059 -0.066401958
-0.62187624 -0.076393902 -0.069946289
-0.61882621 -0.024869978 -0.033634186
-0.61911821 0.013512075 -0.037110329
-0.62151921 0.05004108 -0.065702915
-0.62798119 -0.07630688 -0.068849087
-0.62491721 -0.024814904 -0.032739162
-0.6252172 0.013556063 -0.03627491
-0.62765521 0.050064087 -0.065011024
-0.63408524 -0.07622093 -0.067753315
-0.63100719 -0.024761975 -0.031844139
-0.63131523 0.013599098 -0.035440922
-0.63379019 0.050087094 -0.064316273
-0.64019018 -0.076135933 -0.06665802
-0.63709819 -0.024708927 -0.030950069
-0.63741422 0.013641059 -0.034605026
-0.63992721 0.050108075 -0.063621044
-0.64318621 -0.024656951 -0.030056
-0.64351124 0.013683081 -0.033770084
-0.6460622 0.050130069 -0.062923908
-0.65239519 -0.075968921 -0.064476013
-0.64927423 -0.02460593 -0.029162884
-0.65219623 0.05015105 -0.062226295
-0.6584962 -0.075887978 -0.063389301
-0.65536219 -0.024555862 -0.028270245
-0.6583302 0.050171077 -0.061528206
-0.6645962 -0.075806916 -0.062301159
-0.66179919 0.013804078 -0.031264305
-0.66446322 0.050191104 -0.060828209
-0.67069721 -0.075726926 -0.061214924
-0.6675362 -0.024456918 -0.026483059
-0.6678952 0.01384306 -0.030426979
-0.67059821 0.050210059 -0.060126305
-0.6767962 -0.075648963 -0.060131073
-0.67399019 0.013882101 -0.02959013
-0.68289423 -0.075571954 -0.059050083
-0.67970723 -0.024361908 -0.024699211
-0.68008423 0.013919055 -0.028754234
-0.68286324 0.050247073 -0.058720112
-0.68899119 -0.075494945 -0.05796814
-0.68579221 -0.024315894 -0.023806095
-0.68617719 0.01395607 -0.027916908
-0.6889962 0.05026406 -0.0580163
-0.69508922 -0.075419962 -0.056890011
-0.69187719 -0.024269879 -0.022912979
-0.69512922 0.050281107 -0.057310104
-0.70118523 -0.07534498 -0.055813313
-0.6983642 0.014028072 -0.026244164
-0.70126021 0.050298095 -0.056602955
-0.70728022 -0.075271904 -0.054737091
-0.70404422 -0.024180949 -0.021130085
-0.70445621 0.01406306 -0.025407314
-0.7073912 0.050313056 -0.055895329
-0.7133742 -0.075199902 -0.053664207
-0.71012622 -0.024137914 -0.020238876
-0.71054721 0.014096081 -0.024569988
-0.7135222 0.050329089 -0.055187225
-0.71946824 -0.0751279 -0.052589893
-0.71620822 -0.02409488 -0.019348145
-0.71663821 0.014130056 -0.023732185
-0.71965319 0.050343096 -0.054476261
-0.72556221 -0.075057924 -0.051518917
-0.72229218 -0.024053872 -0.018456936
-0.72273123 0.014163077 -0.022893906
-0.7257852 0.050358057 -0.053764343
-0.73165524 -0.074988902 -0.050450325
-0.72882122 0.014194071 -0.022056103
-0.73774719 -0.074920952 -0.049383163
-0.7344532 -0.023972929 -0.016675949
-0.7349112 0.014225066 -0.021220207
-0.7380442 0.050384104 -0.052339077
-0.74383819 -0.074853957 -0.048317909
-0.74053323 -0.023932874 -0.015786171
-0.74100024 0.01425606 -0.02038002
-0.74417323 0.050397098 -0.051622868
-0.7499302 -0.074787915 -0.047254086
-0.74661422 -0.023894966 -0.014895916
-0.74709022 0.014286101 -0.019541264
-0.75030422 0.050408065 -0.050908089
-0.75317919 0.014315069 -0.01870203
-0.75643319 0.050420105 -0.050189018
-0.76210922 -0.07465893 -0.045130253
-0.75877219 -0.023819864 -0.013115883
-0.75926721 0.014344096 -0.017863274
-0.7625612 0.050431073 -0.049472332
-0.76819819 -0.074595869 -0.044072151
-0.76485121 -0.023783863 -0.012227058
-0.76535523 0.014371097 -0.017024994
-0.76869023 0.050441086 -0.048752308
-0.77428621 -0.07453388 -0.043013096
-0.77144223 0.014398098 -0.016186237
-0.77481818 0.0504511 -0.048032284
-0.77700824 -0.023713887 -0.010448933
-0.77753121 0.014424086 -0.01534605
-0.78094721 0.0504601 -0.047309875
-0.78646219 -0.074412882 -0.040903091
-0.78308523 -0.023680866 -0.0095591545
-0.78361821 0.014450073 -0.01450634
-0.78707421 0.050468087 -0.04658699
-0.79254824 -0.074353874 -0.039850235
-0.78916121 -0.023647964 -0.0086722374
-0.7897042 0.014475107 -0.013666153
-0.79320222 0.050476074 -0.045863152
-0.79863423 -0.074296892 -0.03880024
-0.7952382 -0.023615897 -0.0077829361
-0.7957902 0.014499068 -0.012825012
-0.80472219 -0.07423991 -0.037750244
-0.80131519 -0.023583949 -0.0068950653
-0.8018772 0.014522076 -0.011986256
-0.81080723 -0.074183881 -0.036702156
-0.80796319 0.014545083 -0.011146069
-0.81158423 0.050497055 -0.043684006
-0.81689119 -0.074129879 -0.035655975
-0.81346619 -0.023523867 -0.0051202774
-0.81404823 0.014567077 -0.010303974
-0.81771022 0.050503075 -0.042955875
-0.82297522 -0.074075878 -0.034610271
-0.81954122 -0.023494899 -0.0042309761
-0.82013321 0.014589071 -0.0094642639
-0.82383621 0.050508082 -0.042224884
-0.82905918 -0.074023902 -0.033566952
-0.82561618 -0.023466885 -0.0033450127
-0.82621723 0.014609098 -0.0086212158
-0.82996219 0.050513089 -0.041495323
-0.83514422 -0.073971927 -0.032526016
-0.83169222 -0.023438871 -0.0024580956
-0.83609021 0.050517082 -0.040762901
-0.84122723 -0.073920906 -0.031485081
-0.83776522 -0.023412883 -0.0015702248
-0.83838719 0.01464808 -0.0069389343
-0.84221524 0.050521076 -0.040029049
-0.84383923 -0.023386896 -0.00068330765
-0.8444702 0.014667094 -0.0060973167
-0.84834123 0.050524056 -0.039295197
-0.85339123 -0.073823869 -0.029409885
-0.84991324 -0.023361862 0.00020170212
-0.85055423 0.014685094 -0.005256176
-0.8544662 0.050526083 -0.03855896
-0.8594752 -0.073775947 -0.028375149
-0.85663921 0.014702082 -0.0044131279
-0.8605932 0.050528049 -0.037822247
-0.86555624 -0.073729932 -0.027340889
-0.86206019 -0.02331394 0.0019760132
-0.86671823 0.050529063 -0.037084103
-0.87163723 -0.073684871 -0.026309013
-0.86813319 -0.023290932 0.0028610229
-0.86880422 0.014734089 -0.0027279854
-0.87284321 0.050530076 -0.036345959
-0.8777172 -0.073639929 -0.025278091
-0.87420523 -0.023268878 0.0037479401
-0.87488723 0.01474905 -0.001885891
-0.87896723 0.050530076 -0.035604954
-0.88379818 -0.073596895 -0.024250031
-0.88027722 -0.023247898 0.0046329498
-0.88096923 0.014763057 -0.0010418892
-0.8850922 0.050530076 -0.034863949
-0.88987923 -0.073554933 -0.02322197
-0.88635021 -0.02322787 0.0055189133
-0.88705224 0.014777064 -0.00019788742
-0.89121819 0.050529063 -0.034121037
-0.8959592 -0.073513925 -0.022197247
-0.8924222 -0.023208916 0.006403923
-0.89313424 0.014790058 0.00064468384
-0.90203923 -0.073473871 -0.021172047
-0.89849323 -0.023189962 0.0072898865
-0.89921623 0.014802098 0.0014886856
-0.90346622 0.050526083 -0.032631874
-0.90811819 -0.073433936 -0.020149231
-0.90456522 -0.023171961 0.0081739426
-0.90529722 0.014813066 0.0023326874
-0.90959018 0.050523102 -0.031886101
-0.91419721 -0.073395908 -0.019128323
-0.91137922 0.014824092 0.0031766891
-0.9157142 0.050520062 -0.031140327
-0.92027724 -0.073358953 -0.018107891
-0.91670823 -0.023137867 0.0099439621
-0.91746223 0.014834106 0.0040221214
-0.9227792 -0.023122966 0.010828018
-0.92354321 0.01484406 0.0048670769
-0.93243319 -0.073287904 -0.016074181
-0.92884922 -0.023107946 0.011713028
-0.93408722 0.050507069 -0.028890133
-0.93851119 -0.073254883 -0.015058994
-0.93492019 -0.023093879 0.01259613
-0.94021022 0.050502062 -0.028138161
-0.94459122 -0.073220909 -0.014045238
-0.94099122 -0.023080885 0.013480663
-0.94178623 0.014867067 0.0074019432
-0.9463352 0.050496101 -0.027385235
-0.94706219 -0.023068964 0.014362812
-0.94786721 0.014874101 0.0082468987
-0.95245922 0.050490081 -0.026630878
-0.95674622 -0.07315892 -0.012022972
-0.9531312 -0.023056924 0.015246868
-0.95394719 0.014880061 0.0090937614
-0.96282321 -0.073128879 -0.011015892
-0.95920122 -0.023045957 0.016130924
-0.96470523 0.050475061 -0.025119305
-0.9689002 -0.073099911 -0.010008335
-0.96527123 -0.023035944 0.017014027
-0.97082824 0.050467074 -0.024362087
-0.97497922 -0.07307297 -0.0090022087
-0.97134221 -0.023026884 0.017895699
-0.97218919 0.014893055 0.011633873
-0.97695321 0.050458074 -0.023602962
-0.98105621 -0.073045909 -0.007997036
-0.97741222 -0.023017943 0.018778801
-0.97826922 0.014896095 0.012478828
-0.98307621 0.050449073 -0.022842884
-0.9871332 -0.073019922 -0.0069952011
-0.98348123 -0.02301091 0.019662857
-0.98434919 0.014898062 0.013328075
-0.98919922 0.05043906 -0.022079945
-0.9932102 -0.072995961 -0.0059952736
-0.98955023 -0.023003876 0.020545959
-0.99532223 0.050429106 -0.021317005
-0.9992882 -0.07297188 -0.0049948692
-0.9956212 -0.022997916 0.021428108
-0.99651021 0.014901102 0.015021801
-1.0014472 0.050418079 -0.020554066
-1.0053651 -0.072948873 -0.0039958954
-1.0016912 -0.022991955 0.022310734
-1.0025902 0.014901102 0.015870094
-1.0075701 0.050407052 -0.019789219
-1.0114412 -0.072927892 -0.0030002594
-1.0077602 -0.022987902 0.023192883
-1.0086702 0.014900088 0.016716957
0.97108108 0.0090467334 0.25502396
0.96210378 -0.03311497 0.27252913
0.96409667 -0.078758657 0.26920795
0.95441097 -0.076344311 0.27110672
0.95013696 -0.030670106 0.273983
0.94971257 -0.076309741 0.2741127
0.94316047 0.012269676 0.27909231
0.93690598 -0.029843986 0.27934599
0.93697631 -0.075277865 0.27861071
0.93023235 -0.028109133 0.28175545
0.9291693 0.014335573 0.28485823
0.93073601 -0.074013293 0.27845192
0.92480123 -0.02843374 0.28240871
0.9239794 0.01396209 0.28603077
0.925165 -0.072745025 0.28090477
0.91731942 -0.028962076 0.28476906
0.91829377 -0.072356761 0.28336191
0.91209102 -0.029271781 0.2891264
0.91123831 0.016287148 0.2902174
0.92082179 0.04369688 0.20863676
0.91244322 -0.074269474 0.28654623
0.90438479 -0.028730929 0.28846264
0.91429186 0.041745842 0.21049166
0.9069339 -0.073324978 0.28893471
0.89812279 -0.028770626 0.29102564
0.89898676 0.015034854 0.29371929
0.91092891 0.0414415 0.20846033
0.89846098 -0.071391761 0.28899288
0.89262468 -0.028245151 0.29353428
0.89309573 0.017594576 0.29655075
0.90475512 0.042497754 0.20877981
0.8929581 -0.072266161 0.29155302
0.88768202 -0.026702702 0.29765558
0.89823782 0.039774656 0.20758533
0.8889184 -0.072325766 0.29406548
0.87950599 -0.026517212 0.29978848
0.88001865 0.018767059 0.30192947
0.89337105 0.041916728 0.20620394
0.8825565 -0.070578396 0.29547167
0.87426448 -0.02553314 0.29897261
0.87421387 0.016889393 0.30377769
0.88568056 0.04114306 0.20433521
0.87359637 -0.069893539 0.29668093
0.8656373 0.018954992 0.30500698
0.88020635 0.041128397 0.20724773
0.86869109 -0.069721401 0.29948616
0.86243123 -0.027113378 0.3053937
0.86180717 0.018499255 0.30874634
0.87467331 0.041721523 0.20220518
0.8623929 -0.070064723 0.30208826
0.85639775 0.020522952 0.30823565
0.86786604 0.043278873 0.20505667
0.85680532 -0.069643676 0.30466747
0.84829831 -0.024040878 0.30864191
0.84958285 0.018550813 0.31086588
0.86213654 0.041575253 0.20337534
0.91263199 0.030497611 -0.17285013
0.8491168 -0.066796958 0.30790377
0.84388584 -0.025384486 0.31140757
0.84186465 0.01965028 0.31180668
0.85805541 0.041444778 0.20083618
0.84247804 -0.067506135 0.30754566
0.83805025 -0.023324907 0.31216335
0.83783674 0.020853698 0.31459188
0.85170269 0.04190129 0.20424318
0.89792573 0.03181088 -0.16344357
0.83700538 -0.067551196 0.31132984
0.83050787 -0.025169551 0.31357241
0.84771091 0.041800022 0.2016139
0.892636 0.032035172 -0.16345501
0.83084166 -0.06804198 0.31124496
0.82400477 -0.023081243 0.31705427
0.82482773 0.021654725 0.31934547
0.82321244 -0.067335784 0.31451845
0.81729788 -0.023854196 0.31833076
0.81724507 0.021709681 0.32167673
0.83389831 0.04044193 0.2002883
0.88040656 0.033068061 -0.1622386
0.81937468 -0.065820634 0.3163476
0.81056792 -0.020450771 0.31858969
0.8128826 0.021857798 0.32185984
0.82662487 0.043382585 0.19973755
0.87353259 0.033940911 -0.16102219
0.81167823 -0.064993799 0.31870365
0.80524927 -0.021695912 0.32119226
0.80543816 0.021809399 0.3247962
0.82017696 0.043071568 0.19854021
0.86620474 0.033135176 -0.15925169
0.80799353 -0.065784633 0.31936216
0.81620228 0.041970253 0.19637346
0.86254841 0.034025729 -0.15900898
0.80137265 -0.065313399 0.32298899
0.79345816 -0.022336423 0.3275671
0.79272574 0.023095548 0.3299489
0.80907404 0.043141067 0.1971159
0.85355496 0.032869101 -0.15970755
0.78638685 -0.021622241 0.32920551
0.78640342 0.024140239 0.33202553
0.80437672 0.0408023 0.19597816
0.84551358 0.03321141 -0.16061687
0.78712887 -0.063822329 0.32520866
0.78131032 -0.020269096 0.32927799
0.77975118 0.023055553 0.33234262
0.79644901 0.042905867 0.1958828
0.8416183 0.034776807 -0.15660906
0.7826876 -0.064577878 0.32855368
0.77635121 -0.018282712 0.3343215
0.77586246 0.021469533 0.32979155
0.83375013 0.034811914 -0.15620899
0.77587342 -0.061318696 0.33105803
0.76812971 -0.020222485 0.33520746
0.77049685 0.022927046 0.32953596
0.78621 0.042926371 0.19563484
0.82609254 0.035349071 -0.15144157
0.76806146 -0.062634528 0.33343935
0.76339394 -0.019533575 0.33838987
0.78011233 0.042234004 0.19467592
0.82021064 0.038935125 -0.1453414
0.76353478 -0.061756194 0.33431959
0.75923532 0.024628103 0.32952452
0.75786579 -0.061428368 0.33514357
0.75241619 -0.016782224 0.34256744
0.75211197 0.023017704 0.32957077
0.76759118 0.044071794 0.19290733
0.80868983 0.036768734 -0.14338064
0.75089419 -0.061353266 0.33790302
0.74610466 -0.018437088 0.34173298
0.74558133 0.022940099 0.32740688
0.76063794 0.041644514 0.1924448
0.74514627 -0.061224878 0.33929062
0.74136823 -0.020087659 0.32898712
0.74069518 0.024700582 0.32878208
0.7559101 0.041999817 0.19269466
0.78088415 0.053525746 -0.021154404
0.74087608 -0.064383805 0.3275032
0.73609465 -0.020855129 0.31836987
0.73503745 0.024102867 0.32248926
0.75065011 0.041966617 0.18927383
0.77345186 0.055320859 -0.017937183
0.73616093 -0.065530002 0.31728649
0.72848588 -0.021979153 0.31033421
0.72916073 0.022500694 0.31127977
0.74309498 0.043965518 0.19146824
0.76998115 0.054242313 -0.021009445
0.73103285 -0.065430582 0.30607271
0.72646022 -0.02224654 0.29838037
0.72550094 0.020606816 0.30320215
0.73845822 0.042562187 0.18898582
0.7617029 0.054206431 -0.021236897
0.72659886 -0.067026675 0.29738617
0.71940392 -0.024088204 0.28990602
0.73183882 0.041747034 0.18875837
0.75649875 0.052228808 -0.021980286
0.72106713 -0.069312751 0.28960657
0.71654934 -0.027141631 0.27699566
0.72630095 0.04255712 0.18891621
0.74861228 0.052874923 -0.022190094
0.71159607 -0.029000223 0.26994991
0.71254534 0.015536547 0.27228403
0.72084713 0.042130649 0.18765116
0.74442291 0.054071009 -0.021543026
0.70600569 0.015331805 0.26073837
0.71421224 0.041727424 0.18762112
0.70729452 -0.074438155 0.25964785
0.70121068 -0.029967725 0.25154686
0.70242983 0.01294744 0.24979782
0.7094382 0.042326689 0.18657923
0.73212671 0.053202868 -0.025311947
0.70226115 -0.075585067 0.24529219
0.69844204 -0.031122863 0.23840046
0.69516939 0.013691902 0.23993397
0.72629464 0.054484665 -0.024132729
0.69607294 -0.075099766 0.23679113
0.69341135 -0.034533083 0.22773457
0.69703746 0.042448223 0.1871295
0.71792829 0.052178681 -0.02520895
0.69243765 -0.078797519 0.22748804
0.71399248 0.053558886 -0.025689602
0.68741751 -0.077668965 0.21670532
0.68207783 0.0083941221 0.20936489
0.6839816 0.04329145 0.18385458
0.70728439 0.053109586 -0.027200699
0.68608284 -0.085473478 0.1835022
0.67633736 0.0061762929 0.19963503
0.6783362 0.042405844 0.18213892
0.69957113 0.05550009 -0.026350498
0.67970765 -0.085114539 0.1759057
0.67219222 -0.04008311 0.18733406
0.6719541 0.0041567683 0.18931961
0.69375211 0.053358793 -0.026214123
0.67558169 -0.086872876 0.16406107
0.66603708 -0.039555728 0.17789221
0.66888553 0.0050555468 0.17677784
0.68814832 0.053242087 -0.028612137
0.67116565 -0.08894223 0.15516186
0.66281617 -0.042191327 0.16677809
0.66394311 0.0035392642 0.16899776
0.66666746 0.038104892 0.15380287
0.68400609 0.054049969 -0.029006958
0.65840822 -0.043253481 0.15654469
0.65656716 0.0017821789 0.157938
0.65868384 0.03652674 0.13905096
0.67553252 0.052858114 -0.028747559
0.6532768 -0.046977937 0.14562082
0.65186167 -0.00061821938 0.14861727
0.65633059 0.03580898 0.13015175
0.67177796 0.054597855 -0.029002666
0.64826745 -0.045597017 0.13682127
0.64836061 -0.00085681677 0.13707161
0.66320825 0.051439703 -0.029697895
0.6421023 -0.048823535 0.12534952
0.6428712 -0.0039016604 0.12749863
0.64363766 0.033169925 0.12116003
0.65735799 0.052020907 -0.030352592
0.63716251 -0.04905051 0.11381531
0.63838691 -0.0041313767 0.11370564
0.6356566 0.033123136 0.11707878
0.65040553 0.053995669 -0.031420708
0.63253284 -0.0073153377 0.10500669
0.63152784 0.031861365 0.10835409
0.64687383 0.054878771 -0.031128407
0.62978595 -0.053102076 0.094011784
0.62814832 -0.0070502758 0.094567299
0.62609994 0.031336904 0.096577168
0.64085168 0.05235821 -0.034194946
0.62315571 -0.055134237 0.084186554
0.62427348 -0.0091521144 0.084320068
0.62213516 0.02907002 0.085376263
0.61833918 -0.05719763 0.070738316
0.6179502 -0.012986958 0.073472023
0.61682677 0.02845943 0.073690414
0.62632215 0.05308795 -0.033311844
0.61367816 -0.056874931 0.061696053
0.61201578 -0.012757242 0.062730312
0.61124736 0.026963413 0.065208435
0.6063894 -0.061235368 0.053285599
0.60656273 -0.013057888 0.053240299
0.61437494 0.053515196 -0.036456585
0.60070288 -0.059293926 0.046769142
0.60180688 -0.015114844 0.049001694
0.60192823 0.024464011 0.047577381
0.60883564 0.054186165 -0.034629822
0.59592456 -0.061259806 0.039539814
0.59664774 -0.015830457 0.043790817
0.59484482 0.02496171 0.044062138
0.60347956 0.055521071 -0.034687042
0.59058416 -0.05911094 0.034109592
0.59004897 -0.014458537 0.036947727
0.58980286 0.024578035 0.038759232
0.59596419 0.054199636 -0.035292149
0.58542907 -0.062791169 0.030758858
0.58475876 0.022758126 0.034933567
0.59038562 0.053253412 -0.036270618
0.58017069 -0.060076773 0.023913383
0.57872581 -0.01579386 0.027691841
0.57822907 0.021233976 0.029428005
0.58592826 0.052757919 -0.046285152
0.57464015 -0.062516868 0.019235611
0.57443303 0.022070169 0.026904106
0.57877254 0.052060783 -0.052951813
0.5672316 -0.062850773 0.017165184
0.56606895 -0.018461168 0.020581722
0.56602609 0.020497441 0.021855831
0.57295525 0.05004555 -0.060432434
0.56125295 -0.062157452 0.014303684
0.5616495 -0.019371092 0.014958382
0.56155509 0.019666255 0.018013954
0.57011247 0.049899459 -0.065902233
0.55476075 -0.018851578 0.01083231
0.55370295 0.019049823 0.015787601
0.56352156 0.049793184 -0.067727089
0.55096638 0.02148062 0.012028694
0.55659133 0.048708677 -0.069320202
0.54397291 -0.064929307 0.0040721893
0.54539162 -0.018783391 0.0077719688
0.54361081 0.020395398 0.0085692406
0.55170232 0.047483146 -0.077171803
0.53808445 -0.065244615 0.0033383369
0.53848386 -0.020963609 0.003663063
0.54456359 0.047751009 -0.088502884
0.53186661 -0.017998755 0.0073595047
0.53088242 0.02049619 0.0035076141
0.54073358 0.047549307 -0.097655773
0.52599686 -0.064292252 -0.00218153
0.52291054 -0.0173648 0.017440319
0.52665776 0.018381059 0.001511097
0.53444922 0.046651721 -0.10090923
0.51960063 -0.066041648 -0.0056180954
0.51686722 -0.014515519 0.028394699
0.52019548 0.020294964 -0.00092315674
0.53005022 0.044662476 -0.10006762
0.51402169 -0.065110505 -0.0075826645
0.51192963 -0.014269352 0.03244257
0.51360399 0.019236863 -0.0031971931
0.52153385 0.046388745 -0.10333729
0.50469089 -0.01503998 0.031408787
0.50781876 0.017888367 -0.0062794685
0.50370973 -0.066597283 -0.01806879
0.50080949 -0.014259577 0.034680367
0.50220567 0.015360296 -0.01231432
0.51023459 0.044484973 -0.10378742
0.49148297 -0.015221536 0.035263538
0.50205302 0.0059629083 -0.084215164
0.50276881 0.045983613 -0.11281013
0.48428071 -0.014686704 0.035604
0.49556333 0.008344233 -0.084178925
0.4987613 0.041288197 -0.11873865
0.48057145 -0.014542937 0.037441254
0.49102938 0.0058059692 -0.086401939
0.49427223 0.041156769 -0.12245655
0.47503573 -0.013187647 0.036085606
0.48334152 0.0057574511 -0.086839199
0.48597026 0.042645574 -0.12724876
0.4688561 -0.013117015 0.037146568
0.47868288 0.0068897605 -0.085537434
0.48154211 0.039754868 -0.12917709
0.46197763 -0.016386688 0.037914276
0.47070265 0.0092635155 -0.087086201
0.47434223 0.042829692 -0.12946796
0.45820767 -0.011044264 0.040349483
0.46272829 0.0080964565 -0.087792873
0.46731535 0.043004572 -0.12851572
0.45186761 -0.014168084 0.042426109
0.46015587 0.0075306892 -0.088238716
0.46071646 0.040979922 -0.12779045
0.44364756 -0.012165308 0.042578697
0.45290279 0.007119298 -0.08825779
0.45531458 0.042510271 -0.12998438
0.44998124 0.042355716 -0.12910318
0.43915334 0.0069735646 -0.096790791
0.42586118 -0.010997653 0.043914318
0.4361454 0.041926026 -0.12648439
0.41996893 -0.011357367 0.042976379
0.42837906 0.0070800781 -0.097379208
0.43067139 0.042869031 -0.123981
0.41232294 -0.013923466 0.046630859
0.42358422 0.043719172 -0.12307358
0.40726602 -0.013326883 0.04513216
0.41749203 0.0068278909 -0.096559048
0.4141764 0.044493437 -0.12456226
0.39895409 -0.011709213 0.048383236
0.41022813 0.042887509 -0.12220955
0.39425704 -0.010910571 0.048542023
0.4026207 0.0074760914 -0.093347549
0.40553331 0.044374526 -0.1209836
0.38784149 -0.01062274 0.049588203
0.40046021 0.043266058 -0.12150764
0.39118633 0.0089976788 -0.093985558
0.39237225 0.043223679 -0.12166357
0.38367054 0.0056188107 -0.092018127
0.36918774 -0.011747003 0.053323746
0.37990299 0.0062001348 -0.09215641
0.37889716 0.044259846 -0.1190443
0.37176031 0.0089626312 -0.091863155
0.3735989 0.045088291 -0.11895323
0.3580642 -0.0100317 0.053441525
0.36584777 0.0086300969 -0.093883991
0.36803699 0.043392956 -0.11855173
0.35186154 -0.0097199678 0.056653023
0.35974348 0.007566452 -0.09546566
0.36162245 0.045308232 -0.117805
0.34604684 -0.010277748 0.05352211
0.35468027 0.0080984235 -0.094563484
0.35528654 0.045007408 -0.11754942
0.33982363 -0.010073543 0.055931091
0.34712425 0.008307457 -0.092232227
0.33381811 -0.0099157095 0.057476044
0.34151465 0.0068021417 -0.091948032
0.34234414 0.04518199 -0.11531544
0.32771024 -0.0088326931 0.060317039
0.33507878 0.0074844956 -0.092223167
0.33598012 0.046485782 -0.11508989
0.32131708 -0.01093936 0.055294514
0.31727633 -0.0091248751 0.048111916
0.32386374 0.046456575 -0.11394787
0.30914053 -0.012068808 0.043553352
0.31537563 0.0078932047 -0.089319706
0.31945309 0.046848416 -0.11289501
0.3032358 -0.012681186 0.037354469
0.31177804 0.0086761713 -0.087871075
0.30508396 0.0097679496 -0.086310387
0.30573139 0.046295464 -0.1135478
0.29275316 -0.017378509 0.0040855408
0.29873204 0.0077565908 -0.086180687
0.28954712 -0.019722164 -0.012650967
0.29147545 0.0079516768 -0.086439133
0.29251415 0.044857264 -0.11468029
0.28275514 -0.020429909 -0.030861855
0.28369299 0.0090190768 -0.086592197
0.28579029 0.045404375 -0.11613703
0.27708673 -0.025156319 -0.055006504
0.27803215 0.0097205043 -0.084190845
0.27851605 0.043463707 -0.11486435
0.27525711 -0.03033179 -0.085425854
0.27251446 0.0098061562 -0.083215714
0.27599251 0.047915161 -0.11488104
0.2676762 -0.031342208 -0.092481136
0.26659891 0.010126114 -0.089615822
0.26878619 0.045088232 -0.11586905
0.25988257 -0.031770766 -0.098325253
0.26153448 0.0062092543 -0.094002247
0.26115802 0.047410488 -0.11695051
0.25533292 -0.031703055 -0.09936285
0.25578871 0.008715868 -0.099190235
0.2560212 0.043988049 -0.11599159
0.24921302 -0.031264246 -0.10244703
0.24691506 0.0093730092 -0.098347187
0.24956228 0.045730531 -0.11965847
0.24047844 -0.031864583 -0.10173273
0.24176283 0.0077069998 -0.099218369
0.23794822 -0.031845152 -0.10225725
0.23538433 0.0066410303 -0.099720955
0.23740683 0.045268118 -0.12082434
0.23140578 0.044736505 -0.12351942
0.22347035 -0.032244861 -0.10067129
0.22260685 0.0078183413 -0.097646236
0.21732488 -0.031958282 -0.10064888
0.21873346 0.046680331 -0.12004852
0.2130671 -0.029813707 -0.098323345
0.21133426 0.0065044165 -0.09764576
0.21374026 0.045448482 -0.11946535
0.20534045 0.0076380372 -0.096233845
0.20797443 0.046673954 -0.11866713
0.19934911 -0.031264126 -0.095509529
0.19902533 0.0074386597 -0.094063282
0.19932608 0.046373188 -0.11863756
0.19175194 -0.030636728 -0.096721172
0.19276975 0.0088375807 -0.093003273
0.19471043 0.045428395 -0.11831808
0.18736354 -0.031437218 -0.094818115
0.18658347 0.0093613863 -0.093776703
0.18582429 0.045450091 -0.11938477
0.17916062 0.0085692406 -0.092929363
0.18041752 0.045829892 -0.12130499
0.17422089 -0.028255522 -0.093282223
0.17357941 0.0085141063 -0.090369701
0.16717246 -0.031652629 -0.091857433
0.16775624 0.009440124 -0.090070248
0.16298625 -0.027791917 -0.089914322
0.16258405 0.009757638 -0.09011364
0.16283804 0.045169353 -0.12026262
0.15564866 -0.030210197 -0.088570595
0.15690814 0.0095342398 -0.088507175
0.15923616 0.046460092 -0.12024975
0.14989509 -0.028449357 -0.089958191
0.14976856 0.010798633 -0.086540699
0.14971368 0.046009243 -0.1197691
0.1441372 -0.031436622 -0.089111805
0.14281772 0.0090824962 -0.086976528
0.14423749 0.044366241 -0.12091208
0.13765132 -0.031263292 -0.088053703
0.13686959 0.010958493 -0.083490849
0.13744071 0.045011461 -0.12166166
0.13144729 -0.028352082 -0.086509705
0.1326025 0.010770977 -0.085947037
0.13207775 0.045333862 -0.12092495
0.12575461 0.010172784 -0.084525585
0.11781099 -0.030183494 -0.085543633
0.11851962 0.011641324 -0.082841396
0.11924097 0.04521209 -0.12244034
0.11450982 -0.028485 -0.084700108
0.11237761 0.010186672 -0.083126545
0.11515164 0.04429704 -0.12308311
0.10580662 -0.028217494 -0.082242966
0.10408066 0.010513365 -0.081666946
0.099595472 0.012469232 -0.079825401
0.10096252 0.04736644 -0.12371588
0.093853235 -0.028052628 -0.082533836
0.093984753 0.010273039 -0.079846382
0.089461401 -0.02815491 -0.082291603
0.088286728 0.010318458 -0.080585003
0.088818088 0.04455626 -0.12347221
0.080611691 -0.02758795 -0.079867363
0.082796037 0.013113081 -0.079170704
0.081675664 0.044835567 -0.12264442
0.07581608 -0.028154314 -0.079536915
0.074480176 0.011208534 -0.078333855
0.075956017 0.043795288 -0.12225389
0.068959415 0.01174289 -0.077863693
0.070639089 0.044581354 -0.12310839
0.063328162 -0.025750935 -0.076892376
0.063469008 0.012380004 -0.076746941
0.063116595 0.047230124 -0.12277412
0.05780882 -0.027940691 -0.075561523
0.057790194 0.012337506 -0.074858665
0.05994131 0.044009626 -0.12276697
0.050601084 -0.026270449 -0.074316025
0.049795713 0.01233834 -0.074367046
0.051458906 0.046334803 -0.12409306
0.045419414 -0.027077019 -0.073635578
0.04486445 0.013598144 -0.072441101
0.044364441 0.04479748 -0.1235733
0.038441669 -0.027050912 -0.072013855
0.038105588 0.010768056 -0.074017525
0.037124116 0.045556426 -0.12503767
0.032659732 -0.024813712 -0.070048332
0.032976706 0.010277867 -0.071134567
0.031765226 0.045981109 -0.12381458
0.025873546 -0.025951445 -0.067698002
0.026260234 0.010478377 -0.071182251
0.019588728 -0.026287019 -0.070509434
0.018805493 0.046921968 -0.12434435
0.014794718 -0.024026692 -0.068139076
0.012580849 0.013191462 -0.069995403
0.013597831 0.047452688 -0.12442541
0.0083019696 -0.026062906 -0.06659317
0.0067813471 0.013882339 -0.07014513
0.0073797889 0.044484556 -0.12408209
0.0030682348 -0.024258077 -0.066660881
-0.00028621033 0.013847172 -0.068920612
0.0011996832 0.045565188 -0.12549591
-0.0040662475 -0.028921068 -0.082921982
-0.0050752889 0.011127234 -0.086060047
-0.0052265022 0.045349598 -0.12512732
-0.010815429 -0.026223838 -0.082689762
-0.011961531 0.010693371 -0.08201313
-0.010147316 0.045221865 -0.1306076
-0.017988227 -0.028464973 -0.080882549
-0.017358609 0.04372108 -0.13550472
-0.024608538 -0.027900398 -0.08249855
-0.025242625 0.0089679956 -0.082514286
-0.022592867 0.044454038 -0.13861847
-0.029434057 -0.029764235 -0.081387043
-0.029765036 0.011805058 -0.080462933
-0.029179998 0.044305205 -0.14284611
-0.036440726 0.011207044 -0.080935001
-0.0369698 0.043769538 -0.14426231
-0.04285495 -0.025777042 -0.077954292
-0.039671727 0.0098802447 -0.080504894
-0.042233001 0.041302979 -0.14696121
-0.04739714 -0.027254879 -0.075752258
-0.050069071 0.012781501 -0.079258442
-0.047225878 0.041501045 -0.14867401
-0.055694453 -0.029504359 -0.075399876
-0.060221784 -0.028737843 -0.076346874
-0.059692886 0.01132226 -0.075764656
-0.06672889 0.042101562 -0.14647007
-0.074324861 -0.026702583 -0.071687222
-0.071669638 0.011941254 -0.074542522
-0.079650208 -0.026831686 -0.071952343
-0.078292772 0.011522949 -0.072797775
-0.084408596 -0.028018892 -0.072668552
-0.086591527 0.01073879 -0.073335648
-0.084339179 0.042589068 -0.14362478
-0.091200382 -0.026735842 -0.069727898
-0.090443909 0.01157999 -0.073922157
-0.091075681 0.043328166 -0.1425519
-0.096795335 -0.024675667 -0.068368912
-0.097479135 0.012601733 -0.071117878
-0.096419796 0.043306649 -0.14298439
-0.10328417 -0.027433097 -0.067778111
-0.10275468 0.012497127 -0.070585728
-0.10472097 0.041032076 -0.14159584
-0.10969417 -0.0256899 -0.068059444
-0.10942355 0.012616396 -0.06808567
-0.11019856 0.042570472 -0.14370871
-0.1164854 -0.025552452 -0.068701744
-0.11683637 0.011733115 -0.068183899
-0.11708626 0.044204652 -0.14027405
-0.12113412 -0.02654773 -0.066598892
-0.12255859 0.041369379 -0.1396327
-0.12842213 -0.023853242 -0.064793587
-0.12954779 0.044156492 -0.13749743
-0.13572399 -0.026547849 -0.063276768
-0.13468078 0.012068272 -0.065910816
-0.13631435 0.042653441 -0.13851738
-0.14125402 -0.024874032 -0.065216541
-0.14007264 0.012649298 -0.065139771
-0.14181356 0.044866979 -0.13627386
-0.14481194 -0.026596844 -0.062130928
-0.14585297 0.014033973 -0.065575123
-0.14835203 0.044717312 -0.13527489
-0.15240599 -0.024873435 -0.061851501
-0.1524753 0.014039934 -0.062905788
-0.15652841 0.043182611 -0.13605213
-0.15889762 -0.025146663 -0.058688164
-0.15769987 0.014633715 -0.063560009
-0.1601422 0.043418288 -0.1340661
-0.16486992 -0.026455462 -0.058885574
-0.16595423 0.010143995 -0.063785553
-0.17078812 0.01305145 -0.061935425
-0.17379843 0.045902431 -0.13133383
-0.1763676 -0.026945293 -0.05616951
-0.17874302 0.043008268 -0.13249397
-0.18343414 -0.025801361 -0.056095123
-0.18320081 0.015260756 -0.060539246
-0.18381059 0.042678595 -0.13116884
-0.18962908 -0.024849117 -0.057342529
-0.18906052 0.012543678 -0.058086395
-0.19098069 0.043712199 -0.13106728
-0.19570613 -0.025564134 -0.05313015
-0.19509186 0.014019191 -0.059706688
-0.1954165 0.045106113 -0.12866592
-0.20205966 -0.024418414 -0.052426815
-0.20188385 0.013983905 -0.057838917
-0.20378298 0.042752504 -0.12947845
-0.20795652 -0.025110304 -0.053468227
-0.20654497 0.01367557 -0.057207584
-0.21021821 0.045831978 -0.12865686
-0.2143186 -0.025146067 -0.053939342
-0.21418773 0.014240086 -0.056833267
-0.21606582 0.046547413 -0.12797022
-0.22176598 -0.022884786 -0.052119255
-0.21883893 0.013497055 -0.05553627
-0.22250567 0.043881416 -0.12773514
-0.22560906 -0.023540437 -0.050220966
-0.2253567 0.013552547 -0.05655098
-0.22810861 0.0443753 -0.12571764
-0.23319618 -0.029610693 -0.088253021
-0.23140883 0.0094403028 -0.082714558
-0.23574996 0.045629203 -0.12561178
-0.24218933 -0.034548461 -0.1170702
-0.24313129 0.0071646571 -0.11079025
-0.24070227 0.043827295 -0.1355381
-0.2442223 -0.030274332 -0.089785099
-0.24571598 0.0094271302 -0.088372707
-0.25120601 -0.029405534 -0.087308407
-0.25209519 0.0092383623 -0.087371826
-0.25312015 0.045505762 -0.10836697
-0.25808209 -0.028473198 -0.087871075
-0.25802273 0.0095677376 -0.085898399
-0.25802395 0.047073066 -0.11062431
-0.26310256 -0.028642476 -0.086127281
-0.26524431 0.0093393922 -0.087381363
-0.26706585 0.046596944 -0.10951424
-0.27052134 -0.029466569 -0.085588455
-0.2704502 0.0074706674 -0.084529877
-0.27115241 0.046798825 -0.10939407
-0.27534997 -0.027939856 -0.083971977
-0.27632126 0.0088575482 -0.085200787
-0.27753204 0.048368096 -0.10970211
-0.28265762 0.049236238 -0.10467815
-0.28750417 -0.029720366 -0.083222866
-0.28851253 0.0091738701 -0.081746101
-0.28987896 0.047678947 -0.10435677
-0.29556397 0.010129869 -0.080420017
-0.29730403 0.04745096 -0.10639095
-0.30151993 -0.028426349 -0.079245567
-0.30169326 0.0090739131 -0.079892159
-0.30797654 -0.027780473 -0.080780506
-0.30712178 0.011368573 -0.078691959
-0.30867505 0.046784222 -0.10342407
-0.3146328 0.04875946 -0.10202074
-0.32047883 -0.02748841 -0.076140881
-0.31893939 0.010321856 -0.076797485
-0.31965551 0.045899808 -0.10335732
-0.3238937 -0.028698862 -0.076137543
-0.32660601 0.0098714828 -0.076105118
-0.32793844 0.047763765 -0.099825382
-0.33079928 0.0097821951 -0.076248646
-0.3312574 0.047017336 -0.10198116
-0.33795941 -0.027615964 -0.074932098
-0.33773094 0.010808229 -0.075921535
-0.33987799 0.048520923 -0.098136902
-0.3440707 -0.028039157 -0.074908733
-0.34394336 0.01078248 -0.074748993
-0.34439275 0.048612356 -0.10060263
-0.34995759 -0.027305067 -0.073822975
-0.34972572 0.010898352 -0.073321342
-0.35215715 0.048230767 -0.098548889
-0.35505369 -0.028837621 -0.069930077
-0.36101609 -0.026248872 -0.069299221
-0.36150712 0.013249874 -0.07191658
-0.36393464 0.046754241 -0.097589493
-0.36727706 -0.028164446 -0.0699296
-0.36824983 0.011348486 -0.070509434
-0.37053558 0.047596991 -0.095952988
-0.37421817 -0.028300941 -0.072497368
-0.37562492 0.012363195 -0.070517063
-0.38124454 -0.03013283 -0.066568375
-0.38097697 0.050167084 -0.093188286
-0.38778633 -0.027991116 -0.067730904
-0.3871989 0.011459947 -0.068718433
-0.38975865 0.048820615 -0.094114304
-0.3932265 -0.026266158 -0.067195892
-0.39226982 0.010147989 -0.066969872
-0.40238628 -0.080871522 -0.11931181
-0.39779869 -0.02953738 -0.066434383
-0.39894655 0.011529326 -0.067932129
-0.4019506 0.049014807 -0.091886044
-0.40736422 -0.080998957 -0.11960506
-0.40597454 -0.028322518 -0.064067841
-0.40338492 0.010702372 -0.065154552
-0.40661544 0.048108339 -0.091786385
-0.41355315 -0.081879437 -0.11845493
-0.40947804 -0.026382744 -0.064086914
-0.41160038 0.010845006 -0.066568375
-0.41383073 0.048841178 -0.092468262
-0.41705263 -0.027335465 -0.063345432
-0.41757134 0.010784566 -0.064369202
-0.41757476 0.048982501 -0.089130878
-0.42491192 -0.080701172 -0.11668062
-0.42242369 -0.025009215 -0.06169939
-0.4242025 0.011191487 -0.063201427
-0.42449534 0.048283517 -0.087914467
-0.43140835 -0.079559505 -0.1135726
-0.42949975 -0.026241958 -0.059926987
-0.43071648 0.011888444 -0.064770699
-0.43104219 0.051421702 -0.087866306
-0.43969291 -0.081361949 -0.11178732
-0.4342038 0.011312842 -0.062320232
-0.43641004 0.049242258 -0.089875221
-0.44470578 -0.079752386 -0.11096764
-0.44002506 -0.025853097 -0.057431221
-0.44443405 0.048238397 -0.08701849
-0.45171949 -0.08145386 -0.10811663
-0.44775495 -0.025816143 -0.058549404
-0.45217487 0.048619151 -0.08718729
-0.45445049 -0.025432646 -0.05728054
-0.4551931 0.049405634 -0.084776402
-0.46415082 -0.080016792 -0.10490227
-0.45958525 -0.027825415 -0.057696342
-0.46027738 0.012431383 -0.058531284
-0.45963484 0.049754798 -0.085229874
-0.46946028 -0.079763591 -0.10451317
-0.46664703 0.011879265 -0.059123993
-0.46771875 0.048535883 -0.084501743
-0.47720143 -0.07967788 -0.10360956
-0.47280204 -0.026472867 -0.054100513
-0.47238097 0.013592184 -0.059780598
-0.48307744 -0.079336703 -0.1019268
-0.48030663 -0.026799142 -0.055695534
-0.47797608 0.011702895 -0.054353237
-0.47973129 0.048487961 -0.082126617
-0.48485947 0.012268245 -0.055930614
-0.48603323 0.047000468 -0.082618713
-0.49381202 -0.078327358 -0.097909927
-0.48956579 -0.026247799 -0.053242683
-0.4933725 0.049625337 -0.079622746
-0.49631169 -0.026720464 -0.050649643
-0.49810204 0.013179839 -0.051878452
-0.50768697 -0.079470813 -0.09313345
-0.50253129 -0.026821434 -0.051044464
-0.50414592 0.011380911 -0.052919388
-0.51215929 -0.078749716 -0.093271732
-0.50930154 -0.024898589 -0.050907135
-0.50937027 0.012934387 -0.052179337
-0.51347345 0.050624251 -0.08000946
-0.51823968 -0.078228414 -0.092628956
-0.51522142 -0.026970804 -0.051405907
-0.51689821 0.048401356 -0.079296112
-0.52313381 -0.077846348 -0.091377258
-0.52111781 -0.024085224 -0.0487957
-0.51976138 0.013047576 -0.049282551
-0.52303267 0.05111897 -0.079604626
-0.53014839 -0.078853548 -0.088375568
-0.5265556 0.013854444 -0.050142765
-0.52854341 0.048502386 -0.075689793
-0.5365057 -0.079795897 -0.08923912
-0.53285575 -0.024358928 -0.046998501
-0.53429872 0.013136446 -0.048622131
-0.53732598 0.051113069 -0.078257561
-0.54292989 -0.079731643 -0.088204384
-0.54091442 -0.025519431 -0.044000149
-0.54096663 0.011838198 -0.046767235
-0.5422129 0.04876101 -0.076228619
-0.54803514 -0.077314436 -0.082932472
-0.54562175 -0.024057567 -0.04513073
-0.54597825 0.012921333 -0.04784441
-0.54777026 0.049808443 -0.074650288
-0.55439913 -0.078251421 -0.084559441
-0.55219519 0.01478231 -0.04737854
-0.55383492 0.050930977 -0.074135303
-0.56094056 -0.076286137 -0.079763412
-0.55832428 0.013230383 -0.045138359
-0.56187451 0.048894346 -0.074090004
-0.56843477 -0.077279985 -0.078624249
-0.56331372 -0.025656044 -0.041779518
-0.56465524 0.014507592 -0.044521332
-0.56816864 0.04777652 -0.072757244
-0.57063848 -0.027406156 -0.040119648
-0.57209504 0.049705207 -0.071669102
-0.57902032 -0.076508939 -0.078371048
-0.57563227 -0.025216877 -0.03824091
-0.57723546 0.012603223 -0.044431686
-0.57683176 0.050092399 -0.072136402
-0.58238006 -0.025712311 -0.038626671
-0.58210003 0.013774753 -0.04176569
-0.58452821 0.050178945 -0.069255829
-0.58873063 -0.02578336 -0.039478302
-0.58896977 0.013805747 -0.040031433
-0.59021366 0.04937768 -0.07064724
-0.59681243 -0.076919854 -0.075018406
-0.59400004 0.012012362 -0.040217876
-0.59632868 0.049301803 -0.068880081
-0.60404563 -0.077580154 -0.072413921
-0.59883374 -0.024842322 -0.035681725
-0.60085559 0.013688087 -0.040139198
-0.60347092 0.052753031 -0.068862438
-0.60834754 -0.077983439 -0.072498322
-0.60541624 -0.024564922 -0.0354352
-0.60991836 0.052186072 -0.067521095
-0.61163181 -0.024888933 -0.034858227
-0.61381668 0.013375521 -0.038095474
-0.62182134 -0.075995743 -0.068380833
-0.61869913 -0.025147974 -0.033771992
-0.61946112 0.015068531 -0.036911488
-0.62216336 0.052652359 -0.06670332
-0.62928754 -0.076234996 -0.067455769
-0.62503195 -0.025778234 -0.033899307
-0.62784439 0.051167667 -0.064769745
-0.63462913 -0.07605499 -0.067677975
-0.62897521 -0.024579227 -0.032622814
-0.63351369 0.013973176 -0.033993721
