# .PCD v0.7 - Point Cloud Data file format
VERSION 0.7
FIELDS x y z
SIZE 4 4 4
TYPE F F F
COUNT 1 1 1
WIDTH 1354
HEIGHT 1
VIEWPOINT 0 0 0 1 0 0 0
POINTS 1354
DATA ascii
0.20195271 -0.22872037 -0.18273306
0.2002577 -0.15946633 -0.13294792
0.2047967 -0.62583929 -0.26628017
0.20498671 -0.57494539 -0.27183533
0.1922307 0.067243695 -0.073704243
0.1919907 0.10328364 -0.066481113
0.1914307 0.19363767 -0.049599171
0.19310671 -0.064587355 -0.10012531
0.1913047 0.22487569 -0.04577589
0.19257671 0.015211642 -0.084132195
0.1898907 0.59688365 -0.003177166
0.19091371 0.32120764 -0.033988953
0.1907867 0.35230267 -0.030185223
0.1897947 0.64296067 -0.00025892258
0.18972671 0.67505169 0.0017728806
0.1904317 0.43974966 -0.019486904
0.1896307 0.72106165 0.0046858788
0.19028971 0.47493267 -0.015182972
0.18924071 0.84361267 0.016421795
0.19860271 -0.4940713 -0.26578808
0.1969267 -0.95779532 -0.21526289
0.1971797 -0.88796133 -0.22287798
0.19747271 -0.80676335 -0.23172331
0.1955547 -0.2843253 -0.17389488
0.19774671 -0.73098034 -0.23997831
0.1978987 -0.6888023 -0.24457407
0.1939487 -0.15826732 -0.12549114
0.18585271 0.10380268 -0.062349319
0.1855827 0.14548767 -0.053998947
0.1869387 -0.063960314 -0.095952988
0.18487071 0.3214047 -0.031956196
0.18474871 0.35248965 -0.028152943
0.1837697 0.67507267 0.0021576881
0.1844027 0.43990767 -0.017462254
0.18307571 0.84370267 0.023634911
0.1919557 -0.49111933 -0.25129128
0.1898807 -1.0817482 -0.18706131
0.1905757 -0.88421232 -0.20855427
0.18765171 -0.15707237 -0.11804914
0.1915047 -0.61939937 -0.23734617
0.1799507 0.068324685 -0.065430164
0.1795097 0.14580369 -0.051418304
0.1793247 0.19411564 -0.045511246
0.1792047 0.22533268 -0.041693211
0.1790307 0.27067667 -0.036148071
0.18027771 0.016360641 -0.07583189
0.17796971 0.59693968 -0.002404213
0.17871471 0.35267669 -0.026122093
0.17787771 0.64300871 0.00051307678
0.17781471 0.67509466 0.0025448799
0.1783797 0.44006565 -0.015437126
0.17772271 0.72109663 0.0054559708
0.17824471 0.47522566 -0.011140347
0.17812571 0.51867068 -0.0073580742
0.17275271 0.81144965 0.16360807
0.17711771 0.84371769 0.024723053
0.18533771 -0.48818034 -0.23685932
0.18833071 -0.43285936 -0.33209324
0.1837627 -0.95003539 -0.18673992
0.1839997 -0.8804813 -0.19429207
0.1842757 -0.79961032 -0.20307207
0.18137071 -0.15588039 -0.11062717
0.1849017 -0.61620134 -0.22297096
0.1850737 -0.56561631 -0.22845793
0.1736127 0.10479766 -0.05441618
0.17327771 0.19435465 -0.043468952
0.17462671 -0.062711358 -0.087625027
0.1731617 0.22556067 -0.039654255
0.17438771 -0.023567319 -0.07979393
0.1720767 0.56343967 -0.0041399002
0.1728017 0.32179767 -0.027891159
0.1719227 0.64303267 0.00089788437
0.17186071 0.6751157 0.0029296875
0.1723597 0.44022268 -0.013417244
0.17177171 0.72111368 0.0058398247
0.1721627 0.51870465 -0.0069723129
0.1663937 0.81176865 0.18185186
0.17116171 0.84373367 0.025808811
0.18191971 0.88319969 -0.32631922
0.1787477 -0.4852553 -0.22248507
0.1811737 -0.42707235 -0.30189705
0.1770207 -1.0071433 -0.16596317
0.1772227 -0.94618136 -0.17256927
0.1777197 -0.79605728 -0.18883514
0.17694071 -0.34510928 -0.16336823
0.1763317 -0.27893931 -0.14342213
0.17810671 -0.67880732 -0.20153189
0.1751917 -0.1551463 -0.10611916
0.1675597 0.10506469 -0.052369118
0.1674107 0.14631069 -0.047327995
0.1680107 0.017503679 -0.067554951
0.1661167 0.56346965 -0.0037531853
0.1660537 0.59699464 -0.0016312599
0.16677371 0.3219927 -0.025861263
0.16590771 0.67513567 0.0033149719
0.1609467 0.75865364 0.17045403
0.1662007 0.51873863 -0.0065851212
0.1652077 0.84374869 0.026896954
0.17382671 -0.41972631 -0.26350307
0.17030071 -1.0694263 -0.14471388
0.1707087 -0.94234437 -0.15845394
0.17118971 -0.79252034 -0.17465401
0.1705517 -0.34321338 -0.15315819
0.1700937 -0.27792031 -0.13773012
0.17143071 -0.71734637 -0.18278313
0.16903071 -0.15446335 -0.10194016
0.1717757 -0.60984832 -0.19439697
0.16163671 0.069735646 -0.054672241
0.16119671 0.19482768 -0.039389133
0.16234671 -0.061468363 -0.079319
0.1618887 0.018072665 -0.063425064
0.16015871 0.56349969 -0.0033669472
0.15995571 0.67515665 0.0037007332
0.1604857 0.39691764 -0.014704227
0.15482971 0.81177068 0.18162394
0.16878471 0.88334465 -0.30280399
0.1642217 -0.93852538 -0.14439821
0.16468571 -0.78899831 -0.16053104
0.1638657 -0.27690428 -0.13204908
0.1649197 -0.7139743 -0.16862631
0.1650487 -0.67221934 -0.1731329
0.1555867 0.070012689 -0.052623272
0.1553247 0.14681464 -0.043245316
0.1550537 0.22623968 -0.033545017
0.1548997 0.27152467 -0.02801609
0.1557727 0.018640637 -0.059298038
0.1541997 0.56352967 -0.0029821396
0.15461971 0.35341668 -0.018014908
0.15441771 0.44044867 -0.010771275
0.1543557 0.47544268 -0.0085558891
0.15330471 0.84377968 0.029069901
0.1591367 -0.47655839 -0.17971706
0.15757671 -0.99532133 -0.12386799
0.1577587 -0.93472236 -0.13039494
0.1579667 -0.86572033 -0.13782406
0.1582077 -0.78549236 -0.14646292
0.1579487 -0.34023434 -0.13717604
0.15843271 -0.71061736 -0.15452528
0.15855871 -0.66894537 -0.15901327
0.1492887 0.14706564 -0.041204929
0.1498847 -0.021188319 -0.063241005
0.1487087 0.32257569 -0.019780159
0.1486067 0.35359967 -0.015992165
0.14805271 0.67519766 0.0044708252
0.14852871 0.39706564 -0.013132095
0.14845471 0.44048765 -0.010383129
0.1425287 0.75963068 0.20862198
0.1483207 0.51883769 -0.0054240227
0.1395707 0.84730065 0.31791592
0.15265371 -0.47368437 -0.16557693
0.1538047 -0.40908033 -0.20811224
0.15152471 -0.86207038 -0.1238513
0.15143971 -0.27488035 -0.12071514
0.15144271 -0.2182433 -0.12082815
0.1505937 -0.15242738 -0.089436054
0.15228571 -0.60042328 -0.15196705
0.15243171 -0.55034536 -0.15734816
0.1435017 0.070563674 -0.048535347
0.14310271 0.19553268 -0.033284187
0.1442247 -0.1059733 -0.076147079
0.1430027 0.22668868 -0.029480934
0.1436657 0.019278646 -0.054796219
0.14269571 0.32276869 -0.017755985
0.1421037 0.67521763 0.0048570633
0.14249271 0.44052666 -0.0099949837
0.1424347 0.47551566 -0.0077819824
0.1423627 0.51887065 -0.0050373077
0.14619771 -0.4708243 -0.15149689
0.1474227 -0.40717334 -0.19826317
0.1451097 -0.85843736 -0.10993624
0.1452437 -0.27387232 -0.11506319
0.1444637 -0.15175134 -0.085279942
0.1458427 -0.59730929 -0.13793707
0.1374647 0.070837677 -0.046493053
0.1373547 0.10638565 -0.042156219
0.1372277 0.14756465 -0.037132263
0.1370787 0.19576669 -0.031250954
0.1381107 -0.10532933 -0.072008133
0.1378767 -0.059000313 -0.06276989
0.1368427 0.27215266 -0.021932125
0.13774671 -0.020370305 -0.05762291
0.1363337 0.56361663 -0.0018210411
0.1362807 0.59712666 0.00029993057
0.1362067 0.64316964 0.0032138824
0.13615571 0.67523766 0.0052418709
0.1366007 0.3971507 -0.012356281
0.13653171 0.44056466 -0.0096082687
0.1364747 0.47555166 -0.0073952675
0.12776271 0.81446564 0.33680391
0.1277837 0.88721168 0.33596373
0.13976771 -0.46797734 -0.13747311
0.13853371 -0.92341536 -0.088735104
0.1391377 -0.70063835 -0.11257505
0.1390257 -0.21609837 -0.10815907
0.1395607 -0.5443303 -0.12930298
0.1314307 0.071111679 -0.044453144
0.13132471 0.10664767 -0.040118217
0.13105771 0.19599968 -0.029220104
0.1318167 -0.058621347 -0.060277939
0.13096571 0.22713464 -0.025422096
0.13158271 0.019859672 -0.050703049
0.1307517 0.32289165 -0.016670227
0.1307037 0.35374564 -0.014718056
0.1302067 0.67525667 0.0056266785
0.13056971 0.44060266 -0.0092220306
0.12498471 0.75991166 0.21928692
0.13051571 0.47558665 -0.0070080757
0.1213977 0.84789264 0.36607695
0.13235471 -0.85121828 -0.082268238
0.1325627 -0.77162331 -0.090769291
0.1328807 -0.27186328 -0.10378504
0.1327557 -0.69734031 -0.098701954
0.1328357 -0.21504539 -0.10193825
0.13222571 -0.15040535 -0.076980114
0.12540171 0.071383655 -0.042413235
0.12529971 0.10690868 -0.038082123
0.12518071 0.14806068 -0.033063889
0.12504271 0.19623166 -0.027190208
0.1249527 0.22735769 -0.023394108
0.1248607 0.27241564 -0.019479275
0.1256637 -0.019765317 -0.053528309
0.12554871 0.020148695 -0.048660278
0.12442671 0.56367266 -0.0010499954
0.12478571 0.32293868 -0.016281128
0.12460971 0.44064066 -0.0088353157
0.1183507 0.72872466 0.25676489
0.11922771 0.75992268 0.21957588
0.1245577 0.47562167 -0.0066208839
0.1244937 0.51896667 -0.0038781166
0.11624371 0.81463265 0.34617472
0.1157797 0.84789169 0.36587572
0.12729371 -0.46495038 -0.12269926
0.1258447 -0.9159593 -0.061239243
0.12671471 -0.27086335 -0.098162174
0.1264617 -0.69465333 -0.08742094
0.1266097 -0.65380639 -0.093695164
0.12684171 -0.58966428 -0.10354614
0.1190307 0.19646364 -0.025161266
0.11986171 -0.10372633 -0.06175518
0.1195177 0.020436645 -0.046619892
0.11847471 0.56370068 -0.00066518784
0.11842671 0.59720367 0.0014557838
0.1188207 0.3229847 -0.01589489
0.11877671 0.35383368 -0.013944149
0.11871371 0.39727366 -0.011193275
0.1186517 0.44067866 -0.0084481239
0.11261271 0.72875565 0.2576499
0.11853971 0.51899767 -0.0034918785
0.11016171 0.84789068 0.36567783
0.11084971 0.88721067 0.33536577
0.12116371 -0.4642083 -0.11914396
0.1193947 -0.97214633 -0.041204929
0.1198357 -0.84555537 -0.060606956
0.12010871 -0.76709336 -0.07265234
0.1208027 -0.33387631 -0.10324097
0.12001871 -0.14906734 -0.068705082
0.1131507 0.14855367 -0.029001236
0.1136997 -0.057680309 -0.054133892
0.11298871 0.22757369 -0.021545887
0.11292671 0.27251565 -0.018702984
0.11359671 -0.019163311 -0.049439907
0.11281371 0.35387766 -0.013554096
0.1126937 0.44071567 -0.0080599785
0.1050947 0.81453365 0.34023905
0.1045437 0.84788966 0.3654809
0.1158857 -0.39867228 -0.15433931
0.1129597 -1.0849292 -0.020247936
0.1135387 -0.91200632 -0.046778202
0.1137647 -0.84462029 -0.057115078
0.1146487 -0.33282632 -0.097618103
0.1144727 -0.26932234 -0.089550018
0.1142727 -0.69293529 -0.080387115
0.1144537 -0.21278638 -0.088686943
0.1147877 -0.53884929 -0.10402727
0.1072467 0.10768664 -0.031980991
0.1077847 -0.10307235 -0.057657242
0.1076677 -0.057369351 -0.052089214
0.1069607 0.27256566 -0.018313885
0.1065747 0.56375563 0.00010681152
0.10685271 0.35392165 -0.013165951
0.099915698 0.65630066 0.31798983
0.1001077 0.6864717 0.30883503
0.1067947 0.39735365 -0.010420322
0.10116771 0.72877967 0.25821877
0.10195971 0.75995368 0.22043896
0.09892571 0.84788966 0.36528206
0.1089237 -0.46273035 -0.1120429
0.1074837 -0.91104037 -0.043301105
0.10770071 -0.84368736 -0.053627968
0.1079517 -0.76530439 -0.065648079
0.10838771 -0.26876134 -0.086442947
0.10818671 -0.69207937 -0.07687521
0.1083177 -0.65129536 -0.083127975
0.10852371 -0.58725137 -0.092948914
0.10115071 0.14895266 -0.025748253
0.1017507 -0.10274738 -0.05561018
0.1010507 0.22767967 -0.020768166
0.10099371 0.27261466 -0.01792717
0.1014467 0.02129668 -0.040502071
0.094434708 0.61209071 0.3088479
0.10092971 0.32312167 -0.01473093
0.10089071 0.35396367 -0.01278019
0.094416708 0.68650967 0.30974388
0.10083571 0.39739364 -0.010032177
0.095444709 0.72879165 0.25850391
0.0939257 0.81443369 0.33418274
0.10281171 -0.46199328 -0.10849714
0.10143371 -0.91007429 -0.039825916
0.10210671 -0.69122535 -0.073367119
0.10223171 -0.65046233 -0.079614162
0.1018607 -0.14781636 -0.061098099
0.10258071 -0.53729635 -0.096956253
0.095311701 0.072733641 -0.032238007
0.0952297 0.10819864 -0.027942181
0.095179707 0.14901066 -0.025360107
0.095121711 0.19681865 -0.022335052
0.095721707 -0.10242337 -0.053564072
0.095084697 0.22773069 -0.020380974
0.0954317 0.021580637 -0.03846693
0.094968706 0.32316667 -0.014343262
0.088740706 0.68652368 0.31002283
0.094878703 0.39743268 -0.0096459389
0.0948257 0.44082367 -0.0069003105
0.089723706 0.72880363 0.25878811
0.087686703 0.84788668 0.36488485
0.09488371 -1.0817752 -0.009909153
0.095217705 -0.96815532 -0.027312279
0.095819697 -0.76352435 -0.058656216
0.096339703 -0.33059233 -0.085739136
0.096233711 -0.26764435 -0.080243111
0.096034706 -0.69037336 -0.069861889
0.0958267 -0.14747828 -0.059050083
0.089305699 0.073001683 -0.030207157
0.089257702 0.10825866 -0.027553082
0.089594707 -0.05643934 -0.045963287
0.089066699 0.27271068 -0.017149925
0.089508697 -0.01797235 -0.041282177
0.082742706 0.61302269 0.32788897
0.089007705 0.32321066 -0.01395607
0.088972703 0.35404766 -0.012005329
0.088871703 0.44085968 -0.0065140724
0.082738712 0.81433165 0.32811689
0.082068712 0.84788567 0.36468792
0.088870704 -1.0807292 -0.0064702034
0.089009702 -1.0313673 -0.014026165
0.089763701 -0.76263732 -0.055166245
0.090166703 -0.26708835 -0.077147961
0.090109706 -0.21029037 -0.074062347
0.089796707 -0.14714032 -0.057002068
0.090261698 -0.58485538 -0.082384109
0.090399697 -0.53575128 -0.08990097
0.083285704 0.10831869 -0.027163029
0.083187714 0.19692469 -0.021559238
0.083675712 -0.10177737 -0.049478054
0.083104715 0.27275765 -0.016762257
0.083496705 -0.017676353 -0.039244175
0.077044711 0.58137465 0.33037567
0.077078715 0.61305368 0.32843876
0.083014712 0.35408968 -0.011618137
0.082966715 0.39750969 -0.0088729858
0.082918704 0.44089466 -0.0061283112
0.078943714 0.75999469 0.22159195
0.082885712 0.47583365 -0.0042653084
0.077180713 0.53854668 0.3226099
0.077137709 0.81428164 0.32508087
0.084519714 -0.45979434 -0.097885132
0.082864702 -1.0796852 -0.0030331612
0.082996711 -1.0303483 -0.010582924
0.083325714 -0.90719432 -0.029426098
0.083504707 -0.83997828 -0.039710999
0.08371371 -0.76175231 -0.051680088
0.084104702 -0.26653439 -0.07405901
0.083770707 -0.14680332 -0.054956913
0.084319711 -0.53498238 -0.086379051
0.077270702 0.14917964 -0.024193287
0.077563703 -0.055825353 -0.04188633
0.077187702 0.22788268 -0.019216061
0.077140704 0.27280468 -0.016374111
0.077486709 -0.01738131 -0.03720808
0.077406704 0.022429645 -0.032367229
0.071364701 0.58146566 0.33197403
0.071438715 0.6130147 0.32753611
0.077055708 0.35413069 -0.011231899
0.071539715 0.65646565 0.32142496
0.077010706 0.39754766 -0.0084872246
0.076966703 0.44092268 -0.0058312416
0.073190704 0.76000369 0.22188091
0.071357712 0.53913665 0.3323698
0.07133171 0.88720769 0.33397198
0.078433707 -0.4590643 -0.094354153
0.078886703 -0.39231735 -0.12165594
0.076862708 -1.0786433 0.00040102005
0.076987714 -1.0293303 -0.0071411133
0.077956706 -0.64714938 -0.065587997
0.078118712 -0.58326739 -0.075357914
0.078243703 -0.53421432 -0.082859993
0.071378708 0.073238671 -0.028611183
0.071180701 0.27285069 -0.015989304
0.071130708 0.32333964 -0.012794971
0.071099713 0.35417068 -0.010846138
0.071056709 0.39758468 -0.0081000328
0.066202715 0.46278667 0.30086708
0.067438707 0.7600137 0.22216892
0.065917701 0.81417966 0.318995
0.065685704 0.88720667 0.33377266
0.072355703 -0.45833629 -0.090825081
0.070868701 -1.0776052 0.0038299561
0.071443707 -0.83813637 -0.032772064
0.071631715 -0.75999027 -0.044718266
0.071806714 -0.68698639 -0.055877209
0.071904704 -0.64632636 -0.062090874
0.071930707 -0.20853335 -0.06373024
0.071728706 -0.14613336 -0.050868988
0.072175711 -0.53344828 -0.079344273
0.065374702 0.10849267 -0.025997162
0.065291703 0.19708067 -0.020395279
0.065632701 -0.10081631 -0.04335928
0.065549701 -0.055214345 -0.03781414
0.065220714 0.27289665 -0.015600204
0.065492705 -0.016903341 -0.033926964
0.065455705 0.022578657 -0.031430244
0.060090709 0.5813787 0.33017206
0.0651737 0.32338268 -0.012408257
0.060368706 0.68659365 0.31141996
0.059999708 0.46531868 0.33631992
0.061128709 0.72886169 0.26021099
0.06168871 0.76002365 0.22245789
0.060002711 0.5393697 0.33608198
0.059590708 0.84788066 0.36389589
0.066671714 -0.39071232 -0.11341619
0.064881712 -1.0765684 0.0072569847
0.065138713 -0.96323138 -0.010057926
0.065600708 -0.75911134 -0.041242123
0.066031709 -0.32767528 -0.070259094
0.065858707 -0.64550537 -0.058598995
0.066002712 -0.58168834 -0.068346977
0.059437711 0.073357642 -0.027832985
0.059406709 0.10854965 -0.025608063
0.059550706 -0.05493331 -0.035944939
0.059301708 0.22802967 -0.018053055
0.059261706 0.27294165 -0.015213013
0.059517708 -0.016837358 -0.033535957
0.059193704 0.35423064 -0.01031208
0.054696705 0.68660665 0.31169987
0.055411708 0.72887266 0.26049566
0.054288711 0.49869168 0.34089994
0.05467971 0.81407666 0.31289768
0.053996708 0.84785664 0.36184406
0.058899704 -1.0755353 0.010679722
0.059141707 -0.96225435 -0.0066180229
0.059576709 -0.75823528 -0.037769318
0.059731711 -0.6853053 -0.048903942
0.059818711 -0.64468628 -0.055107117
0.059863705 -0.20761734 -0.058361053
0.059702706 -0.14546734 -0.046788216
0.059954707 -0.58090132 -0.064846992
0.053468708 0.07341665 -0.027443886
0.05343971 0.10860568 -0.025219917
0.053340707 0.22807765 -0.017667294
0.053303707 0.27298665 -0.014827251
0.053543705 -0.01677233 -0.033147335
0.053510707 0.022703648 -0.030651093
0.048810709 0.58129066 0.32836866
0.048868705 0.61285663 0.32392597
0.049025711 0.68661964 0.31198072
0.04859871 0.46592066 0.34460497
0.049695704 0.72888368 0.26078176
0.04865871 0.49863768 0.34000111
0.048733708 0.53927064 0.33428288
0.04905371 0.81402564 0.30984497
0.048405711 0.84782666 0.35927773
0.054159705 -0.4561643 -0.080265999
0.054515708 -0.38954729 -0.10746002
0.053402711 -0.83539134 -0.022392273
0.053948704 -0.32652038 -0.064091206
0.053703707 -0.68446833 -0.045424938
0.053784709 -0.64386934 -0.05162096
0.053854708 -0.20736128 -0.056897163
0.053695705 -0.14513534 -0.044748306
0.05391271 -0.58011633 -0.061350346
0.054010708 -0.53116232 -0.06882
0.047471706 0.10866064 -0.024831295
0.047632705 -0.099979341 -0.038022041
0.04759771 -0.054799318 -0.035166264
0.047379706 0.22812468 -0.017279148
0.047568705 -0.016708314 -0.032758236
0.047537711 0.022764683 -0.030261993
0.043221708 0.61281669 0.3230238
0.043457706 0.35135865 0.30371284
0.043012705 0.38365769 0.34012794
0.043296706 0.6562947 0.31690311
0.043352704 0.68663263 0.31225967
0.042930711 0.42515069 0.346807
0.04397871 0.72889465 0.26106787
0.044439707 0.76005065 0.22332573
0.043094706 0.53922164 0.33338165
0.042809706 0.84779567 0.35671091
0.048105706 -0.45544332 -0.076753139
0.048444707 -0.38896638 -0.10448408
0.047164705 -0.96030539 0.00025367737
0.047274705 -0.9014973 -0.0087161064
0.047399711 -0.8344813 -0.018939018
0.047913712 -0.32594436 -0.061011314
0.047865707 -0.26350635 -0.057132244
0.047756705 -0.64305431 -0.048137188
0.04768971 -0.1448043 -0.042710304
0.04153071 0.073531687 -0.026667118
0.041622709 -0.054733336 -0.034777164
0.041420709 0.22817165 -0.016891003
0.041595709 -0.016645312 -0.032368183
0.041567709 0.022825658 -0.029872894
0.037573706 0.61277568 0.32211971
0.037380707 0.35450268 0.33920193
0.037643705 0.65625966 0.31599903
0.037691709 0.68661565 0.31172466
0.037339706 0.46580267 0.34280872
0.038691711 0.76005965 0.22361374
0.03745671 0.5391717 0.33248186
0.037453707 0.88720268 0.33277702
0.04107571 -1.0232823 0.01343298
0.041186709 -0.95933431 0.0036859512
0.041288707 -0.90055531 -0.0052762032
0.041538704 -0.7556203 -0.027371883
0.041862708 -0.2632733 -0.055858135
0.041735705 -0.6422413 -0.044656277
0.041844707 -0.20690936 -0.054305077
0.041845705 -0.57855231 -0.054366112
0.041929711 -0.52964729 -0.061821938
0.035564709 0.073587656 -0.026279926
0.035678711 -0.09984237 -0.037242889
0.031988706 0.30461264 0.31511688
0.035623711 -0.01658231 -0.031980038
0.035597708 0.02288568 -0.029484272
0.031925704 0.61273468 0.32121706
0.031608704 0.35559165 0.35144377
0.031989705 0.65622467 0.31509399
0.031648707 0.42522365 0.34761667
0.031708706 0.46574268 0.34191179
0.032548707 0.72891569 0.26163912
0.03175671 0.49847266 0.33730268
0.031607706 0.84773469 0.35157108
0.036320705 -0.38780934 -0.098543167
0.035034705 -1.0714264 0.024338722
0.035112705 -1.0222824 0.016850948
0.035539705 -0.75475329 -0.023912907
0.035878707 -0.32505935 -0.056292057
0.03584471 -0.20668834 -0.053034306
0.029576708 0.10882366 -0.023665905
0.029523704 0.19737566 -0.018070221
0.029628705 0.022944689 -0.029096127
0.025966708 0.38470465 0.35241699
0.026374709 0.68655264 0.30991173
0.026021708 0.42515767 0.34672213
0.026076708 0.46568266 0.34101391
0.027197707 0.76007766 0.2241931
0.026175708 0.53907067 0.33067989
0.026492707 0.81381869 0.29760599
0.02908371 -1.0704052 0.027743816
0.029711705 -0.64062136 -0.037705898
0.029846709 -0.20646828 -0.05176115
0.029730711 -0.14429837 -0.03966713
0.02980471 -0.57699639 -0.047397137
0.029876705 -0.52813929 -0.054837227
0.023633707 0.073699653 -0.025503159
0.023613706 0.10887665 -0.023280144
0.023591708 0.14965367 -0.020703316
0.023577709 0.19727165 -0.019094944
0.023682706 -0.016459346 -0.031202316
0.020307709 0.35596466 0.35555983
0.02067671 0.65615368 0.31328297
0.020713709 0.68652165 0.30900574
0.020392708 0.42509264 0.34582376
0.020442709 0.46562266 0.34011602
0.020482708 0.49836066 0.33550692
0.020532709 0.53902066 0.3297801
0.020511709 0.88720065 0.33218002
0.023957707 -0.45257932 -0.062736034
0.024218708 -0.38665837 -0.09261322
0.023203708 -1.0202913 0.023675919
0.023879707 -0.32457334 -0.05374527
0.023753706 -0.14422828 -0.03927803
0.023858707 -0.52738827 -0.051350117
0.017666709 0.073753655 -0.025114059
0.017649706 0.10892868 -0.022891045
0.014633708 0.30902767 0.36105394
0.017692707 0.023061693 -0.028317928
0.014933709 0.58102167 0.3229537
0.014968708 0.61261165 0.31850386
0.014684707 0.35588968 0.35466385
0.014715709 0.38456267 0.35062504
0.015016709 0.65611863 0.31237698
0.015049707 0.6864897 0.30809879
0.014760707 0.42502666 0.34492588
0.014886707 0.53896868 0.32887793
0.015182707 0.81371069 0.29126072
0.014862709 0.88719964 0.33198071
0.017256707 -1.0192993 0.027083874
0.017403707 -0.89681238 0.008450985
0.017483708 -0.82996136 -0.001718998
0.017576709 -0.75216335 -0.01355505
0.017881706 -0.3243323 -0.052472115
0.01785671 -0.20603031 -0.049218178
0.017775707 -0.14415938 -0.03888607
0.011703707 0.073807657 -0.024725914
0.011779707 -0.099577367 -0.035684109
0.01175971 -0.054415345 -0.032831192
0.011743709 -0.016339362 -0.030424118
0.011725709 0.023118675 -0.027931213
0.0091287084 0.42495966 0.34402895
0.0099597089 0.7601037 0.22506285
0.0092007071 0.49824765 0.3337059
0.0092407092 0.53891766 0.32797575
0.0095237084 0.81364566 0.287498
0.011919707 -0.45115739 -0.055747032
0.012137707 -0.3855533 -0.086900234
0.011265706 -1.0673563 0.037945747
0.011317708 -1.0183094 0.030488968
0.011385709 -0.95451838 0.02078867
0.011447709 -0.89588231 0.011873722
0.011888709 -0.32409233 -0.051199913
0.011876706 -0.26212436 -0.049507141
0.011840709 -0.52589232 -0.044384956
0.0057357065 0.10885268 -0.023611069
0.0034737065 0.19147569 0.34674692
0.0033587068 0.23838168 0.36561108
0.0058077089 -0.099513352 -0.035295963
0.0036297068 0.58092964 0.32114792
0.003436707 0.35573864 0.35287476
0.0037207082 0.68642569 0.30628395
0.0034957081 0.42489368 0.34313297
0.0035307072 0.46543968 0.33742094
0.0042157061 0.76011169 0.22535372
0.0035937093 0.53886569 0.327075
0.0038587078 0.81358165 0.28373003
0.0035667084 0.88719767 0.33158398
0.0061157085 -0.38532239 -0.085726261
0.0053397082 -1.0663452 0.041339874
0.0054987073 -0.89495534 0.015293121
0.0055607073 -0.82816929 0.0051426888
0.0056327097 -0.75044733 -0.0066680908
0.0058967061 -0.32385331 -0.049928188
0.0056997091 -0.67784232 -0.017702103
0.005737707 -0.63740534 -0.023848057
0.0058767088 -0.20559734 -0.046677113
0.0058247074 -0.14402431 -0.038107872
-0.0022762939 0.23868966 0.36846399
-0.00017929077 -0.054293334 -0.032052994
-0.0021692924 0.38434666 0.34793997
-0.0019682907 0.65600967 0.309659
-0.0021392927 0.42482668 0.34223509
-0.0021092929 0.46537766 0.33652067
-0.0015282929 0.76011968 0.22564268
-0.0020552911 0.53881371 0.32617283
-0.0018132925 0.81351668 0.27995682
9.5706433e-05 -0.38509232 -0.084552288
-9.2290342e-05 -0.32361537 -0.048655987
-0.00027229264 -0.67702335 -0.014252186
-0.00014929101 -0.14395839 -0.03771925
-0.00018929318 -0.5731383 -0.030032158
-0.00015129149 -0.52440339 -0.037434101
-0.0078992918 0.15590864 0.36943388
-0.0079082921 0.19428468 0.37138176
-0.0061372928 -0.099387348 -0.034517288
-0.006149292 -0.054233313 -0.031663895
-0.007873293 0.26713967 0.36354971
-0.0078482926 0.30871868 0.35768986
-0.0061602928 -0.016165316 -0.029259205
-0.0076612923 0.61244267 0.31488609
-0.0077522919 0.46531567 0.33562183
-0.0074382927 0.72898465 0.26364183
-0.0074922927 0.81345165 0.27617788
-0.0077422913 0.84751868 0.33351278
-0.0064972918 -1.0643303 0.048116684
-0.0064232927 -0.95165628 0.031012058
-0.0062882919 -0.74874038 0.000207901
-0.0060882922 -0.26144928 -0.045711994
-0.0062132925 -0.63580829 -0.016937256
-0.0061712917 -0.5723713 -0.026566982
-0.0061392915 -0.52366132 -0.033963203
-0.013530292 0.15640169 0.37352991
-0.013471292 0.30863464 0.35679674
-0.012128292 0.023112655 -0.02809906
-0.013338292 0.58078969 0.3184371
-0.013448292 0.35550767 0.35019112
-0.013434293 0.38419968 0.34614611
-0.013414292 0.42469066 0.34043884
-0.013358291 0.53870869 0.324368
-0.013381293 0.84748769 0.33092594
-0.012080291 -0.44833428 -0.041814327
-0.012406291 -1.0633264 0.051501751
-0.012380293 -1.0143743 0.044074059
-0.012315292 -0.89218539 0.025533676
-0.012280293 -0.82549733 0.015414715
-0.012239292 -0.74788934 0.0036387444
-0.012065291 -0.32314235 -0.046113968
-0.012097292 -0.14382833 -0.036941051
-0.019149292 0.12383169 0.37592268
-0.019139292 0.19435966 0.37200069
-0.018076291 -0.099264324 -0.033740044
-0.018084291 -0.054116309 -0.030887127
-0.019112293 0.26696068 0.36176682
-0.018968292 0.65589964 0.30693769
-0.019054292 0.42462265 0.33954096
-0.019039292 0.46518967 0.33382177
-0.018856293 0.72900367 0.2642169
-0.018758291 0.76014364 0.22651386
-0.018868292 0.81332165 0.26861191
-0.018064292 -0.44763333 -0.038339138
-0.018308293 -1.0623252 0.054883003
-0.018289292 -1.0133972 0.047460079
-0.018264292 -0.94976038 0.037809849
-0.018094292 -0.52218336 -0.027031898
-0.024766292 0.12432164 0.3798337
-0.024760291 0.15674865 0.37639999
-0.024740292 0.23831767 0.36490011
-0.024723291 0.30846667 0.35500908
-0.024050292 -0.016381323 -0.030884266
-0.024712292 0.35535264 0.34839869
-0.024630293 0.68626267 0.30174494
-0.024695292 0.42455369 0.33864307
-0.024543293 0.81302965 0.25172377
-0.024681292 0.88719165 0.33059502
-0.023970291 -0.38354033 -0.076482296
-0.024175292 -0.94881529 0.041205883
-0.024160292 -0.89035028 0.032344818
-0.024142291 -0.82372731 0.022245884
-0.024027292 -0.32267433 -0.043580055
-0.024030292 -0.2608673 -0.042411327
-0.024103291 -0.67376739 -0.00048398972
-0.024092292 -0.63342935 -0.0065989494
-0.024040293 -0.14370233 -0.03616333
-0.030374292 0.12435168 0.38006687
-0.030370291 0.15664369 0.37551308
-0.030013293 -0.09915334 -0.033024311
-0.030014291 -0.054343343 -0.032493114
-0.030356292 0.26678067 0.35998201
-0.030318292 0.58064663 0.3157239
-0.030337293 0.42448467 0.33774471
-0.030273292 0.72902167 0.26479197
-0.030235292 0.75999469 0.22060585
-0.030328292 0.49784067 0.32739973
-0.030315291 0.84725964 0.31214571
-0.030012293 -0.44697529 -0.03508234
-0.030096292 -1.0603304 0.061634064
-0.030090291 -1.0114484 0.054228783
-0.030081293 -0.94787329 0.044596672
-0.030073293 -0.8894363 0.035744667
-0.030005291 -0.26091534 -0.042694092
-0.030039292 -0.63263935 -0.0031580925
-0.030018292 -0.20250732 -0.028098106
-0.030011293 -0.14364034 -0.035773277
-0.035983291 -0.099327385 -0.034185886
-0.035983291 -0.054509342 -0.03365612
-0.035983291 0.26668966 0.3590889
-0.035983291 0.30829668 0.35322189
-0.035983291 0.58059865 0.31481886
-0.035983291 0.61222667 0.310359
-0.035983291 0.42441469 0.33684587
-0.035983291 0.46499968 0.33112192
-0.035983291 0.72903067 0.26507902
-0.035983291 0.75321668 -0.047724247
-0.035983291 0.49778068 0.32649994
-0.035983291 0.84266669 -0.064963341
-0.035983291 -0.38261336 -0.071620941
-0.035983291 -1.0593374 0.065004826
-0.035983291 -1.0104783 0.057606697
-0.035983291 -0.94693333 0.047986031
-0.035983291 -0.88852435 0.039141655
-0.035983291 -0.67215139 0.0063791275
-0.035983291 -0.14357835 -0.035385132
-0.035983291 -0.56857032 -0.009303093
-0.035983291 -0.52000839 -0.016798973
-0.041605294 0.23803264 0.36222601
-0.041952293 -0.099502385 -0.035350323
-0.041952293 -0.054676354 -0.034818172
-0.041609291 0.26659769 0.35819674
-0.041593291 0.039779663 0.37638187
-0.041647293 0.58055067 0.31391382
-0.041651294 0.61218268 0.30945301
-0.041623291 0.38382667 0.34166288
-0.041660294 0.68616164 0.29901791
-0.041633293 0.46493468 0.33022165
-0.041693293 0.72891968 0.26142502
-0.041637294 0.49772167 0.32559776
-0.041642293 0.53844166 0.31985378
-0.041868292 -1.0095103 0.06098175
-0.041876294 -0.94599539 0.051371098
-0.041936293 -0.52009732 -0.017215252
-0.047219291 0.19385564 0.36755276
-0.04722929 0.23793668 0.3613348
-0.047217291 0.0031476617 0.36839008
-0.047198292 0.040219665 0.37958479
-0.047314294 0.58050168 0.31300879
-0.047258291 0.35503566 0.34481478
-0.047332294 0.6557107 0.30239868
-0.047953293 0.71941966 -0.053474903
-0.047969293 0.80759764 -0.062503338
-0.047981292 0.84261566 -0.069115162
-0.048246294 0.88385564 -0.22117901
-0.047978293 -0.38183933 -0.067548275
-0.04774829 -1.0085444 0.064354897
-0.047933292 -0.32238835 -0.042011261
-0.047646292 -0.2322523 0.1226449
-0.047848292 -0.6302833 0.0071396828
-0.047867291 -0.19856435 -0.0042171478
-0.047925293 -0.14383835 -0.037034988
-0.052813292 0.12390566 0.37651777
-0.052825294 0.15621567 0.37195873
-0.052839294 0.19375265 0.36666298
-0.05285529 0.23784065 0.36044312
-0.052879293 -0.041528344 0.35127974
-0.052866291 0.26641268 0.35641098
-0.052807294 0.04009068 0.37865973
-0.052796293 0.077459693 0.3830719
-0.05299329 0.61209464 0.30764008
-0.052898291 0.35495466 0.34391975
-0.053010292 0.65567267 0.30149174
-0.052951291 0.49760067 0.32379389
-0.05397629 0.80750865 -0.067627907
-0.053973295 -0.38168436 -0.066716194
-0.053647295 -0.94412738 0.058130741
-0.053670295 -0.88580233 0.049314976
-0.053910293 -0.32244331 -0.042300224
-0.053773291 -0.62963229 0.0099930763
-0.058428291 0.12379265 0.3756299
-0.058444291 0.15610665 0.37106991
-0.058462292 0.19364965 0.36577082
-0.058484294 0.23774266 0.35955
-0.058404293 -0.036868334 0.38237286
-0.058407292 0.0050336719 0.38157368
-0.058421291 0.039960682 0.37773705
-0.058653291 0.58040369 0.31119776
-0.058668293 0.6120497 0.3067317
-0.058690295 0.65563369 0.30058193
-0.058729291 0.68580765 0.28944588
-0.058576293 0.42413265 0.33325005
-0.058596291 0.46473968 0.32751894
-0.059962291 0.71911067 -0.063706875
-0.058612294 0.49753967 0.3228898
-0.059993289 0.80741966 -0.072762966
-0.059491292 -1.0066192 0.071090698
-0.059590291 -0.81846839 0.042661667
-0.059053294 -0.21946234 0.19645405
-0.059706293 -0.62973136 0.009581089
-0.064063296 0.15599865 0.37018108
-0.064086288 0.19354564 0.36488295
-0.064113289 0.23764569 0.35865879
-0.064017296 0.0048986673 0.380651
-0.06413129 0.2662257 0.35462379
-0.064156294 0.30786169 0.34874868
-0.064014293 0.077220678 0.38129902
-0.064344294 0.61200464 0.30582476
-0.064185292 0.35479265 0.34212589
-0.064253293 0.46467367 0.32661772
-0.065978289 0.71895468 -0.068835258
-0.064298294 0.53822166 0.31623888
-0.066018291 0.80732965 -0.077904224
-0.065842293 -0.44749135 -0.037587166
-0.065353289 -1.0056612 0.074452877
-0.065477297 -0.81759936 0.046052933
-0.065528288 -0.74032837 0.034381866
-0.065865293 -0.32255739 -0.042881966
-0.064663291 -0.21318132 0.23270893
-0.065594293 -0.66914028 0.019249916
-0.065707296 -0.56800932 -0.0066819191
-0.065760292 -0.52046233 -0.018875122
-0.069683291 0.15588868 0.36929178
-0.06971129 0.19344169 0.36399174
-0.069744289 0.2375477 0.35776567
-0.069605291 -0.036591351 0.3842721
-0.069649294 0.039699674 0.37588978
-0.069625288 0.077099681 0.38041401
-0.069997296 0.58030462 0.30938578
-0.071979292 0.6725657 -0.069220066
-0.069911294 0.46460766 0.32571697
-0.072004288 0.71879965 -0.073968887
-0.072022289 0.7524637 -0.077425957
-0.06993629 0.49741668 0.32108498
-0.069966294 0.53816569 0.3153348
-0.072066292 0.84241164 -0.085803032
-0.071816295 -0.44758028 -0.038002968
-0.071953297 -0.38122135 -0.064213276
-0.071209297 -1.0047042 0.077814102
-0.071306288 -0.88310033 0.059457779
-0.071358293 -0.81673235 0.049439907
-0.071843296 -0.32261533 -0.043171883
-0.07157129 -0.62993139 0.0087599754
-0.071473293 -0.1933443 0.027462959
-0.069590293 -0.077515304 0.38711309
-0.07165429 -0.56810635 -0.0070962906
-0.075376287 0.23744869 0.35687304
-0.075214297 -0.036734343 0.3833499
-0.075242296 0.0046256781 0.37880611
-0.075400293 0.26603669 0.35283804
-0.075671293 0.58025467 0.30847883
-0.075477287 0.35462868 0.34033203
-0.077990294 0.64016569 -0.071047306
-0.075572297 0.46454167 0.32481575
-0.078060292 0.75233269 -0.082573891
-0.075600296 0.49735567 0.3201828
-0.075635292 0.53810966 0.31442881
-0.07779029 -0.44767028 -0.0384202
-0.077060297 -1.0037513 0.081170082
-0.077172294 -0.88220435 0.062832832
-0.077333294 -0.73982137 0.036504745
-0.075698294 -0.20081538 0.30409288
-0.075300291 -0.13687533 0.3693409
-0.077602297 -0.56820434 -0.0075073242
-0.077676296 -0.52065128 -0.019704342
-0.080897294 0.12333465 0.3720789
-0.080929294 0.15566766 0.3675127
-0.081009291 0.23734969 0.35598087
-0.080825292 -0.036877334 0.38242912
-0.081038296 0.26594168 0.35194397
-0.081390291 0.57987767 0.30143881
-0.083993293 0.59375566 -0.071433067
-0.081153288 0.38328665 0.33537674
-0.084107295 0.75220168 -0.087728977
-0.081306294 0.53805363 0.31352472
-0.083766297 -0.44776231 -0.038835049
-0.083937287 -0.38107532 -0.063373089
-0.083033293 -0.88131028 0.066205025
-0.083243296 -0.73993033 0.036098003
-0.086678296 0.26584566 0.35104895
-0.086724296 0.30750567 0.34516573
-0.086776294 0.35446364 0.33853483
-0.090074293 0.63973367 -0.081331253
-0.086898297 0.46440667 0.32301092
-0.086993292 0.53789568 0.31093788
-0.09020929 0.80697066 -0.098545074
-0.090210289 0.84225464 -0.098567963
-0.091381297 0.88369465 -0.24770212
-0.088889293 -0.88041836 0.069573879
-0.089003295 -0.81532735 0.055000782
-0.089155294 -0.74004132 0.035691738
-0.089781292 -0.32279533 -0.044043064
-0.086499289 -0.18872434 0.37391186
-0.089376293 -0.63023931 0.0075278282
-0.086404294 -0.077709377 0.3859787
-0.092183292 0.15544367 0.36573267
-0.092229292 0.19301766 0.3604269
-0.092284292 0.23714864 0.35419273
-0.092093289 0.0042106509 0.37603474
-0.092086293 0.076610684 0.37686682
-0.09608829 0.59325367 -0.081718922
-0.096129291 0.63951665 -0.086484909
-0.092563294 0.46433967 0.32210875
-0.094662294 -0.93765932 0.08169508
-0.094754294 -0.88000637 0.071158886
-0.094898291 -0.81544429 0.054596901
-0.092026293 -0.18702728 0.38374805
-0.095224291 -0.6696673 0.017204762
-0.095451295 -0.56850439 -0.0087442398
-0.095557287 -0.52094239 -0.020944118
-0.097768292 0.12298465 0.36941195
-0.097811297 0.15533066 0.36484289
-0.097862288 0.19291067 0.35953569
-0.097669289 -0.037313342 0.37966108
-0.097750291 0.039033651 0.37126684
-0.097704291 0.076486647 0.3759799
-0.10211429 0.55936968 -0.083407879
-0.098081291 0.35429567 0.33674002
-0.098120287 0.38304764 0.33267879
-0.1021933 0.63929963 -0.091647148
-0.098175287 0.42362368 0.32694769
-0.098230287 0.46427166 0.32120609
-0.10230529 0.75180566 -0.10324526
-0.098318294 0.49680465 0.31203079
-0.10236429 0.80678165 -0.10937929
-0.10234229 0.84214967 -0.1070981
-0.1038643 0.88358468 -0.26565218
-0.10169929 -0.44804233 -0.040083885
-0.10040629 -0.99995929 0.094565868
-0.10049729 -0.93674439 0.08505106
-0.10079329 -0.81556231 0.054194927
-0.1009793 -0.74026734 0.034878731
-0.1017423 -0.32291931 -0.044620037
-0.10124929 -0.63045138 0.0067076683
-0.1034423 0.15521765 0.36395168
-0.1034973 0.19280267 0.35864305
-0.10332529 0.076361656 0.37509394
-0.1082173 0.59274864 -0.092036247
-0.1037363 0.35421169 0.33584166
-0.10377929 0.38296765 0.331779
-0.10826729 0.63908267 -0.096816063
-0.10383929 0.42354965 0.32604694
-0.10622829 -0.99901634 0.09790802
-0.10636429 -0.93681139 0.084867001
-0.10689229 -0.7403813 0.034473896
-0.1077233 -0.32298332 -0.044906139
-0.10326529 -0.18755835 0.38079166
-0.10708129 -0.66988534 0.016388893
-0.1031763 -0.13361436 0.38931179
-0.10735328 -0.56871039 -0.0095682144
-0.10902329 0.12274766 0.36763382
-0.10907529 0.15510368 0.3630619
-0.10913529 0.19269365 0.35775185
-0.10920629 0.23684466 0.35151291
-0.1089083 -0.037608325 0.37781382
-0.10894929 0.076236665 0.37420607
-0.11425729 0.55881369 -0.093729973
-0.1093943 0.35412669 0.33494282
-0.11435129 0.63886368 -0.10199499
-0.11411329 0.43560165 -0.081010342
-0.11444429 0.71769768 -0.11013317
-0.11415429 0.47055867 -0.084619045
-0.11420529 0.51395667 -0.08909893
-0.11463729 0.80647266 -0.12714434
-0.11450629 0.84204364 -0.11565018
-0.1164133 0.88347465 -0.28371
-0.11365829 -0.44823438 -0.040914059
-0.11223629 -0.93694037 0.084465981
-0.11258829 -0.81580228 0.053386688
-0.11280829 -0.74049729 0.034066677
-0.1137123 -0.32312733 -0.045630932
-0.11312729 -0.63066739 0.0058898926
-0.1087883 -0.13377637 0.38839388
-0.1133073 -0.56881529 -0.0099802017
-0.1134463 -0.52124339 -0.022185326
-0.11465329 0.12262869 0.366745
-0.11470929 0.15498966 0.36217213
-0.1145293 -0.037756324 0.37689066
-0.1146313 0.038625658 0.3684907
-0.12038529 0.59224164 -0.10238504
-0.12048429 0.67102563 -0.11052513
-0.11523829 0.42297769 0.31880474
-0.1201863 0.43522868 -0.086163998
-0.12066329 0.75124669 -0.12519789
-0.12023129 0.47021267 -0.089776993
-0.12028529 0.51364267 -0.094264984
-0.12059928 0.84199065 -0.11993408
-0.11963929 -0.4483313 -0.041330338
-0.11791429 -0.99850339 0.099829674
-0.11810629 -0.93707031 0.084067822
-0.11848629 -0.81592435 0.052984715
-0.11872229 -0.74061435 0.033661842
-0.11971429 -0.32348031 -0.047501087
-0.11452529 -0.18819934 0.37722301
-0.1190673 -0.63077635 0.0054807663
-0.1144743 -0.078474343 0.38137102
-0.11941029 -0.52134532 -0.022595882
-0.12015229 -0.037905335 0.37596893
-0.12021129 0.0035036802 0.37141275
-0.12054829 0.26526064 0.34568071
-0.1202623 0.038487673 0.36756372
-0.12031429 0.074811637 0.36356688
-0.1207123 0.35395569 0.33314705
-0.1207833 0.38261068 0.32771969
-0.1265443 0.63842571 -0.11237288
-0.12662129 0.67073762 -0.11825323
-0.12637529 0.51332867 -0.09943819
-0.12697129 0.80616069 -0.14499998
-0.1290253 0.88336468 -0.30186415
-0.12377229 -0.99863833 0.099433899
-0.12397829 -0.93720132 0.083668709
-0.1243853 -0.81604737 0.052580833
-0.12463829 -0.74073237 0.033257008
-0.12572029 -0.32383531 -0.049369335
-0.12016129 -0.18854934 0.37527704
-0.12487529 -0.67022234 0.015164852
-0.1200133 -0.13410336 0.38655186
-0.12009329 -0.078630388 0.38044882
-0.12521529 -0.56902736 -0.010801315
-0.12605529 0.19236565 0.35507488
-0.12577629 -0.03805536 0.37504578
-0.12619929 0.26516068 0.34478569
-0.12589429 0.038349688 0.36663675
-0.1325883 0.59173167 -0.11276388
-0.12638029 0.35382664 0.33176613
-0.1327893 0.67040563 -0.12714624
-0.13291728 0.71689963 -0.13634109
-0.1330103 0.75079167 -0.14304304
-0.13316329 0.80600464 -0.15396309
-0.13160229 -0.44853038 -0.042159081
-0.13186029 -0.38065833 -0.060678959
-0.1296303 -0.99877435 0.099036694
-0.1300533 -0.88075835 0.068752766
-0.13055429 -0.74085134 0.032851696
-0.13172929 -0.32419032 -0.05123806
-0.1258003 -0.18890029 0.37332582
-0.1308073 -0.67033738 0.01475811
-0.13094829 -0.63099939 0.0046629906
-0.13117029 -0.56913537 -0.011210918
-0.1313403 -0.52155334 -0.023421288
-0.13155229 0.12226766 0.36407566
-0.1316983 0.19225466 0.35418272
-0.13147029 0.0032156706 0.3695631
-0.13152729 0.03821069 0.36571074
-0.1315873 0.074545681 0.36171293
-0.1321473 0.35312665 0.32392788
-0.1383283 0.34730965 -0.092681885
-0.1389723 0.67007363 -0.13606215
-0.13910829 0.71662766 -0.14528131
-0.13920829 0.75056267 -0.15199995
-0.13851529 0.46916968 -0.1053009
-0.13858229 0.51269865 -0.10980797
-0.13784829 -0.38060933 -0.060338974
-0.13618529 -0.81629735 0.051778793
-0.1377413 -0.32454735 -0.053109169
-0.13144329 -0.18925232 0.37137604
-0.1367403 -0.67045337 0.014350891
-0.1373453 0.19214267 0.35328913
-0.13744329 0.23632568 0.34704208
-0.13703229 -0.038357317 0.37319803
-0.13762429 0.30652666 0.33554173
-0.13716429 0.038070679 0.36478376
-0.1443823 0.31609964 -0.094665051
-0.14443229 0.34686768 -0.097854137
-0.1450723 0.63732469 -0.13857603
-0.1453183 0.71635467 -0.15424633
-0.14542429 0.75033367 -0.16098404
-0.1446313 0.46881968 -0.11049223
-0.14470129 0.51238263 -0.11500597
-0.1455963 0.80569065 -0.17195892
-0.1452103 0.84165269 -0.14738894
-0.14357029 -0.44873136 -0.0429883
-0.14384529 -0.38065034 -0.060461044
-0.1415993 -0.93760234 0.082475662
-0.13709129 -0.18960637 0.36942577
-0.14267629 -0.67057031 0.013943672
-0.14283429 -0.63122636 0.0038471222
-0.14308429 -0.56935328 -0.012032032
-0.14299229 0.19203067 0.35239601
-0.1427383 0.0029246807 0.36771202
-0.14340129 0.30576664 0.32769871
-0.14280128 0.037930667 0.36385775
-0.15112829 0.59048367 -0.13829708
-0.15054429 0.34642464 -0.10303307
-0.15061828 0.38986069 -0.10753918
-0.15087029 0.51191664 -0.12269926
-0.14747429 -0.93773836 0.082078934
-0.14831029 -0.74121636 0.031640053
-0.14877829 -0.63134235 0.0034389496
-0.1490413 -0.56946439 -0.012442112
-0.14846729 0.12189966 0.3614049
-0.14844029 0.037789643 0.36293077
-0.15722829 0.55628765 -0.14053106
-0.15750729 0.63657069 -0.15649128
-0.1576203 0.66906965 -0.16295195
-0.15682229 0.43297568 -0.11724901
-0.1569223 0.46798065 -0.1229763
-0.1558453 -0.38084632 -0.061293125
-0.15307429 -0.99933428 0.097454071
-0.15335029 -0.93787628 0.081679821
-0.15360329 -0.88128632 0.067154884
-0.15389329 -0.81668133 0.050573826
-0.1542303 -0.74134129 0.031234741
-0.1558013 -0.32562536 -0.05872488
-0.14839929 -0.19035333 0.36530209
-0.1552133 -0.52198237 -0.025069237
-0.15446329 0.23567069 0.34119606
-0.1539273 -0.038816333 0.37042284
-0.15401129 0.002630651 0.36585999
-0.1541553 0.074005663 0.3579998
-0.1627363 0.31469768 -0.1102109
-0.16279529 0.3455357 -0.11341429
-0.16386829 0.66873366 -0.17196226
-0.16300629 0.43242067 -0.12492228
-0.1640393 0.71552968 -0.18127823
-0.1641953 0.74959767 -0.18980312
-0.16461229 0.80498266 -0.21258688
-0.16184729 -0.38094634 -0.061711311
-0.1618273 -0.32598633 -0.060599327
-0.1606683 -0.63157636 0.0026240349
-0.16095929 -0.56969029 -0.013262272
-0.1598413 0.15405065 0.35504007
-0.1599443 0.19169164 0.34971571
-0.15956429 -0.038971305 0.36949873
-0.15972529 0.037505686 0.36107588
-0.16983129 0.58916664 -0.165205
-0.16887529 0.31422764 -0.11541033
-0.1689363 0.34508967 -0.11861801
-0.17013429 0.66839564 -0.18100023
-0.1690633 0.38846469 -0.12520313
-0.17038029 0.71514767 -0.19380713
-0.17064929 0.74913967 -0.20782614
-0.16936229 0.46678665 -0.14081287
-0.17108929 0.80466664 -0.2307272
-0.1700993 0.84125966 -0.17919397
-0.16607429 -0.7415933 0.030428886
-0.15972929 -0.19115335 0.36089087
-0.16642229 -0.6710493 0.012320042
-0.1669213 -0.56980437 -0.013671875
-0.16715629 -0.52220231 -0.025889874
-0.1653983 0.12152666 0.3587327
-0.16529229 0.0023346543 0.364007
-0.1748223 0.21847469 -0.11070299
-0.1749153 0.26327968 -0.11536503
-0.16545029 0.073731661 0.35614204
-0.1759613 0.55483466 -0.1674571
-0.17502129 0.31375664 -0.12061501
-0.1751183 0.34450269 -0.12548018
-0.1762843 0.63543069 -0.18354702
-0.1768523 0.71459967 -0.21184397
-0.17713529 0.74867868 -0.22593689
-0.1756063 0.46618566 -0.14976406
-0.1757803 0.50975066 -0.15845919
-0.1775973 0.80434966 -0.2489562
-0.1763573 0.84116066 -0.18719006
-0.17350429 -0.44925433 -0.045057297
-0.17385529 -0.38114828 -0.062541962
-0.1712753 -0.88169628 0.065958977
-0.17460829 -0.33322638 -0.10006332
-0.17084029 -0.039282322 0.36764908
-0.17101629 0.03721869 0.35922098
-0.17110029 0.073593676 0.35521269
-0.1822383 0.55434763 -0.1764822
-0.18238029 0.58828163 -0.18326521
-0.1813563 0.3437447 -0.13439322
-0.1815373 0.38706064 -0.14304924
-0.1833583 0.71404868 -0.22997618
-0.18365529 0.74821568 -0.24414206
-0.18204829 0.50920463 -0.1674571
-0.1841393 0.80403066 -0.26728106
-0.1771673 -0.88183528 0.065560818
-0.1710733 -0.19195634 0.35648489
-0.1788443 -0.57003635 -0.014489174
-0.17910029 -0.52242833 -0.026711941
-0.17648029 -0.039439321 0.36672401
-0.17658029 0.0020346642 0.36215401
-0.17666429 0.037073672 0.35829306
-0.1767523 0.073454678 0.35428381
-0.1876103 0.34298366 -0.14332819
-0.18779929 0.38635564 -0.15200806
-0.1902093 0.74774969 -0.26244211
-0.1883333 0.50865769 -0.17648315
-0.1823993 -1.0000653 0.095481873
-0.1827433 -0.93858629 0.079698086
-0.1834223 -0.8173483 0.048569679
-0.1868213 -0.33457428 -0.10719919
-0.17625229 -0.13581437 0.37717295
-0.1848073 -0.57015437 -0.014897346
-0.1850743 -0.5225423 -0.027122974
-0.1930093 0.09784466 -0.11391687
-0.1931053 0.13839364 -0.11814594
-0.19321829 0.18599766 -0.12310791
-0.18212329 -0.039596319 0.365798
-0.19351229 0.26125866 -0.13606405
-0.18241329 0.073267639 0.35299492
-0.1952793 0.58678365 -0.2139473
-0.19374029 0.31146669 -0.14612532
-0.19388029 0.34222066 -0.15228701
-0.1957193 0.63334066 -0.23335123
-0.1940773 0.38564765 -0.16098833
-0.19427529 0.42918468 -0.16971493
-0.19761929 0.74636567 -0.31708717
-0.19463429 0.50810766 -0.18553305
-0.19147429 -0.44958037 -0.046297073
-0.1901813 -0.67154735 0.010696888
-0.1904103 -0.63218135 0.00058889389
-0.18189329 -0.1360423 0.37592077
-0.18202129 -0.080391347 0.37029266
-0.1907713 -0.57027239 -0.01530695
-0.19908929 0.062261641 -0.11547709
-0.1991753 0.097204685 -0.11912107
-0.19942929 0.18525368 -0.12993288
-0.18776929 -0.039755344 0.36487198
-0.19957429 0.21582466 -0.13606596
-0.19978529 0.26038867 -0.14500809
-0.1879673 0.036782682 0.35643482
-0.2018373 0.58589971 -0.2320962
-0.2001683 0.34145367 -0.16127205
-0.2022973 0.63257563 -0.25160027
-0.20037429 0.38493764 -0.17000103
-0.2007473 0.46376568 -0.18582201
-0.1974683 -0.44969136 -0.046710014
-0.1945083 -0.93887931 0.078907013
-0.19569829 -0.7422443 0.028413773
-0.19907829 -0.33605438 -0.11503887
-0.1881443 -0.19333237 0.34893179
-0.1961253 -0.67167538 0.010292053
-0.1963633 -0.63230628 0.00018405914
-0.20525929 0.061593652 -0.12068224
-0.20547129 0.13708365 -0.12937593
-0.2060723 0.25951564 -0.1539712
-0.20808129 0.55113864 -0.23614407
-0.2071773 0.46287265 -0.19916296
-0.20762029 0.5061897 -0.21731091
-0.20000529 -1.0005214 0.094302654
-0.2016253 -0.74237829 0.028010845
-0.19384429 -0.19379634 0.34638882
-0.2023153 -0.63243133 -0.00022315979
-0.2027043 -0.57051331 -0.016124249
-0.20300229 -0.52289039 -0.028353214
-0.21199329 0.18331265 -0.14780521
-0.21237729 0.25863969 -0.16296434
-0.21130629 0.010594666 -0.12063599
-0.21469229 0.55015767 -0.25440598
-0.21505329 0.58411562 -0.26867008
-0.2126343 0.30904067 -0.17310524
-0.21741429 0.62796867 -0.36197233
-0.21301329 0.38351065 -0.18809032
-0.21338029 0.42680967 -0.20258617
-0.2094553 -0.44991535 -0.047534943
-0.20587529 -1.0006754 0.093910694
-0.2070633 -0.81790429 0.046970844
-0.2075533 -0.74251336 0.027609825
-0.1988323 -0.13673133 0.37215376
-0.2176553 0.060122669 -0.13216114
-0.2178383 0.094754696 -0.13913631
-0.2172803 -0.06692034 -0.11782026
-0.2173833 -0.029238343 -0.12175989
-0.2174903 0.0098846555 -0.12585115
-0.2234813 0.57994866 -0.35464716
-0.21896429 0.30822766 -0.18214607
-0.2191273 0.33914065 -0.188375
-0.21949729 0.38237965 -0.20250607
-0.2199733 0.42550969 -0.22067118
-0.2203583 0.46045566 -0.23539209
-0.22083929 0.50399166 -0.2537322
-0.2154503 -0.45002931 -0.04794693
-0.2125403 -0.88269728 0.063179016
-0.2175163 -0.33828729 -0.12683105
-0.2052733 -0.19483131 0.34070778
-0.2142223 -0.63268632 -0.0010342598
-0.2044823 -0.13696331 0.37089682
-0.21463829 -0.57075828 -0.016939163
-0.2149583 -0.52312833 -0.029172897
-0.2239573 0.058987677 -0.14109325
-0.22414629 0.093663692 -0.14808798
-0.22462529 0.18135768 -0.16578102
-0.22468929 -0.11979729 -0.16814423
-0.2247933 0.21208566 -0.17198229
-0.22503729 0.25687969 -0.18101931
-0.22357529 -0.029980361 -0.12697601
-0.22561729 0.33794665 -0.20242929
-0.2261083 0.38096267 -0.22059631
-0.2215313 -0.45075935 -0.051422119
-0.21804729 -0.93948239 0.077327728
-0.21889029 -0.81818932 0.046175003
-0.22367829 -0.33903533 -0.13077116
-0.21990429 -0.67219633 0.0086750984
-0.22017829 -0.6328153 -0.0014390945
-0.2309653 0.18037468 -0.17480516
-0.2310113 -0.12106735 -0.17643595
-0.22966529 -0.068463326 -0.12824726
-0.23139229 0.25599468 -0.19008207
-0.22977529 -0.030724347 -0.13219929
-0.2299923 0.007973671 -0.13997507
-0.23188129 0.30594569 -0.20761108
-0.2332653 0.42288667 -0.25713921
-0.23368029 0.45801067 -0.27200413
-0.2276513 -0.45174533 -0.056167126
-0.22393329 -0.93963534 0.076934814
-0.2253453 -0.7429263 0.026405811
-0.2298453 -0.33978528 -0.13471603
-0.2258513 -0.67232937 0.0082716942
-0.2379203 0.25458664 -0.20460415
-0.2360903 -0.031974316 -0.1410923
-0.23631629 0.0067666769 -0.14893007
-0.2403083 0.42070967 -0.2875061
-0.23473629 -0.38743538 -0.094097137
-0.22982129 -0.93979138 0.076540947
-0.2312773 -0.74306637 0.026004791
