# .PCD v0.7 - Point Cloud Data file format
VERSION 0.7
FIELDS x y z
SIZE 4 4 4
TYPE F F F
COUNT 1 1 1
WIDTH 1352
HEIGHT 1
VIEWPOINT 0 0 0 1 0 0 0
POINTS 1352
DATA ascii
0.54743189 0.43526384 -0.1062727
0.54307288 -0.3032251 -0.043941498
0.5260399 0.10189784 0.1180253
0.52296889 0.22402084 0.16249752
0.52732491 -0.022138119 0.099422455
0.52446789 0.25093484 0.14079809
0.5311169 0.28421587 0.044495106
0.52716887 0.014283836 0.10167217
0.53456086 0.32834983 -0.0053725243
0.54168689 0.43512887 -0.1085825
0.52722389 -0.10685819 0.10088634
0.53328687 0.39522487 -0.071971893
0.53593987 0.43499187 -0.11089373
0.54469389 0.46099085 -0.23929882
0.5312829 -0.30283016 -0.042588711
0.51476991 0.10172886 0.11589718
0.51194692 0.22360486 0.15784121
0.5199399 0.28377086 0.039074421
0.51587087 0.014095843 0.099538326
0.51538789 0.052489877 0.10670424
0.52330089 0.32793283 -0.010869503
0.5253799 0.35525084 -0.04176569
0.52542686 -0.3027361 -0.042465687
0.50913388 0.10164285 0.11483431
0.5099479 -0.064290166 0.10256624
0.51022089 0.014001846 0.098469257
0.51766586 0.32772285 -0.013620853
0.51218289 -0.16945618 0.068923473
0.50121891 0.13907886 0.14850807
0.50874788 0.28332388 0.033649445
0.50409889 0.052307844 0.10457325
0.51202589 0.32751286 -0.016372681
0.51592487 0.39501286 -0.0758605
0.49467289 0.17914087 0.16195917
0.49858987 -0.064356148 0.1013813
0.4984529 0.052214861 0.10350752
0.50638288 0.32730287 -0.019126892
0.5006749 -0.16929513 0.069145203
0.49882787 -0.10705811 0.097706318
0.49221587 0.10138285 0.11164236
0.49001187 0.13888985 0.14619637
0.4891119 0.17899287 0.16030741
0.48989487 0.22271287 0.14802933
0.49326086 0.01371187 0.095265388
0.50073391 0.32709086 -0.02188158
0.50201589 -0.3023681 -0.041981697
0.4982689 -0.23206109 0.01676321
0.4949199 -0.1692161 0.069255352
0.48439991 0.22244287 0.14514732
0.49192786 0.28264785 0.025499344
0.48760587 0.01361388 0.094194412
0.4950819 0.32687986 -0.024638653
0.48916787 -0.16913813 0.069364071
0.48093289 0.10120589 0.10951233
0.47880089 0.13869685 0.14388132
0.47890091 0.22217184 0.14226532
0.48154789 -0.064461172 0.09960413
0.48128891 0.24744385 0.10378027
0.4815039 0.051934838 0.10030413
0.48942691 0.32666785 -0.027396679
0.49100292 0.35451287 -0.052802563
0.49279791 0.39467287 -0.081728935
0.5056029 0.45793486 -0.28814363
0.49031687 -0.3021912 -0.041743755
0.48667288 -0.2318961 0.016989231
0.47528988 0.10111684 0.10844612
0.47242087 0.17854887 0.15534925
0.47586691 -0.064497173 0.099011421
0.4761939 0.24644184 0.093655109
0.4806959 0.28219384 0.020058155
0.48376691 0.32645488 -0.030156612
0.47610289 -0.10723215 0.0951581
0.4696449 0.10102588 0.10738039
0.4668529 0.17839885 0.15369415
0.4678899 0.22162884 0.13649416
0.47048289 -0.022461116 0.093488216
0.4702009 0.051743865 0.098167419
0.48132187 0.39437288 -0.086307526
0.4862299 0.43117887 -0.16771269
0.49439889 0.45698485 -0.30322456
0.47041988 -0.10727817 0.094520092
0.46450192 -0.064572155 0.097826481
0.46682692 0.24292785 0.058683395
0.4649719 0.01321584 0.089912415
0.48068088 0.43071985 -0.1744957
0.4727729 -0.30193418 -0.041394711
0.46473587 -0.10732514 0.093883514
0.45636088 0.13830483 0.13924313
0.45571291 0.17808884 0.1503005
0.45685989 0.22108185 0.13071442
0.45881987 -0.064610124 0.097234249
0.46381491 0.28150886 0.011885166
0.4588899 0.051549852 0.096029282
0.48314691 0.45602885 -0.31836367
0.45270187 0.10075188 0.10418034
0.45313686 -0.064650118 0.096641541
0.45342088 -0.02257216 0.091710091
0.47750288 0.45554987 -0.32595253
0.45336992 -0.10742015 0.092606068
0.44513291 0.13810486 0.13692141
0.44459486 0.17771786 0.14639521
0.4500339 0.24220186 0.050604343
0.45634389 0.35403883 -0.06052351
0.46397489 0.42933685 -0.19490862
0.43902987 0.17753184 0.14444017
0.44176787 -0.064730167 0.095457077
0.44689786 0.28081888 0.0036993027
0.4422769 0.012905836 0.086356163
0.44191587 0.051254869 0.092819214
0.4494459 0.32559884 -0.041865826
0.45056087 0.35395783 -0.061810493
0.45257187 0.39361387 -0.09777689
0.45838392 0.42887387 -0.20173883
0.44611287 -0.23135012 0.017753124
0.44317991 -0.16854817 0.070205212
0.43389791 0.13790184 0.13459444
0.43486887 0.21974587 0.11693811
0.43881691 0.24171484 0.045212269
0.43658489 0.012867868 0.085763454
0.44367892 0.32551384 -0.04314661
0.44477689 0.35387683 -0.063098907
0.44681191 0.39346087 -0.10007286
0.44032186 -0.23127609 0.017859459
0.42827886 0.13779885 0.13343048
0.43066686 -0.022729158 0.089338303
0.43320286 0.24147087 0.042513371
0.43791091 0.32542783 -0.044427872
0.42497689 -0.022770166 0.088745117
0.42758387 0.24122584 0.039813519
0.43214089 0.32534283 -0.045707703
0.43528289 0.39315283 -0.10466766
0.42874289 -0.23113114 0.018068314
0.4249419 -0.10767215 0.089413166
0.41878289 0.10018587 0.09776926
0.41674691 0.17677987 0.13661528
0.41928691 -0.022812128 0.088153362
0.4219619 0.24097985 0.037111282
0.42636991 0.32525587 -0.046988487
0.42741591 0.35363185 -0.066959858
0.42602986 -0.30129713 -0.040509701
0.42162389 0.35354888 -0.068247795
0.43027186 0.42653987 -0.23605156
0.4201889 -0.30122215 -0.040401459
0.41716588 -0.23099118 0.018273354
0.40578586 0.13738286 0.12876844
0.4055869 0.17639983 0.13269711
0.40755886 0.21742988 0.09378624
0.41070288 0.24048686 0.031704426
0.40811491 0.012666881 0.082795143
0.40793288 0.050644875 0.086389065
0.41583186 0.35346586 -0.069536686
0.41796088 0.39268786 -0.11156893
0.42461687 0.42606884 -0.24294949
0.41435087 -0.30114812 -0.040295601
0.40180486 0.099893868 0.094559193
0.40196687 -0.065036118 0.091313362
0.40506887 0.24023885 0.028999329
0.40728188 0.27918786 -0.015449524
0.40226489 0.050540864 0.085317135
0.40851289 -0.30107611 -0.040190697
0.3961429 0.099794865 0.09348917
0.3965199 -0.022986174 0.085783482
0.39672387 0.012580872 0.081609249
0.40424287 0.35329783 -0.072110653
0.40639788 0.39237583 -0.1161747
0.41327387 0.42512485 -0.25677967
0.39724392 -0.16802114 0.070995331
0.38882488 0.17582887 0.12684631
0.3923319 0.21324885 0.053844452
0.3959229 0.27871788 -0.020913601
0.3910259 0.012537837 0.081017494
0.40684187 -0.39382714 -0.24823952
0.3968389 -0.30093414 -0.039983749
0.39402092 -0.23072213 0.018672466
0.39150292 -0.16796011 0.071089268
0.38481486 0.099595845 0.091346264
0.38813788 0.23949283 0.020872116
0.39016891 0.27862287 -0.022184849
0.39481789 0.39206183 -0.12078285
0.40188587 0.42417586 -0.27065992
0.3791489 0.099494874 0.090274334
0.37767088 0.17536187 0.12220526
0.38248688 0.23924285 0.018161297
0.38441288 0.27852684 -0.02345562
0.37963188 0.012447834 0.079831123
0.37957686 0.05011785 0.081020355
0.3890239 0.39190388 -0.12308788
0.39619386 0.42367285 -0.27800274
0.39443886 -0.39216512 -0.24008274
0.38002789 -0.16783911 0.071277142
0.37348187 0.099393845 0.08920145
0.3735199 -0.065277159 0.088352203
0.37683088 0.23899186 0.01544714
0.37393391 0.012401879 0.079237461
0.3904959 0.42315885 -0.28548193
0.3766709 -0.23053116 0.018964291
0.36782986 -0.065327168 0.087761402
0.36804986 -0.023220122 0.082820415
0.38478589 0.42264387 -0.29297352
0.37088889 -0.23047012 0.019059181
0.3685559 -0.16772312 0.071460247
0.3621369 -0.065378129 0.087170124
0.36550486 0.23848784 0.010016441
0.36253488 0.012308836 0.07805109
0.36254591 0.049792886 0.077794075
0.37906188 0.42212686 -0.30048275
0.35647088 0.099085867 0.085982323
0.35532188 0.17440784 0.11282015
0.35665691 -0.023319125 0.081635475
0.35983688 0.23823488 0.0072994232
0.36136991 0.27813888 -0.028535843
0.36276287 0.32427883 -0.06108284
0.3661229 0.39070284 -0.13960266
0.36972886 -0.38887614 -0.22388792
0.36183488 -0.3005361 -0.039386749
0.35932589 -0.2303502 0.019246101
0.35665292 -0.10836118 0.081725121
0.35079789 0.098981857 0.084909439
0.3497259 0.17416787 0.1104722
0.3509599 -0.023369133 0.081043243
0.3556059 0.27804089 -0.029806614
0.35809487 0.35204083 -0.089206696
0.36758089 0.42108986 -0.31553793
0.34412587 0.17392784 0.10813141
0.34723788 0.21116585 0.03231144
0.34505886 -0.065535128 0.085395336
0.34848791 0.23772788 0.0018601418
0.34983891 0.27794188 -0.031077862
0.34550387 0.049461842 0.074564457
0.3548429 0.38970083 -0.15299749
0.35742188 -0.3872512 -0.21585751
0.34571689 -0.16790718 0.069369316
0.33853686 0.17364383 0.10540342
0.34280491 0.23747283 -0.00086259842
0.3440699 0.27784288 -0.032348633
0.34537786 0.32400286 -0.064928532
0.34653687 0.35169786 -0.093772888
0.34434086 -0.3003512 -0.03909874
0.34000987 -0.16797513 0.068725109
0.33956486 -0.10855108 0.079798222
0.3337689 0.098665833 0.081685066
0.33295089 0.17333883 0.10250044
0.33592087 0.21063787 0.026912212
0.35026789 0.41952485 -0.33822966
0.33620787 -0.23012215 0.019612312
0.32700187 0.13543087 0.10893345
0.32816488 -0.023578167 0.078672409
0.33142489 0.23697585 -0.006175518
0.33252788 0.27764285 -0.034890652
0.32844687 0.049123883 0.07133007
0.33377987 0.32381684 -0.067492485
0.33901989 -0.38483518 -0.20388365
0.32136089 0.13528383 0.10749435
0.32246488 -0.023632169 0.078079224
0.3256759 0.23686886 -0.0074357986
0.3279779 0.32372284 -0.0687747
0.33215088 0.38768286 -0.17992163
0.32288888 -0.16818517 0.066791534
0.32247287 -0.10874909 0.077870369
0.31672889 0.098344862 0.078457355
0.31572491 0.13511086 0.10583735
0.31616688 0.17242086 0.093787193
0.32097787 0.27744085 -0.037431717
0.32220688 0.32355183 -0.070923805
0.32645088 0.38717484 -0.18668175
0.31104389 0.098235846 0.077381134
0.31323791 0.20957386 0.016099453
0.31519687 -0.3000651 -0.038638592
0.31309891 -0.22991115 0.019965172
0.30499488 0.17166686 0.086758137
0.30575991 -0.16840214 0.064853191
0.2994889 -0.065988123 0.080661297
0.29965687 -0.023854136 0.07571125
0.30363888 0.27713484 -0.041245461
0.30488089 0.32300484 -0.077728748
0.30597287 0.35048085 -0.10978174
0.3035439 -0.29995912 -0.038461685
0.3015489 -0.22981113 0.020136356
0.29382187 0.17083788 0.079088211
0.29378989 -0.066048145 0.080069065
0.2942369 0.048659861 0.066591263
0.30353987 0.38513088 -0.21383762
0.30242389 -0.3800841 -0.18021679
0.29771888 -0.29990715 -0.038374901
0.28829488 0.097794831 0.073070526
0.28750688 0.13422585 0.097468376
0.2943489 0.35012883 -0.11436462
0.29634988 -0.37930316 -0.17630863
0.28260487 0.097682834 0.071991444
0.2862829 0.27682388 -0.045059681
0.28281188 0.048551857 0.065404415
0.2875239 0.32245284 -0.084541798
0.29028487 -0.37852412 -0.17240858
0.2825619 -0.10923916 0.073360443
0.27683789 -0.024088144 0.073342323
0.27961388 0.23599786 -0.017524719
0.27696589 0.011520863 0.06915617
0.28173089 0.32226783 -0.086815834
0.28271288 0.34977484 -0.11895084
0.28422791 -0.37774915 -0.16852188
0.27845389 -0.22962517 0.020467281
0.27198189 0.16693884 0.044109344
0.27098489 -0.06629616 0.077703476
0.27113187 -0.024148166 0.072748184
0.27470389 0.27661383 -0.047602654
0.27125591 0.011462867 0.068564415
0.27138489 0.048440874 0.064217091
0.27817789 -0.37697619 -0.16464186
0.27268088 -0.2295801 0.02054739
0.27148089 -0.16886014 0.060973167
0.26489389 0.13348484 0.090584278
0.26808089 0.23577386 -0.020047665
0.26891088 0.27650887 -0.048875809
0.2655459 0.011403859 0.067970276
0.27013487 0.32189584 -0.091361523
0.2710619 0.34941888 -0.12354183
0.26859689 -0.29966611 -0.037951469
0.26576591 -0.16893917 0.060326099
0.26544589 -0.10946113 0.071424484
0.26063189 0.16636586 0.038747311
0.26175988 0.20785683 -0.0016307831
0.25957689 -0.066424131 0.076521397
0.26230991 0.23566186 -0.02131176
0.26432991 0.32170886 -0.093639851
0.26522988 0.34923989 -0.12583876
0.26277289 -0.29962116 -0.03786993
0.26113588 -0.22949511 0.020705223
0.25412589 0.097112834 0.066591263
0.25852287 0.32152188 -0.095915794
0.26006991 -0.37467617 -0.15306568
0.25536489 -0.22945517 0.020783424
0.25432989 -0.16910011 0.059031487
0.24816789 -0.066555142 0.075338364
0.24829789 -0.024396122 0.070380211
0.25271189 0.32133484 -0.098192692
0.25404888 -0.37391514 -0.14922571
0.24832189 -0.10969013 0.069485188
0.24226189 0.13260984 0.082659245
0.24449089 0.20750386 -0.0053944588
0.24771489 0.34870088 -0.13273478
0.24382488 -0.22937518 0.020938396
0.24261189 -0.10976809 0.068839073
0.23701888 0.096762836 0.06334734
0.23659489 0.13239288 0.08070612
0.23872989 0.20738488 -0.0066494942
0.23675489 -0.066689134 0.074155331
0.23687589 -0.024525166 0.069197178
0.23697789 0.011099875 0.065005302
0.2370849 0.048092842 0.060655117
0.23948489 -0.29945213 -0.03755188
0.23805289 -0.22933716 0.02101326
0.23116389 -0.024590135 0.068604469
0.23411289 0.27586484 -0.056507587
0.23601788 0.34833884 -0.13733673
0.23600489 -0.3714692 -0.13682079
0.23145089 -0.16943318 0.056436539
0.22526489 0.13189185 0.076247215
0.23016389 0.34815687 -0.13963985
0.22651489 -0.2292642 0.02116251
0.22572888 -0.16951817 0.055787086
0.21959789 0.13162386 0.073881149
0.22077489 0.16433883 0.019931316
0.22143689 0.20702589 -0.010413647
0.22249889 0.27564687 -0.059054852
0.21992488 0.047909856 0.05887413
0.22430688 0.34797388 -0.1419425
0.22401489 -0.36984712 -0.12857056
0.22202389 -0.29933614 -0.037321568
0.22074689 -0.22923011 0.021234512
0.22000688 -0.1696052 0.055137157
0.21668789 0.27553684 -0.060324669
0.21776789 0.32019788 -0.11187792
0.21428289 -0.1696921 0.054487228
0.20989789 0.20678288 -0.012925625
0.21087889 0.27540487 -0.061822891
0.21266788 0.34723985 -0.15094185
0.21205389 -0.36823815 -0.12036276
0.20920889 -0.22916311 0.021378517
0.20249788 -0.067109168 0.070606232
0.20450489 0.23450989 -0.033932686
0.20275688 0.047721863 0.057094097
0.20608589 -0.36743814 -0.11627579
0.20261888 -0.11033815 0.064305305
0.19704689 0.095922828 0.055761337
0.19835189 0.20653886 -0.015435696
0.1987139 0.23439187 -0.03519392
0.1992839 0.27499485 -0.066324711
0.19695288 0.010645866 0.060856342
0.1970329 0.047656834 0.056499481
0.20024489 0.31962186 -0.11873388
0.20012489 -0.3666411 -0.11220074
0.19767389 -0.22910017 0.021517277
0.1913299 0.095800877 0.054674149
0.19829988 0.37518984 -0.3446579
0.19417189 -0.36584717 -0.10813475
0.19137889 -0.17004913 0.051884174
0.19118488 -0.11050814 0.063008308
0.18629289 0.16355485 0.012381077
0.18558088 0.047526836 0.055312157
0.18944488 0.34503186 -0.17768288
0.19233888 0.37461185 -0.35221958
0.17988989 0.095552862 0.052502155
0.17993289 0.12882584 0.049762249
0.18053989 0.16342384 0.011136532
0.17964189 -0.067403138 0.068240166
0.17972088 -0.025209129 0.06327343
0.18186289 0.27437586 -0.073085785
0.17978588 0.010440826 0.059076309
0.18129289 -0.29910511 -0.036819935
0.17478389 0.16329288 0.0098924637
0.17392689 -0.067479134 0.067649364
0.17400089 -0.025282145 0.062680244
0.17604789 0.27416784 -0.075340748
0.17682788 0.31884688 -0.12788963
0.17635489 -0.36348313 -0.096001625
0.1741899 -0.17032617 0.049931526
0.17402488 -0.11076909 0.061060429
0.1690259 0.16316086 0.0086483955
0.1694499 0.20591784 -0.021714687
0.1704309 -0.36270219 -0.091979504
0.1696589 -0.2990492 -0.036683559
0.1688419 -0.22896212 0.021852493
0.1626969 0.095378876 0.050859451
0.16249289 -0.067633152 0.066466331
0.16255789 -0.02542913 0.061497211
0.16392289 0.23367286 -0.042771816
0.16440889 0.27375185 -0.079854488
0.1626699 0.047257841 0.052938461
0.16509688 0.31845587 -0.13247156
0.16384289 -0.29902309 -0.036617756
0.16307589 -0.22893709 0.021916389
0.16272688 -0.17051512 0.048627377
0.15696388 0.095316827 0.0502882
0.15750289 0.16289485 0.0061583519
0.1578739 0.20566583 -0.024225712
0.15677288 -0.067710161 0.06587553
0.15683389 -0.025503159 0.060903072
0.1592249 0.31825984 -0.13476658
0.1601609 0.34223986 -0.21136475
0.15730989 -0.22891313 0.021980286
0.15208389 0.20553887 -0.025481701
0.15230888 0.23342884 -0.045298576
0.15115789 0.010085881 0.056112289
0.15334989 0.31806284 -0.13706064
0.15426989 0.34167784 -0.21813488
0.1511319 -0.11112911 0.058459282
0.14597288 0.16262585 0.0036683083
0.14629188 0.20541185 -0.02673769
0.14649889 0.23330587 -0.046562672
0.14691889 0.27312183 -0.086632729
0.14542988 0.010012865 0.05551815
0.1483669 0.34111387 -0.22491884
0.14694589 -0.36211616 -0.089187622
0.14577988 -0.22886914 0.022105217
0.13980588 0.094555855 0.044002533
0.13995789 0.12629986 0.028148174
0.14020489 0.16249084 0.0024232864
0.13966089 -0.025731146 0.059127331
0.14108188 0.27291083 -0.08889389
0.1410839 -0.3620922 -0.089123726
0.1405769 -0.2989282 -0.036362648
0.14001589 -0.22884816 0.022165298
0.1397869 -0.17090315 0.046014309
0.13967988 -0.11131412 0.057156086
0.13443489 0.16235483 0.0011773109
0.1338909 -0.068029165 0.063508511
0.13393389 -0.025809169 0.058534145
0.1348739 0.23305887 -0.049090862
0.13524088 0.27269983 -0.091155529
0.13400888 0.046906829 0.049968243
0.13476188 -0.2989071 -0.036300659
0.13395189 -0.11140817 0.05650425
0.1282059 -0.025887132 0.05794239
0.12905589 0.23293388 -0.050353527
0.1305939 0.33934689 -0.24613857
0.12894489 -0.29888719 -0.036239624
0.12822188 -0.11150211 0.055854321
0.12259689 0.094097853 0.040191174
0.12288689 0.16208184 -0.0013136864
0.12309989 0.20489585 -0.031763554
0.12323789 0.23280984 -0.051618576
0.12354589 0.27227485 -0.095683575
0.12250689 0.0097128749 0.053146362
0.12464689 0.33873487 -0.25346661
0.11685689 0.093943834 0.038921356
0.11674789 -0.026045144 0.056758404
0.11741789 0.23268384 -0.052882671
0.11769289 0.27206087 -0.097948551
0.11868788 0.33812183 -0.26081085
0.11763789 -0.36201018 -0.088876724
0.11695789 -0.22877616 0.022401333
0.11111489 0.093788862 0.037650108
0.11183689 0.27184784 -0.10021353
0.11103989 0.0095588565 0.051961422
0.11106288 0.046613872 0.047593117
0.10554989 0.16166884 -0.0050497055
0.10526389 -0.068445146 0.060551167
0.10577289 0.23236185 -0.05608654
0.10620589 0.31646985 -0.15545368
0.10568489 -0.29881912 -0.036005497
0.10534389 -0.17151219 0.042088509
0.09962289 0.093477845 0.035107136
0.09953589 -0.068530142 0.059958458
0.099948891 0.23213583 -0.058322906
0.10011089 0.27141786 -0.10474968
0.09956789 0.0094018579 0.050773144
0.099582888 0.046463847 0.046405315
0.10073289 0.33627385 -0.28292561
0.09987089 -0.2988041 -0.035949707
0.099600889 -0.17161614 0.041434288
0.093873888 0.09332186 0.033835411
0.093806893 -0.068616152 0.05936718
0.09412089 0.23190886 -0.060561657
0.094242886 0.27120185 -0.10701847
0.093830884 0.0093228817 0.050180435
0.094403893 0.31530786 -0.1686368
0.094722889 0.33565384 -0.29032469
0.094056889 -0.29879111 -0.035893917
0.093855888 -0.17172211 0.040777206
0.088122889 0.093164861 0.03256321
0.08808589 -0.026454151 0.053797245
0.088100888 0.046310842 0.045216084
0.088485889 0.31471884 -0.17530489
0.088699892 0.33503288 -0.29773569
0.08814089 -0.22870916 0.022676468
0.082405888 0.16110885 -0.0100317
0.082346886 -0.068790138 0.058184147
0.082474887 -0.36192209 -0.088535786
0.082377888 -0.22869915 0.022729397
0.07661289 0.12470883 0.01455307
0.07661289 0.20383888 -0.041820526
0.07661289 -0.068879128 0.057593346
0.07661289 0.23122287 -0.067280769
0.07661289 0.0090808272 0.048401356
0.07661289 0.31353784 -0.18867588
0.07661289 0.33378583 -0.31260586
0.07661289 -0.22868913 0.022781372
0.07661289 -0.1123901 0.049974442
0.070855886 0.092688859 0.028745174
0.070659891 0.31294483 -0.19537592
0.070850886 -0.22868115 0.02283144
0.070873886 -0.1124931 0.049320221
0.065095887 0.09252888 0.027472496
0.065023884 0.16068184 -0.01377058
0.064970888 0.20356983 -0.044335842
0.065146886 -0.06905812 0.056409359
0.065137886 -0.026794136 0.051425457
0.065122887 0.045996845 0.042840481
0.064695887 0.31235087 -0.20208979
0.064985886 -0.29874116 -0.035631657
0.065113887 -0.17226213 0.037495136
0.059333891 0.092367828 0.026198387
0.05939889 -0.026881158 0.050832272
0.05871889 0.31175488 -0.20881271
0.058388889 0.33190286 -0.33501482
0.059172887 -0.29873413 -0.035581589
0.059325889 -0.2286672 0.022930145
0.059390888 -0.11270112 0.048011303
0.053424887 0.16039485 -0.016263485
0.05331789 0.20329684 -0.046852589
0.053641886 0.0087478757 0.04602623
0.053561889 -0.22866219 0.022978306
0.053646889 -0.11280614 0.047354221
0.047936887 -0.069332123 0.054635525
0.047914889 -0.027056158 0.049647331
0.047151886 0.26945585 -0.12520885
0.047896888 0.0086628795 0.045433521
0.047871888 0.045582831 0.039765358
0.042032886 0.091882885 0.022376537
0.040713888 0.30990583 -0.22965384
0.041730888 -0.29872018 -0.035437584
0.036261886 0.091719866 0.021101475
0.036168888 0.12365687 0.0058951378
0.036459889 -0.069518149 0.053450108
0.036428887 -0.02723515 0.048461437
0.03636089 0.045239866 0.037229538
0.036274888 -0.22865218 0.023116112
0.03020189 0.15981388 -0.021250725
0.029754888 0.22936887 -0.085241795
0.029428888 0.26879185 -0.13204575
0.024388887 0.15966684 -0.0224967
0.02490389 0.0083158612 0.043060303
0.024288889 -0.29871613 -0.035302639
0.024823889 -0.17305511 0.032887459
0.024911888 -0.11334509 0.044073105
0.018801887 0.12319785 0.002184391
0.017999887 0.22889888 -0.089741707
0.017590888 0.26834583 -0.1366086
0.016524889 0.30731285 -0.25880384
0.01906389 -0.17317218 0.032227516
0.019161887 -0.11345512 0.0434165
0.012116887 0.22866285 -0.091993809
0.010444887 0.30666083 -0.26612473
0.012661889 -0.29871911 -0.035216808
0.013202891 -0.22902912 0.021124363
0.013410889 -0.1135661 0.042758465
0.0072138906 0.12288785 -0.00028991699
0.0069418848 0.15922385 -0.026237488
0.006563887 0.20160586 -0.062357903
0.0074308887 -0.22915417 0.020461082
0.0075408891 -0.17340809 0.030907154
0.0076578856 -0.11367816 0.042101383
0.0014148876 0.12273288 -0.0015268326
0.00069888681 0.20136088 -0.064588547
0.0019418895 -0.027788162 0.044905186
-0.00019611418 0.26767188 -0.14346361
0.00043489039 -0.3618781 -0.087876797
0.0019018874 -0.11379117 0.041443348
-0.0037531108 -0.07024616 0.048966408
-0.0055581108 0.22795188 -0.098754883
-0.0040051118 0.044016838 0.028343201
-0.0054241121 -0.36188418 -0.087837696
-0.0038531125 -0.11390513 0.040784359
-0.010187112 0.12241983 -0.0040006638
-0.010527112 0.15877384 -0.029979706
-0.012073115 0.26721984 -0.14803648
-0.010594115 -0.29873818 -0.035056591
-0.0098931119 -0.22953409 0.018473148
-0.015992112 0.12226188 -0.0052394867
-0.016914114 0.20062184 -0.071289539
-0.015253112 -0.070465147 0.047653198
-0.015316114 -0.028075159 0.043125153
-0.01640711 -0.2987451 -0.035016537
-0.015670113 -0.22966319 0.017809391
-0.015524112 -0.17389113 0.028264523
-0.022793114 0.20037383 -0.073525906
-0.021071114 -0.028172135 0.042532444
-0.023966111 0.26676583 -0.15261555
-0.021338113 0.043481827 0.024529457
-0.022221111 -0.29875416 -0.034981728
-0.021126114 -0.11425012 0.038807392
-0.028678112 0.20012486 -0.075762749
-0.026829109 -0.028269172 0.041939259
-0.033420108 0.12178588 -0.008951664
-0.03251411 -0.070801139 0.045680523
-0.035096109 0.22675288 -0.11004257
-0.032699116 0.0070438385 0.034535408
-0.034725115 -0.36192912 -0.087652683
-0.033851109 -0.29877418 -0.034910679
-0.033009112 -0.2300542 0.015816212
-0.032650113 -0.11448509 0.037489414
-0.03968811 0.15801388 -0.036218643
-0.040457115 0.19962585 -0.080238819
-0.038270108 -0.070914149 0.045021534
-0.041016109 0.22651184 -0.11230278
-0.045527115 0.15785986 -0.03746748
-0.044104114 -0.028567135 0.040160179
-0.044254109 0.0066668391 0.032000065
-0.044484109 0.042757869 0.019440174
-0.046446115 -0.36195618 -0.08758688
-0.045479111 -0.2987991 -0.034842491
-0.04457511 -0.2303192 0.014486313
-0.050589114 0.089191854 0.0019440651
-0.053777114 0.26561886 -0.16407967
-0.050278112 0.042575836 0.018169403
-0.050361112 -0.23045415 0.013821125
-0.058157116 0.19887286 -0.086961746
-0.055547118 -0.071259141 0.043045521
-0.058802113 0.22578287 -0.11909056
-0.059751108 0.26538783 -0.16637754
-0.063539118 0.29869884 -0.35507965
-0.061621115 -0.46653718 -0.25953388
-0.058168113 -0.3619861 -0.087522507
-0.057110116 -0.29882818 -0.034778595
-0.06573011 0.26515585 -0.16867352
-0.068339109 0.12081587 -0.016381741
-0.06707111 -0.071493149 0.041727066
-0.070679113 0.22529387 -0.12362051
-0.067669109 0.042023838 0.014348507
-0.069890112 -0.3620221 -0.087463856
-0.068739116 -0.29886109 -0.034716606
-0.067495108 -0.17503017 0.02229929
-0.073839113 0.088491857 -0.0031766891
-0.07477811 0.15698785 -0.04453373
-0.075893119 0.19811386 -0.093690872
-0.072923109 -0.029077172 0.037193298
-0.07769911 0.26469088 -0.17327261
-0.075445116 -0.35946912 -0.073925495
-0.074554116 -0.29888016 -0.034688473
-0.073276117 -0.17516118 0.021635532
-0.079999119 0.12048787 -0.01885891
-0.081815109 0.19785887 -0.095936775
-0.078694105 -0.02919817 0.036484241
-0.078979105 0.0055168271 0.024389267
-0.079276115 0.041652858 0.011801243
-0.079307109 -0.23113817 0.010489464
-0.078795105 -0.11545616 0.032200336
-0.085831106 0.12032288 -0.020097733
-0.086537108 0.15645283 -0.048957825
-0.084369108 -0.071850121 0.039745331
-0.089856118 0.26356083 -0.18478489
-0.08976011 -0.45087117 -0.18085289
-0.086187109 -0.29891914 -0.034633636
-0.084569111 -0.11558217 0.031536102
-0.092422113 0.15618485 -0.05117178
-0.094485119 0.22430885 -0.13269377
-0.090573117 0.0051278472 0.021850109
-0.095532119 -0.44953412 -0.17404747
-0.090895116 -0.23141915 0.0091543198
-0.097130105 0.087780833 -0.0083026886
-0.098311111 0.15591586 -0.053385735
-0.10210012 0.26225787 -0.19808578
-0.097470105 -0.29653817 -0.021282673
-0.096691117 -0.23156112 0.0084853172
-0.10420612 0.15564585 -0.055602551
-0.10554011 0.19683486 -0.10493088
-0.10185111 -0.030007124 0.031423092
-0.10641411 0.22381186 -0.1372366
-0.10217811 0.0047358274 0.019309521
-0.10423811 -0.35635012 -0.056815624
-0.10248911 -0.2317031 0.0078172684
-0.10879111 0.087421834 -0.010867596
-0.10764611 -0.030212164 0.030157089
-0.11238511 0.22356284 -0.13951063
-0.11441912 0.26085985 -0.21234989
-0.11278211 -0.44554716 -0.15372372
-0.10998011 -0.35573214 -0.053407669
-0.10896412 -0.2958222 -0.017046928
-0.10799511 -0.1759662 0.017641068
-0.11503311 0.11948884 -0.026293755
-0.11600511 0.15510386 -0.060036659
-0.11344311 -0.030417144 0.028891087
-0.11835912 0.22331285 -0.14178467
-0.11571611 -0.35511512 -0.050004482
-0.11378612 -0.17610317 0.016974449
-0.11346211 -0.11622113 0.028217316
-0.12191011 0.15483183 -0.062255859
-0.11924312 -0.030623138 0.02762413
-0.12422511 -0.44291013 -0.14025164
-0.1196631 -0.23080915 0.013461113
-0.12630011 0.086877882 -0.014716625
-0.12477811 -0.072712123 0.03510952
-0.12504511 -0.030829132 0.026358128
-0.12580211 0.040137827 0.0015931129
-0.12539612 -0.2305941 0.014876366
-0.13214311 0.086694837 -0.016001701
-0.13258311 0.11898088 -0.030012608
-0.13373612 0.15428585 -0.06669569
-0.13055812 -0.072838128 0.034447193
-0.13921911 0.25803083 -0.24115992
-0.13562611 -0.4402892 -0.12684059
-0.13290212 -0.35333818 -0.040145874
-0.13112812 -0.23037916 0.016292095
-0.13081612 -0.11661416 0.026223183
-0.13965511 0.15401185 -0.068916798
-0.14125411 0.19527787 -0.11844969
-0.13705111 0.0035408735 0.011678219
-0.14131011 -0.43898517 -0.12015963
-0.13636312 -0.11558717 0.032974243
-0.14383312 0.086326838 -0.0185709
-0.14211911 -0.073093116 0.033119202
-0.14698212 -0.43768412 -0.11349249
-0.14258312 -0.22995418 0.019120216
-0.14783411 -0.07292515 0.034427166
-0.14869511 0.0031368732 0.0091333389
-0.15271211 -0.43679112 -0.10884762
-0.15015611 -0.35223216 -0.033768654
-0.14784111 -0.1734311 0.034226418
-0.15601911 0.11829388 -0.034973621
-0.15390912 -0.031094134 0.025453091
-0.15496512 0.039166868 -0.004796505
-0.15480311 -0.29300815 -0.00016880035
-0.16139011 0.085770845 -0.022427559
-0.16337311 0.15290886 -0.077813625
-0.15928511 -0.072693169 0.036380291
-0.15965211 -0.031026125 0.026131153
-0.17051911 0.25445384 -0.27747679
-0.15998912 0.0041268468 0.016710281
-0.16080511 0.038970828 -0.0060758591
-0.16051811 -0.2926622 0.0019330978
-0.16777912 0.11785585 -0.038217545
-0.1693121 0.15263087 -0.080039501
-0.16500811 -0.072577119 0.037356377
-0.16539411 -0.030959129 0.026810169
-0.17232911 0.22103286 -0.16230154
-0.17682011 0.25373286 -0.28478193
-0.16574012 0.0041918755 0.017389297
-0.16635612 0.039825857 0.00059652328
-0.16738211 -0.35113817 -0.027406693
-0.16496812 -0.1728341 0.038448334
-0.17310612 0.085395873 -0.024999619
-0.17525612 0.15235287 -0.082267761
-0.1771241 0.19369686 -0.13200665
-0.17113611 -0.030892134 0.027488232
-0.17201312 0.040265858 0.0041351318
-0.17118511 -0.2289061 0.026181221
-0.17068411 -0.17269319 0.039517403
-0.17689912 -0.22869915 0.027591228
-0.17640312 -0.17256814 0.040493488
-0.18536212 0.11744583 -0.040971756
-0.18670611 0.15310585 -0.075199604
-0.18911611 0.19316387 -0.13653564
-0.19039811 0.22026187 -0.1691618
-0.1872171 -0.43290311 -0.088203907
-0.18457912 -0.35005516 -0.021059513
-0.19117711 0.11745584 -0.040663719
-0.19255112 0.15311486 -0.074888706
-0.19449611 0.19455189 -0.12331772
-0.18835811 -0.030696154 0.02952528
-0.18873613 0.0044448376 0.020112514
-0.1929491 -0.43226212 -0.084780693
-0.20038711 0.19455087 -0.1230917
-0.1936401 -0.072151124 0.041315079
-0.1940961 -0.030632138 0.030204296
-0.20212312 0.22059786 -0.1654048
-0.19355412 -0.17219812 0.043417454
-0.2019331 0.085976839 -0.019199848
-0.20424111 0.15313184 -0.074264526
-0.2062781 0.19454885 -0.12286377
-0.19983412 -0.030569136 0.030883312
-0.2008581 0.040418863 0.0064463615
-0.1997361 -0.22788209 0.033223152
-0.21398012 0.22059387 -0.1649437
-0.21804212 0.25595886 -0.25988388
-0.2059751 0.0046278834 0.022155285
-0.20662712 0.040448844 0.0069103241
-0.2074631 -0.34862918 -0.012623787
-0.2061231 -0.28993613 0.018687248
-0.2049811 -0.17195517 0.045367241
-0.20501111 -0.11415917 0.04468441
-0.2194251 -0.55194813 -0.29220486
-0.2135141 0.086030841 -0.018268585
-0.21443711 0.11748785 -0.039419651
-0.21806012 0.19454384 -0.12240458
-0.2108231 -0.071956158 0.043345451
-0.2199081 0.22059083 -0.16471481
-0.21171911 0.0046878457 0.022836208
-0.2158211 -0.4297151 -0.0711236
-0.2131751 -0.3482762 -0.010517597
-0.22407912 -0.54522318 -0.26025057
-0.2170441 -0.030384123 0.032921314
-0.21816112 0.04050386 0.0078372955
-0.2175131 -0.28935319 0.022383213
-0.22761913 0.15315783 -0.073010921
-0.22459112 -0.3475731 -0.0063147545
-0.22322412 -0.28914315 0.023792267
-0.22799911 -0.071767151 0.045376301
-0.22851212 -0.030263126 0.034281254
-0.23291911 -0.42782515 -0.060929775
-0.23029412 -0.34722418 -0.0042157173
-0.2278191 -0.17148012 0.049262524
-0.23903511 -0.53114015 -0.19308186
-0.23666911 0.086132884 -0.01639986
-0.2416241 0.19452888 -0.12147951
-0.2342471 -0.030204117 0.034962177
-0.23860912 -0.42719811 -0.057538509
-0.2359951 -0.34687608 -0.0021166801
-0.23355912 -0.11359912 0.049555302
-0.2435091 0.11751586 -0.037853718
-0.2475151 0.19452387 -0.12124586
-0.2399791 -0.030146122 0.035641193
-0.23923112 -0.17124814 0.051208496
-0.25031608 -0.52838713 -0.17955256
-0.24824412 0.086180866 -0.015462875
-0.24932311 0.11751986 -0.037538528
-0.25099611 0.15317583 -0.07174778
-0.24516912 -0.071585119 0.047408104
-0.2469901 0.040633857 0.010163307
-0.24997111 -0.42595118 -0.050772667
-0.24738611 -0.34618312 0.0020742416
-0.24493511 -0.17113215 0.052182198
-0.25593913 -0.52701813 -0.17281246
-0.25513709 0.11752284 -0.03722477
-0.25144213 -0.030031145 0.037001133
-0.25191009 0.0050868392 0.027607441
-0.25564313 -0.4253301 -0.047395706
-0.25307709 -0.34583813 0.0041670799
-0.25100112 -0.22610217 0.045851231
-0.2506721 -0.1132732 0.052473068
-0.25981909 0.086224854 -0.014527798
-0.26095212 0.11752588 -0.036907673
-0.26268512 0.15318185 -0.071113586
-0.25765014 0.005140841 0.028288364
-0.25852114 0.040680885 0.011096478
-0.2563411 -0.17090517 0.054127216
-0.25637513 -0.1131652 0.053446293
-0.26676613 0.11752784 -0.03659153
-0.27108014 0.19449884 -0.12030458
-0.27326012 0.22054785 -0.16260481
-0.26338708 0.0051938295 0.028970242
-0.26237309 -0.22571713 0.048652172
-0.26204109 -0.17079312 0.055100441
-0.27274811 -0.52293414 -0.15268087
-0.2680521 -0.071353137 0.0501194
-0.26863211 -0.029865146 0.039042473
-0.2791881 0.22054088 -0.16236448
-0.27004814 0.040725827 0.012030125
-0.2688421 -0.2875002 0.035045147
-0.26774013 -0.17068118 0.056071281
-0.26777613 -0.11295313 0.055391312
-0.2901271 0.25598288 -0.25617456
-0.27581114 0.040746868 0.012497425
-0.27453512 -0.2872991 0.036448479
-0.28296208 0.086307883 -0.01265192
-0.28420711 0.11753184 -0.035639763
-0.28008813 -0.029757142 0.04040432
-0.28393209 -0.42225212 -0.030575752
-0.28148514 -0.34413511 0.014606476
-0.28022712 -0.28709918 0.037851334
-0.28874809 0.086326838 -0.012182713
-0.29190409 0.15318787 -0.069518566
-0.30214113 0.25598085 -0.25553846
-0.28733909 0.040787876 0.013433456
-0.28483212 -0.17035216 0.058988094
-0.28486913 -0.11264116 0.058307171
-0.2950151 -0.51754814 -0.12605047
-0.30053812 0.19445783 -0.11911154
-0.29092509 -0.071133137 0.052829266
-0.3029021 0.22050685 -0.16140461
-0.29310113 0.040807843 0.013902187
-0.2928291 -0.34346217 0.018770218
-0.29160511 -0.28670317 0.040654182
-0.29076809 -0.22477216 0.05563736
-0.29052609 -0.17024416 0.059959412
-0.30055612 -0.51621109 -0.11943054
-0.30359012 0.15318686 -0.068877697
-0.30084509 -0.42042714 -0.020532608
-0.29849511 -0.34312814 0.020848274
-0.30608612 -0.51488012 -0.11282682
-0.3061021 0.086380839 -0.010770798
-0.31232113 0.19443786 -0.1186285
-0.30299413 -0.029551148 0.043129444
-0.30297512 -0.28631109 0.043455124
-0.3021121 -0.22440118 0.05842638
-0.31188613 0.086397827 -0.010298729
-0.3152771 0.15318286 -0.06823349
-0.30807114 -0.070975125 0.054864407
-0.30871809 -0.02950114 0.043810368
-0.3092671 0.0055978298 0.034429073
-0.31038713 0.040862858 0.01530838
-0.31767112 0.08641386 -0.0098266602
-0.3241061 0.19441587 -0.1181426
-0.3137871 -0.070924163 0.055544376
-0.31444412 -0.029451132 0.044491291
-0.32661813 0.22046685 -0.16043186
-0.31790912 -0.41928512 -0.013841629
-0.31547809 -0.34213215 0.027077198
-0.31333411 -0.11213714 0.063164234
-0.32276714 -0.51143819 -0.09559679
-0.32345414 0.086429834 -0.009355545
-0.32490408 0.11752087 -0.033398628
-0.32016712 -0.02940315 0.045171261
-0.33254713 0.22045588 -0.16018581
-0.33817911 0.25596786 -0.2536006
-0.32073212 0.0056918859 0.035795212
-0.3219111 0.040896833 0.016246319
-0.32001811 -0.28573018 0.047651291
-0.31911612 -0.22385114 0.062604427
-0.31898314 -0.16971618 0.064814091
-0.3363831 -0.58924812 -0.22381353
-0.32844812 -0.5107891 -0.092189789
-0.33071709 0.11751688 -0.033077717
-0.32589012 -0.029355168 0.045853138
-0.33847713 0.22044384 -0.15993977
-0.32767212 0.040912867 0.016718388
-0.32678509 -0.34147412 0.03122139
-0.32569408 -0.28553814 0.049048424
-0.32478011 -0.22366911 0.063998222
-0.3247121 -0.11194211 0.065105438
-0.33865213 0.15316987 -0.066942692
-0.33092713 -0.070775151 0.057580471
-0.33161211 -0.02930814 0.046533108
-0.34440613 0.22043186 -0.15969276
-0.35019112 0.25595987 -0.2529459
-0.33220708 0.0057538748 0.036944389
-0.33343214 0.040927827 0.017187119
-0.34449708 0.15316486 -0.066616535
-0.35619909 0.25595587 -0.25261593
-0.33795214 0.0057688355 0.037414074
-0.33919412 0.040942848 0.017659187
-0.33704412 -0.2851581 0.051842213
-0.33608711 -0.11174911 0.067046165
-0.34305608 -0.029217124 0.047894478
-0.35626709 0.22040683 -0.15919685
-0.36220509 0.25595087 -0.25228357
-0.3436951 0.0057838559 0.037883282
-0.34372413 -0.3404972 0.037424088
-0.35237008 0.08649987 -0.0069875717
-0.35618412 0.15315384 -0.065966606
-0.35946208 0.19433987 -0.11666584
-0.36219609 0.22039288 -0.15894747
-0.35200113 -0.41719419 -0.0012927055
-0.34745711 -0.11155909 0.068985462
-0.36296511 -0.57801312 -0.17083549
-0.35678214 -0.50757211 -0.075214863
-0.35815209 0.08651185 -0.0065135956
-0.35767311 -0.41685015 0.00079345703
-0.36243314 -0.50693518 -0.071833611
-0.3639341 0.086523831 -0.0060386658
-0.36787111 0.15314186 -0.065313816
-0.3802231 0.25593483 -0.25128269
-0.36092311 0.0058238506 0.039293289
-0.36223412 0.040994883 0.019546509
-0.36334109 -0.41650814 0.0028781891
-0.35877711 -0.16901213 0.071603298
-0.35882211 -0.11137313 0.070924282
-0.37714309 0.19429487 -0.11591768
-0.36627811 -0.33923715 0.045537472
-0.36441714 -0.2225191 0.073194504
-0.3644591 -0.16891509 0.072572231
-0.3645041 -0.1112811 0.071894169
-0.37722909 0.11746788 -0.030479908
-0.38303709 0.19427884 -0.11566591
-0.37090212 -0.070452154 0.062337399
-0.37165409 -0.02899915 0.051302433
-0.37013811 -0.16881913 0.073542118
-0.37018412 -0.11119014 0.072862148
-0.38498211 -0.5725041 -0.14420366
-0.38128012 0.086554885 -0.0046138763
-0.38304311 0.11745983 -0.030154705
-0.37737209 -0.028958142 0.051983356
-0.39824212 0.25591487 -0.25027084
-0.37815011 0.0058578849 0.040710449
-0.3795141 0.041026831 0.020962238
-0.37670809 -0.28386015 0.061594486
-0.37577409 -0.22231811 0.07513237
-0.37586313 -0.11109918 0.073832512
-0.39046109 -0.5711382 -0.13758373
-0.3849901 -0.50440317 -0.058346748
-0.38706112 0.086563885 -0.0041365623
-0.39778113 0.22030288 -0.1574378
-0.3852731 0.041036844 0.021436214
-0.38236809 -0.28367811 0.062984467
-0.3814941 -0.16862816 0.075479507
-0.39593112 -0.56977612 -0.13097858
-0.39467311 0.11744088 -0.029498577
-0.40072113 0.19422883 -0.1149087
-0.38802612 -0.070325136 0.064377308
-0.40371412 0.22028583 -0.15718269
-0.39103311 0.041045845 0.021910191
-0.38802713 -0.28349811 0.064374447
-0.40293711 0.15308988 -0.063344479
-0.4162631 0.25589186 -0.24924564
-0.39368314 -0.2833181 0.065763474
-0.39284712 -0.16844219 0.077417374
-0.39295512 -0.11096209 0.075914383
-0.4068411 -0.56706315 -0.11781073
-0.40185714 -0.50252515 -0.048277855
-0.40630209 0.11741984 -0.028840542
-0.4125101 0.19419283 -0.11440086
-0.40024012 -0.028799117 0.054711342
-0.41557711 0.22025186 -0.15667152
-0.4029451 -0.4141472 0.017418385
-0.40029812 -0.33809918 0.053907394
-0.4122811 -0.56571418 -0.11124992
-0.41462612 0.15306884 -0.062683582
-0.41840512 0.19417387 -0.11414576
-0.40514511 -0.070204139 0.066420078
-0.42150909 0.22023386 -0.15641451
-0.42827511 0.25587386 -0.24855566
-0.40613413 0.044993877 0.052949429
-0.40859109 -0.4138152 0.019489288
-0.40419513 -0.1682592 0.079352379
-0.40434813 -0.11087912 0.077272415
-0.42047012 0.15305686 -0.062353611
-0.42430007 0.19415587 -0.11388683
-0.41167009 -0.028724134 0.056075096
-0.4105531 0.0097188354 0.07110548
-0.41162413 -0.3377282 0.056692123
-0.40982211 -0.22173518 0.0809412
-0.42313212 -0.5630272 -0.098171711
-0.42374712 0.11738384 -0.027850628
-0.4263171 0.15304583 -0.062021732
-0.43019712 0.19413584 -0.11363077
-0.41655713 -0.07012713 0.067783356
-0.4173851 -0.028687119 0.056760311
-0.41723108 0.045658827 0.058816433
-0.41549408 -0.22164112 0.08190918
-0.41554111 -0.16807812 0.081288338
-0.42427808 -0.50004619 -0.034910679
-0.42956209 0.11737084 -0.027519703
-0.44629711 0.25584483 -0.24751282
-0.42294508 -0.33736211 0.059474468
-0.42116511 -0.22154814 0.082876205
-0.43331009 0.086616874 -0.0003194809
-0.4288131 -0.02861613 0.058124065
-0.4286021 -0.3371802 0.060864449
-0.42683411 -0.22145611 0.083844185
-0.4271301 -0.11072212 0.079990387
-0.43545908 -0.4988181 -0.028249741
-0.43909007 0.086619854 0.00015830994
-0.4478851 0.19407386 -0.11285448
-0.43452609 -0.028582156 0.058807373
-0.45117509 0.22013688 -0.1551218
-0.43678212 -0.41217417 0.029819489
-0.4342581 -0.33700019 0.062254429
-0.43250209 -0.22136515 0.084810257
-0.4453811 -0.55957013 -0.080674648
-0.44487208 0.086623847 0.00063753128
-0.43937308 -0.069982171 0.07050848
-0.44024009 -0.028548121 0.059490204
-0.46431911 0.25581288 -0.24645758
-0.44014311 0.045676827 0.060717106
-0.44241309 -0.41185015 0.031880379
-0.46870708 -0.67519408 -0.30221891
-0.44662309 -0.49759811 -0.021607876
-0.45282507 0.11731386 -0.026189804
-0.45968008 0.19403088 -0.11233473
-0.44595212 -0.02851516 0.060172081
-0.44388711 -0.16764313 0.086126328
-0.45219612 -0.49699014 -0.018291473
-0.45864111 0.11729783 -0.025855541
-0.46557713 0.19400883 -0.11207151
-0.4512161 -0.33646411 0.066419125
-0.44950312 -0.2210961 0.087712288
-0.4758181 -0.66097516 -0.2393527
-0.46223807 -0.55765313 -0.070571899
-0.45648009 -0.069881141 0.072553158
-0.45853007 0.005938828 0.047347069
-0.45686609 -0.33628815 0.06780529
-0.45559812 -0.11054415 0.083390236
-0.46333009 -0.49578112 -0.011672497
-0.46799207 0.086630881 0.0025572777
-0.47737312 0.19396287 -0.11154652
-0.48834813 0.25576383 -0.24503469
-0.46427011 0.0059398413 0.047822475
-0.46589208 0.041107833 0.028104305
-0.46490508 -0.4105652 0.040108204
-0.46083212 -0.2209211 0.089645386
-0.46088308 -0.16739219 0.089024067
-0.46889007 -0.49517912 -0.0083699226
-0.47377312 0.086631835 0.0030384064
-0.46879911 -0.028390169 0.062907219
-0.47052211 -0.41024715 0.042161465
-0.46654809 -0.16731018 0.089993477
-0.47905409 -0.55575317 -0.060507774
-0.48477608 0.15289688 -0.05867672
-0.47358412 -0.069786131 0.074601173
-0.47450912 -0.028361142 0.063590527
-0.49272007 0.21998185 -0.15327883
-0.47613609 -0.40993017 0.044213295
-0.47267407 -0.1104452 0.085434437
-0.47928411 -0.06975615 0.075284481
-0.4831661 0.04110688 0.029538155
-0.48174709 -0.40961617 0.046261311
-0.49354112 0.11719286 -0.023840904
-0.49647009 0.15286088 -0.058002472
-0.48592812 -0.028303146 0.06496048
-0.51238012 0.25570887 -0.24359179
-0.4834801 -0.22058219 0.093509197
-0.50575012 -0.64486414 -0.16625881
-0.4835341 -0.16706914 0.092889309
-0.49068612 -0.069698155 0.076648235
-0.49163908 -0.028276145 0.065643311
-0.51053011 0.21990883 -0.15247679
-0.48974812 -0.11035317 0.087479115
-0.5026741 0.086624861 0.0054473877
-0.4963851 -0.069670141 0.077332497
-0.51646709 0.21988386 -0.15220881
-0.52439809 0.25567985 -0.24286175
-0.49871612 0.0059328675 0.050692081
-0.49856609 -0.40867716 0.05240345
-0.51654011 -0.64206117 -0.1530385
-0.4954381 -0.11032408 0.088159084
-0.50698411 -0.55262619 -0.043816566
-0.50845408 0.086620867 0.0059294701
-0.51099509 0.11713183 -0.022827625
-0.50305611 -0.028223157 0.06701231
-0.53040707 0.25566387 -0.24249458
-0.50416613 -0.4083671 0.054447174
-0.51195508 0.041092873 0.031943321
-0.50976408 -0.40805715 0.056491375
-0.50611609 -0.2202571 0.097373486
-0.52729011 -0.63927716 -0.13988161
-0.50617111 -0.16675919 0.09675312
-0.52001411 0.08661288 0.0068950653
-0.52571011 0.15276188 -0.056305885
-0.5304721 0.19373184 -0.10913992
-0.51447207 -0.028173149 0.068382263
-0.54242408 0.25563186 -0.24175882
-0.51593709 0.0059208274 0.052131176
-0.51536012 -0.40775019 0.058531284
-0.5117721 -0.22017819 0.098337173
-0.51918012 -0.069566131 0.080066204
-0.52018112 -0.028149128 0.069067478
-0.51891112 -0.33441609 0.083021164
-0.51819509 -0.1102162 0.090889454
-0.52494007 -0.49089319 0.016778469
-0.53740907 0.15271884 -0.055622578
-0.54615909 0.21974987 -0.15085459
-0.55444407 0.25559884 -0.24101686
-0.52923012 0.041076839 0.033387184
-0.52654511 -0.40713817 0.062609196
-0.52454209 -0.33425218 0.084402084
-0.56038707 -0.7204631 -0.30569363
-0.54334712 -0.63513213 -0.12025166
-0.52314109 -0.16653615 0.099649429
-0.5347991 -0.54954618 -0.027227879
-0.53738308 0.086557865 0.0080423355
-0.5305751 -0.069518149 0.08143425
-0.5520981 0.21972185 -0.15057993
-0.56045312 0.25558084 -0.24064255
-0.53213209 -0.40683419 0.064646244
-0.53619111 -0.49024111 0.020899296
-0.54590911 0.11699688 -0.020783901
-0.55408108 0.19361687 -0.10805082
-0.53890008 0.0058948398 0.05405426
-0.5358001 -0.33392817 0.087158203
-0.5345701 -0.27915913 0.10029221
-0.53445011 -0.16639119 0.10157919
-0.54181212 -0.48991817 0.022957325
-0.55998611 0.19358689 -0.10777664
-0.54301012 -0.028060138 0.071809292
-0.57247412 0.25554484 -0.23989487
-0.55476707 0.086482882 0.0090703964
-0.56588912 0.19355685 -0.1074996
-0.54871607 -0.028039157 0.072494507
-0.57848412 0.25552684 -0.23951674
-0.55226207 0.041047871 0.035320282
-0.54888308 -0.4059301 0.070746422
-0.54705411 -0.33360714 0.089914322
-0.5458011 -0.27885312 0.10304022
-0.57402211 -0.6943242 -0.19274759
-0.54663509 -0.11009711 0.094303131
-0.56056207 0.086455882 0.0094122887
-0.56337011 0.11692184 -0.019754887
-0.56665909 0.15260088 -0.053908825
-0.55336308 -0.069431126 0.084172249
-0.55442107 -0.02801913 0.073181152
-0.55802011 0.041038871 0.035803318
-0.55446011 -0.40563112 0.072775364
-0.57938808 -0.69289118 -0.18610764
-0.59050512 0.25548887 -0.23875952
-0.56186509 0.0058588386 0.055984497
-0.56003612 -0.4053331 0.07480526
-0.55830008 -0.33329111 0.092666149
-0.55699909 -0.21957713 0.10605526
-0.58474511 -0.6914621 -0.17948389
-0.5642761 -0.4886362 0.031173229
-0.57836008 0.15255088 -0.053218842
-0.56583208 -0.027982116 0.07455349
-0.5695371 0.041018844 0.036770344
-0.57045209 -0.069373131 0.086227417
-0.5715391 -0.027964115 0.075239182
-0.59368807 0.21951288 -0.14864683
-0.5733481 0.0058368444 0.056952477
-0.57124609 -0.4048751 0.078196526
-0.56954312 -0.33297819 0.095418453
-0.56829911 -0.21943516 0.10798407
-0.59543312 -0.68861717 -0.1662755
-0.5754931 -0.48800319 0.035272121
-0.58665609 0.11681485 -0.01837492
-0.59006512 0.15249783 -0.052527905
-0.59963107 0.21948087 -0.14836788
-0.57908911 0.0058248639 0.05743742
-0.57687908 -0.40471119 0.079577446
-0.5751611 -0.33282417 0.096792221
-0.57394809 -0.21936518 0.10894918
-0.57400912 -0.16591018 0.1083312
-0.60132009 0.19336486 -0.10583067
-0.60557508 0.21944886 -0.14808655
-0.61455107 0.25540787 -0.23723078
-0.58483011 0.0058128834 0.057922363
-0.58251107 -0.40454918 0.080955505
-0.57952708 -0.27808315 0.11059141
-0.57959509 -0.21929711 0.1099143
-0.57965809 -0.16584414 0.10929537
-0.59009409 -0.54353017 0.005651474
-0.60722607 0.19333088 -0.10554981
-0.58865309 -0.02791512 0.077300072
-0.61151809 0.21941686 -0.14780664
-0.59057212 0.00579983 0.058406353
-0.58814108 -0.40438718 0.082335472
-0.61139309 -0.68438214 -0.14657593
-0.6011371 0.086255848 0.011829376
-0.6131351 0.19329685 -0.10526848
-0.59323311 -0.069306135 0.088969231
-0.61746413 0.21938384 -0.14752483
-0.59631509 0.0057858825 0.058893204
-0.59082109 -0.27794117 0.11251831
-0.59089011 -0.21916217 0.11184025
-0.61669707 -0.68298012 -0.14003658
-0.59212607 -0.10994619 0.099774361
-0.6011011 -0.54234916 0.012181282
-0.63258809 0.25534284 -0.23606968
-0.6020571 0.0057718754 0.059379101
-0.5965991 -0.16565317 0.11218643
-0.5978111 -0.1099301 0.10045719
-0.60659713 -0.5417611 0.015440464
-0.61933112 0.15235686 -0.050787926
-0.62495011 0.19322687 -0.10470152
-0.60462213 -0.069277167 0.090342522
-0.60583007 -0.027960122 0.07874918
-0.60502613 -0.40390819 0.08646822
-0.62985212 -0.68603414 -0.15173578
-0.60224509 -0.16559118 0.11315012
-0.60349607 -0.10991615 0.10114336
-0.62518507 0.15232688 -0.050440788
-0.63085812 0.19319189 -0.10441875
-0.61155611 -0.027977169 0.07923317
-0.61354011 0.005740881 0.060351372
-0.61561012 0.04091388 0.04065752
-0.61065108 -0.40375119 0.087843418
-0.60884511 -0.33191818 0.10502529
-0.6369521 -0.68869919 -0.16239166
-0.62515712 -0.62100011 -0.050172806
-0.62742007 0.11660486 -0.015938759
-0.63676709 0.19315588 -0.10413361
-0.64124608 0.21924686 -0.14639187
-0.61928213 0.0057248473 0.060839176
-0.64407611 -0.69137615 -0.17309093
-0.63069707 -0.62037915 -0.046861649
-0.61486512 -0.10988814 0.10251331
-0.62330508 -0.54051715 0.022889137
-0.62026107 -0.48552614 0.051605225
-0.63013011 0.086094856 0.013571262
-0.63324612 0.11657286 -0.015589714
-0.64267808 0.19311887 -0.1038475
-0.64719409 0.21921086 -0.14610577
-0.6271311 0.040881872 0.041634083
-0.62189811 -0.40344018 0.090596199
-0.61904109 -0.27760416 0.11733437
-0.63907111 0.11653984 -0.015238762
-0.62751907 -0.40328616 0.091971397
-0.62468207 -0.27753919 0.11829853
-0.62623608 -0.10986418 0.10388422
-0.63143009 -0.48492008 0.055674076
-0.64172912 0.086026847 0.014273167
-0.6448971 0.11650687 -0.01488781
-0.65449911 0.19304484 -0.10327387
-0.6686691 0.25520283 -0.23371458
-0.63127512 -0.3313362 0.11050224
-0.63046408 -0.16529316 0.11796618
-0.63191909 -0.10985309 0.1045723
-0.63875812 -0.4029811 0.094718456
-0.63687909 -0.3311922 0.11187124
-0.63603908 -0.2186591 0.11954546
-0.65476912 -0.62202114 -0.051479816
-0.6457271 -0.53925818 0.031080246
-0.64258909 -0.48431915 0.059736252
-0.65333211 0.085956872 0.014977455
-0.66032112 0.15213686 -0.048332691
-0.66632313 0.19296885 -0.10269785
-0.65017211 0.040810883 0.043592453
-0.6443761 -0.40283018 0.09609127
-0.64160609 -0.27735013 0.12118626
-0.64174908 -0.16518015 0.11989307
-0.64328909 -0.10983318 0.1059432
-0.65132809 -0.53894609 0.033126354
-0.65913308 0.08592087 0.015329361
-0.66237807 0.11640388 -0.013830662
-0.65017307 -0.069189131 0.095837116
-0.68671513 0.25512785 -0.23252058
-0.65374207 0.0056128502 0.063769341
-0.64808512 -0.33090919 0.11460543
-0.64732111 -0.21854109 0.12147331
-0.64738911 -0.16512412 0.12085629
-0.65373909 -0.48372418 0.063793182
-0.6649341 0.085883856 0.01568222
-0.67203611 0.15206885 -0.047626495
-0.67814809 0.19289088 -0.10211754
-0.65736908 -0.028130114 0.083133221
