# .PCD v0.7 - Point Cloud Data file format
VERSION 0.7
FIELDS x y z
SIZE 4 4 4
TYPE F F F
COUNT 1 1 1
WIDTH 1372
HEIGHT 1
VIEWPOINT 0 0 0 1 0 0 0
POINTS 1372
DATA ascii
0.34563419 0.30166435 0.064183235
0.34444019 0.34443337 0.086243153
0.3439852 0.37809736 0.094633102
0.34353918 0.41959238 0.10286903
0.3479062 -0.43922263 0.022233486
0.3438102 -0.26220161 0.097875118
0.34318918 -0.20356268 0.10933208
0.32482418 0.16999835 0.34813118
0.33640519 -0.044288635 0.13077831
0.3468802 0.21975034 -0.065811634
0.33742419 0.61140436 0.11165333
0.34046018 -0.38108164 0.054671288
0.35573018 -0.75020367 -0.23191261
0.30784819 0.088429391 0.56841326
0.3099322 0.11944038 0.52865028
0.31232518 0.15649939 0.48298311
0.33079818 -0.11662066 0.13050127
0.33715919 0.13529134 0.009121418
0.33246019 0.46167737 0.098788261
0.33396718 0.37650737 0.070021152
0.33597419 -0.43729764 0.031724453
0.33456019 -0.38028866 0.058718204
0.33307719 -0.31686169 0.087014198
0.35357618 -0.80881268 -0.30412579
0.34454119 -0.66282862 -0.13173962
0.30265719 0.088347375 0.56745434
0.3047072 0.11936039 0.52767944
0.33324119 0.17482835 -0.026028633
0.3246882 -0.042998612 0.13994122
0.32658318 0.56758237 0.10316944
0.3264952 0.61121738 0.10487938
0.32880318 0.37586838 0.060088158
0.3286652 -0.37949663 0.062759399
0.32625318 -0.26011866 0.10958004
0.3357172 -0.60124463 -0.074075699
0.2974672 0.088264346 0.56649542
0.3192322 -0.15766662 0.13684225
0.31908917 -0.11522162 0.13966513
0.32570919 0.13533735 0.0089850426
0.32184619 0.46098536 0.085244179
0.32157218 0.49303135 0.090655327
0.3280462 0.29388338 -0.037153721
0.32278118 -0.37870663 0.066795349
0.3213512 -0.31537157 0.095020294
0.34058818 -0.8041026 -0.28473377
0.29425618 0.11920035 0.5257411
0.31998619 0.13535935 0.0089173317
0.32173219 0.17487139 -0.026162624
0.31656018 0.46059936 0.077717304
0.31624818 0.49272236 0.08398819
0.3237192 0.21983135 -0.066078663
0.3181572 -0.43447763 0.045646191
0.31690419 -0.37791961 0.070824146
0.33412418 -0.80176061 -0.27508497
0.31463018 -0.2588796 0.11649704
0.32591718 -0.65790969 -0.11023664
0.30718118 -0.041075647 0.1536293
0.3100642 0.61093533 0.094697475
0.3132222 0.37394038 0.030119419
0.30966219 -0.31390363 0.10291243
0.3239592 -0.74011368 -0.18941069
0.30882919 -0.25826365 0.11994934
0.28025818 0.061593354 0.59752846
0.28380018 0.11903834 0.5238061
0.30739018 0.10848439 0.032681465
0.3015942 -0.11313665 0.15335608
0.31022319 0.17491239 -0.026295662
0.3014802 -0.077434659 0.15572405
0.31332219 0.24761438 -0.090824604
0.31500319 0.28706139 -0.12582397
0.30806318 0.37320036 0.018667221
0.30676118 0.41629437 0.045777321
0.30637819 -0.43282765 0.05375433
0.33314317 -0.93338758 -0.50346661
0.3212502 -0.79710263 -0.25587463
0.3030332 -0.25764757 0.1233983
0.30215919 -0.19819862 0.14158344
0.30447018 0.17493236 -0.026361942
0.30009419 0.49191138 0.066416264
0.29924718 0.56693935 0.084373474
0.29908118 0.61074638 0.087897301
0.30259219 -0.50873369 0.013450146
0.2980462 -0.31260759 0.10984039
0.29724517 -0.25703365 0.12684202
0.30756319 -0.65370959 -0.091957569
0.3053602 -0.59482163 -0.045237541
0.2952852 0.45905736 0.047710419
0.3005642 0.21990734 -0.066333771
0.30332318 0.28709435 -0.12594557
0.29984319 0.33484337 -0.050754547
0.29358318 0.61065137 0.084491253
0.29356518 0.64244235 0.084877014
0.29624018 0.41520736 0.027079105
0.29463118 -0.43118566 0.061837196
0.31845218 -0.92076761 -0.45283079
0.2934722 -0.37478858 0.08688736
0.29225019 -0.31196159 0.11329937
0.3052482 -0.73491067 -0.16754961
0.29932219 -0.59354764 -0.039504528
0.29296419 0.17497134 -0.026491642
0.2947762 0.21992534 -0.066396713
0.29589418 0.24766737 -0.091010571
0.2949242 0.33351436 -0.069642544
0.31118619 -0.91452461 -0.42777395
0.28763419 -0.37401062 0.09088707
0.28645918 -0.31131762 0.1167531
0.28568918 -0.25581163 0.13371515
0.2628732 0.11870939 0.51994324
0.27877519 -0.15347862 0.16287708
0.27828619 -0.074787617 0.17386627
0.27792519 -0.037153661 0.1819663
0.2843982 0.45849437 0.036631107
0.28372419 0.49123937 0.051756382
0.28898919 0.21994334 -0.066457748
0.28279519 0.56653339 0.072611332
0.2825532 0.64228237 0.078054428
0.28744519 0.36993036 -0.031781673
0.28067619 -0.31067568 0.12020111
0.28727919 -0.59101158 -0.028074741
0.2576372 0.11862636 0.51897812
0.2788842 0.10858834 0.032352448
0.27271619 -0.11004466 0.17361307
0.2725082 -0.074129641 0.17838621
0.27894717 0.45820138 0.030889034
0.2842752 0.24770039 -0.091133595
0.27759218 0.53558934 0.061933041
0.2773082 0.56638837 0.068437099
0.2858032 0.28714138 -0.12612772
0.2770372 0.64220238 0.07463932
0.28217119 0.36920837 -0.04294157
0.29744518 -0.90576667 -0.39276886
0.24919219 0.061207354 0.5930233
0.2524012 0.11854237 0.51801348
0.2673412 -0.15251261 0.1688261
0.26701018 -0.10958463 0.17657709
0.26673919 -0.073473632 0.18289804
0.27279118 0.49076536 0.041471481
0.29077119 -0.90225166 -0.37876081
0.26912719 -0.30939561 0.12708807
0.2676692 -0.19489366 0.16116619
0.2754612 -0.5893926 -0.020948887
0.2440052 0.061159372 0.59241247
0.24549119 0.08741039 0.55694532
0.26748419 0.10862637 0.032221317
0.26848519 0.13554037 0.0083250999
0.26995519 0.17504239 -0.026747704
0.26802218 0.45761338 0.019378185
0.27162719 0.21999335 -0.066642761
0.26662618 0.53522438 0.052686214
0.2741262 0.28717136 -0.12625074
0.2660532 0.61014235 0.066368103
0.27136418 0.36808836 -0.060356617
0.26435718 -0.3709206 0.10683537
0.2633642 -0.3087576 0.13052511
0.27738619 -0.78446561 -0.20404053
0.2748462 -0.7290886 -0.14344072
0.2617842 0.10864437 0.032158375
0.2627652 0.13555837 0.0082621574
0.25453117 -0.033464611 0.20890236
0.26584119 0.22000939 -0.066701889
0.26685119 0.24774736 -0.091312885
0.2682882 0.28718537 -0.12631178
0.26931518 0.32777637 -0.15135574
0.26053518 0.61003536 0.06261301
0.2595852 -0.42634863 0.085743427
0.25760719 -0.30812162 0.13395834
0.26884419 -0.72821659 -0.13987684
0.26569918 -0.64700967 -0.063230515
0.2637282 -0.58807164 -0.015203953
0.2366832 0.11828738 0.51512146
0.24966322 -0.07212764 0.19196033
0.2570582 0.45702338 0.0078444481
0.25632918 0.49005038 0.025985241
0.2600542 0.22002435 -0.06676054
0.25495419 0.60997033 0.060223103
0.26063019 0.36674637 -0.081102848
0.2538462 -0.42590958 0.087817192
0.25276318 -0.36938661 0.11477613
0.25185519 -0.30748767 0.13738728
0.26520619 -0.78223163 -0.19503164
0.2503852 0.10868037 0.032031059
0.24454419 -0.15059662 0.18068123
0.24424119 -0.10775566 0.18840504
0.24394721 -0.071556628 0.19587612
0.25082618 0.48981038 0.02080822
0.25523618 0.24777639 -0.091432571
0.25012019 0.53467333 0.038767338
0.2497782 0.56565833 0.047486305
0.2552422 0.36606738 -0.091589928
0.2461112 -0.30685467 0.14081001
0.24484421 -0.19288963 0.17305326
0.25389919 -0.64563161 -0.057414532
0.2520152 -0.58675867 -0.0094738007
0.2446862 0.10869735 0.03196907
0.2388602 -0.15012062 0.18363523
0.24460422 0.53448939 0.034114361
0.25077417 0.28722435 -0.12649298
0.25213319 0.32707638 -0.16187477
0.24753119 0.41119838 -0.042079926
0.2423812 -0.42503661 0.091959476
0.2413062 -0.36836165 0.11995316
0.25306219 -0.78000969 -0.1860528
0.24800821 -0.64494461 -0.054510593
0.2328912 -0.10684866 0.19429922
0.2405892 0.45606837 -0.010744572
0.23982121 0.48929536 0.0097212791
0.24626522 0.32708737 -0.1619339
0.2381942 0.6097734 0.053043365
0.24448322 0.36458236 -0.11446285
0.24204721 0.41076136 -0.049587727
0.2382452 -0.50051469 0.051697254
0.2366562 -0.42460161 0.094026089
0.25286719 -0.89180368 -0.33780384
0.24490421 -0.7247526 -0.12567472
0.2340122 -0.25038666 0.16444302
0.23346621 -0.1918956 0.17897606
0.2421232 -0.64426059 -0.0516119
0.21420221 0.087012351 0.55238819
0.2272252 -0.10639662 0.19724226
0.2354522 0.17513734 -0.027116776
0.2268222 -0.069764614 0.20823336
0.2343132 0.48902637 0.0039453506
0.2378162 0.2478174 -0.091607571
0.2403972 0.32709935 -0.16199398
0.23658021 0.41027838 -0.057882786
0.2466162 -0.8902176 -0.33158588
0.24095221 -0.77780157 -0.17710686
0.2389362 -0.72389263 -0.12213898
0.2344912 -0.58480269 -0.00090885162
0.22628121 0.067540348 0.068370342
0.22156221 -0.10594565 0.20018339
0.2211272 -0.069169641 0.21234226
0.22958221 0.45539236 -0.023849964
0.2267912 0.64173436 0.054114342
0.22670521 -0.49946564 0.05650425
0.2252142 -0.42373663 0.098156452
0.22061521 0.067556381 0.068309307
0.22189321 0.10876036 0.031722069
0.22272721 0.13566935 0.0078282356
0.22229521 0.53394336 0.020187378
0.2218502 0.56516039 0.032951355
0.2274262 0.28727239 -0.12673092
0.22866121 0.32712036 -0.16211081
0.2211872 0.64168435 0.051930428
0.23414721 -0.88706058 -0.31919765
0.2185262 -0.36671764 0.12813807
0.21767421 -0.30464059 0.15253735
0.22701921 -0.72217959 -0.11508083
0.21696921 -0.24891669 0.17272711
0.2164412 -0.19041461 0.18783903
0.2071802 0.024419367 0.29644728
0.1985282 0.086858392 0.55055141
0.21494921 0.067571342 0.068248272
0.21051921 -0.1477586 0.19837141
0.2088992 -0.028345644 0.24594307
0.2175812 0.48842737 -0.0090398788
0.21956021 0.22012138 -0.067169666
0.21579421 0.6095084 0.043449402
0.22274721 0.36157236 -0.16077185
0.21518621 -0.49842268 0.061300278
0.2279312 -0.88549167 -0.31303453
0.22293721 -0.77512366 -0.16634464
0.2210712 -0.7213276 -0.11156082
0.1933032 0.086806357 0.5499382
0.21129121 0.13569736 0.007707119
0.2124532 0.17519236 -0.027348518
0.2040952 -0.067395627 0.22462511
0.2032152 -0.027633607 0.25114441
0.21281621 0.45465538 -0.038264751
0.2106442 0.56496137 0.027193069
0.2101852 0.60944235 0.041047096
0.22172721 -0.8839286 -0.30688763
0.2071602 -0.36590368 0.13221931
0.20569921 -0.24827164 0.17625523
0.2051502 -0.18957961 0.19279718
0.19579321 0.026203394 0.31036711
0.1880752 0.086753368 0.54932833
0.2036182 0.067601383 0.068128109
0.19922121 -0.14682162 0.20424509
0.19897321 -0.10415465 0.2119112
0.2055712 0.13571036 0.0076470375
0.19753921 -0.026922643 0.25633717
0.2071812 0.45445636 -0.04218483
0.2087862 0.24787736 -0.091897964
0.2099172 0.28730434 -0.12690592
0.21106021 0.32715037 -0.1622839
0.2045702 0.6093744 0.038635254
0.20436421 0.64152437 0.045017242
0.21158521 0.36042336 -0.17852974
0.20368421 -0.49738663 0.066083431
0.20238221 -0.42202169 0.10639238
0.2155322 -0.88236958 -0.30075359
0.21096021 -0.77335161 -0.15919971
0.2069262 -0.64019459 -0.034296989
0.20543221 -0.58186466 0.011955261
0.19910321 0.10881537 0.03148222
0.1936132 -0.14650863 0.20615816
0.2009552 0.17521638 -0.027461529
0.19277221 -0.066201627 0.23292923
0.20154721 0.45424736 -0.046293736
0.2007072 0.48794436 -0.019571781
0.1994192 0.56476235 0.02142334
0.1989602 0.60930139 0.036004066
0.19875321 0.64146835 0.042615414
0.2031462 0.40799835 -0.097167969
0.2093512 -0.88081568 -0.29463577
0.18771321 -0.10326564 0.21775818
0.19520721 0.17522836 -0.027518749
0.1871092 -0.065545619 0.23751211
0.1971772 0.24789834 -0.092012882
0.19380021 0.56466234 0.018536091
0.19824721 0.28732437 -0.12701988
0.19751321 0.40766037 -0.10299158
0.19099021 -0.42117268 0.11049747
0.1888202 -0.24731058 0.18153715
0.1883342 -0.18877161 0.19742537
0.17239121 0.08659339 0.54749918
0.1866242 0.067640364 0.067949295
0.1821212 -0.10296661 0.21967602
0.18841921 0.13574636 0.0074710846
0.18145521 -0.064890623 0.24208927
0.1805722 -0.024803638 0.27185631
0.19027521 0.45379835 -0.055069923
0.18943021 0.48762035 -0.026616573
0.1913732 0.24790734 -0.092069626
0.18751821 0.6413554 0.037807465
0.1864672 -0.49584359 0.073241234
0.18320021 -0.24699157 0.18329525
0.1827352 -0.18850464 0.19896746
0.1765272 -0.10264164 0.22177935
0.1827022 0.13575739 0.0074152946
0.17586121 -0.064484656 0.24487114
0.1749502 -0.024168611 0.27649832
0.1846282 0.45357338 -0.059468746
0.18379121 0.48744535 -0.030413628
0.1829742 0.5330714 -0.0020499229
0.1865772 0.28734237 -0.12713385
0.1875972 0.32718536 -0.16251373
0.18189521 0.64129835 0.035401344
0.18842621 0.35962436 -0.19132185
0.1908762 -0.8761856 -0.27637053
0.1775852 -0.2466746 0.18505144
0.17713921 -0.18823862 0.20050621
0.17698321 0.13576835 0.0073590279
0.17814821 0.48726338 -0.034329891
0.17976421 0.24792635 -0.092182636
0.18074121 0.28735137 -0.12718868
0.17647721 0.60900337 0.025465012
0.18055521 0.40664136 -0.1205287
0.1750102 -0.49482268 0.077999115
0.17154521 -0.18797261 0.20204639
0.1621222 0.030680358 0.34525347
0.1696302 0.067675352 0.067775249
0.1712662 0.13577938 0.0073032379
0.17221421 0.17527038 -0.027739525
0.1732942 0.22020638 -0.067617893
0.1712762 0.56425834 0.0069532394
0.17084621 0.60892838 0.022825241
0.1692892 -0.49431366 0.080375195
0.16690521 -0.30160469 0.1684823
0.1659552 -0.18770862 0.20358324
0.1719272 -0.63620061 -0.017116547
0.16396621 0.067686379 0.06771946
0.1649242 0.10888338 0.031136036
0.16010021 -0.14498365 0.21536303
0.15914521 -0.063460648 0.25184202
0.16751221 0.22021538 -0.067673683
0.16815621 0.24794334 -0.092294693
0.16604421 0.53269237 -0.011615753
0.16907321 0.28736639 -0.12730074
0.16257821 -0.41907364 0.12072706
0.16186321 -0.3627736 0.14804506
0.1607562 -0.24572963 0.19031525
0.1661132 -0.63554162 -0.014266968
0.1583032 0.067696393 0.067662239
0.1592292 0.10889339 0.031080246
0.15983321 0.13579839 0.0071964264
0.1607202 0.17528838 -0.027848721
0.1527482 -0.022689641 0.28708744
0.1619682 0.45266536 -0.077125549
0.1617302 0.22022337 -0.06772995
0.1603902 0.53256536 -0.014809608
0.1641352 0.32721436 -0.16273689
0.1593052 0.64112836 0.028058052
0.1648642 0.35965136 -0.19154692
0.16195621 -0.71293765 -0.076655865
0.1551542 -0.24541658 0.19206524
0.1547842 -0.18718165 0.20665836
0.1603042 -0.63488358 -0.011418819
0.1409982 0.086258352 0.54385424
0.1541152 0.13580739 0.007142067
0.1480222 -0.062782645 0.25647831
0.1555122 0.48653337 -0.05002594
0.15594621 0.22023135 -0.067784786
0.1582682 0.32722038 -0.16279364
0.1538672 0.60877436 0.01728344
0.1505852 -0.3620736 0.15159702
0.14955321 -0.24510461 0.19381523
0.1492022 -0.18692064 0.20819235
0.1544992 -0.63422865 -0.00857687
0.15346621 -0.5769406 0.033719063
0.13576421 0.08620137 0.54325104
0.14697421 0.067715347 0.067551136
0.1424672 -0.062445641 0.25879145
0.15059321 0.45220837 -0.085993767
0.1507452 0.2479654 -0.092460632
0.1490422 0.53235233 -0.020210743
0.1515702 0.28738737 -0.12746668
0.15213721 0.40483236 -0.15152597
0.14772521 0.69332039 0.035699368
0.16166221 -1.0290637 -0.55571175
0.15439621 -0.86882263 -0.24740362
0.14495221 -0.36172563 0.15337229
0.14442921 -0.30028361 0.17553616
0.1439572 -0.24479359 0.19556427
0.13456321 0.033213377 0.36486912
0.1369172 -0.062109649 0.2611022
0.1361282 -0.021474659 0.29588509
0.14411721 0.48625037 -0.056150913
0.14438321 0.22024536 -0.067894936
0.1433332 0.5322994 -0.021621704
0.1457362 0.28739434 -0.12752056
0.1425042 0.60871136 0.014919281
0.14636721 0.40461436 -0.15530491
0.1483542 -0.86767668 -0.24288368
0.1388192 -0.29995567 0.17729712
0.13836621 -0.24449164 0.19726133
0.1290732 0.033715367 0.36877346
0.1252922 0.086085379 0.54204035
0.1305992 -0.021071613 0.29881144
0.13911021 0.45194235 -0.091248989
0.1386022 0.22025239 -0.067948818
0.14130421 0.35967436 -0.19176483
0.14057121 0.40444836 -0.15820074
0.1342632 -0.41700763 0.13090706
0.13321221 -0.29962963 0.17905426
0.1397492 -0.76380163 -0.12049198
0.1385702 -0.71048564 -0.066494942
0.1235902 0.034216344 0.37266922
0.1206992 0.082341373 0.51066446
0.1299852 0.067739367 0.067387104
0.1263562 -0.099763632 0.24060726
0.1258302 -0.061439633 0.26571941
0.13335221 0.45183536 -0.093382835
0.13264421 0.48609638 -0.059575558
0.1319132 0.53218234 -0.024669647
0.13153321 0.56379735 -0.0064997673
0.1340702 0.28740537 -0.12763071
0.13481121 0.32724336 -0.16301298
0.1311332 0.60864735 0.012553215
0.1294072 -0.49119061 0.094979286
0.12861221 -0.41659766 0.13293743
0.14169021 -1.0123665 -0.4914217
0.1327782 -0.71033758 -0.065973759
0.1314352 -0.63264161 -0.0018615723
0.12505521 0.10894138 0.030755043
0.12553421 0.13584638 0.0068802834
0.1262372 0.17533338 -0.028164864
0.1202922 -0.061105609 0.2680254
0.12758921 0.45172736 -0.095517635
0.12703821 0.22026438 -0.068054676
0.1258312 0.56374937 -0.0079059601
0.12823521 0.28741038 -0.12768269
0.1289452 0.32724738 -0.16306591
0.12524021 0.64098334 0.021538258
0.1295242 0.35968336 -0.19187164
0.12375921 -0.49110764 0.095275402
0.13544421 -1.0111415 -0.48679876
0.13049521 -0.86693162 -0.24023962
0.1213392 -0.18562561 0.21585226
0.1257012 -0.63252264 -0.0014367104
0.1155802 -0.1430006 0.22758102
0.1140442 -0.019869626 0.30756712
0.1218242 0.45162037 -0.097655773
0.11935921 0.69324535 0.030730247
0.11577521 -0.18536961 0.21738005
0.1124292 0.032987356 0.098107338
0.11474521 0.17534536 -0.028266907
0.1092282 -0.060424626 0.27275324
0.1085372 -0.019471645 0.31047821
0.1154132 0.48586535 -0.064709663
0.11547621 0.22027439 -0.068160534
0.1144232 0.56365436 -0.010719776
0.1140622 0.60855037 0.0089941025
0.11387221 0.64093435 0.019366264
0.1173392 0.40378237 -0.16981792
0.1124702 -0.49094659 0.09586525
0.1230962 -1.0103357 -0.4839139
0.1186052 -0.86653966 -0.23887587
0.1154082 -0.70990461 -0.064422607
0.1104802 -0.24320763 0.20446634
0.1016732 0.036608338 0.39141512
0.1030352 -0.019074619 0.31338739
0.1090432 0.53194439 -0.030843735
0.11073621 0.28742337 -0.12784481
0.1113542 0.32726038 -0.1632247
0.10818621 0.64090937 0.018278122
0.11185721 0.35969436 -0.19202995
0.10800321 0.69321436 0.02874136
0.10616221 -0.41626865 0.13423443
0.1056962 -0.36020464 0.16090918
0.1052852 -0.29859966 0.1844492
0.10850821 -0.63217562 -0.0001745224
0.1077792 -0.57507759 0.04155302
0.1016682 0.067770362 0.067122459
0.098619208 -0.098198652 0.25100327
0.10267021 0.13586837 0.0066771507
0.10331821 0.53188336 -0.032390594
0.10118221 -0.49078864 0.09645319
0.1005502 -0.41619569 0.13452244
0.11075821 -1.0095427 -0.48105478
0.099719204 -0.29854065 0.1846962
0.1047272 -0.7629016 -0.11733675
0.10383221 -0.70962268 -0.063395977
0.099129207 -0.18487161 0.2202692
0.10277721 -0.63206261 0.00024223328
0.095521204 0.03300339 0.097951412
0.096580207 0.10896838 0.030504227
0.093419202 -0.14232463 0.23170328
0.092672206 -0.059487641 0.27926731
0.097294204 0.56350839 -0.014945984
0.0990692 0.28743035 -0.12794781
0.096806206 0.64085937 0.016102314
0.096639201 0.69318336 0.026750088
0.095539205 -0.49071163 0.096747398
0.098047204 -0.70948464 -0.062883854
0.093837202 -0.24305564 0.2051034
0.0963962 -0.57488865 0.042252064
0.089885205 0.033007383 0.097900391
0.090343207 0.067778349 0.06702137
0.091240205 0.13587636 0.0065770149
0.087189205 -0.059424639 0.27964211
0.092945203 0.45107538 -0.10836554
0.092399202 0.48555237 -0.071562767
0.091580205 0.56346035 -0.016355515
0.091275208 0.60841835 0.0042424202
0.094189204 0.35970336 -0.19218397
0.090955205 0.69316739 0.025754452
0.089333206 -0.41605264 0.13509703
0.088291205 -0.24300665 0.20531225
0.080050208 0.03754437 0.39857244
0.082095206 -0.098002613 0.25211906
0.081706204 -0.059361637 0.28001738
0.086639203 0.48547238 -0.07329464
0.086571202 0.22029239 -0.06841898
0.085864201 0.56341136 -0.017767906
0.087898202 0.32727137 -0.1634326
0.085573204 0.60838437 0.0030531883
0.088191204 0.40293837 -0.1843996
0.085270204 0.69315135 0.024757385
0.083027206 -0.29836863 0.1854353
0.082531206 -0.18473363 0.22090006
0.079497203 0.10897934 0.030358315
0.080269203 0.17536736 -0.028571606
0.075714201 -0.018232644 0.31934118
0.080791205 0.22029537 -0.068468571
0.081113204 0.24802035 -0.093090534
0.080400206 0.53164041 -0.038588524
0.082035206 0.32727337 -0.16348171
0.079870202 0.60835135 0.0018644333
0.078118205 -0.4159146 0.13567019
0.079870202 -0.63162369 0.0019030571
0.073355205 0.067787349 0.066870213
0.075009204 0.2202974 -0.068519592
0.074423201 0.56331235 -0.020591736
0.076522201 0.35970938 -0.19233656
0.073893204 0.69311935 0.022764206
0.077033207 -0.86522764 -0.23418188
0.071655206 -0.24286562 0.20594645
0.073638201 -0.57452768 0.043639183
0.063905202 0.037830353 0.40066004
0.067342207 0.033018351 0.097702026
0.065580204 -0.097846627 0.25299501
0.068378203 0.13588738 0.0063853264
0.064818203 -0.018103659 0.32018328
0.069777206 0.45063436 -0.11696577
0.069508202 0.24802339 -0.093192577
0.068924204 0.53151637 -0.041698933
0.069905207 0.28744137 -0.12820482
0.068196207 0.69311535 0.022451401
0.0669052 -0.41577965 0.13624239
0.071100205 -0.86504859 -0.23351955
0.068420202 -0.63141161 0.0027270317
0.067951202 -0.57444066 0.043984413
0.062030204 0.067791343 0.066777229
0.062413201 0.10898536 0.030215263
0.060290202 -0.14207262 0.23295546
0.060077205 -0.097795606 0.25328827
0.059781201 -0.059119642 0.28150511
0.063173205 0.53148937 -0.042406559
0.064072207 0.28744239 -0.12825394
0.062614202 0.64074236 0.011025429
0.064745203 0.35971138 -0.1924367
0.061300203 -0.41571361 0.13652706
0.065168202 -0.86486965 -0.23285961
0.060777202 -0.29815167 0.18641329
0.063920207 -0.76192564 -0.11373472
0.060568206 -0.24277467 0.20636606
0.062696204 -0.63130766 0.003139019
0.056368202 0.067792356 0.066730022
0.057668202 0.22030139 -0.068667889
0.057412207 0.53150535 -0.0420928
0.058580205 0.32727838 -0.16368198
0.058856204 0.35971236 -0.19248676
0.058885202 0.40229335 -0.19551897
0.061519206 -1.0064917 -0.46987295
0.057582207 -0.70864564 -0.05973053
0.054878205 -0.18451864 0.22194624
0.056974202 -0.63120562 0.0035471916
0.047773205 0.038105369 0.40270233
0.050436199 0.03302139 0.097557068
0.051539205 0.17537439 -0.028815746
0.048824199 -0.059002638 0.28224611
0.048482202 -0.017915606 0.32144022
0.051887199 0.22030139 -0.068715572
0.050423205 -0.49013466 0.099070072
0.055376202 -1.0061247 -0.46850491
0.049349204 -0.18447864 0.22215414
0.045329206 0.10898739 0.030077457
0.0435692 -0.097648621 0.25416136
0.046484202 0.45064238 -0.11702871
0.046105199 0.22030139 -0.06876564
0.046299204 0.24802536 -0.093391895
0.045891203 0.53153539 -0.041464806
0.045734204 0.56328738 -0.021548748
0.046852201 0.32727838 -0.16377974
0.0453832 0.69313139 0.023180485
0.049234204 -1.0057597 -0.46714067
0.047379203 -0.86434764 -0.23089981
0.044280201 -0.35957164 0.16360426
0.044095203 -0.29799861 0.18714237
0.046447203 -0.76153165 -0.11221981
0.043939203 -0.24264568 0.20699644
0.045209199 -0.57410365 0.045357227
0.0370242 0.038284361 0.40405512
0.0393802 0.067793369 0.066594124
0.039635204 0.10898739 0.030032158
0.0400462 0.17537338 -0.028912544
0.0378692 -0.058889627 0.28298426
0.040393203 0.48523837 -0.078620911
0.040325202 0.22030038 -0.068813801
0.039841205 0.60832137 0.00046443939
0.041193202 0.40244237 -0.19318676
0.039681204 0.69313538 0.023361206
0.039149202 -0.49000162 0.099645138
0.0430962 -1.0053988 -0.46578598
0.041452199 -0.86417669 -0.23025179
0.039811201 -0.63090664 0.0047683716
0.031651199 0.038373351 0.40472937
0.0337172 0.067792356 0.066550255
0.034087203 0.13588935 0.0061044693
0.034301199 0.17537236 -0.028959751
0.034695201 0.24802434 -0.09348774
0.034909204 0.28744137 -0.12849998
0.035125203 0.32727736 -0.16387558
0.035299204 0.40249038 -0.19240952
0.033513203 -0.48993665 0.09993124
0.036961205 -1.0050397 -0.46443653
0.035526201 -0.86400861 -0.22960567
0.034803204 -0.76127666 -0.11121559
0.032857202 -0.24256366 0.20741415
0.032763205 -0.18436164 0.22278023
0.034092203 -0.63080961 0.0051722527
0.0280552 0.067791343 0.066505432
0.026918201 -0.058778644 0.28371906
0.0285122 0.56332237 -0.020710945
0.030828202 -1.0046837 -0.46309185
0.029602202 -0.86384267 -0.22896385
0.027543204 -0.35941869 0.16433239
0.027420202 -0.2978546 0.18786335
0.028983204 -0.76115161 -0.11071873
0.027316203 -0.24252468 0.20762348
0.027236203 -0.18432361 0.22298622
0.020909201 0.038547397 0.40607309
0.021658203 -0.14181161 0.23440838
0.021567201 -0.097463608 0.25531912
0.022808202 0.17536938 -0.029052734
0.021442203 -0.058724642 0.28408623
0.022982202 0.22029638 -0.068956852
0.023089202 0.24802136 -0.093583584
0.022857202 0.53159338 -0.040211678
0.022770202 0.56333435 -0.020431519
0.023397202 0.32727537 -0.1639719
0.022627203 0.64078534 0.012451172
0.023514202 0.40258735 -0.19085598
0.022077203 -0.41528064 0.13850737
0.021963201 -0.35936958 0.16457319
0.022931201 -0.70802361 -0.057257652
0.021774203 -0.24248558 0.20783138
0.022477202 -0.5737856 0.04671526
0.016142203 -0.14177763 0.23461246
0.016068202 -0.09741962 0.25560713
0.016956203 0.60835236 0.0013742447
0.016877202 0.6931504 0.024085045
0.016385201 -0.35932165 0.16481543
0.017159203 -0.70792562 -0.05685091
0.016234202 -0.24244767 0.20804024
0.016181203 -0.18425161 0.22340107
0.010986201 0.033010364 0.097239017
0.010570202 -0.097375631 0.25589705
0.011317203 0.17536438 -0.029144764
0.010391202 -0.017502606 0.32434607
0.011441203 0.48534036 -0.076653957
0.011485202 0.24801636 -0.093678951
0.011292202 0.5633564 -0.019873619
0.011207202 0.64079738 0.012858391
0.011177203 0.69315338 0.024266243
0.010808202 -0.35927469 0.16505527
0.011388201 -0.70782858 -0.056443691
0.010695202 -0.24240965 0.20824909
0.011116203 -0.57363468 0.04738903
0.0051112026 -0.1418246 0.23426533
0.0050752023 -0.097542644 0.25471926
0.0055102026 0.13587737 0.005877018
0.0050262017 -0.058849633 0.28313112
0.0049572019 -0.017758608 0.32240248
0.0057192026 0.45082036 -0.11387587
0.0056532025 0.48535937 -0.076259613
0.005554202 0.56336635 -0.019595623
0.0058062021 0.32726938 -0.16411161
0.0055172024 0.60836637 0.00182724
0.005856202 0.35970336 -0.19291496
0.0054772021 0.69315737 0.024446011
0.0053432025 -0.48962861 0.10135508
0.0059152022 -0.8631956 -0.22642183
0.0051562022 -0.24237365 0.20845604
0.0051302025 -0.18423164 0.22349739
-0.00055179792 0.038082361 0.4022851
-0.000257798 0.067776382 0.066292286
-0.00017479761 0.17535734 -0.02923584
-0.00044579804 -0.059095621 0.28133917
-0.00047979783 -0.018021643 0.32040548
-0.00013979804 0.22028536 -0.069142818
-0.00011879764 0.2480104 -0.09376955
-0.00020179804 0.6083734 0.0020551682
-3.1797681e-05 0.35970137 -0.19295883
-0.00010579778 -0.76055068 -0.10825062
-0.00020679785 -0.63025767 0.0075712204
-0.0059227976 0.22028238 -0.069188595
-0.0059227976 0.40282238 -0.18699265
-0.0059227976 0.69316339 0.024806023
-0.0059227976 -1.0042336 -0.4614439
-0.0059227976 -0.86288458 -0.22516489
-0.0059227976 -0.63017064 0.0079660416
-0.0059227976 -0.57341665 0.04839325
-0.011740798 0.45089337 -0.11252165
-0.011724798 0.24800336 -0.093859673
-0.011675797 0.53167337 -0.038339615
-0.011620797 0.69316638 0.024986267
-0.011841798 -0.86351961 -0.22774267
-0.011500798 -0.35963768 0.16304445
-0.011737797 -0.76078767 -0.10925865
-0.011691798 -0.7078256 -0.056450844
-0.011450797 -0.18474764 0.22019529
-0.011636797 -0.63050061 0.0064630508
-0.016961798 -0.14248365 0.22987223
-0.016881797 -0.059838653 0.2759552
-0.017558798 0.45091736 -0.11207151
-0.017483797 0.22027338 -0.069278717
-0.017429799 0.53168637 -0.03802681
-0.017395798 0.56340837 -0.01847887
-0.017649798 0.32725537 -0.16429567
-0.017358799 0.60839438 0.0027360916
-0.017338797 0.64082336 0.013876438
-0.017686799 0.40289935 -0.18568373
-0.017318798 0.69316936 0.025167465
-0.017190799 -0.49019367 0.09854126
-0.017080799 -0.35986966 0.16178322
-0.017464798 -0.7082836 -0.058444977
-0.022063797 0.036499381 0.3896203
-0.023005798 0.10895038 0.029554367
-0.022435797 -0.098592639 0.24740934
-0.023264797 0.22026837 -0.069322586
-0.023130799 0.56341738 -0.018199921
-0.023562798 0.40305036 -0.18315077
-0.023016797 0.69317234 0.025347233
-0.023695799 -0.86501867 -0.23381186
-0.022663798 -0.36010164 0.16052341
-0.023241797 -0.70874363 -0.06044054
-0.022969797 -0.57447368 0.043429375
-0.027456798 0.036100388 0.38644123
-0.028466798 0.032974362 0.096956253
-0.027946798 -0.098805606 0.24594212
-0.028785799 0.13584739 0.0056171417
-0.027854798 -0.060338616 0.27235842
-0.027721798 -0.019349635 0.31039429
-0.029050797 0.48564336 -0.0703578
-0.029255798 0.28740937 -0.12900352
-0.029429797 0.40330738 -0.17884493
-0.028471798 -0.49078161 0.095638275
-0.028169798 -0.29882461 0.18221903
-0.028659798 -0.57483369 0.041750431
-0.034237798 0.067742348 0.066049099
-0.034397796 0.10893738 0.029470444
-0.034654796 0.17532736 -0.029497623
-0.033345796 -0.060590625 0.2705574
-0.033180796 -0.019617617 0.30838728
-0.034976795 0.45138237 -0.10327578
-0.034828797 0.22025639 -0.069411755
-0.034936801 0.2479834 -0.094033718
-0.034668796 0.53190434 -0.032750607
-0.034588799 0.56355834 -0.014353752
-0.034503795 0.60846734 0.0052132607
-0.034458797 0.64086038 0.015392303
-0.035287797 0.40356338 -0.1745429
-0.0341148 -0.4910776 0.09418726
-0.033951797 -0.41659468 0.13160706
-0.035572797 -0.86652762 -0.23990297
-0.033648796 -0.24361461 0.2009964
-0.034531798 -0.63223261 -0.0013737679
-0.034350798 -0.57519466 0.040070057
-0.038256794 0.035299361 0.38006926
-0.038973801 -0.099232614 0.24300814
-0.038838796 -0.060818613 0.26892805
-0.038642801 -0.019886613 0.30637741
-0.040922798 0.28739834 -0.12909079
-0.040157795 0.64089739 0.016896248
-0.041258797 0.35967538 -0.19326353
-0.0411378 0.40381837 -0.17024994
-0.0428828 -1.0150898 -0.50342464
-0.039425798 -0.36080462 0.15673304
-0.040597796 -0.71029764 -0.067160606
-0.040263794 -0.63266963 -0.0033397675
-0.045375794 0.032951355 0.096842289
-0.045787796 0.10892236 0.029389381
-0.045933798 0.13582635 0.0054912567
-0.046351798 0.48599538 -0.063008785
-0.046541795 0.24797136 -0.094120979
-0.046030797 0.56370234 -0.010382652
-0.046755798 0.28739238 -0.12913465
-0.045854799 0.64093435 0.018398285
-0.045795798 0.69321638 0.028023243
-0.047469795 -0.86804658 -0.24601269
-0.0463918 -0.71084768 -0.069527626
-0.044752799 -0.2439906 0.19877625
-0.045742795 -0.57592064 0.036704063
-0.0490788 0.034493387 0.37367916
-0.047877796 0.086677372 0.54570103
-0.051227801 0.067718387 0.065933228
-0.051482797 0.10891438 0.029349327
-0.049576797 -0.020427644 0.30235004
-0.051870801 0.5321734 -0.02616787
-0.051548801 0.64097136 0.019900322
-0.050798796 -0.41743368 0.12729311
-0.057367794 0.13581038 0.0054101944
-0.055335797 -0.061502635 0.26407528
-0.057866797 0.48622736 -0.058120728
-0.0579568 0.22022939 -0.069577694
-0.057241797 0.64100838 0.021400452
-0.057168797 0.69326234 0.03074646
-0.056719795 -0.49236161 0.087928295
-0.056421801 -0.41771561 0.12585306
-0.056208797 -0.36151665 0.15293503
-0.058200799 0.088962376 0.56487703
-0.062555797 0.067699373 0.065860271
-0.0608408 -0.06173265 0.26245403
-0.060527802 -0.02097261 0.29831409
-0.063953795 0.24794936 -0.094244957
-0.064258799 0.28737235 -0.12926054
-0.067994796 -1.0290356 -0.55730677
-0.061807796 -0.36175662 0.15166712
-0.061606795 -0.30016667 0.17468119
-0.064272799 -0.76593262 -0.1308918
-0.065342799 0.033465385 0.36558342
-0.068219796 0.067689359 0.065823078
-0.0663478 -0.061963618 0.26083231
-0.069671795 0.45232037 -0.085428715
-0.069362797 0.48645836 -0.053240776
-0.0688788 0.56397337 -0.0028567314
-0.070092797 0.28736538 -0.12930155
-0.070280798 0.40508336 -0.14886951
-0.067671798 -0.41828364 0.1229682
-0.067186795 -0.30039364 0.17342424
-0.070131794 -0.7665146 -0.13331175
-0.0668438 -0.18652064 0.20914316
-0.070771798 0.033127367 0.36292648
-0.069735795 0.076619387 0.46186924
-0.073883794 0.067678392 0.065783024
-0.072280794 -0.14418763 0.21884727
-0.074884795 0.17527038 -0.029788971
-0.071490794 -0.021520615 0.29427242
-0.075438797 0.45246336 -0.082689762
-0.075560793 0.24793339 -0.094327927
-0.074583799 0.5640384 -0.0010485649
-0.074301794 0.64111835 0.02589941
-0.077309795 -0.87188858 -0.26137686
-0.073010795 -0.36223859 0.14913034
-0.072551794 -0.24498957 0.19296026
-0.076224796 0.03260839 0.35883045
-0.079549797 0.067667365 0.065747261
-0.077824794 -0.14436263 0.21774006
-0.080633797 0.17526037 -0.029827595
-0.080843799 0.48668838 -0.048367977
-0.0810868 0.22019535 -0.069738865
-0.081365794 0.24792439 -0.094368935
-0.080476798 0.53258634 -0.015985966
-0.080286793 0.56410336 0.00076007843
-0.081762798 0.28734934 -0.12938356
-0.079884797 0.69335234 0.036185265
-0.081245795 -0.71418566 -0.083805561
-0.077947795 -0.18688661 0.20692444
-0.080489799 -0.63577563 -0.017163754
-0.079993799 -0.57813364 0.026565075
-0.085952796 0.13576037 0.005215168
-0.086577795 0.48680335 -0.045933723
-0.086187795 0.53266633 -0.013998985
-0.087597795 0.28734136 -0.12942362
-0.085663795 0.64119035 0.028894424
-0.088381797 0.35962537 -0.19360876
-0.093496799 -1.0432787 -0.6122489
-0.087069795 -0.71474963 -0.086197853
-0.083689794 -0.24542469 0.19045305
-0.083501793 -0.18707061 0.20581436
-0.086250797 -0.63622564 -0.01914978
-0.091356799 0.10884237 0.029077053
-0.088063799 -0.023343623 0.28067017
-0.092712797 0.45288935 -0.074484825
-0.092973799 0.24790639 -0.094448566
-0.093432799 0.28733236 -0.12946463
-0.091453798 0.60894936 0.021687031
-0.093487799 0.40597737 -0.1336689
-0.090717793 -0.49443763 0.077941418
-0.099934794 -1.0468857 -0.62614965
-0.093609795 -0.76886064 -0.14302874
-0.089260794 -0.24564368 0.18920135
-0.091522798 0.072192371 0.42514324
-0.094347797 -0.10220462 0.22281742
-0.094034798 -0.064160645 0.24521732
-0.098032795 0.48703036 -0.041072845
-0.098434798 0.22016537 -0.06985569
-0.098778799 0.24789637 -0.094487667
-0.097372793 0.56429434 0.0061721802
-0.097013794 0.64126235 0.031887054
-0.1001638 0.35960937 -0.19369555
-0.0963948 -0.49478859 0.076272011
-0.095842794 -0.41972369 0.11573315
-0.1012908 -0.87516266 -0.27438164
-0.095447794 -0.36321658 0.1440444
-0.095125794 -0.30154461 0.16711426
-0.098729797 -0.71588165 -0.09098959
-0.097781792 -0.63713068 -0.023123741
-0.097159795 -0.57925862 0.021473408
-0.10220779 0.067617357 0.065603256
-0.10275079 0.10881734 0.029004097
-0.1000668 -0.14558661 0.20987225
-0.10510279 0.28731334 -0.12954092
-0.1060548 0.35960037 -0.19373989
-0.1020738 -0.49514061 0.07460022
-0.1014858 -0.42001468 0.11428308
-0.10288779 -0.57963663 0.019774437
-0.10256679 0.069570363 0.40339947
-0.1078738 0.06760335 0.065567017
-0.10986879 0.45357236 -0.061420918
-0.11000279 0.22014338 -0.069932938
-0.1087508 0.56442136 0.0097770691
-0.1084858 0.60909039 0.026610374
-0.1083568 0.64133334 0.034876347
-0.1077588 -0.49549359 0.072927475
-0.1133428 -0.87720865 -0.28251696
-0.10631879 -0.30201167 0.16458511
-0.10599279 -0.24632567 0.18531132
-0.11353979 0.067589343 0.065531254
-0.1112278 -0.14635366 0.20493031
-0.11074679 -0.065749645 0.23395443
-0.1102498 -0.025604606 0.26389408
-0.1150988 0.48762637 -0.028501987
-0.1157868 0.22013235 -0.069970608
-0.11443079 0.56449234 0.011800289
-0.1167758 0.28729337 -0.12961674
-0.1141578 0.60913736 0.028251171
-0.1123068 -0.36402267 0.13988209
-0.1171598 -0.77124065 -0.15280056
-0.1143548 -0.58039767 0.016365051
-0.11681379 -0.14673865 0.20245647
-0.11665779 -0.10388964 0.21141815
-0.1202608 0.13568538 0.004992485
-0.12087379 0.17518038 -0.030090809
-0.1158158 -0.026173651 0.25968504
-0.1200818 0.5646174 0.015261173
-0.1232288 0.32713136 -0.16503572
-0.11982679 0.60918337 0.029889107
-0.1196868 0.64140439 0.037864208
-0.12212279 0.40786636 -0.10164165
-0.1179318 -0.36430162 0.13844204
-0.1230578 -0.77184063 -0.15525198
-0.1172118 -0.24728864 0.17966843
-0.1169688 -0.18905663 0.19360638
-0.11919379 0.066162348 0.37521219
-0.1224048 -0.14712465 0.19998121
-0.1222408 -0.10425764 0.20895004
-0.12138779 -0.02674365 0.25546646
-0.1269038 0.45440537 -0.045476913
-0.1257268 0.56474137 0.018719196
-0.12945481 0.36017537 -0.18466473
-0.1240828 -0.42119259 0.10846949
-0.1314728 -0.88030261 -0.29478073
-0.1279588 -0.71874565 -0.10302877
-0.1228288 -0.24777168 0.17684221
-0.1225678 -0.18946064 0.19112539
-0.12800179 -0.14751166 0.19750309
-0.12782981 -0.10462761 0.20647812
-0.1269698 -0.027315617 0.25124216
-0.1313688 0.5648644 0.022176266
-0.1310098 0.64147437 0.040850163
-0.1335018 0.40861538 -0.088898659
-0.1375338 -0.88134068 -0.29888773
-0.13381879 -0.71932358 -0.10544491
-0.12845279 -0.24825662 0.17401314
-0.13246879 -0.6398856 -0.03511095
-0.1362038 0.06752634 0.065398216
-0.1369388 0.10873139 0.028794289
-0.1336018 -0.14790064 0.19502306
-0.13310179 -0.067735612 0.21995735
-0.13892479 0.22008139 -0.07011795
-0.1407588 0.36169338 -0.16148281
-0.13541479 -0.42194468 0.10473347
-0.1348878 -0.36572164 0.13097715
-0.1396818 -0.7199046 -0.10786676
-0.13732579 -0.58193463 0.0095334053
-0.13589279 0.063195348 0.3507452
-0.1438728 0.17512435 -0.030230522
-0.13870279 -0.068217635 0.21657515
-0.14389279 0.45515037 -0.031160831
-0.14339079 0.48862937 -0.0072116852
-0.1447088 0.2200684 -0.07015276
-0.1459588 0.28723735 -0.12979889
-0.1423828 0.60950339 0.040929317
-0.14226979 0.64160633 0.046301365
-0.1463898 0.36242038 -0.15038252
-0.14669779 -0.77425963 -0.16509151
-0.14267379 0.023658395 0.28820848
-0.14146879 0.062306345 0.34343624
-0.1488578 0.13561034 0.0048193932
-0.1496228 0.17510939 -0.030266762
-0.1437508 -0.028999627 0.23884106
-0.15103179 0.24778938 -0.09482193
-0.15179579 0.28722435 -0.12983465
-0.1504958 0.40970936 -0.070264816
-0.1468218 -0.42324668 0.09813118
-0.1453518 -0.24971765 0.16550827
-0.1488298 -0.58271259 0.006105423
-0.15022479 -0.10611463 0.19657516
-0.15457779 0.13559437 0.0047860146
-0.1562798 0.22003937 -0.070223808
-0.15683879 0.24777538 -0.094857693
-0.15413579 0.53420836 0.024245262
-0.1538748 0.56534839 0.035763264
-0.1576328 0.28721136 -0.12987089
-0.1535188 0.64173037 0.051435471
-0.15672879 0.36639836 -0.090002537
-0.15613979 0.41007137 -0.064079762
-0.15342979 -0.49919766 0.055354118
-0.1525338 -0.42389959 0.094825268
-0.1519368 -0.36757869 0.12115431
-0.15099479 -0.2502076 0.16266823
-0.15567179 -0.64182264 -0.043453693
-0.15461579 -0.58338159 0.0030741692
-0.1597358 0.10866439 0.028661251
-0.1626468 0.24776137 -0.094891548
-0.1634728 0.28719836 -0.12990665
-0.16430679 0.32705137 -0.16531372
-0.15924579 0.60974836 0.049434185
-0.1591388 0.64179134 0.053999424
-0.1617758 0.41043237 -0.057905674
-0.1570798 -0.30620962 0.14136124
-0.16454279 -0.77676362 -0.17534685
-0.15625879 -0.19190764 0.17618227
-0.16043779 -0.58430368 -0.0011386871
-0.1596458 0.020775378 0.26550007
-0.1645398 0.067436397 0.065240383
-0.1616718 -0.14985764 0.18259144
-0.1660188 0.13556039 0.0047230721
-0.16687679 0.17506135 -0.030365944
-0.1658968 0.48942336 0.0097222328
-0.1653738 0.53448439 0.031139374
-0.17017579 0.32703838 -0.16534853
-0.1680948 0.36702836 -0.080196857
-0.16741079 0.41076437 -0.052222729
-0.1627498 -0.30672961 0.13849926
-0.16188979 -0.19231963 0.17368317
-0.1711348 0.10862738 0.028597355
-0.1717398 0.13554239 0.0046892166
-0.1663768 -0.032016635 0.2165451
-0.17150679 0.48961836 0.013883114
-0.17363879 0.21999335 -0.070324898
-0.1751488 0.28717035 -0.1299777
-0.1737788 0.36730736 -0.07583952
-0.1729998 0.41118336 -0.045082569
-0.1697098 -0.4258706 0.084881306
-0.1684258 -0.30725068 0.13563347
-0.17519179 -0.72554058 -0.13168192
-0.1679568 -0.25168568 0.15412617
-0.17271879 -0.10774761 0.18573713
-0.17746079 0.13552338 0.0046582222
-0.17837979 0.17502737 -0.030430794
-0.17631979 0.56578934 0.048250198
-0.18191479 0.32701236 -0.1654129
-0.17362179 -0.25218064 0.15127325
-0.1731658 -0.19314665 0.16867924
-0.17797479 -0.58732361 -0.014953613
-0.1756728 0.054878354 0.28220034
-0.1688278 0.12086838 0.53514147
-0.1825368 0.10858935 0.028537273
-0.1783908 -0.10833961 0.18175745
-0.18318379 0.13550538 0.0046281815
-0.1841328 0.17500937 -0.030463696
-0.1821868 0.53489536 0.041454315
-0.18682779 0.28714138 -0.13004875
-0.1851818 0.36772436 -0.069230556
-0.1811918 -0.42719263 0.078231335
-0.1934838 -0.90064162 -0.37602997
-0.1804758 -0.37070769 0.10470343
-0.17979379 -0.30829757 0.12989235
-0.1871838 -0.72825259 -0.14321756
-0.1851168 -0.64710563 -0.066816807
-0.1838388 -0.58833665 -0.019574642
-0.18351279 -0.034575641 0.19763422
-0.1886958 0.45739537 0.012095451
-0.19100079 0.21994436 -0.070422649
-0.1875118 0.56600738 0.054477215
-0.18716779 0.6420964 0.06678915
-0.19089679 0.36788237 -0.066697598
-0.1881368 -0.50403565 0.032121181
-0.19319579 -0.72961468 -0.14900398
-0.1849678 -0.25317568 0.14555836
-0.1882458 0.015762389 0.22608328
-0.19393779 0.10854936 0.028478146
-0.18989779 -0.15204561 0.16874933
-0.1897528 -0.10952765 0.17378426
-0.19563779 0.17497236 -0.030526638
-0.19378179 0.49055636 0.033898354
-0.1930998 0.56611633 0.057586193
-0.19832979 0.32993236 -0.12397289
-0.1927608 0.64215636 0.069342136
-0.1963678 0.36858836 -0.055863857
-0.1950438 0.41325036 -0.0099067688
-0.1939458 -0.50484961 0.028231144
-0.19118279 -0.30934864 0.12414122
-0.20104879 -0.78709966 -0.21837091
-0.1992178 -0.73098058 -0.15479994
-0.1939918 0.014825344 0.21873808
-0.19544479 -0.11012465 0.16978931
-0.20034879 0.13544637 0.0045380592
-0.2013908 0.17495334 -0.030555725
-0.1989028 0.53536737 0.053268433
-0.19845879 -0.42918962 0.068228245
-0.1968848 -0.30987757 0.12126017
-0.2052508 -0.73235065 -0.16060877
-0.19873479 0.050307393 0.24466228
-0.1967838 0.095002353 0.30850029
-0.2012988 -0.15329665 0.16074228
-0.20101379 -0.074853659 0.17004108
-0.20069079 -0.036888659 0.18062925
-0.2048118 0.49111336 0.045739174
-0.2091168 0.24763435 -0.095150948
-0.2042608 0.56633335 0.06379509
-0.21018679 0.28707838 -0.13019085
-0.20727679 0.36995035 -0.034939766
-0.20558479 -0.50648361 0.020432472
-0.2190568 -0.91176265 -0.42049456
-0.2133368 -0.79069167 -0.23329067
-0.2088258 -0.65138465 -0.085647583
-0.2055258 0.01294136 0.20398903
-0.2045188 0.049256384 0.2360611
-0.20685279 -0.11132264 0.16178226
-0.2067188 -0.075429618 0.16604137
-0.2107178 0.45878237 0.038790226
-0.21492779 0.24761635 -0.095181942
-0.20979479 0.56648839 0.068173409
-0.21430479 0.33336237 -0.07533884
-0.20958979 0.61046839 0.074675083
-0.2127078 0.37062737 -0.024532795
-0.2173508 -0.73510259 -0.17226458
-0.21128279 0.012112379 0.19752502
-0.21033679 0.048128366 0.22681236
-0.20852679 0.092042387 0.28284407
-0.21256679 -0.11192364 0.15777206
-0.21621379 0.45909637 0.044869423
-0.21994279 0.21985334 -0.07057476
-0.2207388 0.24759835 -0.095214844
-0.2153078 0.56665736 0.072910309
-0.22187079 0.28704435 -0.13025475
-0.2196828 0.33426237 -0.062526703
-0.21815179 0.37123635 -0.015144825
-0.2323868 -0.92056459 -0.45585299
-0.2140258 -0.31146961 0.11259937
-0.22341579 -0.73648459 -0.17810965
-0.22073479 -0.65354258 -0.095113754
-0.2171008 0.011096358 0.18957233
-0.22244979 0.10843939 0.028339386
-0.21828879 -0.11252564 0.1537571
-0.22440679 0.17487335 -0.030674934
-0.2181478 -0.076584637 0.15802526
-0.22097179 0.53615439 0.072888374
-0.2277118 0.28702736 -0.13028479
-0.2250398 0.33515936 -0.049757957
-0.22074379 0.61061037 0.079766273
-0.22157079 -0.4318766 0.054831028
-0.2391028 -0.92500359 -0.47367668
-0.21975079 -0.31200367 0.1097064
-0.23187579 -0.79612261 -0.25581598
-0.2267018 -0.65462464 -0.099856853
-0.2251188 -0.59549958 -0.052136898
-0.2230078 0.0098033547 0.17940426
-0.2281528 0.10841638 0.02831316
-0.2240188 -0.11312962 0.1497364
-0.2289668 0.13533837 0.0043983459
-0.2301618 0.17485237 -0.030702591
-0.2238728 -0.07716465 0.1540103
-0.22895379 -0.50977868 0.0047683716
-0.22645479 -0.37579864 0.078175068
-0.2380828 -0.79794568 -0.26336288
-0.23557979 -0.73926061 -0.18983698
-0.22491279 -0.25702459 0.12348032
-0.22441879 -0.1981886 0.13796902
-0.2326778 -0.65571064 -0.10460854
-0.23105079 -0.59653467 -0.056820869
-0.2338578 0.10839236 0.028286457
-0.2299348 -0.15645164 0.14062834
-0.2346928 0.13531536 0.0043702126
-0.23591879 0.17483038 -0.030729771
-0.23229079 0.49239537 0.073159218
-0.23182079 0.61080539 0.086607456
-0.23421079 0.37340137 0.018155098
-0.2322318 -0.37644261 0.074840069
-0.2416798 -0.74065357 -0.19571781
-0.2301898 -0.19894558 0.13332319
-0.2342338 0.042081356 0.17708111
-0.2355018 -0.11434162 0.14167643
-0.2404168 0.13529235 0.0043444633
-0.2416738 0.17480838 -0.03075695
-0.23534779 -0.078328609 0.14596224
-0.23812279 0.46031135 0.068435192
-0.24398479 0.24752235 -0.09533596
-0.2373538 0.5672574 0.089942455
-0.24352379 0.29069537 -0.082441807
-0.2387338 0.41682938 0.05137825
-0.24068379 -0.51143962 -0.0030989647
-0.2446848 -0.65805358 -0.11487579
-0.24018179 0.040835381 0.16688442
-0.2414408 -0.15772462 0.13254547
-0.2474298 0.17478538 -0.030784607
-0.2410588 -0.04204464 0.14295101
-0.2435758 0.46061236 0.074301243
-0.2432328 0.49288335 0.083662033
-0.2447388 0.37499237 0.042590141
-0.2440518 0.41741237 0.061319351
-0.2465588 -0.51227266 -0.0070409775
-0.2438018 -0.37773567 0.068159103
-0.24279779 -0.31459767 0.095540047
-0.2422868 -0.2594406 0.10946226
-0.2417528 -0.20046562 0.12401533
-0.25072381 -0.65936261 -0.12062883
-0.24513079 0.080628395 0.18373537
-0.2518678 0.13524437 0.0042920113
-0.25318581 0.17476237 -0.030810833
-0.2486918 0.49312738 0.088901043
-0.25468481 0.21973139 -0.070747852
-0.25561079 0.24748135 -0.095398903
-0.2486468 -0.31558067 0.09008646
-0.26305681 -0.80529362 -0.2937479
-0.2480958 -0.26024967 0.10477543
-0.2526378 0.003913343 0.13326025
-0.25213382 0.038330376 0.14638424
-0.2527808 -0.11617261 0.12954712
-0.25759381 0.1352194 0.0042662621
-0.25264981 -0.080208659 0.13296127
-0.2538788 0.53727233 0.10095835
-0.25384581 0.61124039 0.10182714
-0.25466681 0.41853237 0.080465317
-0.25833181 -0.51394659 -0.014940739
-0.25645682 -0.43610162 0.033865452
-0.26933581 -0.80714566 -0.3013916
-0.26626781 -0.74676865 -0.22153997
-0.2608448 -0.6017496 -0.080357552
-0.25859782 0.0027873516 0.12446308
-0.2572318 0.07779038 0.15923834
-0.25972182 0.46172836 0.095867157
-0.2662698 0.21968734 -0.070804596
-0.2592898 0.56785035 0.10684443
-0.2626988 0.29858935 0.020081043
-0.26118681 0.34277937 0.058563232
-0.2599898 0.41903237 0.089037418
-0.26037881 -0.31755263 0.079149246
-0.2756308 -0.8090046 -0.30905962
-0.25916681 -0.20275968 0.10999632
-0.26683182 -0.60280067 -0.08508873
-0.26448381 0.0019353628 0.11786509
-0.26410481 0.035989344 0.12728739
-0.26455882 -0.16033763 0.11599445
-0.26434082 -0.11739963 0.12143326
-0.2643418 -0.081867635 0.12138748
-0.2644048 -0.045215607 0.11983824
-0.26482382 0.5376054 0.10939932
-0.26743582 0.30045736 0.044369221
-0.2663978 0.34359238 0.070195198
-0.27172381 0.60626835 -0.062401772
-0.26529881 0.41953036 0.097581387
-0.27013582 -0.51562864 -0.022864819
-0.2819398 -0.81086963 -0.31674576
-0.2655758 -0.2626906 0.090668201
-0.2649878 -0.20352858 0.1053071
-0.27499181 -0.66463667 -0.14375687
-0.27034882 0.0011813641 0.11205721
-0.26984382 0.073768377 0.1243701
-0.2690618 0.12053937 0.1434083
-0.27014282 -0.11805761 0.11708117
-0.27621582 0.17466635 -0.03091383
-0.27039981 0.46250138 0.11082125
-0.2703788 0.49416935 0.1113224
-0.2702848 0.53777134 0.11360836
-0.27023682 0.56812739 0.11478233
-0.2715278 0.34451336 0.0833354
-0.27737582 0.60635835 -0.05917263
-0.27059382 0.42002636 0.10609627
-0.27316582 -0.38245159 0.043419361
-0.27141982 -0.26350862 0.085950375
-0.2708188 -0.20429963 0.10061121
-0.2788288 -0.60491258 -0.094575882
-0.27622482 0.00042533875 0.10623837
-0.27617481 0.071814358 0.10744238
-0.27620882 -0.1618126 0.10663033
-0.2624588 0.17920738 0.43468809
-0.28197482 0.17464137 -0.030937672
-0.27614182 -0.046813607 0.10821819
-0.27772081 0.26132435 0.070547104
-0.27573982 0.53793633 0.11780834
-0.2764478 0.34575137 0.10092735
-0.28302881 0.60644436 -0.056107521
-0.27625081 0.37907538 0.10561514
-0.2820138 -0.51753467 -0.031878948
-0.29483581 -0.81593961 -0.33780098
-0.29122281 -0.7538746 -0.25159788
-0.27665782 -0.20507163 0.095911026
-0.28719082 -0.66729659 -0.15539169
-0.28484082 -0.60597259 -0.099332809
-0.28204882 -0.16255265 0.10193634
-0.28189781 -0.11979461 0.10544825
-0.26699781 0.18113035 0.45369434
-0.2758418 0.20126438 0.2469964
-0.28104281 0.46325436 0.1254282
-0.28221381 0.26361638 0.098076344
-0.28159481 0.30569637 0.11253309
-0.2887148 0.60650438 -0.053876877
-0.2811698 0.42097837 0.12246323
-0.28502682 -0.38456565 0.032314301
-0.28396481 -0.32153064 0.057153225
-0.29756182 -0.7560026 -0.26063156
-0.28313681 -0.26514965 0.076494217
-0.28250781 -0.20584661 0.091199398
-0.29330882 -0.66863269 -0.16122866
-0.28840682 0.030874372 0.085537434
-0.2878958 -0.16329461 0.097234249
-0.2878578 -0.085209608 0.098109245
-0.2863788 0.46359137 0.13197613
-0.28642082 0.49508837 0.13101149
-0.2943958 0.60656339 -0.051653862
-0.29548782 0.63837737 -0.076644897
-0.2865698 0.38049936 0.12759733
-0.28646982 0.42140737 0.1298852
-0.2922098 -0.44311863 -0.0015678406
-0.2909728 -0.38562661 0.026747227
-0.30885881 -0.82667369 -0.38290071
-0.29441983 0.029884338 0.077524185
-0.2949298 0.067020357 0.066077232
-0.29369581 -0.12154162 0.093773365
-0.28304181 0.20946437 0.3330102
-0.29170382 0.46392637 0.13851213
-0.3001028 0.60660338 -0.050073624
-0.29163882 0.38130137 0.13996124
-0.29823682 -0.44442564 -0.0081715584
-0.3107588 -0.76270169 -0.28933859
