# .PCD v0.7 - Point Cloud Data file format
VERSION 0.7
FIELDS x y z
SIZE 4 4 4
TYPE F F F
COUNT 1 1 1
WIDTH 1383
HEIGHT 1
VIEWPOINT 0 0 0 1 0 0 0
POINTS 1383
DATA ascii
0.79421037 0.0598014 -0.21953821
0.76553142 -0.11102259 0.04445219
0.79713643 0.1533134 -0.24647808
0.83204341 0.49820143 -0.56780291
0.80705941 0.30157441 -0.3378191
0.73800039 -0.28794855 0.29788208
0.77093941 -0.075208604 -0.059789181
0.78574741 -0.057318568 -0.19721317
0.78683543 0.03015542 -0.20730782
0.78913039 0.10412341 -0.22860718
0.76061642 -0.11206055 0.036018848
0.79066741 0.15369141 -0.24287891
0.73199242 -0.28722161 0.30165911
0.81243241 0.46686843 -0.50338411
0.78872043 0.22572643 -0.28150606
0.72847039 -0.40012962 0.2822752
0.72717142 -0.34050459 0.29442501
0.75904638 -0.07497257 -0.059154034
0.77286237 -0.056237578 -0.18951416
0.77269638 -0.015346587 -0.18794489
0.77399641 0.03105545 -0.20020723
0.71784639 -0.18573159 0.32956886
0.75075239 -0.11414558 0.019096851
0.79122639 0.34466743 -0.362782
0.76849538 0.061529398 -0.20529509
0.76981938 0.10533941 -0.21788979
0.78980643 0.38834041 -0.40805483
0.79366642 0.42132142 -0.44478178
0.71517843 -0.33898252 0.30198097
0.76339841 0.10574341 -0.21432495
0.78326041 0.38854343 -0.40489817
0.7870844 0.42150843 -0.44158983
0.77822238 0.34511942 -0.35656309
0.79199541 -0.59830362 -0.48871517
0.74121642 -0.074621558 -0.058190823
0.69999439 -0.1423676 0.34070778
0.73586839 -0.11729759 -0.0064401627
0.77671939 0.38874641 -0.40174484
0.78606743 0.46744543 -0.4922061
0.79211342 0.49898443 -0.5507102
0.76572341 0.26902643 -0.29534101
0.70321739 -0.33746856 0.30951405
0.70087439 -0.22592759 0.33219099
0.73088342 -0.11835456 -0.014992237
0.77018642 0.38894942 -0.39859486
0.76524442 0.34556842 -0.35035419
0.69612938 -0.28289753 0.32420778
0.72933739 -0.074388564 -0.057536125
0.7456184 0.15630943 -0.21781492
0.77885538 0.49924344 -0.54503202
0.75005341 0.2275824 -0.2614789
0.73433238 -0.0123896 -0.16577911
0.68220538 -0.18185157 0.3519001
0.68325639 -0.1420176 0.34145784
0.77223641 0.49937141 -0.5421958
0.7436344 0.22788942 -0.25815392
0.72802842 -0.052499592 -0.16273117
0.72930139 0.034171402 -0.17548084
0.67629242 -0.18121058 0.35560513
0.73140538 0.10774642 -0.19656515
0.68897241 -0.12264758 0.22856712
0.71585643 -0.12154555 -0.040777206
0.76562142 0.49950042 -0.53936291
0.75731641 -0.59146756 -0.45615196
0.6805954 -0.39375156 0.31249189
0.71152842 -0.074043572 -0.056539059
0.72503138 0.1081444 -0.19302607
0.7334944 0.27044642 -0.27857018
0.76745039 0.5456894 -0.62179518
0.6665234 -0.1416626 0.342278
0.70577842 -0.12368858 -0.058066845
0.73762739 0.38995442 -0.38289213
0.7200464 0.15778643 -0.20358515
0.72442043 0.22880542 -0.24819803
0.66646743 -0.27934462 0.34285307
0.66532642 -0.22190058 0.35449219
0.70893943 -0.050917566 -0.15132809
0.67194438 -0.12230361 0.22939682
0.70072138 -0.12476557 -0.066746235
0.6616134 -0.33222955 0.33571577
0.66055942 -0.27863961 0.34656715
0.7026664 -0.010056555 -0.14829302
0.7039324 0.035928428 -0.16144419
0.70475441 0.065778434 -0.1699791
0.72465241 0.39035341 -0.37663317
0.73923337 0.50001043 -0.52805519
0.69960743 0.10972542 -0.17890787
0.72164041 0.42335042 -0.4098382
0.70527142 0.22971541 -0.2382741
0.74075639 0.5461154 -0.61019516
0.74962038 0.5794884 -0.70310307
0.71360743 0.34734342 -0.3256402
0.68496639 -0.077574551 -0.087535858
0.69005138 -0.0091315508 -0.14132786
0.69637942 0.1885094 -0.20826721
0.7035144 0.30582443 -0.28375006
0.7161634 -0.58340162 -0.41757011
0.64390337 -0.33001262 0.34686518
0.64288139 -0.27653354 0.35767698
0.64178741 -0.21924955 0.36925697
0.71950543 0.50039041 -0.5195961
0.69506043 0.27212843 -0.258564
0.63700539 -0.27583557 0.36136913
0.67728639 -0.048305571 -0.13241816
0.67746842 -0.0082105994 -0.13437796
0.62928241 -0.17613959 0.38504696
0.72965842 0.57968944 -0.69697189
0.63324142 -0.38750058 0.34236813
0.63213742 -0.3285436 0.35427284
0.63113743 -0.27513963 0.36505699
0.67097843 -0.047786593 -0.12865019
0.69233143 0.39134142 -0.36103296
0.69565743 0.42407542 -0.39722586
0.70106941 0.46928343 -0.45612097
0.68795043 0.34821743 -0.31335211
0.62527543 -0.27444452 0.36874008
0.6219644 -0.14074659 0.34448099
0.6668734 0.068279445 -0.14898491
0.6649754 -0.13239956 -0.12812614
0.68588841 0.39153841 -0.35792303
0.69983441 0.50076741 -0.51115894
0.71637338 0.57982343 -0.69289112
0.68900239 -0.57810456 -0.39213991
0.6583904 -0.046753585 -0.12112808
0.65864742 -0.0068375468 -0.12398195
0.65868139 -0.13182956 -0.12436199
0.6630854 0.16093141 -0.17322302
0.6647734 0.19011641 -0.19195318
0.68808538 0.46956143 -0.45060301
0.68224639 -0.57679063 -0.385818
0.61561441 -0.38518852 0.35348797
0.61357743 -0.27305955 0.376091
0.65222639 -0.081073582 -0.11869478
0.65210843 -0.046239555 -0.1173768
0.60596538 -0.17364258 0.39964914
0.65430743 0.069104433 -0.14202023
0.68160242 0.46969941 -0.44784784
0.6651684 0.30737641 -0.26371288
0.69591242 -0.69503957 -0.60819101
0.60671443 -0.2153216 0.39125109
0.64583439 -0.045725584 -0.11362791
0.6472894 0.039819419 -0.13009214
0.60015541 -0.17302257 0.40328598
0.60390341 -0.38365763 0.36087179
0.6396814 -0.08000356 -0.1111989
0.63989341 -0.0054755807 -0.11362314
0.64103138 0.04024744 -0.12662792
0.64176941 0.069925427 -0.13506889
0.6633324 0.42497042 -0.38152599
0.64821041 0.23240441 -0.20869017
0.65054643 0.27405941 -0.23538399
0.68106741 0.54705942 -0.58424187
0.68985939 0.58008742 -0.68474007
0.5960874 -0.27099663 0.38707685
0.63657838 0.11361241 -0.14390182
0.6396144 0.19138843 -0.1789608
0.64966542 0.34951442 -0.29500818
0.65535241 -0.5715726 -0.3606739
0.5911994 -0.32345957 0.38004112
0.62717038 -0.078939557 -0.10372686
0.62742841 -0.0045725703 -0.10673714
0.6273334 -0.12899959 -0.10562515
0.6504494 0.42532644 -0.37526894
0.63334239 0.19170445 -0.17572212
0.63560838 0.23299342 -0.20215416
0.64330739 0.34972844 -0.29196024
0.58538342 -0.32274157 0.38370085
0.57699138 -0.17055559 0.41778803
0.62406242 0.11437845 -0.13695002
0.62121242 -0.16736859 -0.10337019
0.64927542 0.47038642 -0.43410206
0.65415043 0.50163543 -0.49155617
0.63340938 0.30865243 -0.24711323
0.58057243 -0.38061756 0.37558603
0.57957339 -0.32202452 0.38735676
0.61468941 -0.077881575 -0.096272945
0.61499041 -0.0036735535 -0.099864006
0.6149714 -0.16678357 -0.099637985
0.61925542 0.16325545 -0.15065622
0.64282739 0.47052243 -0.43135881
0.62526441 0.27514842 -0.22221279
0.66342038 0.58034945 -0.67660284
0.6521824 -0.68119663 -0.54276705
0.63532043 -0.56769961 -0.34196281
0.57287639 -0.2682696 0.40165806
0.57191843 -0.2114526 0.41306686
0.60985839 0.042367399 -0.10936689
0.60861742 -0.12731856 -0.09443903
0.64812642 0.5475744 -0.56991005
0.62075442 0.30915841 -0.24049616
0.64497638 -0.67892355 -0.53200197
0.62866938 -0.56641656 -0.33575201
0.56797743 -0.32059556 0.39465475
0.56709343 -0.26759154 0.40529108
0.60224038 -0.076827586 -0.088836193
0.60364538 0.042788446 -0.10592699
0.56637239 -0.13963658 0.3474369
0.60433543 0.072366416 -0.11431408
0.56038141 -0.21017659 0.42029905
0.59602737 -0.076302588 -0.085123062
0.5959214 -0.0416646 -0.083812237
0.59744042 0.04320842 -0.1024909
0.5981214 0.072769403 -0.11086798
0.60208338 0.19327343 -0.15957403
0.63499337 0.54777944 -0.5641942
0.64364141 0.58054441 -0.67051315
0.63063341 -0.67440361 -0.51059389
0.61540639 -0.56386262 -0.32337713
0.55462438 -0.20954061 0.42390585
0.59020442 -0.0018895864 -0.086165905
0.59009242 -0.16445756 -0.084764957
0.60908538 0.39385644 -0.32082415
0.59436142 0.16456544 -0.13783312
0.63705742 0.58060843 -0.66848421
0.54887539 -0.20890659 0.42751122
0.58668542 0.11665344 -0.11618185
0.58377337 -0.12509561 -0.079589844
0.58815342 0.16489142 -0.13463402
0.61522639 0.50236845 -0.47483778
0.59171438 0.23503542 -0.17937994
0.62188339 0.54798245 -0.55848598
0.5448764 -0.31775957 0.40918922
0.57733142 -0.04016155 -0.072706223
0.57785338 -0.0010035634 -0.079339981
0.57758141 -0.12454355 -0.075889111
0.59637541 0.39423642 -0.31468105
0.59918243 0.42673042 -0.35035515
0.58547139 0.23532444 -0.17613983
0.62390041 0.58073741 -0.66442919
0.58923942 0.31041342 -0.22401619
0.57115042 -0.039663553 -0.069015026
0.57333839 0.074372411 -0.097123146
0.59280443 0.42690343 -0.34725285
0.60230041 0.50261045 -0.46928406
0.58637643 0.35163343 -0.26465797
0.56507742 -0.073697567 -0.066631794
0.53306842 -0.13898158 0.34936714
0.56716043 0.074770451 -0.093698025
0.56809539 0.11777943 -0.10585117
0.56522143 -0.1234436 -0.068502903
0.58369243 0.39461443 -0.30854988
0.5293234 -0.42569059 0.39803982
0.56479341 0.19513142 -0.14030218
0.56878543 0.27755943 -0.19277906
0.59573841 0.54838645 -0.54710197
0.5704124 0.31115842 -0.21416903
0.52278042 -0.37314957 0.41201782
0.52109444 -0.2622326 0.43417788
0.55323642 0.00075441599 -0.065732956
0.5541994 0.046119452 -0.078540802
0.55300039 -0.16101259 -0.06259203
0.58295441 0.50297141 -0.46096897
0.59764439 0.58099139 -0.65633202
0.54710042 0.0011914372 -0.062341213
0.51643544 -0.13866657 0.35031176
0.54684544 -0.1604436 -0.0589118
0.56471539 0.39517844 -0.2993741
0.56735343 0.42759341 -0.33487701
0.5741604 -0.65668863 -0.42647982
0.50966942 -0.26090962 0.44134903
0.54035944 -0.037190557 -0.05062294
0.5409714 0.0016274452 -0.058952808
0.5025394 -0.16270959 0.46438503
0.51089239 -0.13856059 0.35064888
0.54059142 -0.12125957 -0.053781986
0.54489142 0.16714942 -0.11233807
0.57008743 0.50320941 -0.45543718
0.55168939 0.31186241 -0.20490503
0.53577542 0.04735142 -0.068335056
0.55466741 0.42793643 -0.32870817
0.5400694 0.1963554 -0.12751913
0.5454694 0.31208742 -0.20194101
0.5602634 -0.65234953 -0.405828
0.49746042 -0.20326859 0.4597311
0.52818739 -0.07061255 -0.04459095
0.53390342 0.19665945 -0.12433004
0.53764641 0.27887744 -0.17654181
0.49490243 -0.42107958 0.41976976
0.52219743 -0.11963558 -0.042788982
0.52774543 0.19696242 -0.1211462
0.53143841 0.27913842 -0.17330408
0.53304744 0.31253743 -0.19601917
0.48919144 -0.42031854 0.42337608
0.48764744 -0.31079262 0.4451828
0.48611444 -0.20203257 0.46683979
0.47988144 -0.16034657 0.47855997
0.53568542 0.42844743 -0.31947184
0.5203144 0.1684224 -0.099666119
0.52159441 0.19726545 -0.11796379
0.52523839 0.27939942 -0.17007208
0.48196542 -0.31010562 0.44875717
0.50984544 -0.069087565 -0.033633232
0.50975645 -0.034747601 -0.032342911
0.5154494 0.1975674 -0.11478519
0.5331614 -0.64504963 -0.37129307
0.47708544 -0.36730963 0.44081211
0.50365841 -0.034262598 -0.028700829
0.46891043 -0.15986758 0.48100185
0.5039714 -0.15649855 -0.033283234
0.53162241 0.50391942 -0.43889189
0.54534543 0.58149344 -0.64018297
0.51749045 0.35390642 -0.23158598
0.46991244 -0.25633055 0.46630621
0.49911144 0.049789429 -0.048018932
0.52142942 0.47304943 -0.37964821
0.52523041 0.50403643 -0.43614197
0.5066734 0.28017843 -0.16038704
0.49148342 -0.033296585 -0.021428108
0.46658942 -0.13772959 0.35336113
0.51046443 0.42912242 -0.307199
0.51509744 0.47317943 -0.37694883
0.50049943 0.28043643 -0.15716505
0.52478743 0.54926842 -0.52283812
0.45930743 -0.30737454 0.46300316
0.45787743 -0.19897056 0.48452806
0.48694643 0.050594449 -0.041276932
0.50417542 0.42929041 -0.30413723
0.45441243 -0.36443359 0.45509386
0.45366144 -0.30669552 0.46655178
0.48087442 0.050995409 -0.037910938
0.44723442 -0.1594606 0.48228216
0.48140442 0.080247402 -0.046117783
0.47963342 -0.15427458 -0.018734932
0.47954044 -0.11589259 -0.017296791
0.48482043 0.19906545 -0.098937988
0.50244939 0.47343743 -0.37155294
0.50609344 0.50438643 -0.42790508
0.44942042 -0.41504055 0.44847298
0.44181642 -0.15935856 0.4826169
0.44999543 -0.1374256 0.3543992
0.47609243 0.1232844 -0.05470705
0.47347543 -0.1153636 -0.013672829
0.47755343 0.17062044 -0.077607155
0.47871244 0.19936341 -0.095777988
0.51279843 0.58180141 -0.63011789
0.44376644 -0.41429454 0.4520402
0.44238943 -0.30534357 0.47363901
0.44102043 -0.1971516 0.49508715
0.46727943 -0.031486571 -0.0078492165
0.48534343 0.42979044 -0.29497099
0.50630242 0.58186245 -0.62810802
0.47744945 0.31453243 -0.16949797
0.43676442 -0.30467063 0.47717381
0.43541643 -0.19654757 0.49859619
0.46125445 -0.065075576 -0.0046038628
0.46124944 -0.031044602 -0.0045189857
0.46191344 0.0071984529 -0.01523304
0.43098444 -0.15915257 0.48331499
0.46136844 -0.1143086 -0.00644207
0.46811542 0.24068141 -0.11518812
0.49280244 0.54962242 -0.51312494
0.48093843 -0.63446659 -0.32188606
0.43185443 -0.36158556 0.46930218
0.43050542 -0.25183159 0.49103498
0.45522642 -0.030602574 -0.0011940002
0.45715043 0.081777453 -0.032657146
0.46043244 0.2002514 -0.086317062
0.48065445 0.50484943 -0.4169488
0.42685243 -0.41206652 0.46271086
0.42623243 -0.36087853 0.47284222
0.45182145 0.12471944 -0.041209221
0.47430944 0.5049634 -0.41421795
0.42061844 -0.36017257 0.47637701
0.41993243 -0.30266052 0.48775291
0.41864544 -0.19474757 0.50909901
0.44457844 0.05338043 -0.017793179
0.44506243 0.082537413 -0.025948048
0.44576943 0.1250754 -0.037844181
0.45824543 0.39829543 -0.24784422
0.44720143 0.17216843 -0.061942101
0.47366044 0.5498324 -0.5073061
0.45289442 0.31540543 -0.15777588
0.41306743 -0.19414955 0.51259184
0.43719342 -0.029283583 0.0087652206
0.43781844 0.0088773966 -0.0019021034
0.45835444 0.47433242 -0.35272884
0.45512143 -0.62926859 -0.2975049
0.43122643 -0.11169559 0.011565208
0.44784844 0.43078142 -0.27671003
0.46741542 0.58222443 -0.61606598
0.44318745 0.35631743 -0.19587183
0.40316242 -0.30066556 0.49829197
0.40257043 -0.24866563 0.50856113
0.40193543 -0.19296056 0.51955986
0.42511642 -0.06211859 0.016983986
0.43154144 0.24232244 -0.096176147
0.45455742 0.55004144 -0.50149298
0.46094942 0.58228445 -0.61406279
0.44228643 -0.62669355 -0.28539515
0.39758644 -0.30000359 0.50179482
0.39700443 -0.24803752 0.51205301
0.39638042 -0.19236755 0.52303886
0.41922143 -0.027974606 0.01869297
0.41937444 -0.18561459 0.015955925
0.44266245 0.50553441 -0.40058088
0.42949742 -0.62413257 -0.27333593
0.38230345 -0.15827358 0.48635483
0.40724042 -0.10962659 0.02589798
0.42109144 0.39936441 -0.22984314
0.41195843 0.20258844 -0.061217785
0.43004343 0.50576043 -0.39514208
0.43548843 0.55024844 -0.49568701
0.38034543 -0.24616152 0.52250004
0.40297043 0.085167408 -0.0025777817
0.41491944 0.39954144 -0.22685003
0.43512544 0.58252239 -0.60605383
0.41675743 -0.62158757 -0.26132917
0.39590645 0.011776447 0.021290779
0.39655945 0.056506395 0.0088310242
0.39529145 -0.10860056 0.033038139
0.42279744 0.5503844 -0.49181986
0.40635943 0.35749641 -0.17815399
0.38939744 -0.14612758 0.035200119
0.40259343 0.39989343 -0.22087622
0.39388344 0.20345342 -0.05185318
0.39519343 0.2439394 -0.077271938
0.40406242 -0.6190576 -0.24937391
0.38398942 0.012595415 0.027887821
0.36068943 -0.15788156 0.48783779
0.39644045 0.40006942 -0.21789217
0.39819342 0.43207943 -0.25251293
0.39045343 0.28498143 -0.099720001
0.35931444 -0.35252661 0.51496887
0.35874644 -0.29541856 0.52619696
0.35823044 -0.24368256 0.53636885
0.37751544 -0.024956584 0.04173708
0.37748644 -0.14506358 0.042317867
0.39029244 0.40024441 -0.21491289
0.38097444 0.17550743 -0.027739048
0.40936643 0.58275741 -0.59806013
0.37154144 -0.14453459 0.045870781
0.37147343 -0.10656255 0.047269821
0.38415045 0.40041843 -0.21193409
0.38584045 0.43240044 -0.24649191
0.38959944 0.47570643 -0.3233428
0.40293744 0.58281642 -0.59606314
0.38510942 -0.61529058 -0.23153925
0.34668243 -0.18709856 0.5541501
0.36544845 -0.057285547 0.052627087
0.36714444 0.087385416 0.017317772
0.37967142 0.43255943 -0.24348402
0.38337943 0.47583044 -0.320683
0.37108544 0.24500442 -0.064729214
0.39113644 0.55072343 -0.48216391
0.37373742 0.31818542 -0.11995125
0.34220243 -0.29347759 0.5365901
0.34171543 -0.24183959 0.5467248
0.34119344 -0.18652058 0.55758476
0.36081743 0.058811426 0.028656006
0.36174944 0.12997442 0.0088968277
0.36768943 0.31839544 -0.1170578
0.36973944 0.35865843 -0.16052485
0.37253043 -0.61279756 -0.21970892
0.33571243 -0.1859436 0.56101418
0.36575842 0.40093943 -0.2030139
0.35707444 0.17670041 -0.015387058
0.37095845 0.47607541 -0.31536818
0.35906842 0.24553341 -0.058476925
0.37850043 0.55085844 -0.47830725
0.36365643 0.35885042 -0.15759611
0.33172342 -0.34912056 0.53233194
0.33073944 -0.24061853 0.55360699
0.34932044 0.08848244 0.027216911
0.36475644 0.47619742 -0.31271315
0.35306942 0.24579644 -0.055354118
0.37218842 0.55092442 -0.47637796
0.35560945 0.31881341 -0.11128092
0.35757944 0.35904142 -0.15466881
0.34303445 0.059950411 0.038520813
0.35509244 0.43315941 -0.23222017
0.34595343 0.20572942 -0.027013779
0.36102244 0.5069834 -0.36536407
0.34957743 0.31902242 -0.1083951
0.35374942 -0.60908562 -0.20206308
0.31978944 -0.23940462 0.56047201
0.33658043 0.015832424 0.054133892
0.33711845 0.060328424 0.041802883
0.33607244 -0.17788756 0.065753937
0.33746743 0.089209437 0.033802032
0.34896943 0.43329743 -0.2296319
0.31524944 -0.34709758 0.54269695
0.31432343 -0.23879856 0.56389809
0.32998043 -0.054443598 0.073812008
0.33155143 0.08957243 0.037087917
0.34285343 0.43343443 -0.22704506
0.30673245 -0.15695155 0.49154902
0.32807842 0.2065714 -0.017745018
0.32913244 0.2468434 -0.042893887
0.33019444 0.28742144 -0.068233013
0.34697744 0.55119044 -0.46867514
0.33151543 0.31964543 -0.099751949
0.34556442 -0.73533553 -0.43494987
0.30134144 -0.15685958 0.49194479
0.31834343 -0.1398266 0.077654839
0.32213244 0.20685041 -0.014661789
0.32420245 0.28766143 -0.065100193
0.29752642 -0.18194759 0.58490801
0.31302744 0.017427444 0.067175865
0.31384042 0.090653419 0.046926975
0.31547943 0.17875844 0.0061187744
0.32764745 0.47692442 -0.29682493
0.29293144 -0.28774256 0.56753016
0.29056242 -0.15667659 0.4927268
0.30654043 -0.10106158 0.086065769
0.31696844 0.40231043 -0.17933989
0.32148042 0.47704443 -0.29418421
0.31124145 0.24762142 -0.033577919
0.28831044 -0.39414054 0.55005217
0.28748941 -0.28711361 0.57094622
0.28667444 -0.18081856 0.59169722
0.30088842 -0.019486547 0.084094048
0.30073142 -0.13827956 0.088178158
0.31234545 0.43411842 -0.21413612
0.29542944 0.018612444 0.07692194
0.29618743 0.091726422 0.056736946
0.29666641 0.13359445 0.043969154
0.29482344 -0.10007757 0.093067169
0.30482844 0.40264943 -0.17344713
0.31972244 0.58356041 -0.57018185
0.30152243 0.32067344 -0.085393906
0.27662644 -0.28585953 0.57776499
0.27584943 -0.17969459 0.59846878
0.28957543 0.019006431 0.080164909
0.29002342 0.063320398 0.067935944
0.29876742 0.40281743 -0.17050505
0.29184243 0.17991942 0.018344879
0.29248843 0.2082364 0.00071382523
0.29800743 -0.59814459 -0.14978123
0.27196842 -0.39206463 0.56034708
0.27160841 -0.34177655 0.57014704
0.27120441 -0.28523558 0.58116817
0.28313044 -0.099098563 0.10005379
0.28657642 0.20851141 0.0037808418
0.28837141 0.28909343 -0.046366215
0.26543042 -0.23342055 0.59454107
0.28665942 0.40315443 -0.16462421
0.28154343 0.24890643 -0.018109798
0.28242144 0.28933042 -0.043254852
0.30061343 0.58372742 -0.56422997
0.25825343 -0.15614557 0.49508715
0.27320144 0.13483244 0.056055069
0.28458741 0.47775742 -0.2783742
0.28645241 0.50827944 -0.33314991
0.29047742 0.55177641 -0.45137978
0.27762744 0.32148641 -0.073946953
0.27908742 0.36148843 -0.11683702
0.25287142 -0.15605658 0.49550104
0.26887941 0.20933342 0.012966156
0.28027242 0.50838643 -0.33047724
0.26970541 0.24941641 -0.011942863
0.27053744 0.28980142 -0.037040234
0.27166742 0.32168841 -0.071093082
0.25026742 -0.3893196 0.57401609
0.24957941 -0.28275257 0.59474087
0.26104343 0.093849421 0.076268196
0.26984242 0.43506142 -0.19613314
0.26242343 0.1813544 0.033566952
0.27409542 0.50849241 -0.327806
0.25397542 -0.048484564 0.11876488
0.25425443 -0.016206563 0.10988379
0.25457841 0.02134645 0.099553108
0.25496042 0.065525413 0.087398052
0.25410143 -0.17042458 0.11474991
0.25566143 0.13575244 0.065091133
0.25405943 -0.1342116 0.11606789
0.25401643 -0.096671581 0.1174469
0.26792541 0.50859743 -0.32513809
0.25788942 0.24992341 -0.0057868958
0.25976244 0.32209042 -0.065387249
0.26110643 0.36204243 -0.10816288
0.26133543 -0.59100753 -0.11546183
0.24913841 0.065889418 0.090631008
0.24821343 -0.096189559 0.12091398
0.23405842 -0.38728052 0.58422184
0.23312442 -0.22990155 0.6147809
0.25560042 0.50880843 -0.3198061
0.26250142 0.58405942 -0.55234289
0.24788041 0.32249144 -0.059690952
0.24919842 -0.58865756 -0.10411692
0.23716442 0.022503436 0.10920191
0.23817542 0.1366654 0.074102879
0.23662741 -0.095229566 0.12783384
0.23899342 0.1824894 0.045697212
0.24194741 0.32269043 -0.056848049
0.22240642 -0.22874057 0.62149382
0.22250542 -0.17635459 0.61806917
0.23136942 0.022887409 0.11241293
0.23084241 -0.094751596 0.13129091
0.24674241 0.55222142 -0.43796396
0.22590941 0.067338407 0.10352898
0.22513741 -0.16782159 0.13206005
0.22654341 0.13727045 0.080099106
0.23360242 0.43585542 -0.18076801
0.22778241 0.2112264 0.034297943
0.24051042 0.55228442 -0.43604994
0.21196541 -0.17618757 0.61884403
0.22193542 0.21149445 0.037333965
0.23428142 0.55234742 -0.43413687
0.22529241 0.36313742 -0.09087801
0.20717143 -0.38391358 0.60115194
0.20669642 -0.1760996 0.61926222
0.22965541 -0.69689852 -0.25749111
0.21376643 -0.013388574 0.13228607
0.21356443 -0.13071758 0.14026594
0.21352942 -0.093323588 0.14163589
0.21565242 0.18361342 0.057783127
0.22349842 0.47892341 -0.25216484
0.22487342 0.50933039 -0.30650902
0.21671842 0.25167841 0.015672207
0.22805542 0.55240941 -0.4322238
0.22339141 -0.69484156 -0.24794722
0.20825543 0.024412453 0.12522411
0.19910441 -0.15520257 0.49965286
0.22518542 0.58370143 -0.56751585
0.21235842 0.32368141 -0.042657852
0.19595842 -0.27665454 0.62838602
0.19616142 -0.17592758 0.62010002
0.20225042 -0.012592554 0.13865709
0.20249242 0.024792433 0.12841797
0.20201842 -0.092377603 0.14851093
0.20850343 0.40529743 -0.12664604
0.19650242 -0.0121966 0.14183903
0.19756442 0.1387704 0.095041752
0.19915842 0.25242043 0.024827003
0.21273142 0.58356243 -0.57329702
0.20152342 0.36385843 -0.079401016
0.18563142 -0.17576557 0.62088919
0.19098341 0.025547445 0.13479805
0.19178542 0.13906842 0.09802103
0.19053441 -0.091437578 0.15537119
0.19277942 0.21282345 0.052477837
0.18523742 0.025923431 0.13798285
0.18565242 0.098341405 0.11818314
0.19698142 0.55271941 -0.42266893
0.18878442 0.32446441 -0.031346798
0.17537642 -0.44521958 0.60872698
0.17511241 -0.37993056 0.62132978
0.17510542 -0.17560357 0.62169409
0.18463942 0.40594342 -0.11503887
0.18375142 0.36439443 -0.07081604
0.16959742 -0.32955962 0.6342721
0.16938142 -0.27366263 0.64505577
0.16984142 -0.17552257 0.62209988
0.17868643 0.40610442 -0.11214399
0.17702742 0.32485342 -0.025702
0.16471642 -0.44382662 0.61545086
0.16447443 -0.37861663 0.62802601
0.16784742 -0.010227561 0.15769911
0.16803342 0.027047396 0.14752102
0.16923742 0.1858294 0.081830978
0.17000343 0.25364745 0.040033817
0.17837942 0.55290341 -0.41694403
0.17115742 0.32504743 -0.022883892
0.17390342 -0.67867261 -0.17274094
0.16197743 -0.16220957 0.16979599
0.16265543 0.099695444 0.13097286
0.16195542 -0.12631458 0.17110395
0.16679843 0.40642342 -0.10635996
0.16987643 0.51025242 -0.282691
0.17218642 0.55296445 -0.4150362
0.15369642 -0.32768363 0.64426184
0.16779542 -0.67668754 -0.16348219
0.15627941 -0.041455567 0.17275381
0.15679142 0.071599424 0.14191675
0.15625042 -0.1258316 0.17451096
0.15838042 0.2541334 0.046096802
0.14806843 -0.22078657 0.66797209
0.14880142 -0.17520458 0.62375212
0.16171242 -0.6748386 -0.15486479
0.15119143 0.10036743 0.13735104
0.15192242 0.18664843 0.090806007
0.15686043 0.48017141 -0.22353411
0.16271842 0.58300245 -0.59645414
0.14327542 -0.37602562 0.64126682
0.14312743 -0.32648462 0.65066099
0.14488243 -0.16070557 0.18001175
0.14546843 0.1007024 0.14053297
0.14641742 0.21491641 0.076571941
0.15083142 0.48028341 -0.22094202
0.15163042 0.51055539 -0.27478313
0.14772642 0.32581642 -0.011632919
0.13818042 -0.44045562 0.63179684
0.13828643 -0.1750406 0.62463284
0.14968142 -0.67238063 -0.14345598
0.13921443 -0.040245593 0.18218899
0.13947742 0.028900445 0.16335678
0.13921842 -0.2026726 0.18188095
0.14141342 0.29441643 0.024693012
0.13245142 -0.26983255 0.66652393
0.13303043 -0.1749596 0.62507582
0.13365142 -0.0078975558 0.17663193
0.13393942 0.072991431 0.15461493
0.13351743 -0.15970856 0.18680382
0.13716643 0.40721542 -0.091939926
0.13949142 0.51075643 -0.26951885
0.13520142 0.2550984 0.058191776
0.13560343 0.29461941 0.027470112
0.14388542 0.58278942 -0.60514593
0.12762243 -0.43934661 0.63717318
0.12746543 -0.37448758 0.64912605
0.12786442 -0.039443552 0.18846512
0.12786143 -0.20163256 0.18867016
0.12781042 -0.0863446 0.19284105
0.13125442 0.40737343 -0.089060783
0.13184743 0.43804243 -0.13754606
0.12891142 0.1877324 0.10273695
0.12941842 0.25533843 0.061211109
0.13759542 0.58271843 -0.60804605
0.12210043 -0.32469553 0.66018009
0.12197542 -0.26913756 0.67040014
0.12251842 -0.17479956 0.62596607
0.13171142 -0.66871959 -0.12643099
0.12241141 0.030002415 0.17282295
0.12590343 0.43816844 -0.13501692
0.12364343 0.25557745 0.064225197
0.12485242 0.36615244 -0.042344093
0.11726542 -0.17472255 0.62639284
0.11662842 -0.0067455769 0.18605804
0.11673442 0.030367434 0.17597198
0.11685842 0.074027419 0.16410494
0.11653042 -0.20059758 0.19544315
0.11743942 0.18826944 0.10868597
0.11899142 0.36632544 -0.03951025
0.11096642 -0.0063625574 0.18919516
0.11144342 0.1431604 0.13949203
0.11355442 0.40784243 -0.080442905
0.11403042 0.43841842 -0.12996578
0.11210842 0.25605345 0.070248127
0.10631242 -0.2684806 0.67401886
0.10523442 -0.037851572 0.20098209
0.10522342 -0.19956857 0.20220089
0.10662742 0.29562941 0.041325092
0.10126242 -0.37310654 0.65609312
0.10151042 -0.17449558 0.62768698
0.10789442 -0.66388959 -0.10389423
0.099736422 0.031458437 0.18540096
0.10026842 0.18907142 0.11759377
0.10040242 0.21696842 0.1004982
0.10084543 0.29582942 0.04408884
0.10143542 0.36684343 -0.03101778
0.096124426 -0.43767053 0.6451931
0.096035421 -0.37301558 0.6565299
0.095822424 -0.21808857 0.68366575
0.10354643 -0.75646156 -0.29970503
0.10196442 -0.66269058 -0.098286152
0.094164424 0.075395405 0.17671919
0.09184742 -0.15362257 0.50850201
0.094556421 0.18933642 0.12055779
0.094844423 0.25676441 0.079259872
0.090811424 -0.37292558 0.65695906
0.097423419 -0.75435859 -0.29016399
0.088551417 0.10400343 0.17220211
0.090335421 0.43891543 -0.11987925
0.088953421 0.21747541 0.1064558
0.09112142 0.51154745 -0.24853706
0.089101419 0.25699943 0.082259178
0.093442425 0.58221543 -0.62835407
0.085590422 -0.37293452 0.65688086
0.085761428 -0.17426759 0.6290288
0.082736418 -0.0044665933 0.20483112
0.083147421 0.18986642 0.12647915
0.083535418 0.29642743 0.052371979
0.083709419 0.32789442 0.019135952
0.083927423 0.36735642 -0.022544861
0.080232427 -0.21816456 0.68310785
0.077068418 -0.035884559 0.21656179
0.078289419 0.40877041 -0.0632658
0.07744842 0.19013041 0.12943506
0.079075426 0.51174343 -0.24330711
0.077628419 0.25746942 0.088251114
0.079700425 0.55385542 -0.38649511
0.077918425 0.32808042 0.021923065
0.078099422 0.36752743 -0.019722939
0.075150423 -0.37303358 0.65630722
0.071558423 0.076750398 0.18928385
0.072611421 0.43928441 -0.11233091
0.072133422 0.32826641 0.024703979
0.069932424 -0.37321156 0.65535307
0.065921426 0.077087402 0.1924181
0.066909425 0.48181641 -0.18481922
0.066178426 0.25793642 0.094232082
0.066353425 0.32845142 0.027484894
0.064740419 -0.43796962 0.64353991
0.064644426 -0.21863556 0.6801939
0.064773425 -0.17396158 0.63089418
0.067061424 -0.74396354 -0.24291992
0.059739422 -0.15317255 0.51136398
0.060229421 -0.15334958 0.23059893
0.060818423 0.43952844 -0.10730505
0.060419422 0.2187314 0.12130499
0.061296422 0.55402941 -0.3808012
0.061753422 0.58185142 -0.64287996
0.060578421 0.32863542 0.030262947
0.059491422 -0.37361556 0.65319777
0.059477422 -0.32442552 0.66122675
0.059529424 -0.17388755 0.63135386
0.054633424 -0.15286958 0.23394299
0.054670423 0.10594541 0.19106007
0.054729424 0.21898043 0.12426615
0.055042423 0.51205343 -0.23496199
0.054808423 0.32882044 0.033040047
0.049041424 -0.033941567 0.23206997
0.049041424 0.48213843 -0.17712021
0.049041424 0.32900342 0.035816193
0.049041424 -0.73782152 -0.21494579
0.043453421 -0.033555567 0.23516178
0.043436423 0.035035431 0.2166419
0.043457422 -0.15191156 0.24062109
0.043420423 0.1065864 0.19732189
0.043376423 0.19169945 0.14712286
0.043046422 0.51218742 -0.2313242
0.043310422 0.29780641 0.071629047
0.043281421 0.32918641 0.038588047
0.043812424 -0.37470752 0.64745617
0.037837423 0.035387397 0.21974993
0.037803423 0.1069054 0.20044899
0.03745342 0.36870742 -4.1007996e-05
0.038579423 -0.37520653 0.64483881
0.038622424 -0.22041255 0.66942596
0.038558424 -0.17360258 0.6331768
0.037111424 -0.73376757 -0.19645309
0.03229142 -0.032786548 0.24134111
0.032269422 -0.0011105537 0.23279476
0.033004422 -0.15280759 0.51380587
0.032307424 -0.1509586 0.24728203
0.032310423 -0.11550057 0.24855804
0.031953424 0.25932443 0.11211395
0.031667423 0.36887443 0.0027618408
0.033403423 -0.22097456 0.66603708
0.026739422 -0.15048456 0.25060987
0.026585422 0.10754144 0.20669508
0.026142422 0.29838943 0.079852104
0.025883423 0.36904141 0.0055642128
0.028058423 -0.44094652 0.62872696
0.019678423 0.44037443 -0.089764118
0.019353421 0.48266843 -0.16431808
0.020106422 0.36920741 0.0083642006
0.022874422 -0.32780653 0.6427331
0.022910422 -0.27243263 0.65100193
0.014097422 0.41032243 -0.034097195
0.013819423 0.44049442 -0.087263107
0.015123423 0.19298941 0.16179705
0.015034422 0.22070742 0.14493322
0.014909424 0.26001042 0.12102318
0.014722422 0.29877642 0.085324764
0.017660424 -0.27324158 0.64636183
0.017699424 -0.22300357 0.65381098
0.017601423 -0.17331558 0.63508415
0.010073423 -0.14906758 0.26056814
0.0098014213 0.10848939 0.21604013
0.0079634227 0.44061342 -0.084764004
0.0062594227 0.55453944 -0.36374903
0.012351424 -0.32950956 0.63345098
0.012443423 -0.22386956 0.6486001
0.012364421 -0.17324358 0.63557196
0.0043514222 0.037486434 0.23833895
0.0042704232 0.080735445 0.22670317
0.0062924214 -0.1524536 0.51630116
0.0011614226 0.51265144 -0.21860313
0.0030924231 0.33045644 0.05794096
0.0071734227 -0.22487658 0.64253712
0.0071284212 -0.17317259 0.63606215
-0.0011345781 0.0010844469 0.25131083
-0.0015535764 0.14876544 0.19790411
-0.0043185763 0.48308742 -0.15410519
-0.0020885766 0.26069045 0.12990713
-0.0059355758 0.55465144 -0.35996389
0.0016464218 -0.44565862 0.60540295
0.0017184205 -0.38100559 0.61454821
0.0018304214 -0.27629262 0.62886381
-0.0041505769 -0.71981758 -0.13265896
-0.0071505792 0.14903843 0.2008009
-0.0065315776 -0.11233157 0.27176094
-0.0095775761 0.44096944 -0.07727623
-0.0078915767 -0.54395455 0.11583614
-0.0034265779 -0.22736955 0.62752819
-0.0099815764 -0.71785456 -0.12366295
-0.012144577 -0.029750586 0.26594019
-0.012741577 0.14931041 0.20369577
-0.014906574 0.41096541 -0.021811962
-0.015415575 0.44108742 -0.074781895
-0.016743574 0.51284641 -0.21315479
-0.013393577 0.26114142 0.13581991
-0.0088885762 -0.33471054 0.60509396
-0.01506358 -0.15217656 0.51833487
-0.016388576 -0.13027459 0.39182997
-0.02069458 0.41109341 -0.019359112
-0.018613581 0.19451642 0.17932606
-0.018789578 0.22216344 0.16255283
-0.019038577 0.26136643 0.13877201
-0.014041577 -0.17634958 0.61593199
-0.02159958 -0.7139526 -0.105762
-0.023540575 0.082360446 0.24217176
-0.024220575 0.19476843 0.18224001
-0.02510358 0.30011341 0.10442019
-0.025474574 0.33134943 0.071706772
-0.024828579 -0.54141957 0.12863207
-0.019704577 -0.38756353 0.58029604
-0.02738658 -0.71201164 -0.096849918
-0.028824579 0.0028893948 0.26666498
-0.029488575 0.15012342 0.21236277
-0.030025575 0.22264445 0.16840887
-0.034620579 0.51304042 -0.20771122
-0.030459579 -0.54057962 0.13288498
-0.024945576 -0.28407961 0.58421278
-0.031072576 -0.15197259 0.5198822
-0.03408758 -0.073571563 0.28953981
-0.036867578 0.33170342 0.077198982
-0.036082577 -0.53974158 0.13713121
-0.03017858 -0.18072855 0.58812475
-0.040000577 0.0402354 0.26296902
-0.03640658 -0.1519056 0.52040195
-0.043806579 0.41160041 -0.0095610619
-0.041006576 0.19552141 0.19096708
-0.041239578 0.22312242 0.17425394
-0.042101581 0.30067843 0.1125741
-0.035590578 -0.18219858 0.57879782
-0.044654574 -0.70623559 -0.070297241
-0.046839576 0.22336143 0.17717409
-0.041122574 -0.23817652 0.56254721
-0.048820581 -0.63271457 0.043631077
-0.049058575 -0.12987256 0.39506006
-0.051747579 0.15119743 0.22388792
-0.056166578 0.44190443 -0.057370186
-0.052436579 0.22359842 0.18008995
-0.058414575 0.51329643 -0.20045805
-0.046788577 -0.34674555 0.53957176
-0.056093577 -0.70242053 -0.052732944
-0.05638558 0.0046704412 0.28195
-0.056738574 0.084284425 0.26064396
-0.057300579 0.1514644 0.22676516
-0.056063581 -0.10833859 0.30135012
-0.060275581 0.37148842 0.047344208
-0.061881576 0.0050244331 0.28499794
-0.062847584 0.15173042 0.2296381
-0.064023584 0.26314342 0.16230392
-0.072776571 0.55525243 -0.33918905
-0.064093575 -0.53558356 0.15827179
-0.057769578 -0.35024053 0.52058697
-0.067552581 0.04192543 0.27827311
-0.065381572 -0.12967759 0.39670277
-0.072603583 0.41222644 0.002658844
-0.069191575 0.22430843 0.18882799
-0.070340574 0.30161244 0.12613106
-0.062906578 -0.18962759 0.53172779
-0.072860584 0.0057294369 0.29108906
-0.078351587 0.41235042 0.0050997734
-0.079360574 0.44236442 -0.047450066
-0.074768573 0.22454345 0.19173479
-0.078794584 -0.69487661 -0.017939091
-0.078173578 -0.025308549 0.30251217
-0.078537583 0.042595446 0.2843771
-0.077931583 -0.070363581 0.31454802
-0.080005586 0.19725645 0.21124983
-0.074371576 -0.35553056 0.49188185
-0.074226573 -0.29896957 0.49910784
-0.084021583 0.042929411 0.28742409
-0.084261581 0.085865438 0.27596283
-0.084991574 0.1527884 0.24110985
-0.083388582 -0.10615855 0.31767082
-0.090932578 0.44259241 -0.042500019
-0.086397588 0.2640174 0.17399788
-0.096989587 0.55546641 -0.33164787
-0.079940587 -0.35730654 0.48225498
-0.079788581 -0.30065459 0.48950291
-0.088353574 -0.62502259 0.080626011
-0.090515584 0.15305144 0.24397182
-0.091103584 0.1977464 0.21702385
-0.092851579 0.30235043 0.13694191
-0.093557581 0.33344743 0.10454988
-0.093965575 -0.62393659 0.085867882
-0.094975576 0.04359442 0.29350996
-0.10129958 0.41284344 0.014844894
-0.10585658 0.5137974 -0.18596601
-0.10012259 0.37259841 0.066689014
-0.10702758 0.41296643 0.017280102
-0.11511758 0.55562443 -0.32599783
-0.096425578 -0.25410956 0.46713686
-0.10516459 -0.62177354 0.096330166
-0.10567358 0.0078223944 0.30929422
-0.10515058 -0.10443556 0.33066988
-0.10871959 0.26480544 0.18465996
-0.10239458 -0.36447662 0.44343615
-0.10221559 -0.30745655 0.4507699
-0.11280759 -0.68729657 0.01736784
-0.11091357 -0.023137569 0.32065487
-0.11256458 0.15409541 0.25540209
-0.11846958 0.41321042 0.022142887
-0.10769758 -0.2573666 0.44769001
-0.10751659 -0.20180058 0.45484781
-0.11635157 -0.022778571 0.32366991
-0.11430758 -0.12911159 0.40173817
-0.11806458 0.15435541 0.2582531
-0.11599858 -0.10357958 0.33714914
-0.12746958 0.48521441 -0.10087919
-0.12279259 0.37322342 0.077701092
-0.11958858 -0.52743357 0.20008898
-0.11353558 -0.31089455 0.43121815
-0.11317258 -0.20334756 0.44509983
-0.12409358 -0.68502063 0.028030872
-0.11974159 -0.12905055 0.40230703
-0.12473358 0.22663343 0.217803
-0.13541459 0.51410341 -0.17691898
-0.13946758 0.55558443 -0.32669592
-0.11922458 -0.31262356 0.42139292
-0.12771858 0.045570433 0.31170797
-0.12439258 -0.16561657 0.43078899
-0.12839358 0.11556745 0.28757
-0.13706058 0.44349343 -0.022745132
-0.13026159 0.22686243 0.22068691
-0.13207358 0.30362344 0.15579319
-0.13410158 0.37353343 0.083197117
-0.12474158 -0.26229757 0.41828299
-0.13264059 -0.021708548 0.33269882
-0.13315858 0.045896411 0.31473207
-0.13385957 0.11584044 0.29039383
-0.14130658 0.41369441 0.03185606
-0.13578458 0.22709143 0.22356892
-0.13652258 0.26577842 0.19794893
-0.13858658 0.33480942 0.12629604
-0.13610259 -0.52503055 0.21251488
-0.13086858 -0.37358862 0.39421177
-0.13045958 -0.26395255 0.40841722
-0.14095858 -0.68163162 0.043948174
-0.13855258 -0.6153596 0.12746906
-0.13805959 -0.021353602 0.3357029
-0.13859259 0.046222448 0.31775284
-0.13603158 -0.12886959 0.40403318
-0.13763358 -0.10188156 0.35007095
-0.15071858 0.48560643 -0.090812206
-0.14419459 0.33497843 0.12900591
-0.14159358 -0.52423352 0.21664619
-0.13619559 -0.26561457 0.3985219
-0.14436857 0.089273453 0.30942678
-0.14146058 -0.12880957 0.40461206
-0.15270159 0.41393441 0.03670311
-0.15652058 0.48570344 -0.088298798
-0.16412158 0.55524945 -0.33710623
-0.14707758 -0.52343959 0.22077084
-0.14215758 -0.31959957 0.38179207
-0.14172758 -0.21116859 0.39588594
-0.16231959 0.48580042 -0.085786819
-0.15079959 -0.44509357 0.28078222
-0.14817558 -0.37913662 0.36429119
-0.14749458 -0.21275055 0.38594389
-0.15774558 -0.67827255 0.059774876
-0.15455659 0.010903418 0.33642721
-0.15293059 -0.13141757 0.38677788
-0.16408159 0.41417342 0.041547775
-0.17648058 0.55508041 -0.34231091
-0.16028258 0.047516406 0.32981205
-0.15927358 -0.17634958 0.36025
-0.16190258 0.15640742 0.28098917
-0.16333058 0.22822642 0.23795176
-0.18266559 0.55499643 -0.34491587
-0.16791858 0.37445444 0.099636078
-0.16889258 -0.67604953 0.070275784
-0.16607758 0.090489447 0.32151794
-0.16974358 0.26693043 0.21384001
-0.17353858 0.37460643 0.10236979
-0.17076458 0.011914432 0.34542513
-0.17281657 0.15691441 0.28665304
-0.16992858 -0.099367559 0.36935902
-0.18112259 0.41452941 0.048803806
-0.18547258 0.48618641 -0.075754166
-0.18843658 0.51464343 -0.16065216
-0.19505358 0.55482644 -0.35012293
-0.17775558 0.33597943 0.14522886
-0.17615658 0.01224941 0.34841919
-0.18865058 0.44448242 -0.00062179565
-0.17921758 0.20157743 0.26290512
-0.20125358 0.55474144 -0.35272789
-0.17984459 -0.51871663 0.24539614
-0.18189558 0.048796415 0.34182978
-0.18230858 0.091393411 0.33055782
-0.18065158 -0.098537564 0.37576199
-0.19702359 0.48637742 -0.070746899
-0.20745958 0.55465543 -0.3553319
-0.18324758 -0.4407056 0.30495405
-0.18244058 -0.38615352 0.32696009
-0.18692659 0.012918413 0.35440111
-0.18610558 -0.1740886 0.37628222
-0.18827358 0.11853343 0.31852818
-0.18600458 -0.098124564 0.37896013
-0.20279358 0.48647243 -0.068245888
-0.21366958 0.55457044 -0.35793591
-0.19597858 0.37521142 0.11328697
-0.18863258 -0.43998152 0.30896282
-0.18633258 -0.27056652 0.37021399
-0.19198859 -0.017851591 0.36560822
-0.19145559 -0.17364055 0.37947798
-0.20577557 0.44480741 0.006729126
-0.21192859 0.51487839 -0.15342999
-0.19613658 -0.51638359 0.25762796
-0.19151059 -0.21422458 0.37804794
-0.19897859 -0.60388559 0.18365383
-0.19767958 0.013582408 0.36037207
-0.20002058 0.15816945 0.30077314
-0.19669858 -0.097301602 0.38534498
-0.21147759 0.44491541 0.0091781616
-0.20106159 0.20251042 0.27428818
-0.20281459 0.26806343 0.22967196
-0.20155658 -0.51560956 0.26169682
-0.20764558 -0.66836756 0.10672283
-0.20304759 0.013913453 0.36335278
-0.2131476 -0.66728252 0.11189222
-0.20807458 -0.016818583 0.37453079
-0.20926358 0.092884421 0.34557581
-0.20747958 -0.17230159 0.38905191
-0.20736958 -0.096482575 0.39171791
-0.21010958 -0.43710262 0.32494402
-0.20753758 -0.21282756 0.38762522
-0.21864159 -0.66620058 0.11704922
-0.21528758 -0.60081857 0.19878006
-0.21739657 0.20320445 0.2828021
-0.24479757 0.55414045 -0.37096405
-0.22393058 0.37595743 0.12689018
-0.21777059 -0.51330155 0.27386189
-0.21465759 -0.38252455 0.34813976
-0.21953358 0.051006436 0.36276388
-0.22070859 0.1201154 0.33531094
-0.21827359 -0.060684562 0.39221621
-0.23424359 0.44534242 0.018958092
-0.22477759 0.26880944 0.24019194
-0.25103858 0.55405343 -0.37357092
-0.22780459 0.33745143 0.16944599
-0.22000857 -0.38192457 0.35165691
-0.23851459 -0.77438563 -0.080855846
-0.21819757 -0.21190256 0.39399385
-0.22960658 -0.66404659 0.12733698
-0.22411858 -0.015793562 0.38343191
-0.22447558 0.015229404 0.37525606
-0.22540458 0.093709409 0.35399199
-0.22360657 -0.060325563 0.39517021
-0.23992558 0.44544843 0.021399021
-0.23334457 0.33761242 0.1721282
-0.23508258 0.37625343 0.13231993
-0.22854958 -0.51177353 0.2819438
-0.22444858 -0.32115358 0.37587881
-0.2287726 -0.17053258 0.40177202
-0.22865359 -0.09485656 0.40442991
-0.24331059 0.41580942 0.075318813
-0.24560358 0.44555444 0.023838997
-0.23573457 0.26917943 0.24544382
-0.26353458 0.55388045 -0.37878418
-0.23887958 0.33777341 0.17480898
-0.23392959 -0.51101261 0.28597593
-0.23151259 -0.43437058 0.34022713
-0.24949659 -0.77054161 -0.063572884
-0.22883557 -0.21098155 0.400352
-0.23408259 -0.17009258 0.4049449
-0.24894159 0.41592342 0.07772398
-0.24297158 0.30713642 0.20918703
-0.24621557 0.37654743 0.13774204
-0.23930158 -0.51025361 0.29000092
-0.23686157 -0.43374652 0.34375
-0.24230857 -0.59576553 0.22380209
-0.25456858 0.41603741 0.080123901
-0.24528159 0.23154444 0.28077221
-0.26028156 0.48740941 -0.043299198
-0.24847259 0.30730644 0.21184015
-0.24993859 0.33809441 0.18016291
-0.24220358 -0.43312353 0.34727001
-0.24135159 -0.3795436 0.36568213
-0.24039657 -0.31946856 0.38632298
-0.26042455 -0.76672655 -0.046398163
-0.24768858 -0.59476453 0.22877884
-0.2468686 0.094788432 0.36507893
-0.24468957 -0.16921657 0.41128206
-0.24462159 -0.12822258 0.4127202
-0.28231758 0.55361843 -0.38660908
-0.25546256 0.33825344 0.18283987
-0.2466756 -0.37895161 0.36917877
-0.24570258 -0.31891054 0.38979578
-0.24484758 -0.26474863 0.40794182
-0.25306156 -0.5937646 0.23374796
-0.25115556 0.016856432 0.39007998
-0.25222358 0.095056415 0.36784697
-0.25409555 0.16063142 0.32886314
-0.27630958 0.51550746 -0.13359118
-0.26230457 -0.65766054 0.15796804
-0.27393857 0.44607943 0.036024094
-0.26076257 0.20502841 0.30542183
-0.26649657 0.33857241 0.18818378
-0.26843357 0.37713143 0.14856482
-0.26073158 -0.50723654 0.30605412
-0.25534457 -0.2087006 0.41619301
-0.26772556 -0.65660554 0.16304111
-0.26179457 0.017500401 0.39599085
-0.26370656 0.12218845 0.35757685
-0.27704155 0.41649044 0.08972311
-0.28329557 0.48767042 -0.035906792
-0.27200657 0.33873042 0.19085503
-0.26352155 -0.43064862 0.36131096
-0.26260856 -0.37718552 0.37964392
-0.26158556 -0.31724364 0.40019178
-0.28265157 0.41660342 0.092121124
-0.27156058 0.20547843 0.31105709
-0.29381156 0.51567441 -0.1281848
-0.27591658 0.30815443 0.22507477
-0.26687056 -0.31669062 0.40365076
-0.26601258 -0.26283354 0.42058706
-0.27199855 -0.012764573 0.41000509
-0.27241656 0.018142402 0.401896
-0.27360156 0.096122444 0.37889481
-0.27111956 -0.16704756 0.42707109
-0.27104557 -0.12614858 0.42850113
-0.27695256 0.20570242 0.31386995
-0.27939957 0.27063942 0.26638508
-0.28505456 0.37756541 0.15666389
-0.27320457 -0.37601656 0.38660192
-0.27129057 -0.26235753 0.42373991
-0.27772057 0.018461406 0.40484285
-0.27821457 0.054400444 0.39541721
-0.27893555 0.096386433 0.38165188
-0.27639055 -0.16661656 0.43022013
-0.27976155 0.12295443 0.36589479
-0.29385856 0.41682741 0.096910954
-0.28234056 0.20592642 0.31668186
-0.28318357 0.23304945 0.30059481
-0.28851557 0.33920342 0.19885683
-0.27945158 -0.42880958 0.3718009
-0.27656457 -0.2618826 0.42689085
-0.28352156 0.054703414 0.39836979
-0.28158057 -0.12532657 0.434793
-0.28510356 0.1232084 0.36866188
-0.28196856 -0.056429565 0.42750502
-0.29945657 0.41693944 0.099302769
-0.28772357 0.2061494 0.31949091
-0.30628657 0.48791343 -0.028883934
-0.29400957 0.33936042 0.20151901
-0.29611257 0.37785342 0.16205502
-0.28377858 -0.37485355 0.3935442
-0.28684056 -0.12491655 0.43793488
-0.29044256 0.12346143 0.37142897
-0.31202757 0.48797342 -0.027129173
-0.31711057 0.51589543 -0.12098122
-0.29779658 0.30882344 0.23563385
-0.28905657 -0.37427455 0.39700794
-0.29209757 -0.12450856 0.44107294
-0.31345257 0.44680142 0.053031921
-0.29799357 -0.50203663 0.33393097
-0.29433158 -0.37369663 0.40046883
-0.31428456 -0.74807256 0.037905216
-0.29235858 -0.26046556 0.43632889
-0.29889056 0.019731402 0.41661119
-0.29941556 0.055610418 0.40721798
-0.31908256 0.44690344 0.055456161
-0.30384958 0.20681441 0.32790995
-0.30871457 0.30915642 0.24090385
-0.31267157 0.37828141 0.17012787
-0.30061656 -0.42637962 0.38573217
-0.29959956 -0.37312061 0.40392494
-0.30254656 -0.089348555 0.44816875
-0.32181355 0.41738242 0.10886621
-0.30921558 0.20703542 0.33071089
-0.30898356 -0.010457575 0.43054008
-0.30779958 -0.088989556 0.45107698
-0.31012055 -0.37197262 0.41082716
-0.30894658 -0.31231958 0.43117714
-0.31472057 0.020674407 0.42541122
-0.31841457 0.1635024 0.36230707
-0.33296958 0.41760144 0.11363888
-0.34069657 0.48827142 -0.018352985
-0.34617656 0.51616645 -0.11197901
-0.31643358 -0.42457455 0.39613914
-0.31537256 -0.37140054 0.41427183
-0.31323558 -0.20378357 0.45078182
-0.32684755 -0.64521354 0.218225
-0.32238656 0.12496841 0.38799
-0.31941456 -0.31124157 0.43802214
-0.33217758 -0.64419657 0.22318792
-0.32581657 0.057105422 0.42191601
-0.32907557 0.16397244 0.36785412
-0.32407257 -0.053665578 0.45084286
-0.34717858 0.44740942 0.067564011
-0.33593658 0.30997941 0.25405407
-0.33108255 0.057402432 0.42484903
-0.32875156 -0.1216796 0.46296501
-0.33300057 0.12546545 0.39349604
-0.34967956 0.41792941 0.12079382
-0.33696055 0.23515141 0.32873917
-0.33109856 -0.36969453 0.42458677
-0.32903957 -0.25720257 0.45825195
-0.33526757 -0.0088346004 0.44513798
-0.33455357 -0.052983582 0.45665598
-0.35524157 0.41803741 0.12317705
-0.35839257 0.44760942 0.072399139
-0.35116458 0.37926742 0.1889081
-0.33507457 -0.30963463 0.44825983
-0.34101757 0.0222314 0.44003487
-0.34261757 0.099508405 0.41459608
-0.33918256 -0.1208806 0.46919394
-0.33922756 -0.086854577 0.46848011
-0.36080256 0.41814542 0.12555695
-0.34666458 0.2085644 0.35027122
-0.34685758 0.058287442 0.43363285
-0.34789756 0.099764407 0.41732788
-0.34484255 -0.16197258 0.46522093
-0.34447858 -0.12068158 0.47092199
-0.35034758 0.16490442 0.3789258
-0.34444958 -0.086502552 0.47137213
-0.34501857 -0.052304566 0.46245909
-0.35199755 0.20878041 0.35305882
-0.34520155 -0.20271355 0.45959616
-0.35444757 -0.57783157 0.31464291
-0.35210556 0.058581412 0.43655682
-0.35056058 -0.12223458 0.4604578
-0.35024357 -0.051966548 0.46535683
-0.38072956 0.48867843 -0.0060739517
-0.35129556 -0.20441359 0.44909096
-0.35735056 0.058874428 0.43947887
-0.35844457 0.10027343 0.42279005
-0.36095756 0.16536742 0.38444901
-0.35601857 -0.052748561 0.4598031
-0.37745857 0.41846842 0.13269377
-0.36596957 0.27346843 0.30797386
-0.37725955 -0.72658259 0.13573122
-0.36501157 -0.5762946 0.32259321
-0.36197355 0.023461401 0.45169115
-0.36317158 -0.16687459 0.43365717
-0.36474457 0.12694043 0.40996695
-0.36625656 0.16559744 0.38720894
-0.37388256 0.31111243 0.27239513
-0.37860158 0.37990442 0.20134306
-0.36454856 -0.31607455 0.4129281
-0.38242856 -0.72483355 0.14372492
-0.36406556 -0.26384562 0.420187
-0.36354858 -0.2078346 0.42797184
-0.36753157 0.023182452 0.44972086
-0.36782756 0.059458435 0.44531584
-0.37002257 0.12718445 0.41270685
-0.39785057 0.48885041 -0.00081205368
-0.38408956 0.38002142 0.20367479
-0.37072656 -0.31799263 0.4022522
-0.37398356 -0.010451555 0.43467188
-0.37367657 0.021873415 0.4391799
-0.37423655 0.10103244 0.43096685
-0.38616556 -0.19368857 0.25598717
-0.37968057 0.23679441 0.3511138
-0.37860557 -0.49642962 0.36687613
-0.39273357 -0.72135562 0.15964413
-0.38656658 -0.23583156 0.25011015
-0.37948155 0.058064401 0.43383694
-0.38213056 0.16628444 0.39547396
-0.38095656 -0.094938576 0.41247892
-0.40925157 0.48896343 0.0026960373
-0.41568056 0.51679844 -0.090400219
-0.38745856 0.27415743 0.31831312
-0.38420156 -0.43121952 0.36547709
-0.39029858 -0.6331926 0.27718687
-0.38634956 -0.013201594 0.41344404
-0.38603157 0.019240439 0.41798306
-0.39889356 -0.19709957 0.23405981
-0.39775255 -0.080738604 0.25037289
-0.41494957 0.48901942 0.004447937
-0.39548156 0.31175041 0.28284311
-0.40299058 -0.71790355 0.17546511
-0.39930657 -0.23939556 0.22814178
-0.40365556 -0.034180582 0.24616289
-0.41068056 0.41910541 0.14694214
-0.41425157 0.44859344 0.096507072
-0.42064556 0.48907644 0.0062022209
-0.39814457 -0.57647556 0.32399416
-0.40625957 0.31206644 0.28805876
-0.41147357 0.38060242 0.21532011
-0.41327056 -0.35516959 0.19024611
-0.42619756 -0.7968536 0.0099029541
-0.41214058 -0.2429896 0.20601416
-0.41646758 -0.037033558 0.22415876
-0.41734555 -0.12286258 0.21204996
-0.43202758 0.48918742 0.0097079277
-0.43876958 0.5170024 -0.083211899
-0.41388756 0.34270343 0.25971317
-0.41859058 -0.24479753 0.19489098
-0.41082156 -0.58132559 0.3019681
-0.42215955 0.033826411 0.22329283
-0.42724356 0.41941944 0.15405321
-0.42240357 0.38083243 0.21997213
-0.42623058 -0.35920554 0.16784716
-0.41769457 -0.63210863 0.2840929
-0.43027756 -0.12605256 0.18980312
-0.42988056 -0.08832556 0.19514418
