# .PCD v0.7 - Point Cloud Data file format
VERSION 0.7
FIELDS x y z
SIZE 4 4 4
TYPE F F F
COUNT 1 1 1
WIDTH 1377
HEIGHT 1
VIEWPOINT 0 0 0 1 0 0 0
POINTS 1377
DATA ascii
0.2266261 0.048672616 0.23038721
0.22781511 0.15667564 0.13958406
0.2281111 0.18355161 0.11698818
0.2289561 0.26032263 0.05244112
0.2321701 0.55238765 -0.19311619
0.2205791 -0.45101035 0.69236088
0.2290971 -1.0782653 0.041658878
0.23044211 -0.97995639 -0.061081886
0.2225951 -0.31760836 0.538342
0.2325571 -0.82541132 -0.22262478
0.2230691 -0.27453834 0.50213099
0.23327911 -0.77257037 -0.27781105
0.22036411 -0.51324034 0.70879507
0.2283161 0.80194563 -0.35855675
0.22173311 0.11349863 0.18027496
0.21927011 -0.12639934 0.38183498
0.2247071 0.40320864 -0.063130856
0.2251491 0.44622862 -0.099277973
0.2228481 0.22207463 0.089053154
0.2232431 0.26062864 0.056660175
0.22590911 0.52032262 -0.16152906
0.22678211 0.60535765 -0.23297405
0.21643411 -0.40497541 0.61401081
0.22347011 -1.0792353 0.038089275
0.2240541 -1.0335853 -0.0096549988
0.2255221 -0.91863537 -0.12985897
0.22627711 -0.85957241 -0.19166899
0.2182371 -0.22706538 0.46641111
0.21454909 -0.053021371 0.32447195
0.2155261 0.049538612 0.23836088
0.21613911 0.11389363 0.18432903
0.21681011 0.18425661 0.12525225
0.22031811 0.55262065 -0.18402576
0.2182121 0.33152664 0.0016050339
0.2231691 0.92825663 -0.43525887
0.22325709 0.96273065 -0.4430089
0.22044811 -0.86045432 -0.19549274
0.22147211 -0.77426839 -0.28569794
0.21620311 0.80185866 -0.35114002
0.21282311 0.37268263 -0.028421879
0.21347311 0.44660264 -0.090442181
0.21373811 0.47682664 -0.11580086
0.21685611 0.84662366 -0.41347313
0.20386811 -0.023272395 0.30764484
0.21016312 0.80182266 -0.34810305
0.2049741 0.11467963 0.19242096
0.20789011 0.47699264 -0.11135912
0.2061561 0.26154163 0.069284916
0.2098251 0.71740061 -0.31292582
0.2008791 -0.40399241 0.61900806
0.20631111 -1.1386443 0.053098202
0.20190811 -0.27290136 0.51179886
0.2096391 -0.77596641 -0.29356194
0.1999701 -0.51215637 0.71367598
0.19865611 0.010730624 0.28187895
0.19894211 0.050713658 0.24918985
0.1976891 -0.12486535 0.39273691
0.19791511 -0.093126357 0.36678791
0.2007041 0.29314163 0.047261238
0.2048911 0.96236563 -0.43258381
0.2029231 -0.86311531 -0.20698595
0.1966351 -0.27260834 0.51352501
0.19697011 -0.22566438 0.47514582
0.2037131 -0.77681839 -0.29749918
0.19211711 -0.15495634 0.41933489
0.19385111 0.11526966 0.19848108
0.19231111 -0.12461138 0.39453506
0.19251511 -0.092881382 0.36860085
0.1957351 0.40427664 -0.041327953
0.19621511 0.47732365 -0.10248899
0.19480011 0.26214662 0.077675819
0.1967131 0.55308366 -0.16592312
0.1952631 0.33256263 0.018718243
0.1986441 0.88494265 -0.41177177
0.1987201 0.92784065 -0.42139673
0.19779411 0.71740764 -0.3035078
0.19166511 -0.22538435 0.47689581
0.18855511 0.15894562 0.16486406
0.1902141 0.44734362 -0.072841167
0.1889251 0.22386664 0.11182213
0.18479311 -0.44867134 0.70365
0.18931711 -1.1378824 0.055613041
0.18124011 -0.19006538 0.45200014
0.18141811 -0.15443438 0.42289782
0.18257511 0.077402651 0.23354197
0.18420711 0.40464762 -0.033737183
0.18311611 0.18593061 0.14490223
0.18442111 0.44751462 -0.068750858
0.1849601 0.55331361 -0.15690708
0.18579811 0.71741462 -0.29411793
0.1801791 -0.40269434 0.6256671
0.18555111 -0.83240342 -0.25361395
0.1808331 -0.27173334 0.51870298
0.17961311 -0.51113033 0.71835899
0.1765141 -0.050990343 0.34043026
0.17741311 0.15929461 0.16873407
0.1787751 0.47774163 -0.091277122
0.1776911 0.22417763 0.11575699
0.17798911 0.29391664 0.058815002
0.17815611 0.33305663 0.026856899
0.1803541 0.84624964 -0.39282703
0.1803991 0.88469762 -0.40143919
0.1793251 0.60599762 -0.19633293
0.1794741 0.64006162 -0.22479486
0.1804491 0.92753065 -0.41103506
0.1798121 0.71741766 -0.28943396
0.17799711 -1.1373854 0.057278156
0.1784741 -1.0399444 -0.033761978
0.1755721 -0.27144438 0.52042913
0.17120011 -0.02191937 0.31871986
0.1723261 0.29405063 0.060817242
0.17429011 0.84618765 -0.3893981
0.1725311 -1.0858834 0.013682842
0.1701591 -0.31423938 0.55732012
0.17372011 -0.83357334 -0.25878716
0.1657681 -0.021696389 0.32056284
0.16804311 0.80162364 -0.33109999
0.1660521 0.077991605 0.23922205
0.16740611 0.55352062 -0.14879179
0.1677701 0.68135661 -0.25310183
0.16684511 -1.0863373 0.012022018
0.16779611 -0.83398032 -0.26058817
0.16505811 -0.27086639 0.52387714
0.1599811 -0.18899435 0.45905018
0.1605511 0.078186631 0.24111414
0.1606331 0.11638463 0.20995426
0.16012111 -0.12310338 0.40530491
0.1614051 0.47797662 -0.084992886
0.16221511 0.88453162 -0.39440393
0.16224411 0.92736763 -0.4055829
0.15952711 -0.40141034 0.63231897
0.16186911 -0.83438838 -0.26238918
0.1599071 -0.22371835 0.48737717
0.15501711 0.052345634 0.26423502
0.15467411 -0.18872738 0.46081305
0.15517011 0.15998465 0.17646217
0.15568511 0.52163762 -0.1184411
0.1553621 0.29445064 0.066813946
0.15580511 0.60615462 -0.18735695
0.15585411 0.64018065 -0.21510172
0.1542331 -0.44671738 0.71325016
0.15554911 -1.0417304 -0.040501118
0.1544971 -0.31334436 0.56242895
0.1546251 -0.22344434 0.48912096
0.14956011 0.078575611 0.24489403
0.14977111 0.37441462 0.0037369728
0.14989811 0.55368364 -0.14239502
0.14971411 0.29458362 0.06881094
0.1498111 -1.0421804 -0.04218483
0.14986111 -0.9896034 -0.09903717
0.14924911 -0.35981739 0.60225582
0.14997511 -0.86847138 -0.23002195
0.15005611 -0.78238034 -0.32311296
0.14406811 0.078769624 0.24678326
0.14406811 -0.12235838 0.4106822
0.14406811 -0.090703368 0.38488722
0.14406811 0.22509864 0.12753916
0.14406811 0.52176565 -0.11421108
0.14406811 0.55373764 -0.14026403
0.14406811 0.33378664 0.038969994
0.14406811 0.64023364 -0.21074772
0.14406811 0.92720866 -0.40022516
0.14406811 -1.0881664 0.0053839684
0.14406811 -0.51011741 0.72302723
0.13809611 0.76217866 -0.30788994
0.1387241 -0.12211239 0.4124732
0.1383191 0.44821164 -0.052128792
0.13829711 0.47828561 -0.076626778
0.1384771 0.22525063 0.12949991
0.13842811 0.29484764 0.072803974
0.1380261 0.8843646 -0.38728619
0.1380091 0.96148962 -0.40739202
0.13821611 -0.92832637 -0.16972494
0.13889311 -0.35920441 0.60561705
0.13886011 -0.3124584 0.56753588
0.13816011 -0.86930943 -0.23358583
0.1381291 -0.83603239 -0.26958895
0.13899611 -0.50997841 0.72368813
0.1332801 -0.049156368 0.35505104
0.13212711 0.76216561 -0.3056531
0.1334261 -0.15212435 0.43890715
0.13289011 0.22540164 0.13146114
0.1327911 0.29497862 0.074800014
0.1327351 0.33402663 0.043003082
0.13196811 0.92710364 -0.3966589
0.13219011 0.71743262 -0.26922512
0.13391611 -0.44543433 0.71964407
0.1324781 -0.99093139 -0.10417604
0.1321861 -0.8364464 -0.27138996
0.1335921 -0.26915538 0.53421211
0.1335261 -0.22235334 0.49609804
0.1275351 0.11748165 0.22139883
0.1269871 0.37484664 0.011883259
0.12660511 0.55389762 -0.13387918
0.12884411 -0.44511533 0.72124195
0.1268281 -1.0439913 -0.048920155
0.1262411 -0.83686233 -0.27319002
0.12609111 -0.78399134 -0.33043718
0.1225021 -0.048704386 0.35870028
0.1224201 -0.019934356 0.33528614
0.12012611 0.80151862 -0.32196903
0.1227951 -0.15161836 0.4424572
0.1218311 0.18773162 0.16628313
0.12161411 0.26404664 0.10417604
0.12124611 -1.0900164 -0.0012478828
0.12087411 -0.99182332 -0.10760212
0.1204161 -0.87057436 -0.23892879
0.11689711 0.013922632 0.30975723
0.11524811 0.47859162 -0.068276882
0.1157601 0.33438462 0.049044132
0.1138871 0.88420063 -0.38018274
0.1183631 -0.39888835 0.6456089
0.11821811 -0.35798931 0.61233425
0.1140881 -0.78480339 -0.33409882
0.1116161 -0.019499362 0.33896303
0.1108461 0.16134161 0.19188595
0.1096231 0.44863862 -0.041770935
0.1094951 0.47866762 -0.066193104
0.10780211 0.92689663 -0.3895359
0.1086311 0.68148965 -0.23114586
0.10857211 -0.87142336 -0.24248981
0.1083831 -0.83811438 -0.27859116
0.10233811 0.76210064 -0.29448605
0.10585411 0.054135621 0.28110695
0.1068721 -0.15086639 0.44778013
0.1041071 0.40603763 -0.0049967766
0.1037461 0.47874361 -0.064109802
0.1046551 0.29563063 0.084765911
0.10294311 0.64041662 -0.19555378
0.1017141 0.96112466 -0.39668179
0.10379711 -1.0458233 -0.055649757
0.10766611 -0.3107084 0.57773781
0.10063411 0.014544606 0.31531715
0.1000451 0.11838061 0.23092318
0.10122111 -0.088815391 0.39932394
0.098587111 0.37538064 0.022043228
0.097572103 0.55416262 -0.12326288
0.095816106 0.88407862 -0.37486696
0.097275108 0.60652465 -0.16582203
0.095218107 0.014750659 0.31717014
0.095877111 -0.088582397 0.40112925
0.092916101 0.37548664 0.024073124
0.09427911 0.16184264 0.19765806
0.098455101 -0.44352531 0.72932291
0.093069106 -1.1413404 0.043610096
0.092263103 -1.0467473 -0.059014797
0.097291104 -0.31013238 0.58113623
0.090780109 -0.87270641 -0.24783087
0.098452106 -0.50891042 0.728899
0.090762109 -0.11992335 0.42857599
0.087032109 0.40632764 0.0011358261
0.088764101 0.16200864 0.1995821
0.087814108 0.29601765 0.090734005
0.083782107 0.88399762 -0.37132692
0.0836851 0.92669165 -0.38243008
0.083607107 0.96094561 -0.39134073
0.0850811 0.68154061 -0.2224021
0.085993104 -0.99452734 -0.11786985
0.085404105 -0.93225837 -0.18544579
0.092108101 -0.30984437 0.5828371
0.084528103 -0.83980036 -0.28578615
0.084027104 -0.78685331 -0.34324503
0.093389109 -0.50878239 0.72954512
0.078576103 0.76205063 -0.28557873
0.078283109 0.80145365 -0.31606913
0.084398106 0.015161633 0.32087326
0.085961103 -0.18534034 0.483675
0.079523109 0.64051962 -0.18690109
0.077663109 0.92664063 -0.38065672
0.077578105 0.9608866 -0.38956118
0.080719106 -1.0476754 -0.062375069
0.086925104 -0.30961835 0.58418894
0.086230107 -0.21994334 0.5117712
0.08832711 -0.50865638 0.73018694
0.078992106 0.01536566 0.32272291
0.080395103 -0.14962637 0.45664787
0.077743106 0.16233861 0.20342302
0.077516109 0.18900561 0.181777
0.076869108 0.26514962 0.11997128
0.073678106 0.64054561 -0.18474102
0.082458109 -0.39740133 0.65368605
0.072582103 -0.84064937 -0.28937912
0.074162103 -0.046702385 0.375103
0.066717103 0.76202565 -0.28113508
0.074829109 -0.11920637 0.43393707
0.071003102 0.29640064 0.096693993
0.065628104 0.92653966 -0.37711096
0.065527104 0.96076864 -0.38600683
0.067457102 0.68157965 -0.21585798
0.067127109 0.71745062 -0.24496412
0.078187108 -0.44345236 0.72988224
0.067743108 -0.93358934 -0.19067717
0.067014106 -0.87443137 -0.25494003
0.067796104 0.055496633 0.29419804
0.069201104 -0.087554395 0.4091692
0.066469103 0.18931961 0.18564415
0.065715104 0.26542163 0.1239109
0.065407105 0.29652762 0.098679066
0.059615105 0.92648965 -0.37533998
0.059507102 0.96070963 -0.38423109
0.064697102 -1.1422924 0.040576935
0.063415103 -1.0482674 -0.064393997
0.061855108 -0.93394041 -0.19203281
0.063430108 -0.046496391 0.37687683
0.062097102 0.081606627 0.27504826
0.064181104 -0.11917436 0.43429613
0.061235107 0.16283065 0.20918322
0.058193102 0.44939265 -0.023197174
0.057875104 0.47934163 -0.047482014
0.060550109 0.22733262 0.15687704
0.057414107 0.52270067 -0.082643032
0.054468103 0.84473664 -0.30771017
0.053751104 0.8837986 -0.36249208
0.055347107 0.71745366 -0.24057198
0.057367109 0.015904605 0.32772398
0.059583105 -0.18497437 0.48642397
0.056222104 0.11975062 0.24568415
0.053325102 0.37621865 0.038248062
0.052978106 0.40690163 0.013374805
0.052157104 0.47941464 -0.045408726
0.047754109 0.88375962 -0.36072588
0.048677102 -0.84191334 -0.29460907
0.042573102 0.80132061 -0.30414772
0.049913108 0.18971366 0.19056225
0.049012102 0.26582563 0.1298151
0.045922108 0.52282166 -0.078454018
0.048638105 0.29690564 0.10462713
0.042585105 0.84466165 -0.30332994
0.044505104 0.64067262 -0.17395782
0.041596107 0.92633963 -0.37002993
0.046885103 -1.0936104 -0.013533115
0.055260107 -0.26649439 0.55096626
0.041843109 -0.78918731 -0.35338974
0.057976104 -0.50792241 0.73402023
0.049024105 -0.18495739 0.4866972
0.045715109 0.081685662 0.27605391
0.047815107 -0.087520361 0.40972424
0.042559102 0.33590063 0.075119972
0.052856103 -0.44337833 0.73059225
0.041555107 -0.017705381 0.35471725
0.030704103 0.80127162 -0.2996788
0.036391102 0.37647563 0.043327808
0.035989106 0.40716463 0.019083977
0.037840106 0.26587564 0.13069725
0.036923103 0.33591062 0.075373173
0.030716106 0.84458661 -0.29895401
0.029596105 0.92624164 -0.36649704
0.029449105 0.96041965 -0.37536573
0.032495104 -0.93394339 -0.19162178
0.035697103 0.015930653 0.32829285
0.038467102 -0.18494236 0.48696995
0.034266107 0.11977363 0.24626303
0.037560105 -0.11913538 0.43498898
0.033301108 0.18972862 0.19100189
0.031285107 0.33591363 0.075523853
0.023446105 0.9603616 -0.37359476
0.026465103 0.68166763 -0.20063496
0.025959104 0.71746063 -0.22961378
0.029735103 -1.0936184 -0.01328516
0.040830106 -0.35631835 0.62234211
0.039591104 -0.26646936 0.55137014
0.023803107 -0.78919435 -0.35312986
0.028777108 0.11977762 0.24640894
0.026211105 0.29699963 0.10641718
0.020093106 0.71746266 -0.22742605
0.036263108 -0.39730537 0.65485716
0.025015108 -1.1423033 0.041142941
0.020752102 -0.93395042 -0.19144917
0.027370103 -0.14937735 0.45916605
0.019394107 0.37648362 0.043783188
0.022226103 0.18973565 0.19129801
0.021652102 0.22763163 0.16136408
0.017172098 0.52300364 -0.071953773
0.020009108 0.33591962 0.075826168
0.0114481 0.96024764 -0.37005711
0.0142221 0.71746361 -0.22556019
0.018302113 -1.0936294 -0.013113022
0.013618112 -0.87511837 -0.25704384
0.012906104 -0.84193039 -0.29409218
0.0076171011 0.76191062 -0.26050711
0.019446105 0.015945613 0.32872391
0.022067107 -0.14937335 0.4593029
0.017799109 0.11978561 0.24670124
0.016089112 0.22763464 0.1615119
0.01437211 0.33592165 0.075976849
0.0069750994 0.84447962 -0.29249287
0.010074109 0.60698265 -0.13813114
0.0083221048 0.71746361 -0.22539902
0.013676107 -1.1423163 0.041316032
0.023923106 -0.26645136 0.55177784
0.01506111 -0.046441376 0.37814808
0.0010371059 0.80118161 -0.2913661
0.014029101 0.015948653 0.32886887
0.01337111 0.055746615 0.29743385
0.01574111 -0.08748734 0.41056681
0.0115951 0.16306365 0.21266603
0.0010191053 0.84447664 -0.2922349
0.003691107 0.64077663 -0.16466618
0.0024221092 0.71746361 -0.2252388
0.0080081075 -1.1423243 0.041405201
0.019414105 -0.30949736 0.58591986
0.0017601103 -0.87513137 -0.25686407
0.0096881092 -0.046437383 0.37829113
-0.0049208999 0.80118161 -0.29120398
0.012074098 -0.18491638 0.48766327
0.01039511 -0.087483346 0.41070795
0.0018701106 0.40717763 0.020001888
0.00062011182 0.47968161 -0.03726387
0.0030981004 0.33592564 0.076282024
0.015734106 -0.39728141 0.65539312
0.017560109 -0.50701332 0.73904991
0.0067961067 -0.18491238 0.48780203
-0.0032658875 0.37649062 0.044394016
-0.0045788884 0.44975063 -0.013468742
-0.012407899 0.92602766 -0.35843992
0.012332112 -0.44330037 0.73175716
0.0106031 -0.39727736 0.65552902
-0.0086078942 -0.93398833 -0.19099808
-0.012274891 -0.78923333 -0.35258484
-0.016836897 0.8011806 -0.29087782
0.00085510314 -0.14935839 0.45986605
-0.0049598962 0.16307062 0.21310997
-0.010295898 0.44975165 -0.01331377
-0.010852888 0.47968364 -0.036953926
-0.016850889 0.84447062 -0.29146194
-0.015278891 0.71746361 -0.22475815
-0.012851894 -0.99594235 -0.12175894
-0.014480889 -0.93399835 -0.19090509
0.0074641109 -0.50679839 0.74029398
-0.0076378882 0.015958607 0.32944727
-0.0096419007 0.11979765 0.24743795
-0.0056418926 -0.087476373 0.4111371
-0.0109929 0.18975061 0.19219017
-0.013062894 0.29701364 0.10747194
-0.013813898 0.33592963 0.076737881
-0.022806898 0.84446764 -0.29120302
-0.02416189 0.88346267 -0.34667206
-0.0030919015 -0.21960139 0.5154829
0.0024181008 -0.50669241 0.74091387
-0.01180689 -0.046429396 0.37886524
-0.012381896 -0.01766938 0.3561511
-0.028751895 0.8011806 -0.290555
-0.014368892 0.08172363 0.27765799
-0.01652889 0.18975163 0.1923399
-0.024474889 -0.99596632 -0.12156916
-0.008345902 -0.21959937 0.515625
-0.014316902 -0.18490535 0.48836803
-0.015051901 -0.14935434 0.46029186
-0.016331896 -0.087473392 0.41142416
-0.028060898 0.47968465 -0.03648901
-0.022848889 0.22764662 0.16256285
-0.029613897 0.55480266 -0.095812798
-0.031391889 0.64077866 -0.16371298
-0.0099248886 -0.39726937 0.656075
-0.032096893 -0.93403542 -0.19061804
-0.011740893 -0.30948138 0.58674717
-0.0076718926 -0.50648439 0.74214888
-0.023888901 0.015960634 0.32988405
-0.026107892 0.11979961 0.24788284
-0.021677896 -0.087473392 0.41156721
-0.027601898 0.18975163 0.19264126
-0.03379789 0.47968465 -0.03633213
-0.040673897 0.84446263 -0.29043007
-0.042171896 0.88345361 -0.34580278
-0.03811489 0.68168861 -0.19586277
-0.038879901 0.71746361 -0.22411585
-0.033147901 -1.0937294 -0.012283802
-0.012715891 -0.50638235 0.7427659
-0.045759901 0.7619096 -0.25905514
-0.024873897 -0.18490535 0.48865223
-0.025657892 -0.14935434 0.46057796
-0.031594887 0.11979961 0.24803209
-0.037934899 0.40718162 0.021082878
-0.038873896 0.44975263 -0.012537956
-0.033973888 0.22764662 0.16286612
-0.034817889 0.26590064 0.13265514
-0.040489897 0.52300966 -0.070389748
-0.048174888 0.88345063 -0.34551382
-0.048486888 0.92600363 -0.35670376
-0.018058896 -0.44327533 0.73265409
-0.037345901 -1.1424273 0.042153835
-0.041910902 -0.99601042 -0.12127686
-0.0221259 -0.30948138 0.58702803
-0.046711892 -0.84203541 -0.2931428
-0.048355892 -0.78930533 -0.35199976
-0.035626888 0.055756629 0.29875326
-0.043620899 0.40718162 0.021236897
-0.038067892 0.16307366 0.2140069
-0.038674891 0.18975163 0.19294119
-0.044588894 0.44975263 -0.01238203
-0.039536893 0.22764564 0.16301823
-0.048934892 0.64077866 -0.16323519
-0.054498896 0.92600065 -0.35641479
-0.052673891 -0.84205139 -0.29304314
-0.022800893 -0.50618231 0.74399281
-0.0393489 -0.017670393 0.35688114
-0.0576199 0.7619096 -0.25873184
-0.0362629 -0.14935738 0.46086597
-0.036971897 -0.11910337 0.43697691
-0.037712902 -0.087476373 0.41200304
-0.044210896 0.18975061 0.19309092
-0.050303891 0.44975263 -0.012226105
-0.0510059 0.47968364 -0.035862923
-0.052765891 0.55480266 -0.095182896
-0.060776889 0.96013761 -0.36509991
-0.0485899 -1.1415454 0.04554987
-0.051778898 -1.0482523 -0.061923027
-0.031413898 -0.35627842 0.62426186
-0.05863589 -0.84206736 -0.29294109
-0.063550889 0.7619096 -0.25857115
-0.0465139 0.055753648 0.29904699
-0.043058902 -0.08747834 0.412148
-0.054251894 0.37649262 0.045780182
-0.066522896 0.92599362 -0.35583591
-0.061614901 0.68168765 -0.1952219
-0.0624789 0.71746361 -0.22347403
-0.033251897 -0.44327235 0.733109
-0.035584897 -0.39727437 0.65677309
-0.059314892 -0.99579239 -0.11991882
-0.036573902 -0.3562814 0.624403
-0.037702888 -0.30948639 0.58745289
-0.06459789 -0.84208536 -0.29283905
-0.049423888 -0.046435356 0.3798852
-0.060679898 0.40717962 0.021703243
-0.05462189 0.16306865 0.21445704
-0.061735898 0.44975063 -0.011913776
-0.072410896 -0.78937232 -0.35159016
-0.057402894 0.055749655 0.29934597
-0.051264897 -0.18491638 0.48937321
-0.066365898 0.40717763 0.021859169
-0.06178689 0.22764063 0.1636219
-0.074279889 0.71746361 -0.22315407
-0.043457896 -0.44374037 0.73110104
-0.045919895 -0.39770031 0.65486097
-0.067217901 -1.0918554 -0.0045108795
-0.046935901 -0.35652339 0.62339783
-0.049185902 -0.26644236 0.55374622
-0.056542888 -0.18492037 0.48952007
-0.063526899 0.081712604 0.27899408
-0.059094891 -0.08748734 0.41259003
-0.075085893 0.52300662 -0.069446087
-0.0701859 0.33592463 0.07827282
-0.084186897 0.88343561 -0.34377813
-0.081144899 -0.87453842 -0.25209808
-0.06554389 -0.04644537 0.38032722
-0.066316888 -0.01768434 0.35761881
-0.087273896 0.76191062 -0.25792599
-0.067220896 0.01594466 0.33106804
-0.064439893 -0.087491393 0.41273594
-0.080851898 0.52300465 -0.069287777
-0.088328898 0.84446162 -0.28890181
-0.084017888 0.64077663 -0.16228008
-0.07663089 -1.1391804 0.054687977
-0.084720895 -0.93253434 -0.18293095
-0.070918888 -0.046450377 0.380476
-0.067176893 -0.18525636 0.48764181
-0.082579896 0.37648463 0.046555042
-0.086619899 0.52300364 -0.069129944
-0.089866892 0.64077562 -0.16211891
-0.096580893 0.92597961 -0.3543911
-0.096893892 0.96011865 -0.36336279
-0.064990893 -0.26710939 0.55023718
-0.078055888 0.015935659 0.33136702
-0.092385888 0.52300262 -0.068971157
-0.1025919 0.92597765 -0.35410118
-0.096869901 0.68168664 -0.19426203
-0.0978809 0.71746361 -0.22250891
-0.091660902 -1.0450634 -0.048722744
-0.093796894 -0.99311936 -0.10840893
-0.10506789 0.76191163 -0.25744295
-0.08537589 0.08169663 0.2795949
-0.093909889 0.37647963 0.046864033
-0.088503897 0.18972862 0.19430494
-0.096030891 0.44974163 -0.01097393
-0.098151892 0.5230006 -0.068814754
-0.091608897 0.29699662 0.10961723
-0.1062029 0.84446365 -0.28837919
-0.10156089 0.64077461 -0.16180086
-0.069069892 -0.44528735 0.7242732
-0.074341893 -0.3109014 0.58052015
-0.1059669 -0.83991337 -0.2819581
-0.075555891 -0.26763737 0.54741287
-0.076875895 -0.22058934 0.51141405
-0.087189898 -0.046969354 0.37690687
-0.083195895 -0.18599236 0.48330927
-0.0842219 -0.15028834 0.45598316
-0.085094899 -0.11991036 0.43273306
-0.099574894 0.37647665 0.047019958
-0.10048489 0.40716565 0.022790909
-0.094039887 0.18972462 0.19445705
-0.11419189 0.88342667 -0.34233189
-0.10740888 0.64077365 -0.16164112
-0.11461189 0.92597365 -0.35352087
-0.1096819 0.71746361 -0.22218895
-0.077061892 -0.39945936 0.64669895
-0.099012896 -1.1373124 0.062003136
-0.1052659 -0.9922384 -0.10457182
-0.10791388 -0.93081236 -0.17509985
-0.079598889 -0.31117642 0.57912397
-0.1118499 -0.83950233 -0.27994299
-0.097534895 0.11956364 0.24775505
-0.1052399 0.37647364 0.047176838
-0.10836989 0.47966963 -0.034295082
-0.1206229 0.92597163 -0.35323191
-0.079341888 -0.44595242 0.72134113
-0.087515891 -0.22109938 0.50855207
-0.1200369 -0.78675735 -0.33799696
-0.098944888 -0.018524349 0.35179806
-0.1240809 0.80118662 -0.28796482
-0.096835896 -0.088609338 0.40546703
-0.10844189 0.29698563 0.11008024
-0.10964888 0.33590364 0.079356194
-0.12619489 0.88342363 -0.34175396
-0.11910591 0.64077264 -0.16132212
-0.12663388 0.92597061 -0.35294294
-0.087464899 -0.40005338 0.64397907
-0.1101869 -1.1363853 0.065662861
-0.088705897 -0.35880232 0.61238623
-0.1003419 -0.15100539 0.45160484
-0.11889589 0.44973063 -0.010349751
-0.12121889 0.52299362 -0.068184853
-0.13003489 0.84446663 -0.28768206
-0.12495288 0.64077163 -0.1611619
-0.092669889 -0.40035141 0.64261627
-0.0939399 -0.3590914 0.61100912
-0.088778898 -0.5076164 0.73949909
-0.1347259 0.76191366 -0.25663805
-0.12801591 0.55478662 -0.093126774
-0.11980689 0.29674563 0.10690498
-0.12970591 0.6069746 -0.13432407
-0.13902289 0.96010363 -0.36133909
-0.13328588 0.71746361 -0.22154617
-0.12816989 -0.99049032 -0.096892834
-0.13380289 -0.87078035 -0.23414612
-0.1153529 -0.019146383 0.34726095
-0.11207891 -0.12107235 0.42537594
-0.12904188 0.40700763 0.020664215
-0.12118191 0.16230065 0.20820284
-0.1220409 0.18906361 0.18769312
-0.13137388 0.47961062 -0.034976959
-0.1244939 0.26542863 0.12916708
-0.12674889 0.33562362 0.075372219
-0.14503989 0.96010262 -0.36105013
-0.099920899 -0.44729531 0.71547318
-0.1030889 -0.40095031 0.63989305
-0.1338889 -0.99005735 -0.094974041
-0.1044149 -0.35967231 0.60825396
-0.11988288 -0.048255384 0.36790228
-0.11531588 -0.18748438 0.47464228
-0.12535891 0.11870462 0.23991203
-0.1338039 0.37616464 0.042544842
-0.13481191 0.40691462 0.018973827
-0.1438809 0.68168366 -0.19298315
-0.1050739 -0.44763339 0.71400499
-0.13706291 -1.0414953 -0.033625126
-0.1426129 -0.92826533 -0.16335106
-0.1112029 -0.31284642 0.57075405
-0.11262488 -0.26951236 0.5375309
-0.11417091 -0.22238636 0.50139999
-0.15387589 0.80119163 -0.28715897
-0.1296519 0.080294609 0.26766205
-0.14301589 0.47946563 -0.038421154
-0.13455689 0.22678363 0.15533304
-0.1444689 0.52285767 -0.071693897
-0.1455349 0.55469364 -0.096107006
-0.13819289 0.33539662 0.072049141
-0.15386888 0.84447265 -0.28698492
-0.14841589 0.64074862 -0.16209316
-0.1570769 0.96009964 -0.36046982
-0.1509909 0.71746361 -0.221066
-0.1102289 -0.44797432 0.71253109
-0.11351889 -0.40155339 0.63716888
-0.13807189 -1.1340923 0.074818134
-0.15129989 -0.86954737 -0.22815895
-0.15294489 -0.83665538 -0.26583099
-0.13431188 0.054021657 0.28611708
-0.13520288 0.08011061 0.26610613
-0.13650888 0.11835766 0.23677111
-0.12939289 -0.089965343 0.39656115
-0.14884189 0.47939265 -0.040143967
-0.14020789 0.22663864 0.15371895
-0.1543529 0.64072365 -0.16388798
-0.1626949 0.92596364 -0.35120678
-0.16309491 0.96009862 -0.3601799
-0.1201489 -0.36054933 0.60412025
-0.1588029 -0.8362534 -0.26381397
-0.1248509 -0.22290635 0.49853706
-0.16146788 -0.78398931 -0.32364893
-0.1372759 -0.019985378 0.34120703
-0.14208889 0.11818361 0.23519897
-0.14453688 0.18844461 0.18129396
-0.15362591 0.44931564 -0.018848896
-0.16578889 0.84447664 -0.28670311
-0.16296789 0.71746063 -0.22457314
-0.1239599 -0.40216041 0.63444424
-0.14920589 -1.1331834 0.078481197
-0.16294891 -0.86873233 -0.22416878
-0.14276388 -0.020196378 0.33969307
-0.14631289 0.079740644 0.26299381
-0.1501689 0.18828863 0.17969322
-0.15152091 0.22634864 0.15048504
-0.1528849 0.26475865 0.12100792
-0.1620459 0.52267665 -0.076923847
-0.16623691 0.64067262 -0.16747618
-0.16769189 0.68164062 -0.198915
-0.16876888 -0.86832643 -0.22217274
-0.17327589 -0.78320837 -0.31955099
-0.1765779 0.76195765 -0.26239395
-0.1518749 0.079555631 0.26143694
-0.15326089 0.11783266 0.23205423
-0.14571288 -0.090652347 0.3921051
-0.15580589 0.18813264 0.17808914
-0.15857491 0.26462364 0.11937284
-0.17218688 0.64064765 -0.1692729
-0.13441288 -0.4027704 0.63172007
-0.16019088 -1.1314343 0.085091114
-0.17635989 -0.8350544 -0.25776482
-0.1391879 -0.27087539 0.53046322
-0.1295779 -0.5091064 0.73424816
-0.15268189 -0.049565375 0.35889006
-0.18261391 0.76197064 -0.26424503
-0.18386391 0.80124265 -0.29027081
-0.14885989 -0.15319335 0.43846893
-0.14998388 -0.12272638 0.41507196
-0.1749599 0.55443764 -0.10489511
-0.18727189 0.96017361 -0.3612299
-0.16837189 -1.0828004 0.032241821
-0.1850729 -0.78243232 -0.31545115
-0.13468489 -0.50930035 0.73357296
-0.15924689 -0.020833373 0.33514881
-0.15660688 -0.091113389 0.38913202
-0.16607788 0.16099763 0.19548607
-0.1699599 0.26435164 0.11610317
-0.18282089 0.60671663 -0.14684772
-0.19296691 0.92609662 -0.35429811
-0.14487588 -0.40338337 0.62899399
-0.1829569 -0.92534935 -0.14963818
-0.1498329 -0.27142638 0.52763605
-0.1516059 -0.2242204 0.49137592
-0.1397939 -0.50949538 0.73290205
-0.1636399 -0.05000639 0.35588408
-0.19577891 0.80124366 -0.28971004
-0.18387088 0.47894964 -0.050501823
-0.17834988 0.33458865 0.06040287
-0.1985499 0.88358366 -0.34536409
-0.19905189 0.92613965 -0.35545206
-0.1994549 0.96027362 -0.36354399
-0.15349889 -0.31512034 0.55957794
-0.19388789 -0.8338654 -0.25171709
-0.14649791 -0.5594914 0.70021391
-0.17025289 -0.021261394 0.33211708
-0.1715709 0.012603641 0.30609083
-0.1731309 0.052670658 0.27529907
-0.1856879 0.37523064 0.027413845
-0.18688789 0.40605962 0.0037231445
-0.19761389 0.68157762 -0.20800114
-0.19425389 -0.92353237 -0.14168596
-0.1996839 -0.83327842 -0.24885988
-0.1797249 0.078619659 0.253654
-0.1855419 0.22546664 0.1407671
-0.1870659 0.26394165 0.11119318
-0.1972999 0.52230865 -0.087407112
-0.1883049 0.29522964 0.087141991
-0.2107119 0.88365161 -0.34766483
-0.2112329 0.92622566 -0.35776281
-0.2036089 0.68156463 -0.20982218
-0.1930449 -1.0344894 -0.0048317909
-0.1961779 -0.98324633 -0.065634727
-0.19988689 -0.92259836 -0.13759708
-0.16223189 -0.36292636 0.59309006
-0.18263391 0.01219064 0.30303001
-0.18860489 0.16033363 0.18911505
-0.19122291 0.22531763 0.13914585
-0.2044749 0.55417764 -0.11370802
-0.1940349 0.29510164 0.085492134
-0.21679589 0.88368565 -0.34881687
-0.21105391 0.71744764 -0.23924208
-0.2090939 -0.86402237 -0.20185518
-0.1730639 -0.22528636 0.48564005
-0.16025189 -0.51030636 0.73010826
-0.1855939 -0.05089736 0.34986496
-0.21969488 0.80126262 -0.29013872
-0.18817088 0.011983633 0.30149889
-0.1798709 -0.19054937 0.45728016
-0.18133989 -0.15468639 0.42969608
-0.1908859 0.078240633 0.25053596
-0.19245788 0.11659062 0.22103882
-0.2043089 0.40577063 -0.0013747215
-0.19690791 0.22516865 0.13752508
-0.20137289 0.33411863 0.053730965
-0.2238529 0.96047664 -0.36817789
-0.21708089 0.71744663 -0.24108219
-0.1711129 -0.4050374 0.62163401
-0.1984899 -1.1254643 0.10784006
-0.20730689 -0.9813354 -0.057635784
-0.21476889 -0.86311531 -0.19769001
-0.18526891 -0.19081038 0.45583105
-0.19988689 0.15999961 0.18592787
-0.21315989 0.47857463 -0.059158802
-0.20259589 0.22501963 0.13590288
-0.20550489 0.29484263 0.082183838
-0.2071369 0.33400065 0.052060127
-0.21848989 0.60649961 -0.15757179
-0.17645788 -0.40568233 0.61853027
-0.2167449 -0.91980636 -0.12535
-0.22043788 -0.86221039 -0.19353008
-0.2225219 -0.82970035 -0.23201609
-0.18381089 -0.22582334 0.48276901
-0.17187488 -0.55913734 0.70314789
-0.19781891 -0.022342384 0.32453012
-0.2009539 0.051687658 0.2675581
-0.1906729 -0.19107139 0.45438099
-0.19483688 -0.092750371 0.37871599
-0.21775588 0.44839662 -0.03772974
-0.20828891 0.22486964 0.13428116
-0.22087491 0.52205962 -0.094413757
-0.2360689 0.96057862 -0.37050009
-0.2276279 0.68151265 -0.21711397
-0.22914889 0.71744365 -0.24476194
-0.2096689 -1.1252483 0.1092
-0.21841091 -0.97943234 -0.049647808
-0.20209289 -0.051573396 0.34534597
-0.21867689 0.33376363 0.048718929
-0.1871669 -0.40697539 0.61231184
-0.23175588 -0.8604064 -0.18522072
-0.20886689 -0.022779346 0.3214922
-0.2431829 0.76209664 -0.28283119
-0.2121059 0.051290631 0.26446009
-0.2015619 -0.19179636 0.45014524
-0.22758791 0.40537962 -0.0081858635
-0.2213679 0.26310962 0.10135889
-0.23408189 0.55391365 -0.12254572
-0.2244519 0.33364463 0.047048092
-0.24725789 0.88385963 -0.35458899
-0.24123091 0.71743965 -0.24844885
-0.22084591 -1.1250404 0.11055088
-0.22948989 -0.97753835 -0.041676044
-0.19427589 -0.36590731 0.57845688
-0.19626689 -0.31831837 0.54338789
-0.23740488 -0.85950637 -0.18107176
-0.20008889 -0.22700739 0.47609282
-0.18709588 -0.55894041 0.70489216
-0.2496919 0.80130464 -0.29216194
-0.20861489 -0.15625536 0.42024612
-0.2224929 0.15932465 0.17954826
-0.2438539 0.64033866 -0.19091702
-0.25394088 0.92653364 -0.36586285
-0.19789889 -0.40827537 0.60608292
-0.22643289 -1.1249404 0.11121893
-0.19967389 -0.36653638 0.57530594
-0.20558289 -0.22756535 0.47283125
-0.25570488 0.80131567 -0.29273891
-0.21260589 -0.19287837 0.44355726
-0.2244519 0.077092648 0.24117184
-0.2261849 0.11550564 0.21157789
-0.23785388 0.37427163 0.012218952
-0.22936589 0.18605763 0.15722322
-0.23108891 0.22426662 0.12778711
-0.24594989 0.55380762 -0.12608814
-0.2483179 0.60631663 -0.16653681
-0.2498509 0.64031261 -0.19272614
-0.25170588 0.68146062 -0.22442484
-0.23396689 -1.0709263 0.078631878
-0.19724089 -0.55881536 0.70604706
-0.1966399 -0.5136534 0.71631384
-0.26143089 0.76213461 -0.28842878
-0.2197229 -0.15730238 0.413589
-0.23005989 0.076898634 0.23960781
-0.22107089 -0.12658036 0.39090586
-0.24508488 0.40508363 -0.013299942
-0.24000189 0.29405764 0.072260857
-0.26502788 0.84568161 -0.34897995
-0.20865789 -0.40958142 0.59984016
-0.21258089 -0.32013941 0.53381109
-0.2023139 -0.5587554 0.70662212
-0.2345559 0.050301611 0.25649786
-0.23572791 0.076604605 0.23706722
-0.23745489 0.1151396 0.20841885
-0.22808591 -0.094969392 0.36381912
-0.23948389 0.15881264 0.17475414
-0.25291789 0.44788262 -0.048071861
-0.27228591 0.92666763 -0.36934376
-0.27277589 0.9608916 -0.37747288
-0.21404588 -0.41023636 0.59671402
-0.2479499 -1.0248224 0.034335136
-0.25993788 -0.85592937 -0.16451216
-0.21998289 -0.27690834 0.49822712
-0.2402719 0.049889624 0.25298405
-0.2432059 0.1147806 0.20501614
-0.25530788 0.37394562 0.007144928
-0.2451869 0.15859461 0.17262602
-0.2602129 0.47796163 -0.073057175
-0.27723089 0.84573561 -0.35128975
-0.26626089 0.60620463 -0.17193079
-0.27150491 0.7174316 -0.25768375
-0.2614229 -0.91245139 -0.092840195
-0.2425749 -0.025039375 0.30458307
-0.23477289 -0.19505638 0.43033791
-0.2393209 -0.095955372 0.35703707
-0.26113188 0.37383664 0.0054521561
-0.25222489 0.18525666 0.14903498
-0.2539849 0.22360763 0.12066603
-0.28333589 0.84576261 -0.35244703
-0.27224889 0.60616761 -0.17372894
-0.2850329 0.96099764 -0.37980318
-0.27584788 0.68140763 -0.23175478
-0.22235888 -0.46561933 0.63044405
-0.2248399 -0.4115504 0.59045506
-0.26257691 -0.9719044 -0.017832756
-0.26697889 -0.91154039 -0.088791847
-0.27116388 -0.85415339 -0.15625477
-0.2468929 -0.054719388 0.32275391
-0.24345088 -0.12862039 0.37744904
-0.2669619 0.37372762 0.0037560463
-0.26846489 0.40468463 -0.020124912
-0.25805089 0.18492061 0.14539099
-0.27054888 0.44762263 -0.05325079
-0.2598379 0.22329465 0.11699009
-0.27413389 0.52148867 -0.11023617
-0.2756899 0.55353761 -0.13496113
-0.23024788 -0.41221035 0.58731985
-0.25995091 -1.1243804 0.11519623
-0.26100188 -1.0658854 0.098491192
-0.23441988 -0.32258832 0.52099609
-0.27916288 -0.82089138 -0.1901598
-0.25255591 -0.055192351 0.31931686
-0.24589691 -0.19615436 0.4237051
-0.2764329 0.44753563 -0.054977894
-0.26752791 0.26172164 0.084620953
-0.26901591 0.29321563 0.061295986
-0.2961359 0.88414466 -0.36385584
-0.29678288 0.9268496 -0.37399292
-0.28971788 0.71742666 -0.26323891
-0.2356599 -0.41287136 0.58418322
-0.25320488 -0.16046935 0.39353418
-0.25468189 -0.12964839 0.37069702
-0.2562249 -0.097442389 0.34683418
-0.29193789 0.64012665 -0.20543289
-0.23848489 -0.46768332 0.62116289
-0.29041189 -0.81915331 -0.18183517
-0.24748391 -0.27986741 0.48200226
-0.24977291 -0.23208338 0.44659615
-0.2742539 0.15683365 0.15451813
-0.28085589 0.29267064 0.053800106
-0.30904689 0.92694163 -0.37631989
-0.30187789 0.71742362 -0.26694775
-0.2801719 -1.0173614 0.06423521
-0.25086591 -0.32443941 0.51135111
-0.25532588 -0.23265338 0.4433012
-0.23865589 -0.51815641 0.69763803
-0.2747139 0.047398627 0.231812
-0.26593891 -0.1306814 0.36392927
-0.2944099 0.44708264 -0.064722061
-0.31450889 0.88425362 -0.36733913
-0.31518289 0.92698765 -0.37748575
-0.30796489 0.7174226 -0.26880598
-0.2818329 -1.0590273 0.12463188
-0.2540029 -0.37291539 0.54363108
-0.25852889 -0.28106034 0.47548819
-0.27528089 -0.057095349 0.30553102
-0.2767449 -0.027788341 0.28377581
-0.27319089 -0.098940372 0.3365922
-0.30045989 0.44690365 -0.068624973
-0.2892099 0.22171861 0.098546982
-0.29114988 0.26055163 0.069718838
-0.32064089 0.88429064 -0.36849976
-0.31217989 0.68132663 -0.24277973
-0.25466588 -0.46976233 0.61185503
-0.25947189 -0.37356138 0.54044485
-0.30712289 -0.81615841 -0.16762686
-0.26406288 -0.28165841 0.47222614
-0.28419888 0.0060216188 0.25483704
-0.2862519 0.046560645 0.22472382
-0.28759089 0.072998643 0.20508528
-0.3050679 -0.90293336 -0.051270962
-0.30982789 -0.84649539 -0.12109518
-0.25413188 -0.56182837 0.69588804
-0.32878688 0.76229161 -0.31113386
-0.2794269 -0.19947737 0.40372086
-0.3103669 0.40338165 -0.044362068
-0.29903188 0.18254966 0.11978102
-0.3163909 0.52076161 -0.13160801
-0.30665588 0.33108664 0.0093750954
-0.33227891 0.84598565 -0.36171007
-0.33360991 0.9271276 -0.38098717
-0.26548389 -0.47115541 0.60563517
-0.2682699 -0.41687036 0.56528997
-0.27288589 -0.32692838 0.49844408
-0.3178989 -0.81308639 -0.15344477
-0.2939229 -0.029178381 0.27331591
-0.28692791 -0.16368335 0.37334299
-0.29919389 0.072186649 0.19793224
-0.31478789 0.37202662 -0.025071144
-0.31640789 0.40317464 -0.048237801
-0.3049159 0.18220764 0.11610603
-0.31865388 0.44636464 -0.080359936
-0.30692089 0.22076464 0.087429047
-0.3390469 0.88440162 -0.37199211
-0.34032789 0.9614836 -0.3903141
-0.30250388 -1.0522354 0.15059614
-0.27591288 -0.37550831 0.53087091
-0.32327089 -0.81155741 -0.14637518
-0.26461589 -0.56274438 0.69243002
-0.29811689 -0.059016347 0.291677
-0.29966488 -0.029643357 0.26982117
-0.3108089 0.18186462 0.1124239
-0.32633689 0.47655565 -0.10688496
-0.32865191 0.52049565 -0.13958502
-0.31864488 0.33058164 0.0017490387
-0.3331359 0.60559362 -0.20291376
-0.33493888 0.63981265 -0.22837973
-0.28878689 -0.2361064 0.42345381
-0.3038429 -0.059499383 0.28820419
-0.30160388 -0.10146135 0.31944799
-0.31670791 0.18152064 0.1087389
-0.32084689 0.25907364 0.050989151
-0.3347939 0.52036262 -0.14357996
-0.32465088 0.33032864 -0.0020699501
-0.28690788 -0.37681437 0.52447081
-0.2894699 -0.32881033 0.48872805
-0.27584189 -0.52267134 0.67884207
-0.3095769 -0.059983373 0.2847271
-0.35331288 0.80168062 -0.31804609
-0.30730689 -0.10196835 0.31600904
-0.33458188 0.40254962 -0.0598979
-0.32852191 0.29046163 0.023621082
-0.35767689 0.88457763 -0.37819099
-0.3496449 0.68116164 -0.26749516
-0.3516039 0.71740162 -0.29449701
-0.28734189 -0.47436237 0.59116983
-0.32175291 -1.0040324 0.11691809
-0.3075529 -0.20228237 0.38697004
-0.3095479 -0.16585135 0.35980988
-0.32461891 0.10943764 0.15458202
-0.31301689 -0.10247737 0.31256485
-0.3327789 0.25847763 0.043467045
-0.34710288 0.52009463 -0.15158796
-0.36394289 0.88465166 -0.38091516
-0.35177091 0.60535961 -0.21515894
-0.29576188 -0.42061234 0.54753828
-0.3230179 -1.0455123 0.17638206
-0.32690489 -1.0023854 0.12345219
-0.28655189 -0.52407932 0.6729579
-0.32269689 -0.031517386 0.25580311
-0.32833189 0.070139647 0.17997217
-0.31873488 -0.10298836 0.30911684
-0.34673691 0.40213063 -0.067694187
-0.33293888 0.15324861 0.11797619
-0.34271291 0.32956463 -0.013556957
-0.36220291 0.68110561 -0.27581787
-0.3320469 -1.0007423 0.12997484
-0.29423589 -0.63177037 0.63878489
-0.29195088 -0.52488732 0.66953421
-0.3284739 -0.031988382 0.25228691
-0.3188529 -0.20341438 0.38024282
-0.3208999 -0.16694337 0.35302019
-0.33636791 0.10865861 0.14730501
-0.32445988 -0.10349935 0.30566406
-0.35697088 0.47574365 -0.12670994
-0.3425509 0.21883363 0.065069199
-0.36616388 0.63953465 -0.24897718
-0.37706688 0.92760265 -0.39398193
-0.33321691 -1.0421754 0.18921089
-0.33718088 -0.99910235 0.13648701
-0.35236189 -0.83415437 -0.065417767
-0.31420991 -0.28722835 0.4419961
-0.2965889 -0.56677139 0.67634106
-0.33258289 -0.061932385 0.27078104
-0.33621389 0.0019876361 0.2230401
-0.3283489 -0.1364494 0.32643509
-0.34851488 0.21850961 0.061326027
-0.37686089 0.71738762 -0.31130791
-0.30989489 -0.47912931 0.56903315
-0.3150669 -0.38145339 0.50104523
-0.31763789 -0.33288538 0.46724319
-0.3045029 -0.63168931 0.63991404
-0.33835089 -0.062422395 0.26728487
-0.34590289 0.068898618 0.1691432
-0.33406389 -0.13698137 0.32300425
-0.3544879 0.21818364 0.057578087
-0.37181887 0.51955462 -0.167665
-0.36084887 0.32879463 -0.025089741
-0.38906887 0.88495064 -0.39184093
-0.34734491 -0.99558735 0.15040588
-0.3284049 -0.24075937 0.39655209
-0.34584489 -0.033408344 0.24172115
-0.33990088 -0.13771838 0.31809616
-0.37990388 0.55181664 -0.19592619
-0.39483091 0.84653062 -0.38773012
-0.38299689 0.60496563 -0.23567486
-0.3849999 0.63936663 -0.26140308
-0.32123789 -0.48153234 0.55790091
-0.34768391 -1.0344994 0.21809006
-0.36813888 -0.82959139 -0.044744968
-0.33425391 -0.24174935 0.39065123
-0.3706359 0.28849363 -0.0030331612
-0.3729789 0.32827863 -0.032802105
-0.40112689 0.84658861 -0.39046478
-0.3530919 -1.0341223 0.2198782
-0.35681191 -0.98984742 0.1726079
-0.3619509 -0.94149637 0.10730982
-0.31990388 -0.63158143 0.6415782
-0.4068009 0.80250061 -0.38532495
-0.35955492 0.00011765957 0.20837021
-0.36195388 0.041010618 0.17822218
-0.35178789 -0.13951439 0.3059659
-0.36851087 0.15105462 0.095829964
-0.37478587 0.25636762 0.016981125
-0.39044389 0.51914662 -0.17978001
-0.39237687 0.55158764 -0.20407009
-0.40742788 0.84664565 -0.39320183
-0.40797392 0.88517666 -0.40006495
-0.33262789 -0.48394835 0.54672718
-0.3357029 -0.42867935 0.50809002
-0.36152187 -0.98699331 0.18365526
-0.3666999 -0.93869436 0.11857891
-0.37284186 -0.88141441 0.041402817
-0.34079289 -0.33719039 0.4441371
-0.36793092 0.040439606 0.17333889
-0.35598287 -0.17179239 0.32183599
-0.35774991 -0.14041638 0.29988289
-0.37845489 0.21687466 0.042537212
-0.39862487 0.55147165 -0.20814896
-0.3851389 0.32775962 -0.04053688
-0.41373387 0.84670365 -0.39594316
-0.41428688 0.88525265 -0.40281105
-0.40642789 0.68090862 -0.30513096
-0.34145388 -0.42984343 0.50241327
-0.36409089 -1.0340344 0.2210722
-0.37762091 -0.87868631 0.052902222
-0.3301689 -0.63151634 0.64267921
-0.34913391 -0.29344535 0.40696192
-0.36372289 -0.14132035 0.293787
-0.39376292 0.36902863 -0.075542927
-0.38209692 0.17768461 0.067895889
-0.40488091 0.55135661 -0.21223402
-0.38880089 0.28763962 -0.014531136
-0.4200469 0.84676164 -0.39868402
-0.41023389 0.63913965 -0.27804613
-0.4212279 0.92826962 -0.41321278
-0.41500488 0.71736664 -0.3366971
-0.3472169 -0.43101132 0.49672318
-0.34965688 -0.38818741 0.46672297
-0.35499591 -0.29449141 0.40108395
-0.37405691 -0.066817343 0.2348032
-0.37778291 -0.0021903515 0.18948603
-0.38396987 0.10514164 0.11422396
-0.37160292 -0.10939139 0.26465797
-0.3865439 0.14978862 0.082919121
-0.41913989 0.68085164 -0.31355715
-0.35299191 -0.43218231 0.49102306
-0.37555489 -0.97849441 0.21658325
-0.38085088 -0.93035138 0.15217113
-0.42731789 0.76249963 -0.33951712
-0.38785687 0.065111637 0.13537598
-0.37570992 -0.14313638 0.28155804
-0.39275989 0.14916664 0.076374054
-0.40095291 0.28706664 -0.022222042
-0.38553688 -0.92759037 0.16329622
-0.34971491 -0.54172742 0.59440422
-0.37767687 -0.21258235 0.323596
-0.41218188 0.36832264 -0.087316036
-0.4141669 0.39978862 -0.11094713
-0.40061292 0.17609763 0.05045414
-0.42165092 0.51845962 -0.20007515
-0.42370388 0.55100763 -0.22452211
-0.4270719 0.60440463 -0.26462984
-0.3860859 -1.0338753 0.22345686
-0.36711189 -0.39159632 0.44941092
-0.35493189 -0.67955542 0.59445381
-0.35146588 -0.63350034 0.63573503
-0.37265691 -0.2976464 0.38338089
-0.39612892 -0.0045193434 0.17048407
-0.38586387 -0.17648637 0.29146624
-0.41836891 0.36806563 -0.091624737
-0.4158769 0.32631463 -0.062252998
-0.44535688 0.84699464 -0.40967798
-0.43340191 0.60432363 -0.26878786
-0.44050589 0.71735364 -0.35250902
-0.38148788 -0.24977237 0.34302998
-0.42478791 0.36766964 -0.098538876
-0.41551587 0.21409065 0.009619236
-0.41984192 0.28573462 -0.040837765
-0.4222649 0.32587364 -0.069104195
-0.38448992 -0.29976332 0.37152004
-0.40446088 -0.071025372 0.20353603
-0.43771192 0.47352761 -0.18038273
-0.39826992 -0.96339142 0.2750082
-0.4106259 -0.85987437 0.13235426
-0.41243091 -0.041894376 0.17608404
-0.44233587 0.44241863 -0.16573572
-0.42816791 0.21296966 -0.0037951469
-0.45472988 0.63873762 -0.30739498
-0.37325689 -0.63664031 0.62384224
-0.3963739 -0.30189335 0.35961103
-0.37411287 -0.58176935 0.61405087
-0.42336288 0.033802629 0.11566782
-0.45078287 0.47296262 -0.19462013
-0.39374688 -0.44046736 0.45080805
-0.4054009 -0.25384939 0.31893396
-0.3872759 -0.55726933 0.52404404
-0.4312959 0.060109615 0.090054989
-0.43663988 0.14476365 0.030179024
-0.43838987 0.17248863 0.010569096
-0.44796088 0.32409763 -0.096666813
-0.47712788 0.84728962 -0.42347717
-0.47774687 0.88602161 -0.43041182
-0.46561888 0.6038326 -0.29452801
-0.39983287 -0.44212639 0.44259787
-0.42346391 -0.84900641 0.17781115
-0.40830591 -0.3040334 0.34765625
-0.44978389 0.25100663 -0.052155972
-0.4518449 0.28329664 -0.075021744
-0.47717687 0.71734864 -0.35609007
-0.42693892 -0.84331834 0.20132208
-0.40852991 -0.40021539 0.40557289
-0.39161989 -0.68059742 0.59320021
-0.39024392 -0.64049137 0.60846281
-0.43712887 -0.045193374 0.15061712
-0.48915389 0.80299163 -0.42104578
-0.4393979 -0.010027349 0.12568426
-0.42822692 -0.18316638 0.24843407
-0.44382992 0.058662653 0.076983929
-0.44639292 0.098385632 0.048823833
-0.43027487 -0.15143037 0.22593498
-0.40923992 -0.5031904 0.45706797
-0.41241291 -0.44620836 0.42220211
-0.42252091 -0.95431435 0.31113625
-0.40585789 -0.5639174 0.49422503
-0.44333592 -0.046024382 0.14421701
-0.44563189 -0.010823369 0.11923313
-0.43856487 -0.11918139 0.19613886
-0.4600409 0.21013761 -0.037582874
-0.46474788 0.28231162 -0.088801861
-0.48795989 0.63828862 -0.34141779
-0.41873488 -0.44826043 0.41195011
-0.42664388 -0.30788839 0.32588196
-0.4295139 -0.25797135 0.29464483
-0.45187989 -0.011620343 0.11276817
-0.44044492 -0.18509835 0.23602724
-0.45641592 0.057207644 0.063863277
-0.44254091 -0.15330136 0.21343517
-0.44472989 -0.12008536 0.18983507
-0.4837229 0.47153363 -0.23049307
-0.46645787 0.20956564 -0.044384956
-0.48884889 0.54932165 -0.28575516
-0.43337288 -0.95428038 0.3122611
-0.4304609 -0.35588038 0.34365606
-0.4330909 -0.30972731 0.31529999
-0.44677791 -0.18638235 0.22762489
-0.47288892 0.20899266 -0.05120182
-0.50970292 0.88641262 -0.44431305
-0.42814788 -0.50963736 0.42656183
-0.43879989 -0.95426631 0.31282187
-0.47479287 0.14091963 -0.0099701881
-0.47667089 0.16881764 -0.029836178
-0.5000329 0.51593864 -0.27698278
-0.50225294 0.54892063 -0.30046511
-0.4442279 -0.95425332 0.3133812
-0.42582288 -0.76811039 0.50807619
-0.45773491 -0.22774738 0.22923899
-0.4812009 0.14027262 -0.016708851
-0.50155187 0.43953064 -0.230021
-0.48579589 0.20784265 -0.064877987
-0.49348792 0.32093865 -0.14549398
-0.51265991 0.60286361 -0.34643984
-0.51642585 0.68036366 -0.38591003
-0.44090691 -0.86658943 0.40561914
-0.4254159 -0.65046442 0.5679841
-0.45554188 -0.26495534 0.25222921
-0.43492392 -0.61481535 0.46833181
-0.46661392 -0.19134939 0.19471693
-0.5051589 0.39483464 -0.205585
-0.48954287 0.1675806 -0.043416023
-0.50820684 0.43920463 -0.23724508
-0.4950209 0.24729162 -0.10030079
-0.51344585 0.51545966 -0.29165602
-0.44625387 -0.86658037 0.40616608
-0.4363369 -0.76809037 0.50915813
-0.45634791 -0.36360836 0.30133009
-0.53467894 0.76318461 -0.44827604
-0.4772689 -0.12671435 0.14254808
-0.51179385 0.39445862 -0.21275282
-0.52623987 0.60258365 -0.36142492
-0.52894294 0.68033665 -0.38923597
-0.4415929 -0.76808333 0.50969696
-0.4628779 -0.36555934 0.29065418
-0.43765292 -0.65477538 0.55024624
-0.46568087 -0.31903338 0.26180792
-0.49746689 0.092696607 -0.0059981346
-0.52692091 0.51497763 -0.30639601
-0.45694688 -0.86656737 0.40725613
-0.49347588 -0.085835397 0.09262991
-0.49537191 -0.055047393 0.073462963
-0.54791284 0.76324666 -0.45761108
-0.48430887 -0.23469239 0.18529224
-0.53047991 0.46949863 -0.28140783
-0.51462686 0.24567664 -0.12115908
-0.53603387 0.54790562 -0.33754206
-0.54849994 0.8481226 -0.46354485
-0.46662691 -0.52287638 0.3640151
-0.45323488 -0.77088737 0.49939013
-0.50710487 0.022043645 0.012985229
-0.51598287 0.16464561 -0.075964928
-0.53498185 0.43789163 -0.26630592
-0.52119088 0.24513564 -0.12813997
-0.5428369 0.5477016 -0.34500694
-0.52644992 0.31864464 -0.18083096
-0.5467329 0.60215962 -0.38403893
-0.47665587 -0.46710432 0.31804323
-0.4683679 -0.86844337 0.40107822
-0.4568589 -0.66292334 0.51637888
-0.47207692 -0.59275138 0.36391306
-0.50713789 -0.088845372 0.069754124
-0.56118393 0.76330864 -0.46697474
-0.50221491 -0.16710335 0.11864996
-0.52810693 0.24435264 -0.13848495
-0.55470192 0.68024063 -0.4026041
-0.4652749 -0.77458334 0.4855032
-0.4616659 -0.69898033 0.52133608
-0.50694287 -0.20146835 0.12780285
-0.52534688 0.087915659 -0.053379059
-0.5428499 0.36033964 -0.22569513
-0.5399549 0.31758964 -0.19719315
-0.48996988 -0.53714931 0.29490328
-0.52522385 -0.024685383 0.0045490265
-0.51127386 -0.24175137 0.1406951
-0.52976286 0.04592663 -0.039752007
-0.51585889 -0.17040837 0.095948219
-0.55522585 0.43689764 -0.28827286
-0.54717493 0.31680164 -0.20969391
-0.5680939 0.68016464 -0.41386414
-0.49393192 -0.65066242 0.30995512
-0.58146191 0.80381662 -0.48390913
-0.53497994 0.016736627 -0.034118176
-0.53679287 0.04464066 -0.051659107
-0.5572139 0.35901263 -0.24926996
-0.55932391 0.39149064 -0.26968575
-0.54958594 0.24157664 -0.17545176
-0.55442095 0.31601164 -0.22223997
-0.50583184 -0.5468514 0.24794722
-0.51562488 -0.28130043 0.15317726
-0.53477395 -0.094944358 0.023467064
-0.53681588 -0.063835382 0.0038809776
-0.56665885 0.39083862 -0.28246212
-0.55145884 0.15927863 -0.13662195
-0.56961691 0.43590164 -0.31084394
-0.58221984 0.68004864 -0.43176985
-0.58751285 0.71724862 -0.48255682
-0.51615489 -0.48981833 0.20211315
-0.51993692 -0.38808131 0.165833
-0.52177393 -0.33863342 0.14820528
-0.55093384 0.042052627 -0.075611115
-0.55365288 0.083054662 -0.10147905
-0.53879392 -0.14103234 0.039892197
-0.57186091 0.35758364 -0.2747159
-0.57911885 0.46702564 -0.34377813
-0.56404185 0.23970664 -0.20033216
-0.56624591 0.27293164 -0.22129774
-0.56899786 0.31441963 -0.24747705
-0.54182792 -0.25346339 0.065352917
-0.56079686 0.081825614 -0.11362076
-0.54467189 -0.17869735 0.038515091
-0.56391895 0.1284216 -0.1430788
-0.58444691 0.43476462 -0.33676815
-0.5919019 0.54601365 -0.40710592
-0.59444189 0.63707465 -0.43106794
-0.60826087 0.80406564 -0.50282288
-0.56328285 0.011338651 -0.08195591
-0.56518495 0.039442658 -0.099752903
-0.58883989 0.38886863 -0.32109785
-0.57583392 0.19675463 -0.19939518
-0.60087991 0.63703364 -0.43375301
-0.60733187 0.67965764 -0.49413395
-0.54660988 -0.35124433 0.074056149
-0.56759191 -0.033367395 -0.067726135
-0.59404993 0.35541663 -0.31326389
