# .PCD v0.7 - Point Cloud Data file format
VERSION 0.7
FIELDS x y z
SIZE 4 4 4
TYPE F F F
COUNT 1 1 1
WIDTH 1
HEIGHT 512
VIEWPOINT 0 0 0 1 0 0 0
POINTS 512
DATA ascii
0.74855238 0.59981692 -0.44769716
0.72772843 0.63611186 -0.42755842
0.6817674 0.26641786 -0.26873922
0.69605142 0.60132885 -0.424191
0.67299139 0.26946187 -0.23967123
0.69428641 0.71647787 -0.47366524
0.68856841 0.7162559 -0.48022223
0.65209937 0.31799889 -0.21042824
0.63978642 0.3692959 -0.20855618
0.63182843 0.1551879 -0.18654442
0.6504674 0.55599087 -0.40396404
0.62451142 0.15704089 -0.17163229
0.63850141 0.049202859 -0.33650923
0.64532942 0.60194987 -0.41697836
0.6288414 0.0547629 -0.29510736
0.63684243 0.47544086 -0.3903861
0.60969841 0.28031886 -0.13867807
0.6137104 0.4024629 -0.18696642
0.61787838 0.44233787 -0.23712015
0.62663841 0.47889787 -0.34254503
0.6310724 0.55656886 -0.39590406
0.59642142 0.25123888 -0.12313414
0.59890938 0.37443089 -0.15371799
0.58997542 0.20437485 -0.11747503
0.61712939 0.63526285 -0.45497322
0.59225237 0.37517786 -0.14577627
0.59008741 0.068484902 -0.19411325
0.60334343 0.51393092 -0.36069345
0.57650542 0.44739085 -0.1751132
0.5870344 0.51733088 -0.31041002
0.56674743 0.12797886 -0.12670231
0.56620842 0.028579891 -0.19838524
0.56224239 0.075075865 -0.14625406
0.57136238 0.52032983 -0.26614523
0.55571938 0.076047897 -0.13937902
0.5578264 0.52156186 -0.24847507
0.54267943 -0.010676146 -0.20770741
0.52623039 0.28872389 -0.062755108
0.55487043 0.59991884 -0.46230221
0.53414541 0.49143887 -0.17317533
0.5209884 0.33216989 -0.072459221
0.50908637 0.13530487 -0.072058201
0.52291137 -0.065415144 -0.27227116
0.51256937 0.45182586 -0.12249708
0.50235236 0.17143989 -0.060334206
0.5088954 -0.0029851198 -0.156322
0.50234741 0.3334589 -0.06026125
0.4967604 0.13625085 -0.065305233
0.49555841 0.26009989 -0.047446251
0.50659138 -0.056141138 -0.21139336
0.4894774 0.2604149 -0.044904232
0.49552739 5.286932e-05 -0.13599539
0.49611139 0.49364388 -0.14479017
0.49275839 -0.052073121 -0.1851244
0.48743039 0.45340085 -0.10383606
0.4783254 0.13765889 -0.05520916
0.47886139 0.38315988 -0.063508034
0.4727664 0.38342786 -0.06085825
0.47512141 0.45393187 -0.097774029
0.4840644 0.56663388 -0.23796511
0.4668594 0.087180853 -0.061080456
0.47118941 0.49481589 -0.12991524
0.4599494 0.13905787 -0.045145988
0.45940939 0.1746279 -0.036444187
0.46072939 0.087674856 -0.057717323
0.4628824 0.45440686 -0.092419147
0.45714441 0.0061478615 -0.095854282
0.4611184 0.52777886 -0.1608243
0.4472104 0.17551386 -0.029772282
0.4432424 0.048465848 -0.062178135
0.45187539 0.56857187 -0.20748901
0.43629941 0.52878392 -0.14708805
0.43951041 0.56889689 -0.20276833
0.4229604 0.2170009 -0.017710209
0.42733839 -0.037957072 -0.094816208
0.4230614 0.29381788 -0.019492149
0.4235974 0.33692586 -0.028923035
0.41730839 0.14227986 -0.021799088
0.4210794 -0.037069082 -0.089240074
0.41336441 0.012073874 -0.05700922
0.4124184 0.38560188 -0.03981638
0.4169054 -0.085842133 -0.12135935
0.4050754 0.29457086 -0.013127327
0.41991141 0.60968685 -0.28706741
0.39908341 0.17809689 -0.010891438
0.40237039 -0.034422159 -0.072582245
0.3991344 0.29473388 -0.011844158
0.39311439 0.17835987 -0.0090103149
0.3937414 0.093029857 -0.020970345
0.39040741 0.45643187 -0.070391178
0.38121739 0.1445049 -0.0058693886
0.38164639 0.093987882 -0.014337063
0.3885144 -0.15033913 -0.14992428
0.3799454 0.49744388 -0.098121166
0.37132239 0.4158299 -0.043367386
0.35885039 0.38679987 -0.028989315
0.36045939 0.45711088 -0.063103199
0.35140139 0.21998286 0.0048489571
0.35224941 0.33875388 -0.013483047
0.35361239 0.4159379 -0.04292202
0.35959741 0.57096887 -0.17222643
0.3457464 0.26611388 0.00049781799
0.3573834 0.61151683 -0.25577831
0.34771141 0.41597289 -0.042772293
0.35371339 -0.2104491 -0.17496109
0.3395294 0.22046888 0.0085897446
0.33995041 0.057649851 -0.000852108
0.3396284 0.096984863 0.0063686371
0.35124841 0.61159688 -0.25453901
0.33362839 0.18094391 0.0097455978
0.33590841 0.41604286 -0.04247427
0.32770139 0.18119788 0.011613846
0.32863641 0.33916587 -0.010236263
0.33206841 0.49814689 -0.090452194
0.3218044 0.1471839 0.01286602
0.3222034 0.26652789 0.00334692
0.33285639 0.61183786 -0.25082111
0.32348439 -0.070431113 -0.027231216
0.31588441 0.14744687 0.014732838
0.31592041 0.098106861 0.013844967
0.31002939 0.060011864 0.015021801
0.31231439 0.4161759 -0.041874409
0.31311539 0.45737189 -0.061807156
0.30483139 -0.023076177 -0.0013542175
0.30440041 0.022355855 0.009624958
0.30513039 0.33938086 -0.0089449883
0.30720139 0.45740187 -0.061654091
0.2986874 0.2669329 0.0061936378
0.3024314 0.49817386 -0.091278076
0.29229739 0.060876906 0.020614624
0.29981741 -0.27278316 -0.17967844
0.28633741 0.14875185 0.024047852
0.28693938 0.26713187 0.0076169968
0.28046939 0.099762857 0.025024891
0.28368038 0.45723486 -0.064694405
0.2745744 0.10003591 0.026883602
0.27781039 0.4571659 -0.065792084
0.26903638 -0.019927144 0.018349648
0.27065438 0.38709885 -0.029185295
0.27350038 -0.2604171 -0.11276436
0.26296839 0.18313789 0.025376797
0.26420039 0.33925289 -0.011765003
0.26281738 0.062301874 0.029911995
0.2722964 0.61169291 -0.25581312
0.25202239 -0.12422717 0.0026726723
0.24523538 0.15009087 0.03339386
0.24529639 -0.017854095 0.031413555
0.2501834 0.53055191 -0.12853622
0.2518844 0.5704999 -0.18421507
0.24607338 -0.12365317 0.0059666634
0.23753639 0.49746189 -0.10345507
0.23993239 0.57037592 -0.18663836
0.22759938 -0.016551137 0.039589882
0.22173439 -0.01624912 0.04144001
0.22194338 -0.060355067 0.033725739
0.21619439 0.18398088 0.031033993
0.21670339 0.26779288 0.011601925
0.21581839 0.10271686 0.045379639
0.22449039 0.61017287 -0.28577232
0.21980338 0.49725989 -0.10678244
0.21051039 -0.1202451 0.02560997
0.20416039 -0.015350103 0.046983719
0.19867939 0.18428689 0.033154011
0.19834138 0.10305285 0.04749155
0.20038539 0.3863889 -0.039241314
0.19485039 -0.30324411 -0.054544449
0.18907338 0.41497785 -0.059975147
0.18790539 -0.24059916 -0.0064382553
0.18721838 -0.17482615 0.025029659
0.18284439 0.3859809 -0.044244289
0.18079439 -0.05709517 0.053590775
0.17492439 0.029694855 0.056976795
0.17505838 0.1034919 0.050305843
0.17516239 -0.11689007 0.045125008
0.17495538 -0.056788087 0.055432796
0.16974038 0.22295785 0.025061607
0.16910739 -0.013578117 0.058038712
0.17146939 0.41458589 -0.06500721
0.17064638 -0.29697609 -0.02211237
0.16392238 0.22292489 0.024665833
0.16475838 0.33862185 -0.020915985
0.16330639 0.066563904 0.058261871
0.16367739 -0.17248714 0.038051605
0.16329139 -0.056177139 0.059113979
0.15162639 -0.012705147 0.063552856
0.15163839 -0.055571079 0.062788963
0.14672638 0.2674399 0.006831646
0.14581838 -0.055269122 0.064624786
0.14030339 0.15197188 0.046086788
0.13998839 0.031271875 0.067365646
0.14008139 0.067003906 0.061069012
0.13520838 0.29636389 -0.0047793388
0.13437039 0.10423386 0.055226803
0.13619038 0.41378886 -0.075085163
0.13777739 0.5267359 -0.18873644
0.13438439 -0.16959715 0.054250717
0.13420239 -0.11312115 0.067250729
0.12856339 0.10433686 0.055927753
0.12300839 0.1847949 0.036043644
0.12488139 0.45345187 -0.11727238
0.12589338 0.52599585 -0.20008612
0.12379639 -0.36817813 -0.028482437
0.11735839 0.22264487 0.021509647
0.12088838 0.56436288 -0.28958702
0.11345339 0.49347088 -0.16192341
0.11097638 -0.11186314 0.074577808
0.10603139 0.2956199 -0.012398243
0.10528539 0.067642868 0.065277576
0.10713638 0.45266789 -0.12756443
0.1059534 -0.3632921 -0.0043363571
0.10555638 -0.28554416 0.037018776
0.099659383 0.15209788 0.046623707
0.09988939 0.22252989 0.020326614
0.099371389 -0.010184109 0.079702854
0.099491388 0.067746878 0.065977573
0.093647391 0.032150865 0.072966576
0.096934393 0.56102389 -0.34564829
0.093733385 -0.22786617 0.061992645
0.093591392 -0.11093116 0.080062866
0.088376388 0.2667619 -0.00017213821
0.082252383 0.15196788 0.045450687
0.082541391 0.26659089 -0.0018143654
0.083393387 0.45161486 -0.14133215
0.082192391 -0.28203213 0.055288792
0.076793388 0.2947979 -0.02065134
0.070643388 0.15187788 0.044669628
0.070511386 -0.2254951 0.074852943
0.070457391 -0.10970211 0.087359905
0.06472639 0.032675862 0.076464653
0.064778388 0.10517186 0.061712742
0.064685389 -0.16360307 0.088219643
0.065095387 -0.44387412 -0.029248238
0.059065387 0.18433589 0.031735897
0.059170388 0.2658999 -0.0083889961
0.05938739 0.38196188 -0.091155052
0.059725389 0.48933288 -0.22034836
0.059451386 -0.51230812 -0.11555624
0.053142387 -0.10879111 0.092823982
0.04161239 -0.35143709 0.054405689
0.04161239 -0.10818911 0.096460819
0.035805389 0.15159488 0.042335987
0.03560539 0.44812489 -0.18643045
0.030077389 -0.0088911057 0.088081837
0.03009839 -0.10759008 0.10009289
0.029959388 -0.43327308 0.020724773
0.024012389 -0.49253607 -0.025419235
0.01798139 0.33384186 -0.07191515
0.017513389 0.44660985 -0.20591736
0.01719139 0.48378786 -0.29814005
0.012641389 0.1047079 0.05822897
0.012843389 -0.16077113 0.10457563
0.012847388 -0.10670018 0.10553265
0.0066773891 0.18362087 0.025825977
0.0064203888 0.26430887 -0.023212433
0.0061303899 0.3331899 -0.078668118
0.0069163889 0.068509877 0.071352959
0.005708389 0.40677285 -0.15925026
0.0071043894 -0.10640514 0.10734558
0.00094138831 0.15128887 0.040009975
0.00054538995 0.26412886 -0.024863243
0.00019638985 0.33286285 -0.082050323
-0.00068061054 0.4450829 -0.22551012
-0.0051476099 0.22023588 7.2002411e-05
-0.010264613 -0.0081881285 0.092965603
-0.011691611 0.33220589 -0.088823318
-0.012396611 0.40514088 -0.17857599
-0.01029161 -0.34443212 0.089505672
-0.010766611 -0.48065114 0.028944969
-0.021708611 -0.049399137 0.10163975
-0.028361615 0.1824199 0.016070843
-0.027323615 -0.27066314 0.11525869
-0.034515608 -0.55420315 -0.012223244
-0.033208612 -0.049201131 0.10303259
-0.039829608 0.15026188 0.032151699
-0.039229613 0.033300877 0.081272602
-0.048360612 0.37449187 -0.17506742
-0.044897612 -0.41882908 0.089411736
-0.051780608 0.18160588 0.009554863
-0.05020361 -0.26934206 0.12247992
-0.057978611 0.21849185 -0.0146842
-0.058525611 0.26120991 -0.05157423
-0.061470609 0.39909488 -0.25006008
-0.056326609 -0.4173311 0.096637726
-0.062114608 -0.0079610944 0.095088005
-0.06161261 -0.21612012 0.12701178
-0.061779615 -0.10502911 0.11640167
-0.061934609 -0.048717141 0.10651159
-0.067883611 -0.0080321431 0.09470892
-0.067443609 -0.33819914 0.12125158
-0.076376617 0.26010489 -0.061632156
-0.076833606 0.28782785 -0.087825298
-0.080437616 0.39535791 -0.2942872
-0.073417604 -0.048529148 0.10790396
-0.078720614 -0.2151891 0.13240862
-0.087537616 0.2168979 -0.028190136
-0.085843608 -0.53784716 0.060003757
-0.090155616 -0.33575213 0.13385963
-0.090131611 -0.26707411 0.135077
-0.091532618 -0.53666818 0.065266609
-0.098356619 0.14811689 0.015938759
-0.09584862 -0.33541417 0.13566256
-0.097212613 -0.53549218 0.070521832
-0.096450612 -0.46382511 0.10688877
-0.10464962 0.17973489 -0.005133152
-0.10825661 0.32424986 -0.17045546
-0.11070861 0.36486888 -0.28282118
-0.11301762 0.28487086 -0.11599827
-0.10718161 -0.21370113 0.14115477
-0.11824262 0.25749487 -0.085206985
-0.12055561 0.32298887 -0.18334913
-0.11334461 -0.10416412 0.12265158
-0.12522762 0.28354388 -0.12868404
-0.12043162 -0.57695913 0.067578793
-0.11916162 -0.46116209 0.11954594
-0.12923561 0.21413887 -0.051520348
-0.13029961 0.25657088 -0.093567371
-0.12562962 -0.0087791085 0.090935707
-0.13307361 0.32106286 -0.20315838
-0.13748261 0.28220987 -0.14141512
-0.13947861 0.31966186 -0.21762705
-0.13950661 0.1465739 0.0045557022
-0.13875261 0.1009869 0.032447815
-0.13558762 -0.26454914 0.14941883
-0.14624362 0.17695385 -0.027338028
-0.14692162 -0.26392913 0.15299463
-0.16089262 0.25310886 -0.12514639
-0.15571961 0.0650599 0.049170017
-0.15635961 0.10028088 0.027606964
-0.15312262 -0.15569913 0.13665962
-0.15348162 -0.1040231 0.12457561
-0.16704662 0.25241089 -0.13149643
-0.16094361 0.031057894 0.068236828
-0.15825562 -0.26337612 0.15623665
-0.15923361 -0.1041131 0.12420368
-0.15834162 -0.40579116 0.1534009
-0.17520261 0.14405388 -0.014585018
-0.17189161 -0.0094281435 0.087938786
-0.17263061 0.030547857 0.065047741
-0.17329861 0.064321876 0.04435873
-0.17399661 0.09956789 0.022759914
-0.16959761 -0.33113718 0.15893364
-0.16964062 -0.26318109 0.15761662
-0.18323661 -0.7673291 -0.079997063
-0.19413562 0.27336287 -0.2262044
-0.18102062 -0.26299107 0.15899801
-0.18933061 -0.010008097 0.084657669
-0.19913462 0.1423009 -0.027818203
-0.19516562 -0.010276139 0.083073616
-0.21396463 0.26860988 -0.27197933
-0.20352462 -0.4029541 0.16832972
-0.20911361 -0.32891607 0.17140198
-0.20979662 -0.21200311 0.1536026
-0.20916261 -0.4026221 0.17010975
-0.22150962 0.096482873 0.0010976791
-0.21985061 -0.73587811 0.043316841
-0.21479963 -0.40229213 0.17188978
-0.23290662 0.20403987 -0.13692999
-0.22749461 0.096017897 -0.0021862984
-0.22082661 -0.26235211 0.1638298
-0.22528861 -0.73350608 0.052733898
-0.22258161 -0.10515213 0.12014961
-0.23689561 0.1692549 -0.08856535
-0.2438706 0.23855788 -0.25851011
-0.23509561 -0.05115211 0.095928669
-0.2492996 0.16769087 -0.10112333
-0.24409463 0.060671866 0.020530701
-0.24787663 -0.83404708 -0.06785202
-0.23906861 -0.15600717 0.13799477
-0.25835761 0.1998809 -0.17245007
-0.24475561 -0.63361907 0.13909292
-0.24872161 -0.32776213 0.17879963
-0.27167559 0.19655287 -0.20114326
-0.26067561 0.026623905 0.041081905
-0.26181659 -0.81175315 0.015964985
-0.25782761 -0.72070312 0.10379887
-0.25718561 -0.10575914 0.11794901
-0.25847161 -0.052296162 0.089627743
-0.25421059 -0.44818211 0.18346977
-0.2600596 -0.32758915 0.18017673
-0.26207861 -0.15643609 0.1365428
-0.2598246 -0.44785011 0.1852417
-0.27131259 -0.013839126 0.062453747
-0.27560461 0.092256904 -0.028563023
-0.26572859 -0.32750416 0.18086576
-0.26627061 -0.26167917 0.16935587
-0.27232561 -0.8051821 0.040977955
-0.26783559 -0.15654612 0.13617897
-0.27359161 -0.15665615 0.13581657
-0.27450261 -0.10607314 0.11685276
-0.2710076 -0.39905512 0.18962383
-0.2830756 -0.014400125 0.05927372
-0.2798866 -0.71564615 0.12445974
-0.27661359 -0.39873815 0.19139385
-0.29055259 0.024220884 0.025728703
-0.28231359 -0.50936818 0.19122267
-0.29363361 -0.054038167 0.080165863
-0.28786159 -0.44620907 0.19408989
-0.30611661 0.089265883 -0.049717426
-0.29346159 -0.44588518 0.19585657
-0.30664361 -0.015535116 0.052883625
-0.3003456 -0.26130009 0.17304373
-0.29923859 -0.54882908 0.19417667
-0.3270416 0.1529339 -0.22080708
-0.30727759 -0.70940018 0.15010262
-0.30815461 -0.15733516 0.13364458
-0.31862259 -0.016597152 0.046432972
-0.3139196 -0.15745115 0.13328457
-0.33110461 0.085811853 -0.074552059
-0.3344776 0.053255856 -0.02885437
-0.34366959 0.084071875 -0.087036133
-0.33480361 -0.056111097 0.069102764
-0.33995259 -0.70231616 0.17943001
-0.3569296 0.018553853 -0.01021719
-0.34759861 -0.77790117 0.14684391
-0.3498646 -0.61890614 0.2044096
-0.35880759 -0.21379411 0.15118885
-0.3549566 -0.50504708 0.21415091
-0.36230761 -0.11064017 0.093960762
-0.36456361 -0.2139231 0.15083361
-0.3663156 -0.15982711 0.12260199
-0.38472059 0.046029866 -0.078360081
-0.3749136 -0.26299715 0.16844702
-0.38307759 -0.8669641 0.040469646
-0.37198561 -0.44282615 0.21434879
-0.40293461 0.071809888 -0.17638636
-0.38065761 -0.26313412 0.16809559
-0.38640261 -0.26327217 0.16774273
-0.38760659 -0.21445608 0.14937496
-0.38283059 -0.54340017 0.22223902
-0.3832576 -0.44268513 0.21572399
-0.41688761 0.067906857 -0.20506239
-0.39159659 -0.77091515 0.17570972
-0.3894276 -0.39652216 0.20836973
-0.40635359 -0.39632714 0.21043777
-0.43219259 0.0081938505 -0.077738285
-0.4114126 -0.69320011 0.21942902
-0.4306756 -0.87140107 0.02763176
-0.42080361 -0.77376711 0.16705465
-0.4161526 -0.54146707 0.2327528
-0.41763461 -0.39620209 0.21181679
-0.45176959 0.030733883 -0.18502617
-0.44705459 -0.030277133 -0.036841393
-0.43068361 -0.32789516 0.18878555
-0.44330561 -0.065677166 0.014828682
-0.42891261 -0.39608109 0.2131958
-0.43817061 -0.26455414 0.16458988
-0.43881461 -0.50202417 0.23306274
-0.45011061 -0.77667916 0.1583066
-0.44597659 -0.39633012 0.21328259
-0.47965062 -0.0032921433 -0.15457821
-0.45793259 -0.21871912 0.13092089
-0.45937657 -0.32866907 0.18706274
-0.47329563 -0.26678813 0.15548897
-0.47660959 -0.32914615 0.18603277
-0.49362463 -0.07291913 -0.027785301
-0.49328262 -0.22090614 0.12167263
-0.48377562 -0.50156713 0.23856401
-0.49678159 -0.26830506 0.14938354
-0.48939258 -0.50151515 0.23925161
-0.49445862 -0.53963518 0.24659157
-0.51100659 -0.22201407 0.11704063
-0.50320858 -0.39800715 0.2098999
-0.54970658 -0.06647408 -0.27088642
-0.50893962 -0.39818013 0.20956278
-0.52879661 -0.33158517 0.17819977
-0.52182662 -0.60890007 0.25787163
-0.53802258 -0.2710011 0.13868189
-0.53040659 -0.44316316 0.22486067
-0.53373063 -0.53930008 0.25140667
-0.55758357 -0.13115013 -0.015855312
-0.55092061 -0.70438218 0.18716955
-0.56403261 -0.17618716 0.04309082
-0.54494858 -0.53921413 0.25278378
-0.57026958 -0.17700207 0.03894186
-0.5548386 -0.39960408 0.20687485
-0.56758761 -0.27296007 0.13102579
-0.55616462 -0.53913307 0.25416279
-0.56994063 -0.33444417 0.1676259
-0.56388462 -0.61610615 0.23228598
-0.57777262 -0.22909415 0.083992958
-0.58202958 -0.61923611 0.22123671
-0.59799361 -0.27642012 0.11565495
-0.58957458 -0.40126407 0.20229387
-0.60024559 -0.62238908 0.21014166
-0.5964976 -0.54147518 0.2480197
-0.6163336 -0.27854407 0.10624266
-0.62077361 -0.23388612 0.061750889
-0.60265958 -0.54273915 0.24323177
-0.60719258 -0.40257514 0.1978178
-0.6333946 -0.23576307 0.052678585
-0.62902957 -0.3386271 0.15248585
-0.62464559 -0.62663209 0.19527292
-0.62741262 -0.54782712 0.22399282
-0.64561659 -0.44800413 0.21388578
-0.66553962 -0.28428113 0.081027985
-0.65149862 -0.44846308 0.21240473
-0.70740259 -0.22004008 -0.19679928
-0.6720736 -0.40747213 0.18138075
-0.67505962 -0.45031416 0.20647955
-0.69005561 -0.34576416 0.12325382
-0.68686157 -0.45124614 0.20351458
-0.70297062 -0.56402814 0.1628828
-0.71479261 -0.52452207 0.16059399
-0.7258966 -0.46072316 0.16451168
-0.73952258 -0.35188711 0.098232746
-0.7384336 -0.41434312 0.15635061
-0.78615761 -0.31047213 -0.043632984
-0.76622659 -0.42297709 0.11868763
-0.78513461 -0.36051416 0.06048584
-0.79570061 -0.48315907 0.069983959
-0.80505461 -0.36456215 0.042665958
-0.81839859 -0.36727917 0.030735016
