# .PCD v0.7 - Point Cloud Data file format
VERSION 0.7
FIELDS x y z
SIZE 4 4 4
TYPE F F F
COUNT 1 1 1
WIDTH 1
HEIGHT 512
VIEWPOINT 0 0 0 1 0 0 0
POINTS 512
DATA ascii
0.30452898 -0.56301558 0.40879679
0.28626099 -0.43681455 0.32976675
0.275157 -0.55283952 0.44683456
0.27970698 -0.43190753 0.350348
0.27237299 -0.63253856 0.38857794
0.26938 -0.55112052 0.45323896
0.263625 -0.47522855 0.45941973
0.27065301 -0.40319657 0.30465174
0.26095501 -0.42084849 0.39657974
0.25556201 -0.63100159 0.39355898
0.251883 -0.4705745 0.47782564
0.24997601 -0.63056159 0.39495993
0.246039 -0.46825957 0.48698664
0.24320501 -0.41406059 0.4247117
0.238814 -0.6296885 0.39775181
0.238978 -0.38249755 0.39376879
0.24560601 -0.35718548 0.23224878
0.230874 -0.70832658 0.31879473
0.227663 -0.62882257 0.40053368
0.22326699 -0.46177959 0.51240253
0.225786 -0.40835154 0.44830656
0.23166099 -0.34248555 0.29875755
0.236379 -0.20727456 0.030021667
0.22523199 -0.7078805 0.32018757
0.23969001 -0.10874152 -0.056165218
0.226942 -0.25771856 0.12580776
0.21334399 -0.54154849 0.48802185
0.206577 -0.45872355 0.52419281
0.205395 -0.62711453 0.40607166
0.21922499 -0.095466495 0.019699574
0.207755 -0.24657154 0.1806736
0.199836 -0.62669253 0.40744972
0.21119699 -0.14428651 0.082121849
0.21275599 -0.092347503 0.037471771
0.198771 -0.37203848 0.43795156
0.201557 -0.32921958 0.35815763
0.211024 0.04599452 -0.082963467
0.197062 -0.70567954 0.32710886
0.190046 -0.45637357 0.53316164
0.206599 -0.090661526 0.046990871
0.19853599 -0.29815149 0.28380394
0.18872699 -0.62586153 0.41016865
0.18594399 -0.53974056 0.49406576
0.18454799 -0.45559454 0.53614569
0.20047599 -0.089063525 0.056011677
0.186278 -0.3996315 0.48399353
0.201938 -0.041882515 0.011913776
0.198523 0.04894948 -0.063655376
0.200728 0.083511472 -0.1319232
0.189716 -0.24076557 0.20900679
0.183175 -0.62545156 0.41151857
0.19230099 0.050420403 -0.054043293
0.18373899 -0.23884249 0.21840096
0.177628 -0.62504256 0.41286469
0.17500499 -0.53906858 0.49631977
0.175162 -0.39782059 0.49133873
0.188051 0.086935461 -0.10843706
0.18944199 0.11832744 -0.15394831
0.179658 -0.18098152 0.16628885
0.17208299 -0.62463748 0.41420794
0.18084599 -0.13585651 0.12738466
0.18220399 -0.084297538 0.082934856
0.17066899 -0.36667049 0.4604907
0.18499699 0.0139575 -0.0084691048
0.172783 -0.32175052 0.3912859
0.17990999 0.053345442 -0.034901142
0.18451899 0.15288848 -0.19017601
0.17196099 -0.23585749 0.23291779
0.17369099 -0.17935956 0.17463779
0.175484 0.090222478 -0.085878372
0.16614899 -0.23476553 0.23818684
0.161002 -0.62383056 0.41688776
0.15861699 -0.53807354 0.49968481
0.160346 -0.23367655 0.24345064
0.16198599 -0.17737651 0.18472099
0.151859 -0.45261455 0.5472579
0.15406099 -0.36474049 0.46843576
0.16542399 -0.033487558 0.061645985
0.155848 -0.31874955 0.40447569
0.168552 0.22967947 -0.26866007
0.165492 0.15753347 -0.15556002
0.156148 -0.17638958 0.18974876
0.14993 -0.62303054 0.41955996
0.16212499 0.23120749 -0.25606108
0.163983 0.26446348 -0.32702112
0.16651599 0.30308145 -0.42372942
0.156574 0.096288443 -0.04408741
0.15801099 0.12602949 -0.098965168
0.14224799 -0.53709459 0.50303173
0.142142 -0.39390659 0.5070467
0.15352699 -0.031674504 0.072302818
0.15448099 0.20328248 -0.1944952
0.14546299 -0.12941051 0.16175556
0.14364 0.059054494 0.0021958351
0.131349 -0.53648651 0.50511169
0.13198699 -0.36218858 0.47900867
0.13513499 -0.28368759 0.35020494
0.13848199 0.098716438 -0.027595997
0.14704999 0.33856946 -0.3911891
0.139726 0.12864947 -0.080412388
0.140708 0.16204447 -0.12204933
0.13575199 -0.028971553 0.088227749
0.136843 0.02204442 0.041953564
0.129503 -0.28297853 0.35341167
0.12582 -0.22796953 0.27101374
0.130896 0.022904515 0.047318935
0.12570499 0.061554432 0.01845789
0.12759399 0.13038546 -0.068098068
0.12012899 -0.22733951 0.27402592
0.121372 -0.17103159 0.21705675
0.118569 -0.69996858 0.3455286
0.1222 -0.12614954 0.17909384
0.12354299 0.20800549 -0.15735817
0.120483 0.10111147 -0.011293411
0.13046199 0.37585646 -0.48766327
0.122412 0.16456646 -0.10336924
0.112984 -0.69960153 0.34673262
0.11822599 0.23907149 -0.19136524
0.11550499 0.13211244 -0.055827141
0.10575199 -0.61995351 0.42999458
0.104142 -0.53501654 0.5102067
0.11068 -0.12511957 0.18450165
0.107033 -0.28016055 0.36621857
0.115392 0.34206045 -0.35774136
0.10308799 -0.22545755 0.28305197
0.10181999 -0.69887459 0.34913158
0.105738 -0.073201537 0.14505291
0.098536998 -0.39060652 0.52009583
0.10734199 0.025202513 0.061522961
0.100236 -0.31251752 0.43158579
0.10520099 0.21040648 -0.13847733
0.10592699 0.24068546 -0.17810822
0.096241996 -0.69851458 0.35032654
0.092370987 -0.4487735 0.56149292
0.096204996 0.063999414 0.034191608
0.098254994 0.16729146 -0.083214283
0.091755986 -0.22420955 0.28905964
0.089232996 -0.61888957 0.43365288
0.087695986 -0.3901875 0.52167797
0.090311989 -0.27891254 0.37179375
0.095608994 0.31842744 -0.28155422
0.090324998 0.064445496 0.037064552
0.096407995 0.34495944 -0.32974911
0.087701991 -0.12307549 0.19529295
0.082800999 -0.35924852 0.49084473
0.084760994 -0.27871954 0.37260962
0.087071985 0.21190548 -0.12677717
0.084452987 0.064889431 0.039932728
0.092775986 0.42872548 -0.48991442
0.082629994 -0.071237564 0.15597963
0.076859996 -0.38977253 0.52326393
0.083934993 0.027045488 0.072895527
0.081586987 0.24295348 -0.15956831
0.079085991 0.10413146 0.0090279579
0.084544986 0.38826245 -0.35894108
0.080311999 0.16859543 -0.073636055
0.073955998 -0.69716954 0.35480881
0.072737992 -0.61794949 0.43689299
0.071444988 -0.38956654 0.52405787
0.07554099 0.24336648 -0.15620232
0.076164991 0.27901644 -0.20085001
0.072721988 0.065775514 0.045666695
0.077641994 0.34735447 -0.30662203
0.078245997 0.38913345 -0.34993839
0.065461993 -0.44764352 0.56565094
0.070549995 -0.12194157 0.20125055
0.071117997 -0.070411563 0.16057253
0.066472992 -0.35864055 0.4932518
0.067266986 -0.3113445 0.43638277
0.070858985 0.32113445 -0.2565794
0.067305997 0.10498548 0.014815807
0.06787999 0.13591647 -0.029024124
0.064366996 -0.16659355 0.23938656
0.062827989 -0.69654059 0.35692358
0.060618993 -0.38915753 0.52564764
0.061032992 -0.35843956 0.49405575
0.066435993 0.028400421 0.081311703
0.061022993 0.066519439 0.05047369
0.061422992 0.10541046 0.017706871
0.067770988 0.46014947 -0.50189924
0.060112994 -0.022682548 0.12495089
0.056287993 -0.31096053 0.43799162
0.059524994 0.39105445 -0.33011723
0.053466994 -0.12142158 0.20388794
0.054836992 0.028708458 0.083138943
0.050801989 -0.31076956 0.4387989
0.053344991 0.39136147 -0.32697916
0.050143991 0.13700944 -0.021309376
0.054298993 0.43511844 -0.41811609
0.043995995 -0.44757152 0.56567955
0.04474799 -0.35842752 0.49391174
0.048592996 -0.022363544 0.1267519
0.045060996 0.21479344 -0.10416842
0.04539999 0.24541849 -0.13941336
0.047997992 0.43582946 -0.41013622
0.039061993 -0.53203559 0.52079487
0.038631991 -0.44758153 0.56558275
0.039035991 -0.3896215 0.52342892
0.039391991 0.24579346 -0.13633823
0.040277991 0.32316947 -0.23786736
0.038370993 0.13728744 -0.019403458
0.033640992 -0.38980353 0.52260494
0.034179993 0.32357347 -0.23413324
0.031908993 0.067255437 0.055093765
0.032485992 0.13742548 -0.01845026
0.029990993 -0.22201657 0.29920483
0.028237991 -0.53159058 0.5224247
0.030711994 -0.12073958 0.20740795
0.028481994 -0.35896552 0.49141693
0.029384993 -0.27776957 0.37641478
0.026090991 0.067401469 0.056017876
0.028384991 0.35089046 -0.2725811
0.029254992 0.43699247 -0.39714527
0.025027994 -0.12057149 0.20828867
0.025311992 -0.069093585 0.16770077
0.023056991 -0.3591466 0.4905858
0.021437991 0.24616545 -0.13336229
0.020473991 0.10643244 0.024458885
0.022549991 0.39250445 -0.31529617
0.020945992 0.17143244 -0.052791119
0.023022991 0.43737847 -0.39282322
0.019348994 -0.12049556 0.20866489
0.019593991 -0.06893158 0.16859293
0.013489991 -0.16574156 0.2433939
0.013879992 -0.068852544 0.16901875
0.012045991 -0.39054155 0.51931572
0.014072992 -0.021424532 0.13216686
0.014295992 0.02976346 0.089544773
0.010064993 0.35157245 -0.26602507
0.011226993 0.50355947 -0.53225946
0.0073089916 -0.69396949 0.3657136
0.0081699919 -0.068979502 0.16825676
0.0055779926 0.57372946 -0.72550011
0.0014889929 -0.6153276 0.44601583
0.0012089927 -0.53060353 0.52609968
0.0012389924 -0.39091551 0.51767683
0.0013449918 -0.35987949 0.48727083
0.0027289931 0.029969454 0.090815544
0.0017529931 -0.27905357 0.37020063
-0.0028870068 0.10698348 0.028198719
-0.0014470071 0.50437546 -0.52179241
-0.0035800077 -0.22324252 0.29291964
-0.0034440085 -0.16620755 0.24087858
-0.0039820075 -0.61516953 0.44658995
-0.0041920077 -0.53041255 0.526824
-0.0032500084 -0.069236517 0.16673374
-0.0031560082 -0.021614552 0.13094854
-0.0030490085 0.02984643 0.090007782
-0.0087740077 0.06784445 0.058824539
-0.0071140081 0.66065347 -0.89227819
-0.0071590077 0.69921046 -0.86661005
-0.0070640072 0.74808645 -0.92091942
-0.007594008 0.54341644 -0.61739445
-0.0095920078 -0.53022349 0.52754498
-0.0093140081 -0.27957249 0.36772156
-0.014581008 0.067723453 0.058008671
-0.014302008 0.35200948 -0.26181841
-0.013790008 0.6630255 -0.84775925
-0.013781007 0.69957542 -0.85908508
-0.013731007 0.74829948 -0.91582727
-0.013997007 0.54384446 -0.6113863
-0.014739008 -0.1665225 0.23920393
-0.014852008 -0.69313753 0.36865759
-0.014643008 -0.021868587 0.12939262
-0.014902008 -0.31357455 0.42561197
-0.020391008 0.10667944 0.026054859
-0.020391008 0.46662545 -0.42528439
-0.020391008 0.50554049 -0.50679922
-0.020391008 0.61952746 -0.74801922
-0.020391008 -0.22386754 0.28978586
-0.020391008 -0.12143457 0.20339775
-0.026955009 0.66510046 -0.80880642
-0.026576009 0.43904746 -0.37406921
-0.026619008 0.46672046 -0.42414808
-0.026690008 0.50563449 -0.50558138
-0.026774008 0.54454648 -0.60153341
-0.026895007 0.62000847 -0.73998404
-0.025787007 -0.52967358 0.5296669
-0.026072007 -0.12157154 0.20264578
-0.026173007 0.029343486 0.086770535
-0.032331008 0.24682045 -0.12801027
-0.03201101 0.067355454 0.055562973
-0.032559007 0.35233247 -0.25865602
-0.032640006 0.39350545 -0.30497646
-0.032136008 0.13781345 -0.015835285
-0.033572007 0.70056546 -0.83860922
-0.032759007 0.43914646 -0.37294912
-0.03326501 0.57786548 -0.66299534
-0.033385009 0.62048745 -0.73196507
-0.031696007 -0.16714251 0.23595285
-0.031886008 -0.022265553 0.12699699
-0.038410008 0.28267545 -0.16934538
-0.037823007 0.067231476 0.054746628
-0.039071009 0.46690947 -0.421875
-0.039284006 0.50582248 -0.50314045
-0.036577009 -0.52934754 0.53095198
-0.037542008 -0.07002759 0.1621747
-0.036726005 -0.3629415 0.47387981
-0.037744008 0.029086471 0.08515358
-0.036886007 -0.31641054 0.4126997
-0.044281006 0.24655545 -0.13019037
-0.044422008 0.28254747 -0.1704483
-0.045296006 0.46700346 -0.42073727
-0.046916008 0.74958748 -0.88482618
-0.043021008 -0.16814351 0.2307229
-0.050434008 0.28241944 -0.17155027
-0.050660007 0.32474244 -0.22333717
-0.049768008 0.13739544 -0.018810272
-0.053272009 0.70136344 -0.82204723
-0.051303007 0.43933946 -0.37071228
-0.051870007 0.50600845 -0.50069618
-0.052534007 0.57854247 -0.65269804
-0.047717005 -0.61396348 0.45112276
-0.047914006 -0.31791258 0.4058919
-0.056448009 0.28229046 -0.17265415
-0.056918006 0.35194248 -0.26237917
-0.055830009 0.17119247 -0.054641247
-0.059610009 0.66681546 -0.77651501
-0.057494007 0.43919349 -0.37232637
-0.060108006 0.75013947 -0.87150335
-0.060139008 0.78557944 -0.87755013
-0.053590007 -0.6918726 0.37330389
-0.053103007 -0.36470449 0.4662447
-0.061089009 0.066727459 0.051487923
-0.061279006 0.10583544 0.020296574
-0.063264012 0.39352244 -0.30467319
-0.066378012 0.70172948 -0.81440735
-0.066632003 0.75078148 -0.85602903
-0.066752009 0.78564847 -0.87564325
-0.065000013 0.54544544 -0.58879423
-0.060669009 -0.023421526 0.12011099
-0.060907006 0.028461456 0.081255913
-0.058965009 -0.3194195 0.39907694
-0.068201005 0.24601847 -0.13454628
-0.067414008 0.13697249 -0.021781445
-0.072927013 0.70186746 -0.81150103
-0.070220008 0.46674746 -0.42364931
-0.063472003 -0.45312953 0.54291153
-0.064043008 -0.36588657 0.46114969
-0.074505009 0.28190047 -0.17596531
-0.074918009 0.32416844 -0.22856426
-0.079976007 0.78576046 -0.87251616
-0.07871601 0.6216625 -0.71210623
-0.07252501 0.027636409 0.076063633
-0.079889007 0.21481848 -0.10402346
-0.080175012 0.24574745 -0.13672304
-0.080988005 0.32402349 -0.22987032
-0.081317008 0.35138446 -0.26765823
-0.086043 0.70197642 -0.80913925
-0.082287006 0.43860644 -0.37879133
-0.082707003 0.46646446 -0.42692804
-0.083402008 0.50553745 -0.50656509
-0.077097006 -0.17099154 0.2159667
-0.07570301 -0.69124949 0.37570477
-0.087060004 0.32387847 -0.23117542
-0.084721014 0.10468245 0.012440681
-0.087778002 0.39337844 -0.30597925
-0.085443005 0.17009044 -0.062754154
-0.090550005 0.54500747 -0.59473705
-0.091695011 0.62153947 -0.71404123
-0.083101004 -0.12553549 0.18120575
-0.083455011 -0.073168516 0.14433384
-0.093908012 0.39334148 -0.30630732
-0.094701007 0.43831044 -0.38202715
-0.097554013 0.57840443 -0.654459
-0.085164011 -0.53002858 0.52862883
-0.086773008 -0.3247546 0.37498665
-0.096144006 0.064471483 0.036752701
-0.097342014 0.16926348 -0.068887234
-0.10532801 0.66699547 -0.77274418
-0.091393009 -0.61287057 0.45554161
-0.094980001 -0.074049592 0.13937664
-0.095816001 0.025974512 0.06566
-0.102365 0.10351545 0.0044927597
-0.10329901 0.16884947 -0.071953297
-0.10715801 0.43779147 -0.38775444
-0.096848011 -0.61274159 0.45608377
-0.096117005 -0.45985758 0.51588869
-0.096732005 -0.40326452 0.4655776
-0.10117301 -0.026452541 0.1021266
-0.11026101 0.24395847 -0.1513381
-0.11240101 0.39250445 -0.31482601
-0.11847501 0.66666543 -0.77878904
-0.11956801 0.75050044 -0.86228704
-0.11700001 0.57761943 -0.66609335
-0.11776701 0.62088442 -0.72469711
-0.10332301 -0.69052255 0.37862873
-0.10147601 -0.53236651 0.51975775
-0.10261701 -0.37251449 0.43258762
-0.11584401 0.21251649 -0.1220541
-0.11684801 0.27980345 -0.19393015
-0.122738 0.54348046 -0.61579323
-0.12350501 0.57731044 -0.67068005
-0.10884501 -0.69038355 0.37920761
-0.107756 -0.61249757 0.45713758
-0.11235 -0.0760355 0.12813663
-0.11279701 -0.027465582 0.096146584
-0.10925901 -0.33040249 0.34951353
-0.12292601 0.27941447 -0.19726324
-0.11961001 0.062848449 0.026232719
-0.131677 0.66621447 -0.78707743
-0.11321001 -0.6123786 0.45765972
-0.11816601 -0.076835513 0.12360573
-0.11918001 0.024296403 0.055233002
-0.11490901 -0.33182359 0.34311676
-0.12839401 0.24274445 -0.16122007
-0.129012 0.27902448 -0.20059919
-0.130464 0.34873247 -0.29298115
-0.13577801 0.54236144 -0.63130426
-0.12234101 -0.23722255 0.22406483
-0.11988601 -0.69010949 0.38035965
-0.12399101 -0.077637553 0.11906862
-0.131402 0.061773419 0.019245625
-0.13664401 0.34832644 -0.29684639
-0.145483 0.70093745 -0.82988119
-0.146313 0.74974746 -0.87997341
-0.142332 0.54174244 -0.63988638
-0.12540501 -0.68997455 0.38093376
-0.129262 -0.13164151 0.14832783
-0.124916 -0.37766349 0.41042566
-0.13795701 0.099709451 -0.021522045
-0.13860801 0.13174748 -0.058802128
-0.15213001 0.70075846 -0.83347416
-0.14483 0.43530744 -0.4152813
-0.145677 0.46330047 -0.46380711
-0.14889801 0.54113245 -0.64833212
-0.128782 -0.53650057 0.50415087
-0.129161 -0.46821058 0.48244095
-0.12998901 -0.41057158 0.43498898
-0.145999 0.21027648 -0.13951921
-0.15878001 0.70058846 -0.83685923
-0.14151001 -0.080054522 0.10542297
-0.13561301 -0.41243553 0.42715979
-0.136296 -0.3824085 0.38989687
-0.15598601 0.38926148 -0.34798622
-0.15755901 0.43399245 -0.4299221
-0.160512 0.49947149 -0.58367729
-0.162294 0.53910947 -0.6764822
-0.163433 0.57295746 -0.73583031
-0.147368 -0.080864549 0.1008606
-0.148001 -0.032233596 0.067865849
-0.158204 0.20876849 -0.15136814
-0.170515 0.57104242 -0.76466036
-0.151462 -0.24527049 0.18448782
-0.15265501 -0.13595951 0.12507057
-0.14779501 -0.3876605 0.36717558
-0.164323 0.20800143 -0.15738821
-0.165015 0.23917043 -0.19041538
-0.16207001 0.095584452 -0.049828053
-0.162727 0.12859744 -0.081185341
-0.17881501 0.69997346 -0.84919739
-0.170395 0.43243843 -0.44724417
-0.15425101 -0.70605755 0.32344961
-0.15156901 -0.47593355 0.45148563
-0.15856101 -0.13732851 0.11768389
-0.152573 -0.41806149 0.40355778
-0.15658601 -0.31288457 0.21200657
-0.16809601 0.094767451 -0.055394173
-0.174061 0.34499145 -0.32872438
-0.16878201 0.12780547 -0.08680439
-0.16949901 0.16239244 -0.11968613
-0.176836 0.43165845 -0.455935
-0.16393401 -0.1865865 0.13535261
-0.159375 -0.39295352 0.34429884
-0.166511 0.018220425 0.017242908
-0.173079 0.056584477 -0.01454401
-0.180277 0.34467047 -0.33172417
-0.181416 0.38596147 -0.38191843
-0.161897 -0.54335749 0.47823095
-0.16395101 -0.42184055 0.38772583
-0.16547601 -0.39842749 0.32052183
-0.167649 -0.35800254 0.2247386
-0.182749 0.20568848 -0.17551422
-0.185922 0.31526846 -0.31014109
-0.176364 -0.14145851 0.095426559
-0.177054 -0.086991549 0.066147804
-0.177735 -0.03739357 0.03725481
-0.17486401 -0.32419252 0.15906096
-0.18509001 0.054945469 -0.025196075
-0.17456001 -0.48732948 0.40569592
-0.19868201 0.31314749 -0.32968807
-0.18905601 -0.089733481 0.050617695
-0.203536 0.26979446 -0.28018522
-0.205164 0.31177944 -0.34233522
-0.207489 0.38118845 -0.43112707
-0.199433 0.12264746 -0.12348032
-0.19411001 -0.19729948 0.079773903
-0.21007 0.047123432 -0.076722145
-0.218512 0.33974248 -0.37893915
-0.21191001 0.11996448 -0.14260912
-0.212796 0.15503144 -0.17432022
-0.207416 -0.09542048 0.018287659
-0.221424 0.23007447 -0.26501942
-0.217299 0.085066438 -0.12181425
-0.22516 0.33810943 -0.39470816
-0.229525 0.26375043 -0.33259726
-0.230588 0.30892044 -0.368402
-0.23199901 0.33591747 -0.41594315
-0.22445701 0.11726445 -0.16183805
-0.221131 0.0075204372 -0.049784184
-0.229057 0.041177511 -0.11583519
-0.2309 0.11526448 -0.17615318
-0.23183 0.15069348 -0.20659733
-0.226382 -0.1642555 -0.028274059
-0.24417901 0.30473948 -0.40714407
-0.23849301 0.14807147 -0.22623634
-0.24672301 0.19076645 -0.29333019
-0.24408801 0.11030048 -0.21175623
-0.23973501 -0.11209857 -0.076982021
-0.239492 -0.05529952 -0.069461346
-0.256807 0.023940444 -0.22994423
-0.25967401 0.13636649 -0.31415129
