# .PCD v0.7 - Point Cloud Data file format
VERSION 0.7
FIELDS x y z
SIZE 4 4 4
TYPE F F F
COUNT 1 1 1
WIDTH 1
HEIGHT 512
VIEWPOINT 0 0 0 1 0 0 0
POINTS 512
DATA ascii
0.35561761 0.13265628 0.12067652
0.3536866 0.17023629 0.15692234
0.33311158 0.21681827 0.22840929
0.33402058 0.28818232 0.21045542
0.32848361 0.14385629 0.20913553
0.32088259 0.29228932 0.24998951
0.32474861 0.091638267 0.17092752
0.3106156 0.39945531 0.45990562
0.32106361 0.049136281 0.13027859
0.30517659 0.39957732 0.46102333
0.3058756 0.42606229 0.44647932
0.31006661 0.14821631 0.24321365
0.30906761 0.18335229 0.26439428
0.31919059 0.0017793179 0.049734592
0.2986266 0.35663629 0.48578453
0.30404758 0.1494543 0.25286674
0.30227861 0.22410929 0.29107141
0.3019636 0.26883727 0.29788542
0.3116886 0.0072762966 0.087758541
0.30816561 0.053848267 0.16387844
0.29498261 0.42629331 0.44872236
0.28953961 0.42640829 0.44984341
0.29206461 0.15191829 0.27208328
0.2911596 0.1868003 0.29240465
0.2900286 0.27102226 0.3178153
0.29829261 0.013737261 0.13224649
0.2901096 0.29918331 0.31600046
0.29375958 0.10016131 0.23403645
0.28528559 0.18777531 0.30029774
0.2841396 0.2719813 0.32654333
0.29208758 0.015533268 0.1445117
0.2841236 0.3003273 0.32692766
0.2769936 0.35715431 0.49021769
0.2878466 0.10120028 0.24164867
0.2794286 0.18874627 0.3081665
0.2782706 0.2729373 0.33524466
0.29058361 -0.041363716 0.047451496
0.2715916 0.35728329 0.49132442
0.27448061 0.15483129 0.2946825
0.27984861 0.018774271 0.16660643
0.27769661 0.06148231 0.21795368
0.26869661 0.1556493 0.30100536
0.2776466 -0.035969734 0.082909584
0.27179059 0.062569261 0.22559643
0.26235861 0.42697728 0.45545149
0.2545636 0.3197273 0.51544571
0.2553986 0.35766429 0.49464273
0.25692761 0.42708927 0.45657253
0.25645959 0.19164932 0.33149862
0.25571361 0.23108828 0.35047865
0.2491896 0.31986129 0.51654434
0.2600216 0.064733267 0.24082851
0.25076061 0.19232231 0.33689833
0.2460776 0.42731231 0.45880938
0.2450726 0.19299328 0.3422904
0.25266361 -0.027254701 0.14009047
0.2499036 0.025678277 0.21359253
0.23922759 0.3580423 0.49795961
0.2387746 0.23276126 0.36454868
0.24655759 -0.025390685 0.1523037
0.2441206 0.026449263 0.21875954
0.2330806 0.3202613 0.51983452
0.2344576 0.1597473 0.33254433
0.2331446 0.2333163 0.36922646
0.23834659 0.027213275 0.22387934
0.2292996 0.40123731 0.47663355
0.2305516 0.4650673 0.44166231
0.2450826 -0.085269749 0.03569746
0.22511859 0.46517029 0.44279051
0.2258386 0.50283527 0.42215872
0.21769761 0.35853827 0.50237036
0.21899059 0.42786431 0.46440268
0.2196876 0.46527228 0.44391775
0.21642759 0.23457128 0.3796854
0.2126226 0.29019028 0.49437952
0.2210886 0.029493272 0.23919153
0.21163259 0.32078528 0.52421331
0.2123206 0.35866129 0.50347376
0.2131006 0.40158129 0.47997236
0.2149436 0.50302428 0.42442942
0.2114336 0.19592327 0.36561251
0.2141546 0.070546269 0.28137159
0.2131326 0.1110003 0.31301069
0.2094976 0.50311732 0.42556429
0.22015961 -0.07579571 0.095461369
0.2009216 0.32104427 0.52640247
0.20750859 0.11152726 0.31681442
0.2314076 -0.22220474 -0.44368267
0.21421459 -0.074522674 0.10341549
0.20395359 0.031566262 0.25310659
0.2018916 0.11205131 0.32061243
0.2266266 -0.2877757 -0.48899364
0.19537459 0.16270328 0.35496044
0.1908356 0.35914826 0.50788641
0.1915316 0.40203428 0.48442268
0.1931776 0.50339532 0.42896652
0.2198976 -0.2846747 -0.47130346
0.2181976 -0.21724266 -0.4140296
0.18931259 0.19719827 0.37559271
0.1871496 0.4658753 0.45067358
0.1843456 0.16315627 0.35827351
0.1860216 0.072994292 0.29828548
0.18076059 0.40225828 0.48664665
0.20664661 -0.27920574 -0.44012356
0.1778736 0.2365073 0.39555073
0.17502061 0.29101628 0.50098133
0.1827676 -0.015735686 0.21469259
0.1984266 -0.20889074 -0.36400938
0.18471059 -0.068216741 0.14288759
0.1697146 0.29089427 0.49970341
0.1758026 0.033702314 0.26720858
0.1741436 0.1134733 0.33058643
0.1936146 -0.27444476 -0.41300344
0.16693459 0.2368843 0.39857435
0.1640286 0.35974628 0.51339436
0.1686116 0.11372429 0.33234262
0.18716259 -0.27225477 -0.40053463
0.1623286 0.16405231 0.36488152
0.16149861 0.23693031 0.39884567
0.1646236 0.034286261 0.27100229
0.1564296 0.19826728 0.38366461
0.1602156 -0.014407694 0.22297955
0.1590396 0.03457731 0.27289534
0.1528336 0.32218629 0.5362463
0.15755659 0.1142233 0.33584738
0.17451359 -0.26928967 -0.38373327
0.15137459 0.16430831 0.36667252
0.1509826 0.19831526 0.38393641
0.1494956 0.28558427 0.44948149
0.15345959 0.034867287 0.27478743
0.14850059 0.40291929 0.49330139
0.1682346 -0.26797372 -0.3762846
0.1422226 0.32219732 0.53610849
0.1438906 0.46665728 0.45966053
0.1542336 -0.15097576 -0.014386654
0.1370046 0.32177329 0.53185129
0.1384936 0.4667533 0.46077967
0.1480266 -0.14764267 0.0056614876
0.1446816 -0.064558685 0.1653266
0.1346456 0.19845426 0.38475466
0.1319306 0.3604483 0.51999331
0.1360846 0.075198293 0.31307173
0.1326876 0.42955828 0.48226452
0.1390036 -0.064180672 0.16762638
0.1289306 0.23704231 0.39912271
0.1282986 0.28376728 0.43202829
0.1321146 -0.012771726 0.23329353
0.12662961 0.32047731 0.51897573
0.1265886 0.36056328 0.52109432
0.13009061 0.11468327 0.3387394
0.1270376 0.40335131 0.4977417
0.1273126 0.42966127 0.4833765
0.12298161 0.28331029 0.42764854
0.1256616 0.035906315 0.28146553
0.1381446 -0.33502167 -0.39966345
0.1276636 -0.0634287 0.17221642
0.11810961 0.2368623 0.39733648
0.11770061 0.28258729 0.42078352
0.11692461 0.46713328 0.46526241
0.12441161 -0.25634974 -0.31008625
0.1163386 -0.062681735 0.17679548
0.10709661 0.28117532 0.40738249
0.10858861 0.075178266 0.31243467
0.1061516 0.46732029 0.4675045
0.11068261 -0.062310755 0.17908049
0.10229561 0.1643123 0.36578131
0.1042226 -0.01231271 0.23587942
0.10025561 0.40388131 0.50328064
0.10713961 -0.14196569 0.039306641
0.096857607 0.16417432 0.36459732
0.10859261 -0.4053517 -0.47580147
0.1060036 -0.25288266 -0.2903657
0.091418609 0.16403526 0.36341238
0.090699606 0.31023526 0.41828871
0.090011604 0.4675993 0.47086859
0.11043561 -0.60244769 -1.0893416
0.086974606 0.035838306 0.28039932
0.085419603 0.30916131 0.40772772
0.093768604 -0.25030476 -0.2756505
0.089790605 -0.14017469 0.049911499
0.079121605 0.35720432 0.48529243
0.081093609 0.075104296 0.31152868
0.080827609 0.11427629 0.33490849
0.078867607 0.40429729 0.50770664
0.088668607 -0.32696372 -0.35621071
0.082618609 -0.062564671 0.17707539
0.075085603 0.16361529 0.35985231
0.074737608 0.27970129 0.3931675
0.075363606 0.11408329 0.33338928
0.08716961 -0.54311067 -0.79402828
0.08253561 -0.32609576 -0.35151434
0.070394605 0.035797298 0.27993345
0.069292605 0.34853631 0.39469862
0.070127606 0.074591279 0.30769253
0.069895603 0.11388928 0.3318696
0.077082604 -0.39405268 -0.41680431
0.072575606 -0.1396907 0.052655697
0.071394607 -0.062750757 0.17576838
0.064188607 0.16333127 0.35747766
0.065272607 -0.012629688 0.23330545
0.064640604 0.07433331 0.3057704
0.065384604 0.44818929 0.22042751
0.070294604 -0.32437068 -0.34217358
0.058652606 0.19644332 0.36688566
0.058514606 0.27878827 0.38446331
0.060164608 -0.062939703 0.17445946
0.053216606 0.19616127 0.36449051
0.053653605 0.41451931 0.30199242
0.057492606 -0.24544269 -0.24795437
0.047777608 0.19587827 0.36209249
0.047707606 0.23425126 0.37355852
0.048326608 0.034708261 0.27216864
0.047998607 0.11310631 0.32577562
0.052035607 -0.32303375 -0.33497429
0.049728606 -0.1413247 0.042582512
0.042278606 0.23385626 0.37005854
0.042250607 0.27784032 0.37548876
0.043017607 -0.013264716 0.22891331
0.042655606 0.073292315 0.29807138
0.045959607 -0.32265276 -0.33291864
0.036843605 0.23346031 0.36655331
0.037034605 0.1127103 0.32272053
0.040155604 -0.38941067 -0.39267349
0.031402607 0.23306429 0.36304331
0.031385604 0.2770403 0.36795235
0.031892605 -0.014161706 0.22288036
0.031551607 0.11241531 0.32046556
0.031565607 0.38740832 0.3163476
0.032068606 0.44446629 0.17224073
0.032551605 -0.14273471 0.033966541
0.025956605 0.23266631 0.35953045
0.025951605 0.30446231 0.36136532
0.025989607 0.34399331 0.3470006
0.026475605 0.44362229 0.16134357
0.026816607 -0.14320773 0.031084538
0.020538606 0.16068429 0.33603764
0.020497605 0.27613127 0.35941648
0.020747606 -0.015087724 0.21667671
0.020528605 0.34350628 0.34189844
0.020618606 0.072238266 0.29034662
0.021075606 -0.14368266 0.028195381
0.015050605 0.19395828 0.34593964
0.015166605 -0.0155527 0.21356869
0.015128605 0.032631278 0.25757074
0.015045606 0.30357027 0.35263157
0.015058605 0.34301728 0.33678532
0.015101606 0.071972311 0.28841162
0.0095786052 0.23146731 0.34896851
0.0095786052 -0.016019702 0.21045446
0.0095786052 0.03228128 0.25512743
0.0095786052 0.30300927 0.34714365
0.0095786052 0.34249526 0.33133459
0.0095786052 0.071514308 0.28508568
0.0095786052 0.38516527 0.29094744
0.0041086054 0.2746743 0.34576941
0.0039876052 -0.016486704 0.20733929
0.0041046054 0.30244732 0.34165144
0.0040716054 0.11018527 0.30355453
-0.0015293946 0.031578302 0.25023746
-0.001480395 0.070527315 0.27794266
-0.0014423942 0.10971528 0.30000639
-0.0069003953 0.1587013 0.32016468
-0.0072113937 -0.017426729 0.20109463
-0.0070193941 0.070032299 0.27436256
-0.0071533946 0.40791327 0.22315264
-0.0087173944 -0.38583869 -0.37394667
-0.012378394 0.19143027 0.32485437
-0.014621395 -0.31990176 -0.31788969
-0.017885394 0.19092029 0.32061243
-0.017851394 0.2291193 0.32839155
-0.017855395 0.27271527 0.32747936
-0.018244393 0.029877305 0.23842859
-0.018169396 0.3820343 0.2556057
-0.019329395 -0.15005165 -0.010303497
-0.018703394 -0.06937474 0.13318062
-0.024179395 -0.75276071 -1.1217775
-0.023094393 -0.64311069 -0.87312126
-0.023412395 0.29961228 0.31403732
-0.023522392 0.33882827 0.29313755
-0.028067395 -0.49908572 -0.57503748
-0.024381395 -0.070019662 0.12908268
-0.028890394 0.22786331 0.31740952
-0.028945394 0.29904127 0.30848646
-0.029105395 0.1073463 0.28219032
-0.034319393 -0.49835867 -0.57138062
-0.032773394 -0.31996375 -0.31814337
-0.030066393 -0.07066673 0.12497759
-0.036000393 -0.63746673 -0.84642839
-0.034522392 0.15590829 0.29791451
-0.034429394 0.27097529 0.3112855
-0.038823392 -0.31998771 -0.31823063
-0.038293395 -0.24446672 -0.2423234
-0.042483393 -0.63664073 -0.84249353
-0.039992392 0.1888653 0.30358458
-0.040234394 0.33685827 0.27268457
-0.040422395 0.066479266 0.24877071
-0.041147392 0.40230429 0.15649939
-0.041461393 -0.072011769 0.11645746
-0.046311393 0.37804127 0.21062946
-0.047180392 -0.072877705 0.1109643
-0.051087394 0.22533029 0.29532433
-0.051458392 0.33531326 0.25665045
-0.051389392 0.10489827 0.26384354
-0.056979395 -0.32006973 -0.31853247
-0.056328394 -0.24594575 -0.25070763
-0.063858397 -0.73379976 -1.0350556
-0.056789391 0.15332729 0.27743435
-0.056683391 0.18692529 0.28752851
-0.056800395 0.29573327 0.27638769
-0.063032396 -0.3201037 -0.31865931
-0.062360391 -0.24662274 -0.25455046
-0.058692396 -0.075273693 0.095758438
-0.070385396 -0.73068768 -1.0208035
-0.062380396 0.15267831 0.27229357
-0.062283397 0.18611932 0.28085375
-0.063214391 0.024139285 0.19876432
-0.06241139 0.2950303 0.26957846
-0.062845394 0.064037263 0.23127365
-0.06261339 0.10327727 0.25170135
-0.063429393 0.37530529 0.1798563
-0.071878396 -0.49712974 -0.56493044
-0.069086395 -0.32013971 -0.31878948
-0.068398394 -0.2472617 -0.25817251
-0.06448739 -0.076715767 0.086598396
-0.067935392 0.26660228 0.27067041
-0.069481395 -0.026036739 0.14413548
-0.068880394 0.023351312 0.19333935
-0.068402395 0.33297729 0.23244762
-0.068491392 0.063191295 0.22520971
-0.073450394 0.22268927 0.27236032
-0.073694393 0.29339528 0.25373745
-0.07388439 0.1016103 0.23922443
-0.084463395 -0.49795872 -0.5689106
-0.076123394 -0.079615653 0.068199635
-0.087687396 -0.6309467 -0.81517744
-0.080970392 -0.028134704 0.13029432
-0.08091139 0.37127227 0.13446331
-0.087317392 -0.32118076 -0.32426834
-0.084857397 0.14983231 0.24978352
-0.084721394 0.22114432 0.25893641
-0.094179392 -0.38686174 -0.37857533
-0.093405396 -0.3215887 -0.3264184
-0.087841392 -0.082698762 0.048643589
-0.1005424 -0.62934667 -0.80745125
-0.090398394 0.22020829 0.25080156
-0.092509396 -0.030245721 0.11638737
-0.090783395 0.29056329 0.22629929
-0.10032939 -0.38741475 -0.38138533
-0.097318396 -0.17981571 -0.18971157
-0.1099394 -0.72472876 -0.99311829
-0.096561395 0.098248303 0.21411562
-0.099072397 0.3649013 0.062682629
-0.099740393 -0.086833656 0.022390366
-0.10198239 0.26152331 0.22362375
-0.10229439 0.28844529 0.20578861
-0.10299239 0.32654327 0.16577768
-0.10272039 0.057079315 0.18138456
-0.10572539 -0.088915765 0.0091814995
-0.1230804 -0.72300476 -0.98504162
-0.1077164 0.26060927 0.21517134
-0.10807739 0.28738028 0.1954875
-0.10796739 0.096552312 0.20148468
-0.1223074 -0.50049466 -0.5809474
-0.11895739 -0.39066666 -0.3981595
-0.11565439 -0.18452376 -0.21790648
-0.1296404 -0.72214776 -0.98101664
-0.12649441 -0.6298427 -0.80936241
-0.11325939 0.17844832 0.21754551
-0.11326639 0.21633428 0.21714449
-0.11388139 0.28631127 0.18514967
-0.1286294 -0.50092369 -0.58296871
-0.1229784 -0.25268668 -0.28863668
-0.1217844 -0.18595177 -0.22643948
-0.11779239 -0.093284667 -0.018540382
-0.11926439 0.25860131 0.19659138
-0.12004039 0.053802311 0.15793943
-0.1314514 -0.39306372 -0.41051245
-0.1427424 -0.72044367 -0.97299528
-0.1395444 -0.63081175 -0.8136816
-0.1247764 0.17643428 0.20094156
-0.1248694 0.21396029 0.19650364
-0.1266264 0.011639297 0.11261654
-0.1269124 0.32010227 0.098983288
-0.13615841 -0.3246457 -0.34242058
-0.1352324 -0.25439173 -0.29822731
-0.1493804 -0.72061867 -0.97365427
-0.1460754 -0.63129872 -0.81584644
-0.1307044 0.21273929 0.18589973
-0.13387941 -0.041758716 0.04037571
-0.13252141 0.010184288 0.10259628
-0.1315604 0.28233528 0.1466403
-0.14772139 -0.50321072 -0.59396744
-0.1365744 0.14032626 0.17457342
-0.13640541 0.17413729 0.1820035
-0.1384514 0.0086222887 0.091836452
-0.13751741 0.28092527 0.13298845
-0.1375764 0.049956262 0.13042355
-0.1370174 0.090334296 0.15502739
-0.1484184 -0.32559568 -0.34736347
-0.1463284 -0.19079369 -0.25523949
-0.1591484 -0.63228077 -0.82019234
-0.1429334 0.25286531 0.14339828
-0.14446241 0.0066922903 0.078514576
-0.14584841 0.3124693 0.019690514
-0.15049641 0.0047543049 0.065139294
-0.1495564 0.2778883 0.10358429
-0.1670844 -0.50724369 -0.61361551
-0.1628814 -0.39911872 -0.44163847
-0.16486341 -0.19437867 -0.27650738
-0.1827984 -0.72328466 -0.98503828
-0.16227441 0.27259427 0.052161694
-0.18534741 -0.63426965 -0.82893753
-0.1677164 0.040543318 0.062888622
-0.1723174 0.13128829 0.10304165
-0.1736774 0.24327129 0.054350376
-0.1754114 -0.0057857037 -0.0077295303
-0.18565241 -0.33069271 -0.37438059
-0.1821824 -0.12973469 -0.25014925
-0.1802634 0.24007428 0.024594307
-0.1820894 -0.010266721 -0.03879261
-0.19059241 -0.26082569 -0.33397436
-0.2052734 -0.6374957 -0.84361267
-0.1847844 0.16013026 0.06621933
-0.1853134 0.19693828 0.048373699
-0.18983141 -0.019625723 -0.10385466
-0.20123941 -0.40817767 -0.48821068
-0.2163264 -0.72601074 -0.99655151
-0.21199541 -0.63902575 -0.85063648
-0.19196039 0.19352531 0.01856041
-0.1934274 0.027709305 -0.029481411
-0.2044564 -0.33372074 -0.39044142
-0.20126539 -0.13542968 -0.28602028
-0.1977964 0.12036431 0.01624155
-0.1974574 0.15539527 0.027026653
-0.1982864 0.069718301 0.00064945221
-0.2108974 -0.33561367 -0.40062952
-0.20764939 -0.13722175 -0.29728556
-0.22977041 -0.72711867 -1.0011916
-0.2173564 -0.33752269 -0.41089439
-0.21553139 -0.26449567 -0.35438728
-0.21481541 -0.20381576 -0.3322196
-0.23663241 -0.72858471 -1.0076594
-0.2322444 -0.6436457 -0.87181044
-0.22042041 -0.14056271 -0.31824255
-0.22830141 0.020386279 -0.3718133
-0.22814339 -0.26678175 -0.36716652
-0.25045142 -0.73191375 -1.0223856
-0.2387964 0.056107283 -0.49751139
-0.23285641 -0.097306669 -0.32739353
-0.23303141 -0.052589715 -0.3324337
-0.2337334 -0.016995728 -0.35253334
-0.24590039 -0.52523667 -0.70094347
-0.2395774 -0.14495867 -0.34570646
-0.26432839 -0.73526472 -1.0371885
-0.2594274 -0.64987272 -0.90027857
-0.25249341 0.051734269 -0.5320797
-0.24617639 -0.056580722 -0.35980844
-0.2538324 -0.023828685 -0.40139246
-0.25547642 0.010565281 -0.44519854
-0.25678441 -0.35037667 -0.4800477
-0.2782594 -0.73863667 -1.0520587
-0.26740041 -0.42891568 -0.59497929
-0.26001841 -0.27315766 -0.40281057
-0.26878539 0.0072442889 -0.46982765
-0.2741304 -0.43103272 -0.60584927
-0.2664994 -0.27473074 -0.4116416
-0.26538241 -0.21253175 -0.38320971
-0.2650294 -0.14956373 -0.37421751
-0.27554041 0.0053603053 -0.48382664
-0.28697839 -0.53912169 -0.76860857
-0.2992644 -0.74373466 -1.0745034
-0.2823734 0.0033012629 -0.49913931
-0.3062934 -0.74544567 -1.0820217
-0.28555539 -0.066387713 -0.42669344
-0.3008444 -0.54382068 -0.79146671
-0.29482239 -0.43917066 -0.6478014
-0.28680539 -0.28264767 -0.45652151
-0.29133239 -0.11119467 -0.41780567
-0.2922124 -0.06810075 -0.43836832
-0.2935214 -0.033357739 -0.46895552
-0.29793841 -0.36746675 -0.57218742
-0.29802039 -0.22050267 -0.43014956
-0.30416441 -0.15850574 -0.42980242
-0.31254041 -0.073993742 -0.47860336
-0.3194724 -0.076296747 -0.49436045
-0.33029541 -0.4547537 -0.72819138
-0.32233042 -0.30016977 -0.55612135
-0.31940341 -0.23101276 -0.49287748
-0.34399641 -0.67686266 -1.0242233
-0.34343341 -0.56006676 -0.87057829
-0.33307341 -0.3820917 -0.6508894
-0.32964242 -0.30404073 -0.57813358
-0.32511839 -0.16684276 -0.48220348
-0.33681339 -0.091039717 -0.59645748
-0.3507944 -0.56353575 -0.88752651
-0.33289039 -0.17199069 -0.51479149
-0.35151041 -0.14463574 -0.63826036
-0.3554624 -0.39444965 -0.71765041
-0.37317541 -0.68758672 -1.0734634
-0.3665804 -0.47072667 -0.81045246
-0.37410039 -0.47457868 -0.83033228
-0.37067541 -0.40300471 -0.76385355
-0.36567441 -0.26008373 -0.66681433
-0.38966939 -0.4837907 -0.87798357
-0.3830364 -0.33486873 -0.75349855
-0.40329239 -0.58831877 -1.0084524
-0.3913894 -0.34103268 -0.78865767
-0.4109354 -0.59193271 -1.0260625
-0.44579539 -0.51704067 -1.0497932
-0.4546074 -0.52375871 -1.0846295
-0.4534694 -0.45881373 -1.0657415
-0.4637014 -0.53116268 -1.1230493
