# .PCD v0.7 - Point Cloud Data file format
VERSION 0.7
FIELDS x y z
SIZE 4 4 4
TYPE F F F
COUNT 1 1 1
WIDTH 1
HEIGHT 512
VIEWPOINT 0 0 0 1 0 0 0
POINTS 512
DATA ascii
1.1099055 -0.12620085 -0.27857828
1.1117754 -0.0025628209 -0.29171944
1.1008614 -0.038257837 -0.25856829
1.0946454 -0.038116813 -0.25841665
1.0660905 -0.12491482 -0.27601957
1.0626944 -0.075237811 -0.25106859
1.0682495 -0.0017908216 -0.29188156
1.0473454 -0.12437886 -0.27493763
1.0371954 -0.0012568235 -0.29196358
1.0238284 -0.12535876 -0.2846303
1.0260785 -0.0023748279 -0.30195141
1.0176845 -1.7821789e-05 -0.28504944
0.99621344 -0.036845803 -0.26224947
0.99510646 -0.0019468069 -0.30263948
0.98269546 -0.074006855 -0.25283766
0.96658045 -0.12244779 -0.27227068
0.96367645 -0.07304877 -0.24844837
0.96940345 -0.00058478117 -0.29543447
0.91284049 -0.070165813 -0.23422766
0.89332849 -0.068426788 -0.22423649
0.88196146 0.0090581775 -0.23213768
0.84488147 0.06847018 -0.17108345
0.83817548 -0.095764816 -0.1078105
0.83894545 -0.014183819 -0.11507368
0.83784449 -0.20893985 -0.16182852
0.82489145 -0.011316836 -0.095645428
0.80324847 -0.04358083 -0.059626579
0.80410749 -0.1331498 -0.068081379
0.79703647 -0.0056428313 -0.057136536
0.80738348 -0.26449579 -0.15989256
0.79751348 0.1102612 -0.12160873
0.79924244 -0.26073986 -0.13893127
0.79047143 0.11158317 -0.11120939
0.79527748 0.14661419 -0.15979338
0.78398746 -0.0038897991 -0.045667648
0.77666944 -0.083468854 -0.031663418
0.77987349 -0.19195086 -0.064346313
0.76404446 -0.037906826 -0.023754597
0.76832747 0.19113719 -0.19437551
0.77056044 -0.33641881 -0.21799946
0.75732046 -0.24951178 -0.07793951
0.76129949 0.19229317 -0.18416357
0.74482745 -0.035434783 -0.008263588
0.74518049 -0.12353081 -0.012036324
0.74574548 -0.3230738 -0.14681673
0.72953343 0.086797178 -0.034894466
0.72625244 0.0032901764 0.0011544228
0.72518146 0.11933118 -0.052366734
0.71666545 0.088356197 -0.023513317
0.72366846 -0.31456882 -0.10198545
0.71458447 -0.18039578 -0.00020170212
0.70705444 -0.031148791 0.01830864
0.70255148 0.15827918 -0.06542635
0.69629544 0.15874618 -0.061846733
0.70057946 0.20057017 -0.11181545
0.68416649 0.043589175 0.01102972
0.67634147 -0.072272837 0.034175396
0.68493146 -0.30780679 -0.068121433
0.67535949 0.12316722 -0.024516582
0.66418046 -0.071313798 0.039579391
0.66916847 0.20277721 -0.093706608
0.68053645 0.26460618 -0.23347235
0.65332049 -0.17472082 0.029080391
0.64616144 -0.026548803 0.0453825
0.64936948 -0.2335518 0.005074501
0.64664447 0.16225117 -0.03501749
0.65998346 0.26752818 -0.2045083
0.64321947 -0.23287481 0.0085053444
0.62783247 -0.068466783 0.055733681
0.63172048 0.2053932 -0.072088718
0.62784445 -0.36707884 -0.099597454
0.60684943 0.095350206 0.023774624
0.60100543 -0.22971779 0.023570538
0.59801644 -0.29718882 -0.016482353
0.58704847 0.012268186 0.055213451
0.58655244 -0.10992378 0.062208652
0.59060943 -0.36266977 -0.079073429
0.57724243 -0.22859079 0.028407574
0.57476646 -0.10947484 0.064261436
0.57129943 0.096409202 0.029759407
0.56311244 -0.022944808 0.064484596
0.56802845 -0.29536778 -0.0085606575
0.56525844 0.20767319 -0.055425644
0.55723143 -0.022751808 0.065434456
0.54461843 0.1658752 -0.010360718
0.56119645 0.30476421 -0.36733341
0.53719747 0.23577118 -0.080311298
0.52405047 0.09775418 0.037505627
0.52530748 0.12941021 0.016953468
0.51608342 -0.064759791 0.072842598
0.52028942 -0.29269785 0.0030684471
0.51811343 -0.22606784 0.039165497
0.51026547 -0.064680815 0.073022366
0.50852144 -0.29246384 0.0036535263
0.49863642 -0.064525783 0.07338047
0.50730646 0.23629421 -0.076982498
0.49964643 0.20904422 -0.046610355
0.51233447 0.3136102 -0.27004337
0.49355143 -0.16769582 0.060742378
0.49281043 -0.10718375 0.07378149
0.48700947 -0.064372838 0.073739529
0.49903047 0.27460617 -0.14128256
0.48810446 0.051093161 0.054150581
0.48948044 0.23643821 -0.076582432
0.48190045 -0.16752082 0.061148643
0.47146744 0.098291218 0.038806438
0.46562946 0.0983482 0.038952351
0.46670246 0.12998921 0.018466473
0.46418142 0.014876187 0.066587448
0.46572345 0.23662221 -0.076045513
0.45836544 0.014940202 0.066749573
0.45226145 -0.020838797 0.072656631
0.45978743 0.23666722 -0.075908661
0.45213246 -0.10662383 0.075187683
0.44634545 -0.063863814 0.074994564
0.45707542 0.27489018 -0.14053535
0.44673944 0.015066206 0.067075729
0.45108443 0.27492917 -0.14042568
0.43857843 0.16719121 -0.0047006607
0.43214446 -0.29105586 0.0073513985
0.43910742 0.31398517 -0.26956654
0.42306942 -0.35543078 -0.050640583
0.41161847 -0.020381808 0.073913574
0.41207945 -0.16654879 0.063562393
0.40868044 -0.2906608 0.0084533691
0.40569645 -0.10603279 0.076780319
0.40145344 0.098932207 0.040587425
0.40001243 -0.020256817 0.074273586
0.40916443 0.27518821 -0.1396327
0.40131545 -0.22422177 0.043807507
0.40045345 -0.16639978 0.063961506
0.39648145 0.13060117 0.020272732
0.39748347 0.16752321 -0.0036253929
0.39421147 -0.020196795 0.0744524
0.40861845 0.31412721 -0.26930141
0.38883245 -0.16625386 0.064359665
0.38478744 0.13069516 0.020578384
0.38252246 -0.063137829 0.076966286
0.38523042 -0.29028386 0.0095386505
0.38302147 -0.16618186 0.064558506
0.38148147 0.20993817 -0.043908596
0.37721246 -0.16611081 0.064757347
0.37169343 0.052252173 0.057435513
0.37140447 -0.16604084 0.064955711
0.36968046 0.2100172 -0.043625355
0.36588043 0.052303195 0.057602406
0.37814146 0.3142612 -0.26899767
0.36985046 -0.35453576 -0.048141479
0.36634743 -0.22374481 0.045158386
0.36140943 0.13087618 0.021194458
0.35941744 -0.019845784 0.075530529
0.36488843 0.23732018 -0.073664665
0.35469645 -0.22359282 0.045606613
0.34900844 0.099358201 0.041958332
0.34817845 -0.16576976 0.065746307
0.34223443 0.016077161 0.070034504
0.34335244 0.27555519 -0.13830662
0.33153743 0.099489212 0.042421341
0.33043945 -0.019573808 0.076429367
0.32571644 0.099531174 0.042576313
0.31989443 0.099573195 0.042732716
0.30243245 0.099695206 0.043201447
0.30367047 0.16818219 -0.0011105537
0.30748147 0.27573317 -0.13754129
0.29716647 0.13132721 0.022917271
0.29892045 0.21044618 -0.041888714
0.29302746 0.2104792 -0.041741371
0.29552943 0.2757892 -0.13728142
0.29036844 0.052909195 0.059780598
0.28549445 0.13140219 0.023235321
0.28713545 0.21051121 -0.041592598
0.28403443 -0.10473281 0.080902576
0.27904445 -0.22270483 0.048455715
0.27248347 -0.062100828 0.080381393
0.27403647 -0.28874081 0.014462471
0.27460045 0.31465322 -0.26767731
0.26170844 0.099960208 0.044307709
0.26267445 0.16842622 1.8596649e-05
0.26356944 0.21063417 -0.040992737
0.26135245 0.053113163 0.060626507
0.26234844 -0.28860182 0.014958382
0.25512946 -0.06196183 0.080920696
0.25517446 -0.018951833 0.07876873
0.25650543 -0.28853387 0.015207291
0.25510943 -0.10447687 0.081869602
0.25007644 0.10003018 0.044626713
0.24938744 -0.018908799 0.078948498
0.24974845 0.053190172 0.060967445
0.24465445 0.1316452 0.024359703
0.23203444 -0.018783808 0.079489708
0.23199745 0.31478721 -0.26700449
0.22826545 -0.35262185 -0.041914463
0.21477744 0.017017186 0.073735714
0.21463645 -0.10415286 0.083216667
0.20938244 0.10025722 0.045755386
0.20966744 0.13183117 0.025336266
0.20915344 0.0534392 0.062163353
0.20335644 0.053472161 0.062334538
0.19769344 -0.22193176 0.051426411
0.19745645 -0.16434675 0.070811272
0.19217944 0.13191718 0.025830269
0.18587846 -0.16426176 0.071194649
0.18114746 0.2110042 -0.038825512
0.17490445 0.1688602 0.0024905205
0.17419845 -0.061403811 0.08343935
0.17427245 0.017248213 0.074934483
0.16289945 0.10048217 0.04706955
0.16350245 -0.35197383 -0.039271355
0.16309644 -0.28763384 0.018836498
0.16263545 -0.10379475 0.084936619
0.14535044 0.017393172 0.075796604
0.14544845 -0.22153383 0.053284645
0.13973744 0.1321432 0.027327538
0.13956745 0.017420173 0.075969696
0.13976444 -0.28746086 0.019664288
0.13376045 -0.10362476 0.085884571
0.12836945 0.2763952 -0.13328266
0.12800345 0.017472208 0.076316357
0.12802444 0.0538432 0.064584732
0.12240445 0.27641118 -0.13312769
0.12224144 -0.2213828 0.054096699
0.11643845 0.13222921 0.028004646
0.11064745 0.053913176 0.065107346
0.10487144 -0.16376287 0.073861599
0.099065445 0.053957164 0.06545639
0.098949447 -0.28719777 0.021090508
0.09912245 -0.10344785 0.087016582
0.087572448 -0.06096983 0.086148739
0.081500448 0.13234019 0.029027462
0.081159443 0.2113232 -0.036053658
0.076015443 -0.01795882 0.0843606
0.075096443 0.23855919 -0.06598568
0.074694447 0.27652019 -0.1318593
0.06985645 0.13237321 0.029371738
0.068731442 0.27653217 -0.13169956
0.058004446 0.16924816 0.0059056282
0.056806445 0.27655417 -0.1313715
0.040748447 0.13244522 0.030238628
0.041050449 -0.22097486 0.056873322
0.041413449 -0.10321885 0.088887691
0.034136444 -0.35110778 -0.034380436
0.035644449 -0.10319978 0.089072704
0.02408845 -0.060758829 0.08813858
0.022383444 -0.35105675 -0.033962727
0.023925446 -0.16343385 0.076487541
0.017467447 0.13249218 0.030935287
0.018190444 0.01783216 0.079650402
0.017863445 -0.22089285 0.057649612
0.011535443 -0.28680283 0.024056435
0.0054314435 0.16935319 0.0074863434
0.0064404458 0.054213166 0.068286419
-0.0011295527 0.2114802 -0.033655643
-0.0028055534 0.27664119 -0.12969065
-0.0054385513 0.10098118 0.052024364
-0.010697559 0.017887175 0.080540657
-0.016342551 -0.017716825 0.087255478
-0.016532555 -0.16333276 0.077786446
-0.01627256 -0.1030708 0.090740681
-0.02206856 -0.060661793 0.089587688
-0.027883559 -0.017698824 0.087620735
-0.039375558 -0.060637832 0.090132713
-0.048874557 0.23874122 -0.06231451
-0.046716556 -0.28666681 0.025968552
-0.068278551 -0.01766181 0.088889599
-0.068788558 0.054301202 0.07062149
-0.069071546 -0.22072381 0.06048727
-0.07457456 0.054303169 0.070803642
-0.084093556 0.31526721 -0.25963926
-0.07749556 -0.35081881 -0.030576706
-0.073947549 -0.1030038 0.09257555
-0.081459552 0.1325922 0.033974648
-0.082165554 0.16942918 0.010183334
-0.090167552 0.31526822 -0.25945663
-0.092201546 0.2766912 -0.12701654
-0.092252553 -0.22071487 0.061225414
-0.099683553 0.1694302 0.010735512
-0.097016558 -0.10299987 0.093304634
-0.10321255 -0.1632598 0.080538273
-0.11055155 0.13259017 0.034889698
-0.10859655 -0.060610831 0.092310429
-0.11477055 -0.16326481 0.08090353
-0.12888056 0.16942018 0.011655331
-0.13306156 0.1010322 0.055993557
-0.13471957 0.1694172 0.011840343
-0.13861255 -0.22074383 0.062678337
-0.14920355 0.2387352 -0.059174538
-0.14401056 0.054280162 0.072993279
-0.14315556 -0.10303181 0.094754696
-0.15128256 0.13256419 0.036182404
-0.15389754 0.21151519 -0.028923512
-0.14906354 -0.017690837 0.091434479
-0.16371356 0.2766642 -0.12474442
-0.17152555 0.2114982 -0.028354645
-0.17281155 0.23871422 -0.058413506
-0.17740156 0.21149117 -0.028163433
-0.17947055 0.10098016 0.057484627
-0.17918454 -0.22081977 0.063923359
-0.18915255 0.21147621 -0.027779579
-0.19051756 0.23869318 -0.057837486
-0.18398555 0.017867208 0.085992336
-0.19201554 0.1325112 0.037495613
-0.18946056 -0.017757833 0.092710495
-0.20090555 0.21145922 -0.027394295
-0.20822556 0.23866719 -0.057257652
-0.20131756 0.01783216 0.086548328
-0.20675556 -0.35101682 -0.026652336
-0.21647854 0.16931021 0.014474392
-0.21244057 -0.06077081 0.095592499
-0.21301956 -0.16344577 0.083967686
-0.21865155 0.017791212 0.087106705
-0.23596255 0.31517917 -0.25461149
-0.23183756 0.2386272 -0.056474686
-0.24203657 0.31517118 -0.25439167
-0.22730054 -0.28689784 0.031561375
-0.22556154 -0.22096378 0.065316677
-0.22391556 -0.10321182 0.09726572
-0.22968455 -0.10323077 0.097444534
-0.23563854 -0.017877817 0.094171524
-0.24122454 -0.10327178 0.097799301
-0.25490254 0.10081619 0.059954643
-0.26503754 0.27652121 -0.12132263
-0.25455457 -0.22108585 0.066171646
-0.26726055 0.23855317 -0.055287361
-0.27316457 0.23853821 -0.055087566
-0.26615357 -0.2211408 0.066510677
-0.27015358 -0.060964823 0.097419739
-0.28292054 0.27648318 -0.12069368
-0.27134353 0.053998172 0.077086449
-0.27730358 -0.35136682 -0.024730682
-0.28392255 0.10072619 0.060923576
-0.28355557 -0.22123176 0.06701231
-0.28240454 -0.16372377 0.086097717
-0.29494655 0.21125418 -0.02423048
-0.29494953 -0.35147983 -0.024272442
-0.28818858 -0.16375285 0.08627367
-0.29515755 -0.22129685 0.06734848
-0.30411458 0.16907817 0.017372608
-0.30844253 0.13220519 0.041344643
-0.31259954 -0.35160381 -0.023824692
-0.31070858 -0.018171787 0.096549511
-0.32465953 0.27638119 -0.11919832
-0.32434553 0.21116316 -0.023212433
-0.32749254 0.16899621 0.018159389
-0.32997555 -0.22151476 0.068336487
-0.32781458 -0.10367984 0.10044527
-0.34198958 0.2111032 -0.022594452
-0.33367056 -0.061265826 0.099436283
-0.34198254 0.10050416 0.062888622
-0.36356252 0.31494319 -0.24964046
-0.33936453 -0.10374779 0.1007967
-0.35087556 0.1689052 0.018951416
-0.36044455 0.27627617 -0.11788464
-0.34974855 -0.28761286 0.035068512
-0.35100055 -0.061363816 0.099986553
-0.37571955 0.31491321 -0.24913263
-0.35677755 -0.061397791 0.10017061
-0.35693157 -0.018411815 0.0980196
-0.35762256 -0.16416687 0.088376522
-0.36402255 0.053598166 0.080127716
-0.38430655 0.27619821 -0.11699152
-0.39395356 0.31486619 -0.24835634
-0.37061357 -0.22181386 0.069469452
-0.38011354 0.16877919 0.019949436
-0.37427056 -0.018513799 0.098570347
-0.37474257 0.01715219 0.092216492
-0.38417554 0.13188517 0.043925285
-0.38052958 0.017119169 0.092410564
-0.38657051 -0.16437584 0.089244366
-0.39144951 -0.061617792 0.10127449
-0.40817451 0.27611321 -0.11608648
-0.39136553 -0.1040948 0.10236263
-0.40007454 0.10022217 0.064891338
-0.40350956 0.16866821 0.020754337
-0.39879954 0.053406179 0.081281662
-0.40367752 0.016981184 0.093182564
-0.41859353 -0.35257477 -0.021338463
-0.40870851 -0.10422581 0.10288143
-0.41457355 -0.061779797 0.10201168
-0.41474652 -0.018777788 0.099859715
-0.42448753 -0.35263985 -0.021211624
-0.41708952 -0.22221285 0.070733547
-0.43024856 0.21073717 -0.019433498
-0.42913651 0.10005921 0.065908432
-0.42631453 -0.018859804 0.10022736
-0.44995552 0.27594817 -0.11446762
-0.44247454 0.1315732 0.045955658
-0.43770552 -0.061953783 0.10274744
-0.44367152 -0.018987834 0.10078049
-0.45634854 0.23786616 -0.048622608
-0.44927353 -0.062044799 0.10311747
-0.46576852 -0.3531298 -0.020343304
-0.46084553 -0.062139809 0.10348654
-0.46658051 -0.28876287 0.037940502
-0.47242951 -0.2888338 0.038061619
-0.46941954 -0.22273678 0.072119713
-0.48324656 0.21046519 -0.017477512
-0.47349155 -0.16513377 0.091825485
-0.48001051 0.052867174 0.084008694
-0.48937356 -0.35343581 -0.019869328
-0.48413056 -0.28897983 0.038300514
-0.47812456 -0.10482281 0.10494328
-0.49131155 0.16817617 0.023824692
-0.49776554 0.23765117 -0.047092438
-0.48509252 -0.16524976 0.09216547
-0.49716854 0.16813922 0.024032593
-0.49583656 -0.28913087 0.038536549
-0.49557257 -0.062441826 0.10459471
-0.51552153 0.23755217 -0.04642868
-0.50213653 0.016271174 0.096503735
-0.51249653 0.1311242 0.048439503
-0.50707453 -0.10510582 0.10579729
-0.51373154 0.01617521 0.096899509
-0.51598155 -0.22326785 0.073319435
-0.51286656 -0.10516483 0.10596752
-0.52417356 0.13104218 0.048858643
-0.53039056 0.21018821 -0.01570034
-0.51865852 -0.10522479 0.10613632
-0.52570951 -0.16568285 0.093355656
-0.54512751 0.23737717 -0.04530859
-0.54253554 -0.35419387 -0.018867493
-0.53024453 -0.10534781 0.1064744
-0.53692657 0.015975177 0.09769249
-0.54855055 -0.28986484 0.03954649
-0.54510552 -0.2236318 0.074053288
-0.55987155 0.21000022 -0.014571667
-0.55441153 -0.28995186 0.039653301
-0.56882256 0.23722821 -0.044404507
-0.56027353 -0.29004079 0.039758682
-0.56506556 0.13073421 0.050339699
-0.56750256 0.16765118 0.026552677
-0.57166952 0.20992118 -0.014116287
-0.56013155 0.015764177 0.098490715
-0.59470052 0.31414318 -0.23890257
-0.56259054 -0.22386175 0.074489594
-0.56509453 -0.063127816 0.10681772
-0.57462955 0.099023163 0.071136475
-0.57217455 -0.16622978 0.09470129
-0.58008152 -0.22410077 0.07491827
-0.58844352 0.13054621 0.051193714
-0.59845454 0.23703116 -0.043263435
-0.58458751 0.051987171 0.087575436
-0.60857052 0.16732919 0.028045654
-0.60076553 0.015368164 0.09989357
-0.60593057 -0.020498812 0.10596371
-0.61945951 -0.3554588 -0.017569542
-0.62538552 -0.35556477 -0.017477512
-0.62709951 0.098560214 0.073079586
-0.62400156 0.015127182 0.10070038
-0.62305254 -0.1064468 0.10916567
-0.66779053 0.31379122 -0.23504066
-0.64379954 0.16703218 0.029341698
-0.63471752 -0.063921809 0.1090517
-0.63496351 -0.020828784 0.10689449
-0.65919256 0.27481419 -0.10576153
-0.64245456 -0.29139477 0.041144371
-0.64278251 0.051408172 0.089589596
-0.65502453 -0.35611182 -0.017030716
-0.65627354 0.098282218 0.074174404
-0.69216853 0.31366217 -0.23370457
-0.66181952 -0.22533184 0.076871395
-0.65943152 -0.16740781 0.097200394
-0.68914151 0.27460921 -0.10443163
-0.67378855 0.098108172 0.0748353
-0.67190754 0.051094174 0.090606689
-0.67564654 -0.02132082 0.1081996
-0.67936051 -0.22562081 0.07727766
-0.70250756 -0.35704881 -0.016372681
-0.69965452 0.12952518 0.055336475
-0.71121156 0.23617417 -0.038793564
-0.69891256 -0.02161783 0.10894537
-0.71723855 0.12934518 0.056003571
-0.71027851 -0.064906836 0.11148071
-0.71271753 0.050627172 0.092039585
-0.72627854 -0.35754687 -0.016067505
-0.71446854 -0.22622377 0.0780797
-0.72032356 -0.22632784 0.078212738
-0.72438651 0.050487161 0.092450619
-0.73938155 -0.065319836 0.11241865
-0.75830054 0.12890518 0.057574272
-0.77908653 0.27393222 -0.10031557
-0.75548053 -0.22697383 0.078994274
-0.78508854 0.27388316 -0.10003567
-0.76731753 0.097089171 0.078424454
-0.76297057 -0.022495806 0.11100864
-0.77317053 0.097020209 0.078651428
-0.77910954 0.16571116 0.034435272
-0.76851755 -0.1085878 0.11329365
-0.77902555 0.096951187 0.078881264
-0.77433854 -0.065840781 0.11354637
-0.78285652 0.04967916 0.093981266
-0.78703952 -0.023624837 0.10631943
-0.79949653 -0.23151284 0.058503628
-0.81326652 0.16151321 0.0018563271
-0.80068052 -0.025847793 0.09255743
-0.81643951 0.1237272 0.021808624
-0.82824254 0.20147419 -0.062704563
-0.80749452 -0.11366683 0.085859299
-0.82792753 0.15908521 -0.017642498
-0.83005852 -0.30909079 -0.032801628
-0.83426452 0.088956177 0.021877289
-0.84268153 0.15664017 -0.037261486
-0.85129052 0.19742316 -0.09774828
-0.84570551 -0.3141318 -0.058511734
-0.83550155 -0.24015981 0.013187408
-0.85753053 0.15417719 -0.057005405
-0.84488553 0.040265203 0.030745506
-0.85900456 0.11738616 -0.025640488
-0.86498952 0.1529392 -0.066922665
-0.85885054 0.038138211 0.016510487
-0.85642654 -0.12291378 0.033118725
-0.87322956 -0.25036687 -0.040851593
-0.87056953 -0.12559384 0.017873287
