# .PCD v0.7 - Point Cloud Data file format
VERSION 0.7
FIELDS x y z
SIZE 4 4 4
TYPE F F F
COUNT 1 1 1
WIDTH 1
HEIGHT 512
VIEWPOINT 0 0 0 1 0 0 0
POINTS 512
DATA ascii
1.0650022 0.038476825 -0.0808568
1.0460752 -0.032745183 -0.03407383
1.0400462 -0.03268522 -0.034508705
1.0350893 0.004450798 -0.042562485
1.0169982 0.0046038032 -0.043956757
1.0038862 -0.032344222 -0.037120819
0.99076021 0.040527821 -0.075498581
0.97480923 0.0049378276 -0.047198772
0.97259325 0.040672779 -0.076792717
0.96170425 -0.031954169 -0.039989471
0.95670724 0.0051028132 -0.048352718
0.95068425 0.0051457882 -0.048810482
0.94466025 0.0051888227 -0.049269676
0.95425522 -0.018701196 -0.22267866
0.92702621 -0.033333182 -0.054093838
0.91693825 -0.080893159 -0.07097578
0.90356624 0.0042598248 -0.061155796
0.87749523 -0.031361222 -0.046236515
0.87250221 -0.077784181 -0.055416584
0.87214625 0.0059748292 -0.052362442
0.87574226 0.041402817 -0.083201408
0.86603123 -0.07715714 -0.051958561
0.86921924 0.04198581 -0.079517841
0.85831726 -0.029814184 -0.037602425
0.85282522 0.0076287985 -0.042513847
0.84532022 -0.028474212 -0.02968359
0.83948624 -0.073664188 -0.031540871
0.83832824 0.087114811 -0.13052988
0.82623821 0.010983825 -0.02101469
0.82934523 0.090471804 -0.10445642
0.81417823 -0.11593318 -0.021025658
0.80596626 0.096673787 -0.05700779
0.79809821 -0.021135211 0.016609192
0.80733824 0.12359381 -0.12711382
0.79226923 0.016433775 0.015062332
0.78489625 -0.019284189 0.028187275
0.79072225 0.12880379 -0.085095882
0.76495624 0.10291779 -0.010979652
0.75255126 -0.059751153 0.052515507
0.75367826 -0.10525024 0.041323185
0.75137222 -0.17101622 0.0046601295
0.74511623 0.10543478 0.0072932243
0.74048424 0.0225178 0.054111481
0.73566723 0.13736182 -0.018778801
0.72716624 -0.012669206 0.068706512
0.72913325 0.13808179 -0.013366699
0.72088522 -0.012071192 0.072290421
0.71850324 -0.16548824 0.035074234
0.70841324 -0.010982215 0.078729153
0.71030021 0.062358797 0.058760166
0.70279521 0.025946796 0.075460434
0.70279825 -0.099171162 0.075432301
0.68424726 0.027345777 0.083938122
0.69243723 -0.22779822 -0.0060534477
0.68421721 -0.097527146 0.084272385
0.68184626 0.11085582 0.044944286
0.68885022 0.17693383 -0.032761574
0.67731321 -0.052301168 0.095243454
0.66090125 0.065794826 0.08037138
0.65940624 0.14393282 0.029337406
0.66313124 0.17935479 -0.013672829
0.65883225 0.21733278 -0.10433674
0.64344424 -0.15747619 0.077007294
0.63658321 0.067107797 0.088256359
0.63271624 0.11372083 0.063728333
0.64552522 0.21893281 -0.090420723
0.62341923 0.030928791 0.10475016
0.61911225 -0.15577722 0.08530426
0.61452925 0.11454582 0.068875313
0.61094922 -0.0048142076 0.11337137
0.61141825 0.031446815 0.10754442
0.61654723 -0.21806419 0.043795586
0.60497421 -0.0045762062 0.11456013
0.61043221 -0.21760225 0.045975208
0.60135823 0.18261379 0.0099902153
0.59450126 0.068852782 0.09809351
0.58089525 -0.047091246 0.12209749
0.58159423 0.032504797 0.11290312
0.57849723 0.11577481 0.075945377
0.58315921 0.18322182 0.013951302
0.58957624 -0.29965925 -0.071391582
0.57707524 -0.15366125 0.094864368
0.56904823 -0.046732187 0.12360716
0.58298421 -0.29821014 -0.063918591
0.56816322 0.1479618 0.055802345
0.57106721 0.18358582 0.016262531
0.57610321 0.2235688 -0.052327633
0.56475621 0.069688797 0.10219336
0.56504625 0.18373281 0.0171175
0.57642525 0.24558383 -0.13970184
0.57007623 -0.29590821 -0.052204609
0.5701732 0.24585181 -0.13752079
0.56392723 0.2461198 -0.13534164
0.5470562 0.18407482 0.018848419
0.53958124 -0.046093225 0.1257534
0.5510152 -0.2930342 -0.037768841
0.53961724 0.2244488 -0.04665041
0.52846521 0.033585787 0.11693335
0.52934819 0.070255816 0.10398149
0.52965522 -0.15234125 0.099478245
0.52656221 0.14857781 0.058032513
0.51473725 0.14865881 0.057925224
0.51051223 -0.0024781823 0.12237358
0.51200724 -0.15213025 0.099576473
0.50537723 0.18442881 0.019183159
0.49861825 -0.045775175 0.12513447
0.50266522 -0.21354818 0.061697483
0.50358522 0.22467679 -0.046877861
0.49300122 -0.0024632215 0.1213522
0.49443722 -0.15211725 0.098529339
0.48113221 -0.045799136 0.12388515
0.49662322 0.24718082 -0.12939358
0.48500425 -0.21355021 0.060584545
0.49058324 0.2471568 -0.12999249
0.47078019 0.07036078 0.10104418
0.47102225 -0.15213919 0.096963406
0.4785012 0.24710882 -0.13118744
0.46403521 -0.090019226 0.1159482
0.47246021 0.24708378 -0.13178158
0.4558422 0.1486038 0.053866386
0.45556724 -0.21357417 0.058707237
0.4496792 -0.21358216 0.05833149
0.44652522 -0.090052247 0.11473131
0.45433122 0.24700683 -0.1335516
0.44383425 0.2245118 -0.051920414
0.42399222 0.070253789 0.097614288
0.42419124 -0.15222824 0.093806267
0.42249721 0.18422979 0.012649536
0.41734225 -0.090125203 0.11269951
0.4189412 -0.29099023 -0.034499645
0.41248125 -0.15225923 0.093015194
0.41806024 0.24684483 -0.13704443
0.40644222 0.070202827 0.09633112
0.41297323 -0.2910012 -0.034858704
0.40177524 0.11661279 0.071708202
0.40284324 0.14846182 0.049873352
0.39995921 0.033506811 0.10883951
0.40077221 -0.15229416 0.092219353
0.39880723 0.1841538 0.010803223
0.39367521 -0.046019197 0.1176405
0.39399123 -0.090197206 0.11107016
0.39003223 0.11657381 0.070827484
0.3878442 -0.046040177 0.11722326
0.38517123 0.14840382 0.048548222
0.39386821 0.24672878 -0.13933659
0.37511325 0.18406981 0.0089673996
0.37049824 -0.0027731657 0.11260653
0.37149423 -0.15239716 0.090224266
0.37119323 -0.29111218 -0.037421703
0.34728122 -0.090383172 0.10780525
0.34207225 0.06996578 0.091643333
0.33571023 0.033253789 0.10416651
0.33363122 0.1839028 0.0057764053
0.33940023 0.24644881 -0.14438677
0.33191019 -0.21396124 0.050586224
0.32975924 -0.090466142 0.10657835
0.32542622 0.11631483 0.066017151
0.32602024 -0.21399117 0.050189495
0.32177722 0.18384981 0.0048704147
0.31807721 -0.09052515 0.10575914
0.31584722 0.18382281 0.0044174194
0.3212322 0.2463488 -0.14603567
0.31280124 0.069832802 0.089521408
0.31746823 -0.29134917 -0.040854454
0.30779722 0.1162318 0.064713478
0.30856121 0.14809382 0.042847157
0.3122462 0.22398782 -0.062686443
0.31149721 -0.29138219 -0.041244507
0.30552721 -0.29141521 -0.041637421
0.30245522 -0.21412122 0.048594475
0.29087222 0.14800882 0.041539192
0.28311324 0.032985806 0.1003623
0.28302121 -0.090723157 0.10329628
0.27888522 -0.21426916 0.046982288
0.27776122 -0.15288317 0.083761215
0.27717721 -0.090759158 0.1028862
0.27433723 0.1836198 0.0012664795
0.26077121 0.1159848 0.061253548
0.26433921 0.22374278 -0.06649065
0.26372322 -0.29169023 -0.044440746
0.26017624 -0.15300119 0.082537174
0.25964224 -0.090872169 0.10165358
0.23873623 0.18342382 -0.001411438
0.24244022 0.24587983 -0.15299654
0.23136422 0.11581081 0.059103489
0.23172723 -0.21461415 0.043716431
0.22838622 0.22353882 -0.069304466
0.22449422 -0.0035591722 0.10221434
0.21959922 0.11573678 0.058246136
0.21993423 -0.21471119 0.042889118
0.21592723 -0.29208219 -0.047759533
0.21403722 -0.21476018 0.042476177
0.20905422 0.1832478 -0.0036277771
0.20695522 -0.0036842227 0.10096931
0.21210521 0.24568278 -0.15559244
0.20223922 -0.21486318 0.041645527
0.19241223 0.22331983 -0.072086811
0.18974522 0.069094777 0.080659389
0.19201723 -0.29230917 -0.049464703
0.18366422 0.032330811 0.093223572
0.17839922 0.11546081 0.055255413
0.17874321 0.14734882 0.033338547
0.17771423 -0.0039072037 0.098893166
0.17801322 0.069008827 0.079820156
0.17251222 0.11541879 0.054829121
0.17273822 -0.21513915 0.039549351
0.16960622 0.2453928 -0.15914965
0.16609922 0.032194793 0.091968536
0.16628022 0.068920791 0.0789814
0.16683722 -0.21519816 0.03912735
0.16241522 0.22312379 -0.074379444
0.16045323 -0.15382314 0.07551527
0.15745522 0.24530679 -0.16014862
0.15015322 -0.29275823 -0.05252552
0.14283822 -0.15399516 0.074262142
0.13675323 -0.0042492151 0.095986366
0.13693622 0.068690777 0.076888561
0.13128123 0.11510879 0.051860332
0.13240223 0.22291583 -0.07665062
0.12506722 -0.091983199 0.092139244
0.11923122 0.031802833 0.088632584
0.11920922 -0.092042208 0.091721535
0.11360022 0.11496681 0.050592422
0.11333222 -0.0044611692 0.094326496
0.11424622 -0.29319322 -0.055223465
0.11346822 -0.15430224 0.072163582
0.10750822 0.03169781 0.087800503
0.10170122 0.0683918 0.074381351
0.095837221 -0.15449715 0.070898533
0.089893222 -0.048103213 0.096053123
0.08449322 0.24476081 -0.16599274
0.084146224 -0.2161262 0.033123493
0.084081218 -0.15463221 0.070051193
0.07827422 0.18231279 -0.013211727
0.078180224 -0.048224211 0.095225334
0.078188218 0.031423807 0.085724354
0.078313224 -0.29367518 -0.057991505
0.078202218 -0.15470016 0.069627285
0.072320223 0.031366825 0.085310459
0.072320223 0.068124831 0.072298527
0.072320223 -0.21627617 0.032249451
0.072320223 -0.15477014 0.069203377
0.066462219 -0.048348188 0.094395161
0.06058722 0.031250834 0.084480286
0.060592219 -0.092670202 0.087550163
0.054459222 0.18211579 -0.014923573
0.054058224 0.24451882 -0.1683507
0.054342221 -0.2940222 -0.059875488
0.054579221 -0.21650815 0.03093338
0.048640221 0.14632583 0.023996353
0.036590222 0.18196183 -0.01620388
0.037158221 -0.048673153 0.09232235
0.035786223 0.24436879 -0.16974258
0.03712422 -0.092945218 0.085877419
0.03021922 0.2221238 -0.084200859
0.019566223 -0.048876166 0.091080189
0.013097223 0.14599878 0.021478176
0.0071702227 0.14594179 0.021059513
0.0077722222 -0.093307137 0.083778381
0.0014732182 0.11394382 0.042639256
0.0012432188 0.14588481 0.020640373
0.0019322187 -0.0056272149 0.086441517
0.0017322227 0.067416787 0.067315578
-0.004436776 0.11388379 0.042225361
-0.00687778 0.24400681 -0.17292976
-0.010346778 0.11382282 0.041809559
-0.010615781 0.14576882 0.019806385
-0.0097697824 -0.049231172 0.089006424
-0.025173776 0.24384582 -0.17426777
-0.023665778 -0.29529619 -0.066218853
-0.028406776 0.14559078 0.018555164
-0.035681777 -0.2955122 -0.067224503
-0.039555781 -0.15627015 0.061049461
-0.048077777 0.22142678 -0.089799881
-0.058837771 0.18106282 -0.022941589
-0.062628776 -0.049919248 0.085276127
-0.067899778 0.24345881 -0.17732477
-0.063080773 0.066685796 0.062769413
-0.065740779 -0.29607522 -0.069773674
-0.069833785 -0.21840215 0.021473408
-0.082728773 0.18081683 -0.024603844
-0.080773786 0.066471815 0.061533451
-0.093580782 -0.21881616 0.019621372
-0.09790878 -0.050412178 0.082788467
-0.10560378 0.14475578 0.013168335
-0.11154978 0.14468783 0.012757301
-0.11445078 0.22077578 -0.094415665
-0.11582577 0.029187799 0.072134495
-0.11619078 0.06602782 0.059065342
-0.11992078 -0.29717219 -0.074487686
-0.11629377 -0.15749121 0.055361271
-0.11574778 -0.095056176 0.07490921
-0.12171978 0.029107809 0.071724415
-0.13513178 0.24281478 -0.18194866
-0.12800278 0.065874815 0.058244228
-0.14124978 0.2427538 -0.18235874
-0.14736977 0.24269283 -0.18276787
-0.15319178 0.14419383 0.0098814964
-0.15100978 -0.0076531768 0.075650215
-0.16818278 -0.29831314 -0.079232693
-0.16291878 -0.095820189 0.071502209
-0.17088078 -0.22028124 0.013496399
-0.16952477 -0.15843022 0.051375389
-0.18093978 0.22006881 -0.098925591
-0.17472178 -0.096020222 0.070649147
-0.19022779 0.24225479 -0.18556786
-0.18121378 0.065150797 0.054555416
-0.18639977 -0.0081911683 0.07315731
-0.19230379 -0.0082842112 0.072743416
-0.19995879 0.11157078 0.028721333
-0.19896977 0.064897776 0.053328514
-0.19834279 -0.096429229 0.068939209
-0.20489077 0.064811826 0.052920341
-0.20506378 -0.15909815 0.048692226
-0.21726079 0.21965879 -0.10134077
-0.21026279 0.027833819 0.065611362
-0.21015979 -0.096638203 0.068083286
-0.21778877 0.11132681 0.027510166
-0.22373377 0.1112448 0.027109146
-0.22937678 0.21951783 -0.10213757
-0.22208877 0.0276528 0.064798355
-0.22873278 -0.30023217 -0.087385654
-0.23241977 0.17908579 -0.034798622
-0.22774179 -0.0088542104 0.070249557
-0.22878177 -0.15956223 0.04689312
-0.24149679 0.21937579 -0.10293055
-0.23391677 0.027467787 0.063987255
-0.24531578 -0.052766204 0.072417259
-0.24564178 -0.097288251 0.065508366
-0.25643378 0.17877781 -0.036396503
-0.25155878 -0.097399235 0.065077305
-0.26995879 0.24139583 -0.19053173
-0.26350975 0.026994824 0.06196022
-0.26416278 0.063918829 0.048843384
-0.27124679 -0.30169725 -0.09344244
-0.27733076 -0.30191517 -0.094332695
-0.28046578 0.17846078 -0.037988663
-0.28079981 -0.053404212 0.069928169
-0.28222078 -0.16066325 0.042812347
-0.28921276 0.11030078 0.022704124
-0.29039276 0.14236778 0.00054645538
-0.30067176 0.2410478 -0.19235945
-0.28816479 -0.16079021 0.042358398
-0.30218875 -0.22317624 0.0027432442
-0.31053281 0.17805278 -0.039964676
-0.30572677 0.063252807 0.045996189
-0.3060078 -0.16117716 0.040986538
-0.31092376 0.026201785 0.058726311
-0.31080776 -0.098558187 0.060763359
-0.32613575 -0.22375917 0.00073623657
-0.32386076 -0.16157222 0.039609432
-0.32838875 -0.01061517 0.0631814
-0.33212775 -0.22390819 0.0002322197
-0.34411377 -0.22420824 -0.00078058243
-0.34618777 -0.010949194 0.061933517
-0.35663277 -0.30493319 -0.10643864
-0.34768677 -0.16211319 0.03776741
-0.36295879 0.21784782 -0.11067581
-0.35212475 -0.011061192 0.061517239
-0.36223179 0.1412918 -0.0042595863
-0.36887378 -0.30542922 -0.10839462
-0.35960978 -0.16238916 0.036842346
-0.36822575 0.1411978 -0.004658699
-0.37679178 0.1771068 -0.044266701
-0.38011277 -0.22513521 -0.0038437843
-0.39914376 0.23987681 -0.19789648
-0.38347179 -0.16295314 0.034986496
-0.38208777 -0.10006118 0.05555439
-0.38944077 -0.16309619 0.03452158
-0.39398676 -0.10032415 0.054681301
-0.41168076 0.21718282 -0.11367559
-0.40096879 0.061607778 0.039518356
-0.41180277 -0.30723023 -0.11542177
-0.4102298 0.14052582 -0.0074386597
-0.41794878 -0.30749524 -0.11644983
-0.4175148 -0.012350202 0.056936264
-0.4266178 0.1080848 0.01362133
-0.42972279 -0.10113323 0.05205822
-0.44027478 0.14002782 -0.0094156265
-0.43725276 -0.16427815 0.030776501
-0.44133675 -0.012842178 0.055268288
-0.44164777 -0.1014092 0.051183224
-0.45230174 0.13982481 -0.010204792
-0.44770879 0.023671806 0.049482346
-0.46433675 0.13961881 -0.01099062
-0.45894974 -0.057018161 0.05745554
-0.47338676 -0.30998325 -0.12598372
-0.46434778 -0.22745323 -0.011135578
-0.45954674 -0.10183024 0.049866199
-0.46551579 -0.10197318 0.049426556
-0.49162579 0.17531878 -0.051546574
-0.49715376 0.21594578 -0.11878681
-0.48516876 -0.16552114 0.026995182
-0.48343277 -0.10240424 0.048106194
-0.49451679 -0.22833323 -0.013790607
-0.49546576 0.022703826 0.046285152
-0.50650173 0.13887978 -0.013737679
-0.50070775 -0.057964206 0.054539204
-0.52265877 0.23827881 -0.20415688
-0.52884674 0.23819482 -0.20444965
-0.52288276 -0.31233919 -0.13487959
-0.51856375 0.13866383 -0.014520645
-0.51265478 -0.058241248 0.053706169
-0.51454574 0.059428811 0.031870365
-0.51517379 -0.16633022 0.024614334
-0.52799875 0.17471278 -0.053806782
-0.51862979 -0.0583812 0.053289413
-0.52865875 0.1062358 0.0070152283
-0.53406578 0.17460978 -0.054180622
-0.54742175 0.2379418 -0.20531988
-0.52653277 0.05918479 0.031067371
-0.54150075 -0.31325817 -0.13831854
-0.54612076 0.21519679 -0.12162971
-0.54671174 0.10589081 0.0058584213
-0.57260174 -0.31483424 -0.14417744
-0.56687075 0.1377728 -0.017636776
-0.56050175 -0.059383154 0.050370216
-0.56711775 -0.23056114 -0.020274639
-0.56327379 -0.16767621 0.020771503
-0.56649178 -0.059530139 0.049952507
-0.56729078 0.021166801 0.041505337
-0.57328576 0.021033823 0.041107178
-0.57924676 -0.23094821 -0.021370411
-0.58874279 0.17365783 -0.057529449
-0.58889174 0.1050638 0.0031723976
-0.59106374 0.13731283 -0.01918745
-0.61562675 0.23698378 -0.20836544
-0.61004376 -0.31679714 -0.15141773
-0.60317177 0.13707978 -0.019961834
-0.60245979 -0.060425162 0.047448158
-0.62255579 -0.31746924 -0.1538825
-0.62589675 0.21391279 -0.12612867
-0.60880876 -0.016627192 0.04357338
-0.60929674 0.020222783 0.038724422
-0.62881678 -0.31780815 -0.15512466
-0.61530477 0.020084798 0.038327217
-0.61665177 0.057268798 0.025065422
-0.63135976 0.17288679 -0.060105801
-0.64668477 0.23653281 -0.20967484
-0.62357074 -0.16944623 0.015915394
-0.62869775 0.057001829 0.024266243
-0.64762479 -0.31883919 -0.15889072
-0.63472277 0.056866825 0.023869514
-0.64001477 -0.23295116 -0.026914597
-0.64324278 0.10395479 -0.0002617836
-0.66380775 0.13587481 -0.023815632
-0.66438377 -0.2337842 -0.029165745
-0.65744674 -0.10698521 0.035217285
-0.66255176 -0.061984181 0.043264389
-0.69022077 0.23588681 -0.21143246
-0.67349875 0.10331678 -0.0021586418
-0.66894877 -0.01812619 0.039384365
-0.69165075 -0.32132316 -0.16790342
-0.68811077 0.1353758 -0.025346756
-0.68702877 -0.018591166 0.038127422
-0.68753874 0.018374801 0.033578396
-0.68902975 0.055623829 0.020283222
-0.69968474 -0.10820222 0.032068253
-0.70512474 -0.019063175 0.036868572
-0.71078676 -0.063324213 0.039678574
-0.71439278 -0.17228818 0.008515358
-0.72462076 0.13460881 -0.027632713
-0.71682477 -0.063496232 0.039230347
-0.72286475 -0.063668251 0.038780212
-0.72531778 0.054763794 0.017897129
-0.73743075 0.054470778 0.017102242
-0.76125878 -0.32545114 -0.18272543
-0.74383378 -0.23661816 -0.036598682
-0.74136978 -0.020028174 0.034350395
-0.75509679 0.1339528 -0.029532433
-0.75971174 0.17041081 -0.067666531
-0.75336277 -0.17693615 -0.015203476
-0.76119775 0.13381982 -0.029912472
-0.78374678 0.23443878 -0.21489763
-0.77392179 0.12718379 -0.084207535
-0.75951976 -0.020522177 0.033090591
-0.79624277 0.2342388 -0.21532965
-0.77214974 0.016247809 0.028060436
-0.77768576 -0.021022201 0.031829357
-0.80874377 0.23403782 -0.2157526
-0.77988178 0.053425789 0.014327526
-0.78647679 -0.18138325 -0.038249493
-0.80074674 0.12453383 -0.10316944
-0.81222379 -0.32862818 -0.19401741
-0.79292679 -0.23845816 -0.041265488
-0.78980875 -0.021360219 0.030987263
-0.79979575 -0.18317723 -0.047514439
-0.79551476 -0.065802217 0.033361435
-0.80418378 0.052812815 0.012743473
-0.80268574 -0.11134124 0.024358273
-0.82670474 0.16420382 -0.11424065
-0.81753379 -0.23940623 -0.043626785
-0.81372678 -0.066355228 0.031999588
-0.82369375 -0.2396462 -0.044219494
-0.84025377 0.16292483 -0.12380743
-0.84704274 0.16228282 -0.1286025
-0.84069777 0.051871777 0.010372162
-0.86857378 0.1177898 -0.15112352
-0.87760878 0.23290479 -0.21794653
-0.86470973 -0.13538921 -0.12254143
-0.89304876 0.19364679 -0.28552151
-0.86323875 0.013808787 0.022172451
-0.87638175 -0.24583519 -0.073159695
-0.88058978 -0.19412816 -0.10368156
-0.90269679 0.23248082 -0.21868753
-0.88315177 -0.24679923 -0.077837467
-0.87490278 -0.023812175 0.025089264
-0.88709378 -0.02417618 0.024244308
-0.89561278 0.05041182 0.0068163872
-0.89897978 -0.069040179 0.025606155
-0.93083674 -0.25361514 -0.11078262
-0.93052477 0.011740804 0.016624451
