# .PCD v0.7 - Point Cloud Data file format
VERSION 0.7
FIELDS x y z
SIZE 4 4 4
TYPE F F F
COUNT 1 1 1
WIDTH 1
HEIGHT 512
VIEWPOINT 0 0 0 1 0 0 0
POINTS 512
DATA ascii
1.1067798 -0.086621165 -0.10969305
1.1047438 -0.038854122 -0.095209122
1.1053917 -0.0010421276 -0.099815369
1.0930288 -0.084786177 -0.099261284
1.0872478 0.038924873 -0.10185814
1.0779098 -0.081394076 -0.078509331
1.0717838 -0.081261158 -0.078450203
1.0705668 -0.034531116 -0.069510937
1.0644557 -0.034412146 -0.069499016
1.0706248 -0.13166809 -0.11512804
1.0595357 -0.080998182 -0.078336239
1.0534148 -0.080868125 -0.078278065
1.0554178 0.040611863 -0.093294144
1.0520978 -0.13118017 -0.11445713
1.0508898 0.084635854 -0.15194893
1.0407428 0.0035668612 -0.074876308
1.0350598 -0.080482125 -0.078108311
1.0339258 -0.033827126 -0.069442272
1.0309808 0.040975869 -0.093729019
1.0335878 -0.13070107 -0.11379814
1.0217248 -0.033598125 -0.069418907
1.0202157 0.084945858 -0.15341091
0.99839175 -0.079734087 -0.077776909
0.99733782 -0.033150136 -0.069375992
0.9922868 -0.079612136 -0.077723026
0.99568784 0.085185885 -0.15454817
0.98617983 -0.079491138 -0.077669144
0.98825777 0.041589856 -0.094468117
0.98342884 0.085303903 -0.15510798
0.97668076 0.041083872 -0.099747181
0.97378182 -0.13147914 -0.12631607
0.95755482 -0.035840094 -0.093137264
0.94019485 0.0016638637 -0.10126305
0.94304776 0.038199902 -0.12573099
0.93409383 0.0017528534 -0.10132217
0.93081284 0.03835988 -0.12592936
0.90409875 -0.082279086 -0.10602713
0.89675879 -0.035087109 -0.094829082
0.89142084 0.0023558736 -0.1017251
0.87314677 0.0026038885 -0.10189295
0.84910977 -0.081267118 -0.10514021
0.83662879 0.0030818582 -0.10221815
0.82470477 -0.080840111 -0.10476112
0.82370174 -0.033974111 -0.094705105
0.8123008 0.0033859015 -0.10242796
0.8147788 0.039750874 -0.12769413
0.80546379 -0.033713102 -0.094676018
0.80258381 0.039883852 -0.12786722
0.78798783 0.0036798716 -0.10263109
0.78115976 -0.033377111 -0.094638348
0.77596283 -0.080038071 -0.10407734
0.76901281 -0.033213139 -0.094619274
0.74547577 0.0041658878 -0.10297537
0.7355628 0.040569901 -0.12878323
0.72732079 -0.079338074 -0.10373592
0.72124577 -0.079255104 -0.10369396
0.70909679 -0.079090118 -0.10361099
0.71121478 0.040799856 -0.12909937
0.69695282 -0.078929067 -0.10353136
0.70172179 -0.13277614 -0.16215897
0.69296181 0.040966868 -0.12932825
0.68409884 -0.032154143 -0.094490051
0.68481076 0.0048028827 -0.10343695
0.68079484 0.041073859 -0.12947893
0.68329084 -0.1323961 -0.16119909
0.67261076 0.0050578713 -0.10254431
0.67015684 -0.13040411 -0.1494441
0.65966976 0.0066668987 -0.091835022
0.66270578 -0.12755513 -0.1317482
0.65307176 -0.075581074 -0.084575176
0.64106882 -0.12012708 -0.085738182
0.6254248 -0.068034172 -0.036139965
0.62412083 0.096147895 -0.10244799
0.61983579 -0.11305618 -0.041940212
0.61687076 0.098334849 -0.085390091
0.60606182 0.01758486 -0.016335964
0.59917676 -0.062811136 -0.0030603409
0.59279078 -0.061817169 0.0031509399
0.5927158 -0.017070115 0.0042619705
0.59317076 0.13299388 -0.092319012
0.58691275 0.020271897 0.0018968582
0.58055377 0.021162868 0.0079517365
0.58512676 0.16692686 -0.15485001
0.57523477 0.058893859 -0.0018811226
0.56733775 -0.013378143 0.028394699
0.56787181 0.022937894 0.020029068
0.56113678 -0.012720108 0.032602787
0.5625748 0.060535848 0.0097570419
0.56172478 -0.10227513 0.023265839
0.55824983 0.10739887 -0.016479015
0.55638576 0.061090887 0.013579845
0.5488528 -0.055958152 0.039480686
0.54883277 -0.011577129 0.039821625
0.54576981 0.10859388 -0.0076541901
0.53655481 -0.010440111 0.04702282
0.53703278 0.025807858 0.038980961
0.53869081 -0.16377211 0.011078835
0.5308978 0.026353896 0.042584896
0.5247708 0.026897848 0.046181679
0.5255518 0.063847899 0.032631874
0.52258682 0.14220685 -0.019560337
0.52312678 -0.22620308 -0.029056072
0.51852679 -0.097394109 0.051943779
0.51207578 -0.05232811 0.061577797
0.51326978 0.064941883 0.040225029
0.5063228 -0.096204162 0.058877945
0.51143682 0.21695787 -0.14455795
0.50046778 0.028709888 0.057983875
0.50421476 -0.2229321 -0.011207104
0.49513179 0.066009879 0.047328949
0.47647581 0.029911876 0.065456867
0.4700748 -0.049891114 0.07563591
0.47010079 -0.0058991313 0.075109959
0.47346878 -0.21942616 0.0074477196
0.46955881 0.18138087 -0.034173012
0.46409479 -0.04956007 0.077549934
0.46155378 0.14587587 0.0079369545
0.45230278 -0.092776179 0.07806778
0.4512088 0.18247789 -0.025392056
0.44620079 -0.048642159 0.082825661
0.44069779 0.031405866 0.074581623
0.4412218 0.068434894 0.063038826
0.4348138 0.0314399 0.074569702
0.43159679 0.14669991 0.013455868
0.44111478 0.24247187 -0.20455217
0.43625081 -0.29863918 -0.093142986
0.4287028 -0.092347145 0.079742908
0.4168148 -0.048442125 0.082860947
0.42417079 -0.29845214 -0.092635155
0.41942778 -0.2167331 0.020516872
0.41780078 -0.1547991 0.059342861
0.4137938 0.14677286 0.013310909
0.4153018 0.1828779 -0.023437023
0.41097081 -0.0045101047 0.082117081
0.40506279 -0.048368096 0.082874775
0.40756279 -0.21662915 0.020632744
0.40090579 0.11532986 0.039175034
0.4019258 0.14681888 0.013216972
0.4061718 0.2227869 -0.09484911
0.3949948 0.11535585 0.039147854
0.39599279 0.14684087 0.013169765
0.39421478 -0.1546241 0.059454918
0.39398479 -0.29801214 -0.09141922
0.38831979 -0.15458214 0.059483051
0.38548079 0.18296689 -0.023812294
0.38159779 -0.0043541193 0.082066059
0.37572378 -0.0043251514 0.082055092
0.37063581 -0.15446317 0.059563637
0.36394879 -0.048133135 0.082921028
0.35953379 0.11549485 0.038995743
0.35195577 0.22286886 -0.095994949
0.33461979 -0.0041421056 0.081987858
0.33519679 0.068897903 0.062561035
0.33642179 -0.21608615 0.021281719
0.3258518 0.18310785 -0.024506092
0.31133679 0.032013893 0.074368954
0.29958278 0.032052875 0.074352741
0.29604381 0.18315887 -0.024824142
0.29774579 0.2229169 -0.097036362
0.29404777 -0.15404117 0.05987978
0.28863978 0.11570787 0.038723946
0.2900838 0.18316686 -0.024885178
0.28810281 0.069036901 0.062380791
0.2857008 0.22292286 -0.097254276
0.2760818 0.03212285 0.074322701
0.2714498 0.14717388 0.012313843
0.27020478 0.032137871 0.074315071
0.27344978 -0.29662907 -0.087302208
0.27008277 -0.091453075 0.080407619
0.26456079 0.069090903 0.062297821
0.25959378 0.1471929 0.012242794
0.26027977 0.18320286 -0.025178909
0.25845578 0.032166898 0.074300766
0.25871778 -0.15389812 0.060009003
0.25558579 0.22293085 -0.097774029
0.25258178 0.032180905 0.074295998
0.2524738 -0.091392159 0.080468655
0.24656078 -0.047669172 0.083045006
0.24658079 -0.0038661361 0.08187294
0.2467058 0.032193899 0.074288845
0.24239779 0.1832189 -0.025347233
0.24083179 0.03220588 0.074282646
0.23513779 0.069144905 0.06220293
0.22897878 -0.0038311481 0.081852913
0.2292828 -0.15380311 0.060108662
0.22311179 -0.0038201213 0.081846714
0.2270118 0.24191487 -0.21607399
0.21944579 0.2229259 -0.098356247
0.21137679 -0.0038011074 0.081835747
0.21139079 -0.091278076 0.080601692
0.20031479 0.14725387 0.011922836
0.19535279 0.22291386 -0.098718166
0.17629778 0.069203854 0.062037945
0.17719579 -0.29595518 -0.084865093
0.17125879 0.22289586 -0.099059105
0.17118379 -0.29592514 -0.084738255
0.17042379 -0.15368009 0.060287952
0.16444379 -0.0037541389 0.081795692
0.15872979 0.11587286 0.038341045
0.15882179 0.14726287 0.01172781
0.15920979 0.22288388 -0.099223137
0.1591578 -0.29587114 -0.084492207
0.15271179 -0.0037491322 0.081786633
0.14098679 0.032307863 0.074194908
0.1409968 0.069209874 0.061953068
0.14112478 -0.29580009 -0.084146023
0.14103179 -0.21534407 0.022578716
0.1409808 -0.091186166 0.080761909
0.12920779 0.11586887 0.038273811
0.12924579 -0.0037491322 0.081771851
0.12325779 0.14724886 0.011580944
0.12319179 0.18320686 -0.026285172
0.11733079 0.14724487 0.011559963
0.11751179 -0.091186166 0.080781937
0.11149479 0.11585987 0.038239002
0.10505979 -0.29570007 -0.083533287
0.10568779 -0.15364909 0.060448647
0.099914789 -0.0037641525 0.081755638
0.099605791 -0.2153281 0.022760868
0.087690793 0.14721489 0.011453629
0.087425791 0.18316388 -0.026505947
0.081971794 0.11583185 0.038182735
0.082325794 -0.047540069 0.083188057
0.070162795 0.11581689 0.038163662
0.06357979 0.1831249 -0.026638031
0.064634793 0.032251894 0.074156761
0.056779794 0.22271585 -0.10039806
0.05886279 -0.047571182 0.083203793
0.058845796 -0.0038151145 0.081739902
0.05860579 -0.15369415 0.060544968
0.046851791 0.06911087 0.061785698
0.046835795 -0.15371418 0.060564995
0.038699791 0.22267288 -0.10056591
0.041245796 -0.0038471222 0.081736088
0.035399795 -0.047614098 0.083222866
0.029195793 0.069074869 0.061761856
0.02858679 -0.21541512 0.022999763
0.029495791 -0.091302156 0.08084774
0.023515791 0.032173872 0.074146748
0.016543791 0.14708686 0.011250019
0.015878789 0.18302387 -0.026865959
0.014588796 0.22261089 -0.10077429
0.017758794 -0.091331124 0.080855846
0.0088977963 -0.29569614 -0.082417011
0.011889793 -0.091347098 0.080859661
0.0060657859 -0.0476861 0.08324194
0.0060367882 -0.0039321184 0.081730843
0.0028857887 -0.29570818 -0.082373142
0.0049097985 -0.21547711 0.023057938
-0.0020132065 0.1829769 -0.026937008
0.00019879639 -0.047703147 0.083246708
0.00016778708 -0.0039481521 0.081730843
-0.0066152066 0.11565787 0.038066864
-0.005668208 -0.047720075 0.083250999
-0.0069292039 -0.21551311 0.023083687
-0.012522206 0.11564189 0.038061619
-0.015556201 0.22252285 -0.10100317
-0.011587203 -0.091418147 0.080875874
-0.021585211 0.2225039 -0.10104513
-0.030245215 0.1155889 0.038046837
-0.029667214 0.06891185 0.061710835
-0.029692203 -0.15393412 0.060671806
-0.0355542 0.068891883 0.06170702
-0.04206121 0.11555088 0.038039684
-0.040939212 -0.091526151 0.08089304
-0.049734205 0.18283087 -0.027097225
-0.046812207 -0.091549158 0.080897808
-0.053880215 0.11550987 0.038034916
-0.057771206 0.22238189 -0.10127115
-0.053247213 -0.15403211 0.060694695
-0.052683204 -0.091574073 0.080900669
-0.058530211 -0.0041531324 0.081736088
-0.060217202 -0.21572912 0.023163795
-0.058554202 -0.091599107 0.080904961
-0.070885211 0.068759859 0.061691761
-0.076776206 0.068734884 0.061689854
-0.082665205 0.06870985 0.061689854
-0.087838203 -0.048046112 0.083299637
-0.088141203 0.031791866 0.074152946
-0.095251203 0.11534786 0.038019657
-0.099339202 -0.29614818 -0.082063198
-0.093790203 -0.091769099 0.080925941
-0.09963721 -0.0043390989 0.081748009
-0.1016822 -0.21595407 0.023190975
-0.1188992 0.1152429 0.03801775
-0.1317862 0.14655989 0.0110569
-0.1289472 -0.048266172 0.083323002
-0.12979722 0.068487883 0.061692715
-0.1392622 0.1824699 -0.027262211
-0.1414682 -0.29645407 -0.082183361
-0.1431632 -0.21622813 0.023183823
-0.1466352 -0.0045951009 0.081771851
-0.1469532 0.031490862 0.074177742
-0.1490902 -0.21627116 0.023180962
-0.14751622 -0.15456808 0.060740948
-0.15283722 0.031456888 0.074179649
-0.15502021 -0.21631515 0.023175716
-0.16094822 -0.21636117 0.023170948
-0.16419721 -0.04848516 0.083338737
-0.16516021 0.068293869 0.061709881
-0.17335621 0.14634985 0.011057854
-0.17007321 -0.048524141 0.083340645
-0.1701442 -0.004740119 0.081785679
-0.17048922 0.031351864 0.074191093
-0.1728062 -0.21645415 0.023159981
-0.18451419 0.2218349 -0.10169029
-0.18523821 0.14628488 0.011065006
-0.1905562 0.2218039 -0.10169697
-0.18466821 -0.21655107 0.023144722
-0.18778121 -0.0048561096 0.081799984
-0.1881462 0.031239867 0.074203968
-0.20171919 0.11479586 0.038053989
-0.20306221 0.14618289 0.011075974
-0.20246321 -0.21670616 0.023118019
-0.21134722 -0.092547178 0.08097887
-0.22581622 -0.29728818 -0.082856178
-0.23009419 -0.15522611 0.060716629
-0.2359392 0.067837894 0.061778069
-0.24071822 -0.0052431226 0.081846714
-0.2499432 -0.29758108 -0.083155155
-0.24400622 -0.21710014 0.023033619
-0.24908721 0.11448687 0.038100719
-0.2527962 0.1818499 -0.027222157
-0.2465162 -0.049104095 0.08337307
-0.2499432 -0.21716118 0.023018837
-0.2537072 -0.15544617 0.060701847
-0.2751632 0.22132987 -0.10164118
-0.26471221 0.030682862 0.074269772
-0.26545119 0.067620873 0.06182003
-0.2677592 -0.2173481 0.022970676
-0.26431221 -0.093003154 0.080997944
-0.2812092 0.2212919 -0.10162735
-0.28616121 -0.29806411 -0.08369112
-0.28463522 0.11422986 0.03814888
-0.28771719 -0.04947114 0.083387852
-0.30065522 0.18153286 -0.027121067
-0.29418522 0.030436873 0.07430172
-0.2937572 -0.09328413 0.081007004
-0.30008119 0.030385852 0.074308872
-0.30597821 0.030333877 0.074316025
-0.3093532 -0.21782112 0.022834778
-0.30553922 -0.093403101 0.081010818
-0.31606522 0.14541888 0.011254787
-0.32355422 0.22101986 -0.10149527
-0.32020721 0.11395085 0.038209915
-0.3171652 -0.049757123 0.083397865
-0.3186982 -0.15612817 0.060629845
-0.33565822 0.22093886 -0.10144615
-0.33484221 -0.049937129 0.08340168
-0.3413772 0.030007899 0.074361801
-0.34727922 0.02995187 0.074368954
-0.35407922 0.066872895 0.061995029
-0.37081519 -0.29940414 -0.085361004
-0.3815892 0.14488387 0.0114398
-0.3767992 0.029656887 0.074411869
-0.39621219 0.22050589 -0.10111904
-0.38365623 0.066590905 0.062069893
-0.39504519 -0.29984212 -0.085944176
-0.3914192 0.11332685 0.038361073
-0.39351121 0.14477986 0.011481762
-0.38861218 0.029534876 0.074430943
-0.4083322 0.22041386 -0.10103798
-0.3986142 -0.21900415 0.022435665
-0.40141121 0.066413879 0.062116623
-0.4204742 0.18059987 -0.026652336
-0.43142822 -0.30054414 -0.086909294
-0.43847123 0.18044186 -0.026554108
-0.42934623 -0.0070921183 0.082113743
-0.42944524 -0.094859123 0.080935001
-0.43514219 -0.051095128 0.083420753
-0.44964018 -0.30091608 -0.087435246
-0.45047221 0.18033487 -0.026484966
-0.45317021 0.1442219 0.011713028
-0.44773021 0.028880894 0.074528694
-0.45286819 -0.051323175 0.083422661
-0.46786419 -0.30130112 -0.087983131
-0.45888922 -0.0074481368 0.082170963
-0.47394219 -0.30143213 -0.088172913
-0.4642022 -0.22001708 0.022047043
-0.4810982 0.21982688 -0.10044432
-0.48002121 -0.30156517 -0.088365078
-0.47464123 0.1124869 0.038593769
-0.4707112 -0.0075951219 0.082193851
-0.4713982 0.028598905 0.074572086
-0.4832392 0.028453887 0.074595928
-0.48436221 0.065512896 0.062383652
-0.50435317 -0.3021121 -0.089164257
-0.49405518 -0.22051907 0.02184391
-0.5009532 0.14373487 0.011935711
-0.51144826 0.2195639 -0.10013914
-0.50440526 0.11215788 0.038692951
-0.51052916 0.17976588 -0.026094913
-0.51035917 0.11208987 0.038712978
-0.52359521 0.2194559 -0.10000801
-0.51888716 0.14354289 0.012026787
-0.52486622 0.14347786 0.012059689
-0.5345732 0.17952389 -0.025917053
-0.52590024 0.065014899 0.062540054
-0.52977419 -0.052392125 0.083429813
-0.54660225 0.17939889 -0.025823116
-0.55397117 0.21917689 -0.099658966
-0.5476532 -0.0086241364 0.082360744
-0.56465125 0.17920887 -0.02567625
-0.55939817 -0.05283916 0.083429813
-0.56181419 -0.15963614 0.060050964
-0.55969119 -0.096811175 0.080600739
-0.58436823 0.21888888 -0.09927702
-0.56532621 -0.05293107 0.08342886
-0.56562316 -0.096909165 0.080582619
-0.57216322 0.0272789 0.074784756
-0.58189523 0.11122888 0.038983822
-0.59584117 -0.30438411 -0.092592239
-0.57749021 -0.097109079 0.080545902
-0.5907042 0.14272386 0.012440681
-0.60261726 0.21870989 -0.099031925
-0.58403826 0.027109861 0.074813843
-0.60195625 -0.30454814 -0.092845917
-0.58342719 -0.097210169 0.080526829
-0.59980321 0.11099988 0.039058685
-0.60268617 0.1425789 0.012516022
-0.61478627 0.21858889 -0.098862171
-0.60779917 0.026763856 0.074871063
-0.62643015 -0.30521917 -0.093886375
-0.61376119 -0.22278607 0.020863056
-0.62487221 0.1785419 -0.025135994
-0.63304722 0.21840388 -0.09859705
-0.61507225 0.063838899 0.062928677
-0.61312425 -0.097729087 0.080427647
-0.63266122 0.14220685 0.012714863
-0.62466717 -0.053893089 0.083425999
-0.62501121 -0.097943068 0.080384731
-0.64295626 0.17833185 -0.024960041
-0.64898825 0.17826086 -0.02489996
-0.63655126 -0.054095149 0.083424091
-0.63664722 -0.0099651217 0.082584858
-0.65706718 -0.30609214 -0.095256329
-0.63690424 -0.098160148 0.080340862
-0.64347219 0.026223898 0.074961662
-0.65666115 0.14189988 0.012883663
-0.66105115 0.17811686 -0.024775028
-0.65120125 -0.16130614 0.05971384
-0.65438223 -0.054403067 0.083422661
-0.67312026 0.17797089 -0.024649143
-0.66665721 -0.09871912 0.080228806
-0.67231417 -0.010548115 0.082685947
-0.67981923 -0.22420907 0.020208836
-0.67261219 -0.098833084 0.080204964
-0.70007217 0.21769089 -0.097524166
-0.67817521 -0.05482614 0.083418846
-0.7061702 0.21762389 -0.097419262
-0.68421221 -0.010748148 0.082718849
-0.68658018 0.062791884 0.063294888
-0.70619321 -0.30757117 -0.097607136
-0.69870222 0.14133888 0.013197899
-0.70330918 0.17759788 -0.024318218
-0.69048417 -0.099181175 0.080132961
-0.69611621 -0.010951102 0.082753658
-0.69851518 0.062608898 0.063359737
-0.72143316 0.17736685 -0.024109364
-0.7305752 0.21734989 -0.09698391
-0.71095216 -0.16253507 0.059449673
-0.72747719 0.17728889 -0.024039268
-0.73667824 0.21728086 -0.09687233
-0.71390319 -0.055485129 0.083414078
-0.73696923 -0.30854607 -0.09917593
-0.72194624 -0.22518218 0.019749641
-0.7335242 0.17721087 -0.023967266
-0.71986425 -0.055597067 0.08341074
-0.72291923 -0.16279113 0.059394836
-0.76393223 0.23631287 -0.21406794
-0.72890425 -0.16292107 0.059364796
-0.72626317 -0.09990108 0.079981804
-0.73284316 0.024760902 0.075212955
-0.75166619 0.17697185 -0.023747921
-0.77630615 0.2362119 -0.21346998
-0.74032116 0.061944902 0.063600063
-0.74087822 -0.16318417 0.059308052
-0.74941826 0.10887086 0.039792061
-0.76721323 0.21692586 -0.096292019
-0.74378121 -0.011793137 0.082901001
-0.76161623 -0.056408167 0.083400726
-0.80106115 0.23600686 -0.21222925
-0.78192616 0.17656487 -0.023364067
-0.76758516 -0.056527138 0.083400726
-0.79255426 -0.31045616 -0.10249424
-0.78295517 0.14013189 0.013901711
-0.77355826 -0.056647182 0.083399773
-0.77620625 0.061350882 0.063817978
-0.78543723 0.10830188 0.039999008
-0.7889812 0.14004189 0.013958931
-0.79403925 0.17639786 -0.023207188
-0.80598116 -0.31231213 -0.11094999
-0.79144526 0.1082049 0.040032864
-0.82582319 0.23579985 -0.2109313
-0.79745424 0.10810685 0.040067673
-0.80615616 0.17622888 -0.023045063
-0.79148126 -0.057011127 0.083394051
-0.81946325 -0.31420314 -0.11956596
-0.79750323 -0.012796104 0.083078861
-0.80084419 -0.16455317 0.059000015
-0.79797924 -0.10143709 0.079647064
-0.80347919 -0.012912095 0.083097935
-0.81247818 -0.22743917 0.01865387
-0.84671724 0.21595287 -0.094628334
-0.85343826 -0.31908715 -0.14185429
-0.86028123 -0.32009113 -0.14643908
-0.83955824 0.1074059 0.040328026
-0.84328425 0.13920087 0.014467716
-0.84557819 0.1073029 0.040364742
-0.86074317 0.17544287 -0.022278309
-0.84646821 0.022677898 0.075577736
-0.85731423 -0.058409095 0.08337307
