# .PCD v0.7 - Point Cloud Data file format
VERSION 0.7
FIELDS x y z
SIZE 4 4 4
TYPE F F F
COUNT 1 1 1
WIDTH 1
HEIGHT 512
VIEWPOINT 0 0 0 1 0 0 0
POINTS 512
DATA ascii
1.0624199 -0.1580795 -0.12683821
1.048404 -0.11150241 -0.11381149
1.0506569 0.0085565448 -0.12944412
1.0538769 0.086656511 -0.19430113
1.050808 -0.22583246 -0.17287111
1.038533 0.008772552 -0.12952614
1.044678 -0.22566247 -0.17270327
1.0299599 -0.065914452 -0.11179447
1.038551 -0.22549343 -0.17254019
1.045715 0.11979753 -0.26692915
1.0239129 -0.065794468 -0.11180019
1.0065229 -0.028327465 -0.11722326
1.0077469 -0.15676451 -0.12610149
0.97127098 -0.22370148 -0.17078018
0.95784098 0.056877553 -0.16106129
0.94616395 -0.02728045 -0.11762142
0.94777495 0.010308504 -0.13011217
0.94076198 -0.22293043 -0.17001724
0.91544795 0.057447553 -0.16183233
0.91368496 0.088563561 -0.19687033
0.90552694 0.010964513 -0.13042927
0.89482397 -0.11262548 -0.14172316
0.88845295 -0.067151487 -0.13899422
0.88462996 -0.15919447 -0.1575923
0.86862195 -0.15374351 -0.12438726
0.86706197 0.05806452 -0.16267014
0.84949094 -0.22077346 -0.16787434
0.84535599 0.084511518 -0.2389822
0.84966499 0.12141156 -0.27739525
0.84336996 -0.22942543 -0.22127342
0.83058697 0.0080695152 -0.16124916
0.82454795 0.0081495047 -0.16131306
0.81680596 -0.029031456 -0.14582729
0.79987198 -0.15755844 -0.15664911
0.79270196 -0.028692484 -0.14595938
0.79234099 0.054477513 -0.19986725
0.76991695 -0.21787047 -0.15880728
0.75637299 -0.019796491 -0.084865093
0.75399196 0.064823508 -0.12048149
0.74973899 0.097741544 -0.13797331
0.75663894 0.13047951 -0.20710707
0.75158298 -0.27339041 -0.15645409
0.73450494 0.10182256 -0.10522318
0.72293496 -0.19883943 -0.047712326
0.70750499 -0.0089004636 -0.01028204
0.71031094 0.14285654 -0.10231829
0.69571298 0.029742539 -0.010241032
0.69341397 0.10899252 -0.048970222
0.68266696 0.031707525 0.003484726
0.68783194 0.18880153 -0.11786509
0.66824597 -0.12601352 0.033053875
0.65722996 0.034882545 0.025307655
0.64909196 -0.08000046 0.051377773
0.64184797 0.11536056 -0.00016021729
0.63671994 -0.078603446 0.059657574
0.64441794 0.22175956 -0.099695206
0.63230199 0.037509561 0.043095589
0.62437999 -0.077213466 0.067915916
0.62611198 0.038130522 0.047289848
0.62131697 0.08564055 0.034806728
0.62118298 -0.23803246 0.036419868
0.61759394 0.26297253 -0.13670826
0.60547197 -0.30188143 0.013947964
0.59690195 0.08752954 0.048006535
0.59844697 0.11921853 0.02859354
0.60047799 0.15588653 0.003077507
0.59559995 0.040708542 0.064369678
0.59498495 -0.17726243 0.072104931
0.58789998 -0.11633849 0.088354588
0.58818799 0.15680856 0.010237694
0.59814894 0.26492953 -0.11775446
0.57057494 0.0061805248 0.087740898
0.59346598 0.30675352 -0.21319818
0.57894099 0.26671553 -0.10052204
0.58619899 -0.4669255 -0.19705629
0.56635797 0.26768452 -0.091311455
0.55661297 -0.29620647 0.041398525
0.56322497 -0.45316947 -0.13004541
0.54815495 0.20221955 -0.0032091141
0.54054797 -0.027846456 0.1029048
0.54760695 0.26905555 -0.078311443
0.56137496 0.33307254 -0.27276945
0.52859396 -0.07000047 0.10878468
0.52908593 0.0085235238 0.1017499
0.53030795 -0.22855842 0.084273815
0.53010595 0.20305753 0.0033845901
0.53226292 0.22997051 -0.027848244
0.53543496 0.26956856 -0.073797226
0.51731998 0.009085536 0.10501957
0.52019393 0.23050755 -0.023406506
0.51226896 0.045466542 0.094344616
0.51478094 -0.29282844 0.057023525
0.51014793 0.16074753 0.039322853
0.50562096 0.0095325112 0.10748196
0.50667197 -0.22700441 0.091647625
0.51266295 -0.44403148 -0.087908268
0.50081295 -0.22672153 0.092897892
0.49678397 0.12454551 0.065872669
0.49121493 -0.29159641 0.06224966
0.48308897 0.046356559 0.099192619
0.48247796 -0.16987944 0.10889673
0.47607493 -0.06791544 0.11925888
0.47725993 0.046532512 0.10016251
0.49204695 0.31398851 -0.13818407
0.47665298 -0.1696465 0.10994864
0.47145396 0.046664536 0.1008029
0.46898192 0.16182053 0.046164513
0.47070497 0.20498055 0.017583847
0.46467894 -0.025036454 0.11753082
0.46566796 0.046753526 0.10112858
0.47987193 0.31438154 -0.13447714
0.47602093 -0.44010246 -0.070603371
0.46778297 0.31466353 -0.1320014
0.47164893 0.33981752 -0.1980381
0.45148093 0.16205853 0.047226906
0.45482397 0.2322185 -0.010741234
0.45256495 -0.3504765 0.028423786
0.44707793 -0.10934246 0.12359095
0.44341797 0.093675554 0.086902618
0.44185197 0.011036515 0.11448383
0.43569297 -0.067187488 0.12173796
0.43033093 0.011169553 0.11480379
0.43099093 0.047239542 0.10281467
0.42688698 0.12580055 0.072227955
0.42818993 0.16231251 0.048164845
0.43371898 0.27206755 -0.053921223
0.44122094 0.34043056 -0.19243431
0.42915994 -0.34987843 0.030261517
0.42407095 -0.10904348 0.12421751
0.42238498 0.16234452 0.048132896
0.41452593 0.093920529 0.087283611
0.41603595 0.27214354 -0.054060459
0.40733796 0.011327505 0.11473179
0.40795594 0.047392547 0.10274363
0.40969592 -0.28951943 0.06896162
0.40298194 0.093990505 0.08725071
0.40136397 -0.024295449 0.11919165
0.40159094 0.011365533 0.11471367
0.39644194 0.047465563 0.10271072
0.39475197 0.20563251 0.019551754
0.40202296 0.31522852 -0.12912846
0.39074695 -0.22415447 0.10142756
0.38837993 -0.34937847 0.030808926
0.37827498 -0.066749454 0.12170458
0.39308196 0.34064752 -0.19228315
0.38255793 -0.34931147 0.030883789
0.38075292 -0.28922451 0.069150925
0.37815696 -0.10868442 0.12419176
0.37253594 -0.066709459 0.12170267
0.37479198 0.27230555 -0.054367065
0.37511694 -0.43721247 -0.0615201
0.36434793 0.16263354 0.047839642
0.36509395 -0.34911847 0.031097889
0.36195898 -0.2239095 0.1014967
0.34593695 0.12621653 0.071813583
0.35438097 0.31537253 -0.12967205
0.33889496 0.047789514 0.10255384
0.32673597 -0.02382046 0.11915684
0.32691896 0.011799514 0.11450672
0.32282197 0.12631452 0.071707726
0.32167393 -0.22360551 0.10158491
0.31592095 -0.22356546 0.10159683
0.31358093 -0.35300744 0.0085549355
0.30475596 -0.070729494 0.092087746
0.30483794 -0.027908444 0.089808941
0.30040595 0.090108514 0.051738739
0.30689096 -0.4511975 -0.13398027
0.29386196 0.0063515306 0.073758602
0.28861094 0.042146504 0.057966709
0.28793195 -0.1152705 0.078424931
0.28427994 -0.29879546 0.012795925
0.28263494 -0.17576551 0.063716888
0.27903795 0.15689951 -0.0058364868
0.27720895 0.26472855 -0.13724041
0.26861596 -0.36356652 -0.048445225
0.26272595 0.19895756 -0.048113346
0.25924295 -0.11601043 0.072796822
0.25524595 -0.29930544 0.0091209412
0.24771895 -0.030220449 0.071883678
0.24762295 -0.11555052 0.075413704
0.23802795 0.15752852 -0.0014653206
0.23014995 -0.028711438 0.081956863
0.22609594 0.15879452 0.0093665123
0.22423396 -0.027771473 0.088368893
0.22466095 0.044009507 0.070246696
0.22558995 -0.29520643 0.030841827
0.20877095 0.20443755 0.0018606186
0.19651195 0.16151053 0.032618523
0.19691396 -0.35179842 0.011652946
0.18995495 0.093196511 0.073540688
0.18935795 -0.02512145 0.10612154
0.19299096 -0.44217741 -0.092065334
0.18969695 0.33700854 -0.24223614
0.17960395 0.20448154 0.0017237663
0.17795695 0.010515511 0.10103083
0.17778996 -0.10972846 0.11112356
0.16664395 0.046635509 0.089007854
0.17156196 0.33701152 -0.2424922
0.16667695 -0.22545242 0.086797714
0.16071996 0.010548532 0.1010046
0.15555595 0.12502152 0.056592941
0.15627494 0.20450753 0.0016236305
0.15614095 -0.35162449 0.011907578
0.15499395 -0.16937947 0.099485874
0.15044194 0.20451254 0.0016007423
0.15342695 0.33701152 -0.24273443
0.14979994 -0.29071546 0.054119587
0.14546095 0.27110654 -0.073398113
0.14348194 0.010575533 0.10098076
0.14738294 0.33701056 -0.2428112
0.13866895 -0.35156643 0.012003899
0.13446195 0.31351656 -0.15632343
0.13200596 -0.1693325 0.09951067
0.12665495 -0.29065943 0.054181576
0.12084895 0.12505454 0.056509495
0.12043995 -0.067646444 0.1086297
0.11475295 -0.025688469 0.10122156
0.11485795 0.046348512 0.086274624
0.10996495 0.22878754 -0.05526638
0.10947395 -0.29595351 0.025023937
0.10367095 0.12111652 0.02349472
0.10338495 -0.072211444 0.078077793
0.10414895 0.22751856 -0.067693233
0.10342595 0.0063845515 0.070257664
0.097651951 -0.030086458 0.070459843
0.097917952 -0.29875052 0.0096278191
0.092634954 0.26424056 -0.14547539
0.09191595 0.0050385594 0.060441494
0.086173952 0.041047513 0.046025753
0.086442947 -0.36458349 -0.056729317
0.086203948 -0.23438752 0.034559727
0.080491953 0.15595353 -0.017446041
0.080349952 -0.074298441 0.064077854
0.080732949 0.26326954 -0.15564203
0.080565952 -0.36522448 -0.060106277
0.068793952 0.22509152 -0.09150219
0.068793952 -0.11712646 0.062917709
0.062908947 0.19796854 -0.06016016
0.057024952 -0.36511743 -0.059547424
0.05718495 -0.23480952 0.032109737
0.057219952 -0.17710447 0.052170753
0.05724195 -0.11687541 0.06453371
0.051255949 0.15617853 -0.015451431
0.05141595 0.041003525 0.045693874
0.050546952 0.30204755 -0.28631449
0.039946951 -0.072996438 0.072813511
0.039675951 -0.29854453 0.010754585
0.034211952 -0.11456549 0.079387665
0.028467949 -0.028358459 0.082572937
0.027591951 0.22821951 -0.060812473
0.028495952 -0.11335242 0.087173939
0.022693951 0.045616508 0.08073473
0.015583951 -0.44169247 -0.090579033
0.011387952 -0.02500248 0.1060977
0.0047489479 -0.35147643 0.012418747
-0.0011920482 0.20448154 0.0011777878
-0.0010740459 -0.35148644 0.012423515
-0.0073700473 0.23142552 -0.029177189
-0.01164005 0.010549545 0.1008606
-0.011808053 -0.22535944 0.087100506
-0.018691048 0.20445752 0.0011539459
-0.02076105 0.31343353 -0.15699434
-0.019891046 -0.44175649 -0.090526104
-0.023754053 0.12497753 0.0563097
-0.024090052 0.16153151 0.032222748
-0.023299046 0.046625555 0.088850498
-0.029896051 0.16152155 0.032217503
-0.02876205 -0.067726493 0.10862064
-0.031470045 0.27103353 -0.073848248
-0.029567048 -0.29071045 0.054380894
-0.03532505 0.12495655 0.056303501
-0.036192052 0.20442855 0.0011339188
-0.034645051 -0.16940141 0.099601746
-0.04916805 0.27100456 -0.073868275
-0.046140052 -0.16943347 0.099601746
-0.045939051 -0.10974741 0.11110592
-0.065362051 0.20437056 0.0011096001
-0.06320405 -0.067815483 0.10862255
-0.067203045 -0.44192445 -0.090581417
-0.069683045 0.093129516 0.073345661
-0.069358051 0.046519518 0.088847637
-0.075116053 0.046502531 0.088848591
-0.08239305 0.33675754 -0.24462748
-0.081613049 0.12484956 0.056294918
-0.083554044 0.23128551 -0.029249191
-0.084567055 0.27093351 -0.073895454
-0.087401047 0.12483352 0.056294918
-0.089417055 0.23127151 -0.029251099
-0.096370056 0.27090651 -0.073900223
-0.10659406 0.33670455 -0.24468946
-0.10008705 -0.35183549 0.012361526
-0.10345805 -0.025288463 0.10610485
-0.10700305 0.2312265 -0.029254436
-0.10861304 -0.44215047 -0.090749264
-0.11634006 0.12474453 0.056303501
-0.12371805 0.20421755 0.001106739
-0.12741005 0.092948556 0.073356628
-0.12863205 0.16127056 0.032212734
-0.13218404 -0.025405467 0.10610867
-0.13949604 0.12466455 0.056315899
-0.14218505 0.23112351 -0.029245377
-0.14895704 0.33659953 -0.24473906
-0.13955905 -0.29118848 0.054300785
-0.14706805 0.20414251 0.0011205673
-0.14933905 -0.068157494 0.10863495
-0.14999504 0.046234548 0.088875771
-0.15874405 0.20410252 0.0011315346
-0.16091804 -0.025539458 0.10611486
-0.16419905 -0.35224152 0.012162685
-0.16272905 -0.29133642 0.054259777
-0.16685204 0.010041535 0.10089874
-0.18457104 0.04607451 0.088899612
-0.18590306 -0.29150045 0.054211617
-0.18946303 -0.11037946 0.11112881
-0.19740705 0.1244235 0.05637455
-0.20949806 0.33642256 -0.24468231
-0.20320006 0.12439656 0.056381702
-0.20194604 -0.22626841 0.086919785
-0.21794005 0.31294554 -0.15708637
-0.22036006 0.27051455 -0.073831081
-0.22392206 0.3129245 -0.15707445
-0.22766806 0.33636355 -0.24463415
-0.22058205 0.12431151 0.056408882
-0.22626804 0.27049053 -0.073823452
-0.23372506 0.33634251 -0.24461603
-0.22637604 0.12428153 0.056418896
-0.23978205 0.33632255 -0.24459505
-0.23808505 0.27044153 -0.073805332
-0.23078905 -0.22649646 0.086848736
-0.23554905 -0.068667471 0.10865879
-0.23597206 -0.17044652 0.099514961
-0.24636506 0.20373851 0.0012764931
-0.24173205 -0.17049146 0.099509716
-0.25292605 -0.026088476 0.10613775
-0.25387305 -0.22669744 0.086780548
-0.25953507 0.045648515 0.088979721
-0.26856607 -0.44370747 -0.092436314
-0.26443702 -0.026169479 0.10614157
-0.26922804 -0.3532095 0.011564732
-0.26477402 -0.17068148 0.099484921
-0.27107507 0.045572519 0.088994503
-0.27581507 -0.068963468 0.10867167
-0.27594703 -0.026254475 0.10614586
-0.27621603 0.0093935132 0.10102177
-0.29431504 0.33612156 -0.24434328
-0.28636903 -0.44394851 -0.092725277
-0.28434706 0.12395656 0.056531906
-0.28156805 -0.06900847 0.10867453
-0.28197604 0.0093535185 0.10103178
-0.29727507 0.16048455 0.032438755
-0.30311406 0.27014351 -0.073663235
-0.29609603 -0.2925005 0.053869724
-0.31605703 -0.44437945 -0.093255043
-0.30444902 -0.11123645 0.11116982
-0.32565308 0.31249952 -0.15677547
-0.31610405 -0.069295466 0.10868788
-0.33003604 0.23028952 -0.028871059
-0.33763206 0.31244254 -0.15672541
-0.32974005 0.091838539 0.073554516
-0.33384407 0.0089565516 0.10111952
-0.33458006 0.045113504 0.089092731
-0.34386402 0.16018754 0.032552719
-0.34035605 0.045068562 0.089103699
-0.34052002 -0.22758448 0.08646059
-0.35749203 0.20311952 0.001639843
-0.35978502 0.12344855 0.056734562
-0.36820406 0.26978952 -0.073462486
-0.36920005 0.20304352 0.0016875267
-0.37119305 0.23004252 -0.028717041
-0.38528007 0.33573055 -0.24364519
-0.36794806 -0.069776475 0.10871267
-0.38186806 0.091433525 0.073647499
-0.38766307 0.09138453 0.073658943
-0.39931208 -0.44578552 -0.095036507
-0.38679403 -0.22814643 0.086246967
-0.39925605 0.09128654 0.073680878
-0.40649605 0.22981256 -0.028564453
-0.39730406 0.0083985329 0.10125065
-0.42153907 0.31199551 -0.15628719
-0.40960103 -0.3550905 0.010246754
-0.40651202 -0.2938695 0.053342819
-0.42909604 -0.44636047 -0.09578228
-0.42244804 0.091083527 0.073728561
-0.42778105 0.20263755 0.001970768
-0.42153102 -0.22860849 0.086063862
-0.42951006 0.12289554 0.056977749
-0.42617607 0.0081185102 0.10132074
-0.43532401 0.12284654 0.057000637
-0.44522405 0.26930255 -0.073146343
-0.43286705 0.044251561 0.089297771
-0.45153403 0.31181753 -0.15609312
-0.44113904 0.12279552 0.057023525
-0.43789303 -0.17254746 0.099210739
-0.45063603 -0.35576749 0.0097489357
-0.45023304 0.044079542 0.089339733
-0.45308805 -0.2945565 0.053065777
-0.450504 -0.22901952 0.085900784
-0.48243403 0.33523452 -0.24252033
-0.47084701 -0.44722748 -0.096922398
-0.46882701 0.20232356 0.0021977425
-0.48056 0.20222956 0.0022697449
-0.47369605 -0.22936642 0.08575964
-0.47819 0.0075715184 0.1014576
-0.51157504 0.31143051 -0.15564632
-0.50668305 -0.44803047 -0.097990036
-0.50816804 0.043466508 0.089494705
-0.51522303 -0.35694849 0.0088605881
-0.50851506 -0.2299155 0.085535526
-0.50733203 -0.17351246 0.099057674
-0.53561205 0.31126553 -0.1554451
-0.51722503 -0.29560947 0.052630901
-0.51432103 -0.23001051 0.085496902
-0.52263302 0.12203151 0.057386875
-0.51891702 -0.17368543 0.099029541
-0.54257005 -0.44888842 -0.099139214
-0.52961403 -0.071664453 0.10880852
-0.56567603 0.31104952 -0.15517616
-0.55404103 0.15842354 0.033352852
-0.56989902 0.26835352 -0.072452068
-0.56458604 -0.029300451 0.10630083
-0.57405704 -0.3581475 0.0079436302
-0.56990105 -0.1144135 0.11122894
-0.57690203 -0.17460346 0.09887886
-0.57569301 -0.1145035 0.11121273
-0.58515102 0.089384556 0.074157715
-0.58171904 -0.07239747 0.10884762
-0.58408004 -0.23122549 0.084988594
-0.58776605 -0.029622495 0.10631752
-0.59845102 0.12122154 0.057789803
-0.59356403 -0.029705465 0.10632086
-0.60702205 0.22818452 -0.027336121
-0.59903502 -0.29712951 0.051986694
-0.60490304 -0.072742462 0.10886574
-0.61884904 0.22807151 -0.027244091
-0.60685605 0.042274535 0.089808941
-0.60736805 -0.23166251 0.084803581
-0.64250904 0.22784054 -0.027055264
-0.64516902 0.20070451 0.0034918785
-0.64175105 0.041808546 0.089934826
-0.66260302 -0.45214748 -0.10357809
-0.64625901 0.0054385066 0.10202789
-0.65687704 0.12053251 0.058141708
-0.65760905 -0.29834151 0.051464558
-0.69217306 0.31003255 -0.15383005
-0.66933906 -0.29859543 0.051354885
-0.67260802 0.088275552 0.074453831
-0.66851401 -0.11606145 0.11095285
-0.68987906 0.22735351 -0.026650429
-0.67668402 0.041319549 0.090067863
-0.68013704 -0.1162715 0.11091661
-0.68617702 -0.07404846 0.10893583
-0.70064002 0.15678054 0.034180641
-0.70766002 0.22716355 -0.026489258
-0.69276804 0.0047495365 0.10221767
-0.72235101 0.3097645 -0.15345716
-0.73211205 0.33359152 -0.23782444
-0.69868606 -0.29925144 0.051068783
-0.69858605 0.0046605468 0.10224152
-0.73076504 0.26683855 -0.071232319
-0.71240705 -0.23382044 0.083873749
-0.72126502 0.11970752 0.058573723
-0.74651104 0.30954254 -0.15314531
-0.72769505 0.004203558 0.10236883
-0.73689604 0.087372541 0.074699879
-0.73884702 0.11947054 0.058699608
-0.74918306 0.22670251 -0.02609539
-0.74274904 0.087287545 0.074723721
-0.75137001 0.19951856 0.004506588
-0.77068806 0.30931354 -0.15281916
-0.76519501 -0.45540643 -0.10808945
-0.75136405 -0.36246252 0.0045557022
-0.73832804 -0.11737049 0.11072779
-0.75644004 0.11922854 0.058829784
-0.79319805 0.33310753 -0.2362833
-0.76534903 0.15594852 0.034616947
-0.77501601 0.19923252 0.0047578812
-0.77887505 0.22635853 -0.025796413
-0.78941804 -0.45623851 -0.10925007
-0.77510703 -0.36312044 0.0040307045
-0.76508701 -0.23502052 0.083348751
-0.81154102 0.33295655 -0.2357893
-0.80154401 -0.45666349 -0.10984421
-0.77488905 -0.17838442 0.098227501
-0.81303602 0.30889851 -0.1522193
-0.79293406 -0.36362648 0.0036268234
-0.78517103 -0.075837493 0.10903168
-0.81367701 -0.4570955 -0.11044645
-0.80460101 0.19886452 0.0050826073
-0.79872805 -0.30167651 0.049997807
-0.79081005 -0.11843145 0.11054373
-0.80132806 0.086395562 0.074970722
-0.82582003 -0.45753348 -0.1110611
-0.80351806 0.0029375553 0.10272551
-0.81839806 0.15521753 0.035006523
-0.80832803 -0.11879945 0.11047983
-0.84941906 0.30850053 -0.15197325
-0.84443104 0.26557255 -0.070149422
-0.82268202 0.039026558 0.090707779
-0.86788106 0.33169252 -0.24359035
-0.85046601 0.26547253 -0.070385456
-0.84606606 0.19832754 0.0055627823
-0.84830201 0.085620522 0.075057507
-0.87498701 0.22451556 -0.031142235
-0.87027103 -0.30443752 0.044453621
-0.87843901 0.15356153 0.02859354
-0.87347406 -0.078278482 0.10465384
-0.87438101 0.0010015368 0.098323822
-0.88295603 -0.30584848 0.038442612
-0.91869706 0.19202852 -0.043688297
-0.92534202 0.21792656 -0.088959217
-0.90656406 -0.0022614598 0.079092503
-0.91500103 -0.18749249 0.061948776
