# .PCD v0.7 - Point Cloud Data file format
VERSION 0.7
FIELDS x y z
SIZE 4 4 4
TYPE F F F
COUNT 1 1 1
WIDTH 1
HEIGHT 512
VIEWPOINT 0 0 0 1 0 0 0
POINTS 512
DATA ascii
0.83533442 0.081848383 -0.9883852
0.79676342 0.29257041 -0.65502739
0.80542541 0.1509394 -0.84329224
0.81844443 0.029373407 -1.0164623
0.79651946 0.15285236 -0.82252216
0.79897642 0.090394378 -0.90272045
0.73115546 0.43992338 -0.35267925
0.71668845 0.47784039 -0.27708244
0.74024844 0.34100839 -0.49048615
0.70695341 0.44291237 -0.29889631
0.6729514 0.64455038 0.01409483
0.66350543 0.61159438 -0.0059485435
0.66746944 0.4477824 -0.21116018
0.69662744 0.25994241 -0.49093008
0.64323145 0.64481342 0.021399498
0.65961546 0.40079537 -0.25137854
0.67703843 0.17846638 -0.54397821
0.62901342 0.45251739 -0.1257205
0.61490142 0.64474237 0.015665531
0.63635141 0.40403837 -0.19923639
0.64172941 0.31791338 -0.31395817
0.69277245 -0.087536633 -0.89645433
0.67630243 -0.031318605 -0.79470444
0.65337843 0.071068406 -0.62405539
0.63012445 0.18742341 -0.44680834
0.61774546 0.27397537 -0.31705952
0.59758043 0.36319339 -0.16795349
0.63427842 0.038816392 -0.62323427
0.61430442 0.19079936 -0.40994549
0.60148841 0.2284624 -0.3380785
0.59895045 0.13605338 -0.44393539
0.58606642 0.23156637 -0.30236626
0.60994244 -0.012458622 -0.63442612
0.54615146 0.49552637 0.073358536
0.55470842 0.69676536 -0.021589279
0.61523241 -0.1725046 -0.83784246
0.52366441 0.49540439 0.068837643
0.55269945 0.20393038 -0.26640749
0.55923241 0.093472362 -0.41277552
0.51804042 0.4953734 0.067706585
0.58220643 -0.16134363 -0.7559433
0.52736342 0.29063737 -0.10959721
0.51839143 0.6444754 -0.0038604736
0.58682644 -0.26296759 -0.88771629
0.52599341 0.2436344 -0.16327953
0.52988446 0.15213937 -0.28137636
0.5387544 0.0077193975 -0.46255636
0.50335646 0.69666237 -0.031999111
0.49294546 0.34289339 0.024616718
0.49764445 0.69665039 -0.033156395
0.51794243 0.068164408 -0.35758924
0.48426947 0.49518138 0.060926914
0.48970243 0.25090939 -0.079273224
0.48643848 0.21801436 -0.11206341
0.50349241 -0.072854638 -0.48632336
0.45807347 0.3487244 0.10394382
0.45762745 0.38228539 0.10974073
0.46334848 0.69657737 -0.040105343
0.45045546 0.49498138 0.054135799
0.44530147 0.35012537 0.12268066
0.47986844 -0.12685263 -0.50226831
0.43664345 0.42208639 0.086344719
0.45745447 0.02926141 -0.27893925
0.43606246 0.56848937 0.015884876
0.42196646 0.30998236 0.13223076
0.43381646 0.1248554 -0.1149683
0.41984245 0.26488036 0.082398891
0.42471346 0.56843537 0.013599873
0.47912344 -0.33820868 -0.75486517
0.43026546 0.091182411 -0.14809847
0.41418546 0.4219144 0.081856728
0.41584045 0.64415139 -0.024590492
0.40725946 0.3818644 0.099683762
0.41865647 0.7302224 -0.065372467
0.41281646 0.13009238 -0.065121174
0.46370646 -0.41198862 -0.81161451
0.42771545 -0.10933363 -0.37306213
0.40441945 0.64411336 -0.02689743
0.44803646 -0.32541561 -0.67502213
0.40734246 0.043377399 -0.15805054
0.42947146 -0.20457065 -0.49122047
0.40270147 0.77092141 -0.088177204
0.40381947 0.80640936 -0.10500336
0.39063945 0.56826842 0.0067405701
0.39432245 -0.040172637 -0.23151922
0.40733245 -0.19638562 -0.43547344
0.38416946 0.73016536 -0.072368145
0.41763446 -0.3129226 -0.59696054
0.37740946 0.69638038 -0.05751133
0.37264347 0.053132355 -0.074364185
0.36357945 0.4215104 0.071746826
0.37167045 0.69636637 -0.058672428
0.37386447 0.77089739 -0.094038486
0.36580947 0.055051386 -0.057884216
0.35420346 0.19283241 0.1318717
0.37840745 -0.094511628 -0.26385641
0.36115345 0.73012638 -0.077036381
0.35224345 0.058859408 -0.025172234
0.34926146 0.013962388 -0.07297945
0.33993945 0.38126338 0.086272717
0.35792446 -0.18002963 -0.3242135
0.34387445 0.73009539 -0.08054018
0.34724846 -0.13055664 -0.24258614
0.31661546 0.34889939 0.097071648
0.32764944 0.77085638 -0.10343027
0.36840147 -0.60321057 -0.84393024
0.35040146 -0.36223865 -0.51685238
0.34317547 -0.35907459 -0.49806643
0.31094146 0.56785238 -0.0092892647
0.30620745 0.38094437 0.079555511
0.31698245 0.80640036 -0.12268114
0.29560146 0.12634641 0.17344379
0.30523846 0.56782037 -0.010436535
0.30713046 0.64376438 -0.046542168
0.30157945 0.42098337 0.059373856
0.32884046 -0.35280061 -0.46079731
0.30632246 -0.21512365 -0.25940752
0.29382646 0.56775737 -0.012730122
0.29488346 0.61163539 -0.033597469
0.29773545 0.73001242 -0.089897156
0.30934545 -0.26856565 -0.31908512
0.29578447 -0.15716064 -0.16786146
0.28198847 0.30886137 0.10925674
0.32338247 -0.57962966 -0.7222271
0.31823245 -0.50248158 -0.61878252
0.31259546 -0.41802657 -0.50554132
0.30762145 -0.34352362 -0.40564442
0.27660647 0.035539389 0.10363388
0.28898847 0.85043341 -0.14954042
0.29266545 -0.20982659 -0.22472048
0.27805746 0.38066939 0.073954582
0.29629746 -0.26532459 -0.2989831
0.26666147 0.12856138 0.19275761
0.26987746 0.2692644 0.12581158
0.28215447 0.80639637 -0.12977219
0.30379146 -0.49533367 -0.58024454
0.29366246 -0.33742559 -0.36936712
0.28943646 -0.26252365 -0.28138828
0.27733347 0.85044438 -0.15191936
0.26112947 0.12847435 0.19167471
0.26366246 0.24132037 0.13797092
0.26044047 0.34830838 0.085917473
0.26974946 0.77080339 -0.11519527
0.27985245 -0.33139658 -0.33348131
0.25955647 0.56756437 -0.019615173
0.25481546 0.34824738 0.084799767
0.29317546 -0.66309464 -0.75995445
0.24486543 0.044938385 0.18075752
0.26066345 0.88924438 -0.1739645
0.24363045 0.086050391 0.20849371
0.25327647 -0.097608626 -0.0081043243
0.28586647 -0.65900266 -0.73987627
0.25079346 0.6960544 -0.083140373
0.24329643 0.61139536 -0.043988228
0.27136746 -0.65088964 -0.70005846
0.24074043 0.77077538 -0.12109041
0.24994545 -0.38898361 -0.34071112
0.22083746 0.049900413 0.22122192
0.22153746 0.085667372 0.20417786
0.22321345 0.46197039 0.023720741
0.22668745 0.64344937 -0.06277132
0.20975944 0.017343402 0.22037268
0.22480844 0.85049337 -0.16263819
0.21338643 0.24063736 0.12806559
0.21390845 0.26854336 0.11476755
0.21359144 -0.17923361 -0.023967266
0.21092145 -0.1260516 0.04552269
0.21108244 0.4201524 0.041343689
0.23581444 -0.63101959 -0.60244513
0.22344945 -0.37838161 -0.28057337
0.20247145 -0.079865634 0.11858892
0.20616044 0.46182439 0.020317554
0.21169044 0.77074641 -0.12699223
0.21697344 -0.37611067 -0.26770926
0.19326144 0.049386382 0.21585178
0.19626044 -0.077699602 0.13407278
0.20142044 0.85051537 -0.16741228
0.19702244 -0.22490656 -0.044528484
0.18586744 0.26816636 0.10923767
0.19084844 0.56715739 -0.033412457
0.19355844 0.7298094 -0.11101341
0.18842144 0.7707234 -0.13172054
0.18900044 0.8063854 -0.14873838
0.17117244 0.048964381 0.21155691
0.17284344 0.15446836 0.16120577
0.18141444 0.69585741 -0.097174168
0.17805645 -0.21721065 0.004052639
0.17800544 0.85053837 -0.17219114
0.16859244 0.24000037 0.11925459
0.19524544 -0.78703463 -0.70592213
0.19217345 -0.71324158 -0.6108222
0.17273144 0.88941336 -0.19194651
0.16508044 0.3794854 0.051514626
0.16279344 0.61099541 -0.060189247
0.15112445 0.19426936 0.13766766
0.15596244 -0.27975357 -0.025337219
0.14491245 0.56687039 -0.042629242
0.13529244 0.26746237 0.099276543
0.12541844 -0.094863594 0.26033878
0.12874545 0.19390941 0.13328648
0.13844144 -0.48600161 -0.23700142
0.12101044 0.017229378 0.21658993
0.12181644 0.08383441 0.18475151
0.12113744 -0.33196163 -0.015898228
0.11902644 -0.26376665 0.070478916
0.10995245 0.016996384 0.21444988
0.10560444 0.12580937 0.16128683
0.11005744 0.53609335 -0.034939289
0.093355447 0.016641378 0.21124077
0.10171345 0.85061741 -0.18776608
0.092245445 -0.094188631 0.26426458
0.10060844 -0.46642566 -0.13501549
0.11150645 -0.88928866 -0.65524244
0.087068439 -0.06162864 0.2475667
0.090222448 0.26680738 0.090412617
0.09506245 0.77062339 -0.1506834
0.090306446 0.88958341 -0.20881128
0.087055445 0.53592241 -0.039540291
0.085980445 0.41888037 0.016478539
0.088523448 0.69557536 -0.11595535
0.081471443 -0.17815763 0.25130558
0.084404454 0.8895964 -0.2100215
0.078293443 0.19307137 0.12341452
0.079920441 0.37851039 0.034641743
0.083674446 0.8063724 -0.17018032
0.071202442 0.016160369 0.20695972
0.070548445 -0.06202364 0.24439287
0.073626444 0.30621237 0.068098545
0.074229449 0.37844238 0.033515453
0.066524446 0.12508041 0.15368462
0.069941446 -0.45059156 -0.052383423
0.062297445 0.3060534 0.065867901
0.064830452 0.64273942 -0.095392227
0.055343445 0.12486637 0.15151262
0.065328449 -0.85764265 -0.52143908
0.053237449 -0.17149061 0.29346275
0.061232451 -0.6351366 -0.24539709
0.051716451 0.41850838 0.0096797943
0.05503745 -0.63145661 -0.22812748
0.04692645 0.5662204 -0.062271118
0.037461448 -0.06283164 0.23804188
0.039387446 0.26603937 0.080429554
0.033329446 0.19229436 0.1146307
0.034163449 0.34558338 0.041144848
0.034339447 0.37795839 0.025624752
0.036066446 0.69540638 -0.12655544
0.036806446 -0.62371767 -0.19184637
0.026813451 0.015169382 0.19839668
0.031008448 0.85069436 -0.20220232
0.028634448 0.37788838 0.024496555
0.020745449 -0.095995605 0.25057173
0.018325448 0.64251739 -0.10475636
0.015122447 -0.2834326 0.26229668
0.019235447 -0.67724156 -0.20894432
0.0045144483 -0.35102463 0.20301247
0.0079194494 -0.75976467 -0.2847085
-0.005243551 0.53520137 -0.057990074
-0.0071525536 -0.22445357 0.30661154
-0.010872552 0.61003441 -0.095094204
-0.012369553 -0.34282362 0.2478857
-0.017134553 0.34488937 0.031030655
-0.016028551 -0.80211067 -0.28597021
-0.016878553 -0.59193063 -0.042303085
-0.023036553 0.19127941 0.1036396
-0.022604551 0.53506041 -0.061458111
-0.023285553 -0.40265858 0.19856787
-0.028332552 0.60992938 -0.098600388
-0.028692551 -0.4873426 0.10795259
-0.027840551 -0.90113759 -0.38055134
-0.034237552 0.41752738 -0.0073533058
-0.034120552 0.69516838 -0.14073515
-0.034511551 -0.33208561 0.30671549
-0.03998455 -0.13628662 0.25756359
-0.03998455 0.4911314 -0.043889523
-0.03998455 0.6951474 -0.14192009
-0.045499552 -0.13644463 0.25651646
-0.045529552 -0.064956605 0.22216272
-0.045749553 0.45939937 -0.029816151
-0.045812551 0.60982442 -0.10210848
-0.046243552 -1.1127396 -0.59682941
-0.051713552 0.69510639 -0.14428854
-0.05686155 0.12261438 0.12974548
-0.057624552 0.7292394 -0.16189337
-0.056363553 -0.27337456 0.32009554
-0.06230855 0.013070405 0.18126965
-0.061907552 -0.22615361 0.29627752
-0.067894548 0.012933373 0.18019772
-0.068266556 0.19043237 0.094835758
-0.068897553 0.49084938 -0.049643517
-0.077643551 -1.1824886 -0.61559248
-0.080140553 0.37648338 0.0030207634
-0.081076548 0.69500238 -0.15021753
-0.084766552 0.043445408 0.16210365
-0.086021557 0.41690537 -0.017600536
-0.087332547 -0.85806561 -0.20540333
-0.091945551 0.45890039 -0.038985252
-0.088805556 -0.37181664 0.36078691
-0.097861551 0.49056238 -0.055403233
-0.098175555 0.56515938 -0.091311455
-0.10421056 0.60946137 -0.11382627
-0.10436055 0.64189237 -0.12944031
-0.10590056 -0.96029758 -0.2898283
-0.10460155 -0.84559667 -0.15460014
-0.10850756 -0.68696856 0.033420563
-0.11424455 0.30339336 0.031194687
-0.11446355 0.34349838 0.01187849
-0.11749256 -0.95135367 -0.25503826
-0.11080055 -0.32703757 0.33479261
-0.11864956 0.078722358 0.13825178
-0.12602355 -1.1409537 -0.46533012
-0.11743756 -0.53272462 0.23740482
-0.12687956 0.49026838 -0.061170101
-0.12991855 0.078459382 0.1360836
-0.12871656 -0.10012263 0.22212267
-0.13949355 -1.2343056 -0.54965115
-0.13507555 0.011247396 0.16732979
-0.13451356 -0.067388594 0.2052207
-0.13768156 0.37569338 -0.0083193779
-0.14779955 -1.0297086 -0.28641129
-0.13887355 -0.22866464 0.28181171
-0.14594755 -0.033404589 0.18657064
-0.15879455 -1.2996547 -0.58820629
-0.14438455 -0.2288506 0.28077745
-0.15695255 0.60912138 -0.12440443
-0.16047055 0.34280539 0.0028429031
-0.16242655 -0.068184614 0.19992352
-0.16731955 -0.14009261 0.23346567
-0.16447355 -0.43393457 0.37522364
-0.17471355 0.041230381 0.14484978
-0.17395055 -0.034178615 0.18124056
-0.17775856 0.34253937 -0.00054931641
-0.17808856 0.37511939 -0.016272545
-0.17849855 0.41573539 -0.035871506
-0.18147355 0.14762539 0.092349529
-0.17635855 -0.55999362 0.32679462
-0.18965155 0.37495238 -0.018546104
-0.19961455 -1.2614207 -0.4575901
-0.18250255 -0.2777406 0.29650593
-0.19001356 -0.10195065 0.2105279
-0.19092156 -0.49837661 0.4008007
-0.19961356 -0.23074758 0.27044153
-0.20514755 -0.23094261 0.2694087
-0.21470456 0.0764094 0.11980152
-0.21279556 -0.069660604 0.19037962
-0.21913455 0.41519737 -0.043888092
-0.22244956 -1.0586256 -0.16639519
-0.20938255 -0.33072066 0.31648779
-0.21068455 -0.23113763 0.26837492
-0.20718156 -0.49909365 0.39783478
-0.22037356 0.076267362 0.11871481
-0.22287555 0.26156336 0.029171467
-0.22663955 0.11883038 0.096988678
-0.23179555 0.4891544 -0.082001209
-0.23898956 -1.2246587 -0.33174229
-0.22248055 -0.17993861 0.24137974
-0.23075356 0.0087023973 0.14906693
-0.23397255 0.23308736 0.040593624
-0.23552956 0.34162837 -0.011877537
-0.24190256 -1.1422466 -0.22660732
-0.22730456 -0.2317276 0.26527357
-0.23971556 0.2329734 0.039478779
-0.24013256 0.26123941 0.025812626
-0.23070055 -0.37732959 0.33453989
-0.23137656 -0.33157766 0.31241846
-0.24928656 -1.0358276 -0.083336353
-0.24818756 0.039315403 0.13080692
-0.24646856 -0.070676625 0.18400955
-0.24074456 -0.43714356 0.36123371
-0.25192454 -0.9495306 0.015098572
-0.25385454 0.039164364 0.1297245
-0.24420656 -0.5990206 0.42055988
-0.25952256 0.039012372 0.12864351
-0.26082456 0.1180144 0.090418816
-0.26195255 0.1864804 0.057290554
-0.26317656 0.26080036 0.021330833
-0.26450056 0.34115839 -0.017551422
-0.25606856 -0.50129962 0.3889389
-0.27718854 0.074822366 0.10783958
-0.26961455 -0.73111856 0.31440163
-0.26576856 -0.6372726 0.41927481
-0.28165755 0.007281363 0.13938284
-0.28771955 0.34077638 -0.02209425
-0.27355355 -0.43857563 0.35524082
-0.28732353 0.0071203709 0.13830662
-0.28451455 -0.14390659 0.21144867
-0.28195554 -0.2814666 0.27804279
-0.29358655 0.038085401 0.12215185
-0.29011953 -0.14409661 0.21039867
-0.30081055 0.1170364 0.082744598
-0.29712754 -0.072247624 0.17444563
-0.29114354 -0.37984765 0.32344055
-0.28875056 -0.5028156 0.38301182
-0.31097654 0.34038737 -0.02664423
-0.31516054 0.25978839 0.011230469
-0.32178253 0.29981238 -0.0093493462
-0.30970854 -0.54510558 0.39906263
-0.31604454 -0.50410557 0.37807274
-0.34090954 0.11603236 0.075062752
-0.33503455 -0.14564264 0.20199585
-0.32484853 -0.59940863 0.42206955
-0.34418955 -0.23605967 0.24356985
-0.35976154 0.18428636 0.038426876
-0.34631553 -0.38223267 0.31335163
-0.34202254 -0.78385866 0.40113068
-0.34740555 -0.33630967 0.29106474
-0.36665353 0.23035038 0.014890671
-0.36831054 0.2989434 -0.018407345
-0.35184553 -0.38247657 0.31234169
-0.34429055 -0.69510257 0.46408892
-0.34575555 -0.63447165 0.43465853
-0.36690754 0.0047963858 0.12321568
-0.36767453 0.036002398 0.1080637
-0.36142054 -0.44256461 0.33926392
-0.38338554 -1.0383756 -0.086970329
-0.36103454 -0.86187959 0.34673977
-0.38003454 0.072071373 0.088217735
-0.38112754 0.11499941 0.067367554
-0.39059353 0.25826037 -0.0033965111
-0.38073555 -0.33773267 0.28496647
-0.37288955 -0.63593459 0.42983675
-0.40023953 0.18334037 0.030638695
-0.39332154 -0.075369596 0.15635777
-0.37923256 -0.60225761 0.41236448
-0.38066554 -0.54866457 0.38632154
-0.40468255 -0.075750589 0.15422583
-0.39616153 -0.38445961 0.30427074
-0.41762355 0.18292737 0.027297497
-0.41892153 0.22921139 0.0047926903
-0.39293355 -0.69785464 0.45550585
-0.39463553 -0.63712561 0.42598057
-0.39709154 -0.5495106 0.3833847
-0.41006154 -0.28662658 0.25445366
-0.40374956 -0.50840664 0.36227846
-0.42078453 -0.10953462 0.16717958
-0.42804554 0.1417554 0.044956684
-0.42922753 0.18264836 0.025066853
-0.41704455 -0.23892462 0.23011684
-0.41854554 -0.18699664 0.20485878
-0.42976356 0.0028814077 0.11133575
-0.43383253 0.1416074 0.043849468
-0.42845055 -0.041899621 0.13311958
-0.41837555 -0.38547266 0.30023766
-0.41354054 -0.55036664 0.38044548
-0.43750855 0.070459366 0.077287674
-0.42769253 -0.44572067 0.32728386
-0.44695956 0.0023453832 0.10809278
-0.43647054 -0.34017766 0.27480078
-0.44919553 -0.11054361 0.16187859
-0.45022753 -0.077302635 0.14569664
-0.44062653 -0.38650167 0.29620457
-0.43277854 -0.63925159 0.41923475
-0.45843455 0.0019843578 0.10592747
-0.45365053 -0.14993662 0.17990065
-0.44099855 -0.55181468 0.37554884
-0.44911054 -0.64000964 0.41706657
-0.45569253 -0.60626364 0.39951181
-0.45881253 -0.51107359 0.35314083
-0.45587054 -0.76620758 0.47632456
-0.47002554 -0.34168756 0.26869869
-0.49399155 0.032235384 0.084151745
-0.48820153 -0.44722557 0.32381678
-0.48193154 -0.64189661 0.41128874
-0.49777853 -0.19009364 0.19020987
-0.51260757 0.068272412 0.063044548
-0.51709157 0.031517386 0.079791546
-0.48838654 -0.76825166 0.47068453
-0.50554758 -0.29073763 0.23698854
-0.50489956 -0.44812167 0.32056046
-0.50306553 -0.51340461 0.3452487
-0.51490253 -0.34375358 0.26055861
-0.54483354 -0.00080561638 0.089673519
-0.52947456 -0.38943863 0.2870245
-0.51801056 -0.70513558 0.43432665
-0.56994057 -0.93130767 -0.15695429
-0.55639958 -0.0011886358 0.08750248
-0.53132159 -0.64480257 0.40262651
-0.54232258 -0.64546061 0.40070391
-0.56399059 -0.24508262 0.20314789
-0.57336354 -0.15457261 0.1577487
-0.58252156 -0.3469646 0.24833059
-0.57478356 -0.51602256 0.33859968
-0.60857755 -0.0029476285 0.077721596
-0.59948659 -0.34778857 0.24527168
-0.60257757 -0.39325058 0.27303171
-0.63563156 -0.049082637 0.094380856
-0.61684555 -0.45433056 0.2988286
-0.63833058 -0.11767763 0.12678957
-0.61896259 -0.64854765 0.39423084
-0.64806056 -0.15761662 0.14399862
-0.64627057 -0.1962676 0.16293669
-0.63559657 -0.64965165 0.39109182
-0.66443157 -0.29807162 0.20815468
-0.65873259 -0.52105963 0.32249069
-0.67047256 -0.39691865 0.26009274
-0.67323458 -0.45758963 0.28794765
-0.69426155 -0.15955764 0.1355238
-0.68468159 -0.56446064 0.33816767
-0.69122458 -0.6534096 0.38062668
-0.69591159 -0.56518066 0.33603668
-0.70376456 -0.52384567 0.31389189
-0.72424155 -0.25236559 0.17401266
-0.72743756 -0.30114758 0.19680071
-0.75887054 -0.25401664 0.16775274
-0.76195055 -0.30287266 0.19060087
-0.8000896 -0.53000259 0.29559565
-0.82805854 -0.35959661 0.20439482
-0.83130056 -0.30642366 0.17818546
-0.84538954 -0.36054456 0.20131969
-0.8457256 -0.53301263 0.28697348
-0.87969559 -0.62851465 0.066870689
-0.88287157 -0.4096756 0.21729469
-0.95974755 -0.47549963 0.23326874
