# .PCD v0.7 - Point Cloud Data file format
VERSION 0.7
FIELDS x y z
SIZE 4 4 4
TYPE F F F
COUNT 1 1 1
WIDTH 1
HEIGHT 512
VIEWPOINT 0 0 0 1 0 0 0
POINTS 512
DATA ascii
0.4926267 -0.67756855 0.34871387
0.50808471 -0.44357955 0.065407276
0.50159371 -0.44161558 0.074216843
0.48866472 -0.43770552 0.091769218
0.48100471 -0.37420559 0.034921169
0.44672671 -0.73752654 0.36562109
0.4374547 -0.65807557 0.42052984
0.43611872 -0.59862459 0.3574419
0.44313672 -0.51328158 0.25177813
0.42537072 -0.65381753 0.43627024
0.42391771 -0.59448159 0.37350893
0.4282617 -0.54004252 0.30633307
0.4580617 -0.16660762 -0.15448284
0.4313567 -0.42041862 0.16961908
0.43398571 -0.30338252 0.036539078
0.40735972 -0.64747655 0.45974112
0.42213571 -0.4565326 0.22489786
0.43089372 -0.25803554 -0.008079052
0.4122057 -0.5033716 0.29316187
0.40161172 -0.81720459 0.28196716
0.3902097 -0.73301256 0.37888288
0.3876937 -0.58220553 0.42123413
0.3938427 -0.49749959 0.31773996
0.3981227 -0.35033357 0.14875317
0.4120447 -0.1553576 -0.089079857
0.39882171 -0.24952257 0.036767006
0.38168171 -0.49361455 0.33402205
0.4253327 0.22830641 -0.53323507
0.38563171 -0.34674859 0.16592026
0.36979371 -0.57615161 0.44483185
0.40338171 0.0082774162 -0.25429583
0.37302172 -0.81487358 0.28872919
0.3695837 -0.4897536 0.35022497
0.37287071 -0.44132161 0.29143715
0.40413371 0.1205554 -0.37897587
0.40660572 0.1576184 -0.42389011
0.3579357 -0.57214558 0.46046829
0.37065172 -0.28597653 0.1244421
0.35203069 -0.57015252 0.468256
0.3814007 -0.020315588 -0.18572092
0.3608487 -0.33964455 0.19999695
0.3644127 -0.28426552 0.13310528
0.3765367 -0.095881581 -0.094443798
0.37051371 0.12674642 -0.32896185
0.3771677 0.23602241 -0.4603157
0.38267171 0.32641643 -0.56897306
0.39185071 0.47715843 -0.75017214
0.35141671 -0.18686855 0.048016071
0.3619757 0.096626401 -0.28142786
0.35720271 0.12919343 -0.30915499
0.35935572 0.16593242 -0.35317516
0.36191371 0.20959443 -0.40548992
0.3484827 0.2118234 -0.38524199
0.36359772 0.48018542 -0.70575094
0.32111272 -0.90418851 0.19514799
0.31159469 -0.72704363 0.3969779
0.3289417 -0.13513255 0.029132843
0.33513272 0.21403742 -0.36511183
0.3415187 0.33217543 -0.50575495
0.29379871 -0.55054462 0.5451169
0.3299897 0.24355441 -0.38886595
0.29087871 -0.49531662 0.48934889
0.33795372 0.52691942 -0.71377707
0.2980327 -0.90232956 0.20058107
0.30396572 -0.12907755 0.064688206
0.3112087 0.13763142 -0.24070072
0.31880072 0.2873854 -0.41812992
0.2880677 -0.31885958 0.30015087
0.27919072 -0.6333946 0.5076251
0.31929871 0.57456243 -0.73461294
0.30777872 0.33688444 -0.45390892
0.26821971 -0.63265157 0.51004791
0.2652317 -0.5409596 0.58286095
0.28086671 -0.21838653 0.20188808
0.2832287 -0.16964853 0.14432621
0.29031271 0.11026144 -0.17530298
0.29349571 0.17747444 -0.25455809
0.27281171 -0.25924754 0.26041126
0.27925971 -0.12310052 0.099870205
0.27709171 -0.035893559 0.0076851845
0.27257171 0.0030674338 -0.027501106
0.2740207 0.035160422 -0.065227032
0.29640871 0.53095245 -0.647995
0.25841573 -0.31042552 0.34099197
0.26467571 -0.033133626 0.025631905
0.25849372 -0.03175962 0.034570217
0.2629227 0.071338415 -0.086234093
0.28615171 0.61197543 -0.71971416
0.27453172 0.34151345 -0.40280581
0.27578571 0.37071943 -0.43702793
0.24899772 -0.25277257 0.29354191
0.24057472 -0.4488126 0.5232501
0.25215372 0.11749244 -0.11876106
0.26255471 0.37247241 -0.41659212
0.23682572 -0.80445457 0.32016706
0.22798572 -0.47500563 0.57331419
0.23113172 -0.39788163 0.48322821
0.24214773 0.1864354 -0.17762613
0.24827872 0.34516144 -0.36244678
0.21512072 -0.52716756 0.63707304
0.23252772 -0.062595606 0.11234617
0.21971172 -0.39440358 0.49870491
0.21754472 -0.29883456 0.39732409
0.21351773 -0.62904859 0.522017
0.20976472 -0.52684462 0.6382122
0.21402073 -0.39267159 0.50641823
0.24216773 0.5362004 -0.56209183
0.20806172 -0.62869859 0.52320004
0.20554373 -0.46778452 0.60330296
0.20968573 -0.35424757 0.47151184
0.23995273 0.66320443 -0.69794083
0.20791273 -0.24163258 0.35072708
0.19906072 -0.52620351 0.64048195
0.20268673 -0.38922453 0.52178431
0.21462873 0.12458241 -0.063132763
0.23034772 0.58228147 -0.5927639
0.20354472 -0.19813156 0.31029701
0.20287472 -0.96882463 0.13906527
0.19930473 -0.14857852 0.26300097
0.20086272 0.083669424 0.0050992966
0.19177972 -0.80125952 0.3302803
0.19157772 -0.016932547 0.1313653
0.21030672 0.58401346 -0.56079769
0.20758872 0.49679044 -0.46033478
0.18361673 -0.71811354 0.42554617
0.18865472 0.086087406 0.02307415
0.19753772 0.38106543 -0.316154
0.19877173 0.42204541 -0.36328173
0.17740472 -0.28748858 0.45269012
0.18027872 -0.19206154 0.34294796
0.16766073 -0.4258666 0.62125206
0.17558472 0.055444419 0.078843117
0.18590072 0.42362344 -0.34326315
0.16214772 -0.42413759 0.62866926
0.17266272 -0.048867583 0.19843292
0.16773072 -0.01166755 0.16588116
0.16370973 -0.79933357 0.33650923
0.17010672 0.30957544 -0.1912179
0.17204872 0.38442242 -0.27676582
0.18231472 0.7473284 -0.72917509
0.15478672 -0.28111255 0.48390818
0.15725172 -0.18606555 0.37527418
0.16112073 0.20050442 -0.05614996
0.15842073 0.092066407 0.067597866
0.16500972 0.35668445 -0.23438072
0.17357872 0.70080143 -0.62708807
0.16860172 0.5009104 -0.39897299
0.14916772 -0.27952957 0.49166489
0.15049772 -0.2261256 0.43072128
0.15416472 0.16622543 -0.0067181587
0.15763073 0.31142545 -0.17216587
0.14810473 0.16732144 0.0023188591
0.15955472 0.66869044 -0.56809378
0.14013572 -0.18161559 0.39931202
0.13427472 -0.44668055 0.69126225
0.15370072 0.70200741 -0.59482002
0.13933173 -0.96410155 0.1535759
0.12909871 -0.44777453 0.68650389
0.13243172 -0.0038935542 0.21699429
0.13999972 0.36013043 -0.19590092
0.14913173 0.78481245 -0.69416189
0.12501372 -0.36689055 0.62173128
0.12794372 0.065203428 0.148633
0.13596272 0.47082341 -0.31074095
0.12108172 -0.62335455 0.54179621
0.13251571 0.6240834 -0.47336578
0.11751772 -0.17574751 0.43108511
0.12061172 0.31690544 -0.1156249
0.12192672 0.39100444 -0.1992898
0.11209372 0.17382544 0.056032181
0.11337672 0.25049341 -0.030401707
0.11383172 0.27773643 -0.061115742
0.11964172 0.62509143 -0.45271778
0.11526673 0.36353141 -0.15783978
0.11835472 0.54810143 -0.36592007
0.10775072 -0.79563951 0.34876108
0.10483672 -0.62240458 0.54521322
0.11136772 0.50693744 -0.30886984
0.10213272 -0.080589533 0.35249805
0.10288172 -0.032952547 0.2988739
0.10073473 0.21093041 0.034448147
0.10300472 0.36521542 -0.13896608
0.10752172 0.67222345 -0.48403788
0.10869672 0.75205541 -0.57376671
0.10509972 0.50759542 -0.29899788
0.10571273 0.54930943 -0.34588385
0.094387725 -0.27379954 0.51925707
0.094304726 0.17703146 0.082572937
0.098846726 0.50825244 -0.28915215
0.099417724 0.54991144 -0.33590698
0.090809725 -0.077893615 0.36867285
0.084142722 -0.21895754 0.46728706
0.081301726 0.074720442 0.21700096
0.087780721 0.62758243 -0.40160704
0.085064724 0.39582843 -0.14229298
0.077524722 -0.37640262 0.57767916
0.076659724 0.1802054 0.10890627
0.074933723 0.0069814324 0.28872013
0.077734724 0.78529644 -0.675982
0.067008719 -0.62025559 0.55309916
0.06850072 -0.1274966 0.38216829
0.065275721 0.21702844 0.087672234
0.067209721 0.43810141 -0.15858078
0.058390722 0.042727411 0.2442193
0.060258724 0.32580441 -0.023405075
0.055477723 -0.52038956 0.66140795
0.057240725 -0.17965055 0.40896893
0.055352718 0.47988844 -0.1844697
0.05175972 -0.18059254 0.40376997
0.050848722 -0.38177657 0.5529561
0.047825724 0.21861941 0.1015501
0.049953721 0.59778047 -0.30492115
0.045876719 -0.28284454 0.47375488
0.043773722 0.59830743 -0.29505587
0.044697724 0.78957444 -0.50684309
0.043366723 0.5140624 -0.20177412
0.040495723 -0.70929956 0.45616102
0.037612721 0.59883243 -0.28522301
0.036853723 0.40211445 -0.067723751
0.038350724 0.78983843 -0.49640512
0.035711721 -0.88361955 0.25959301
0.03437572 -0.52509356 0.64218903
0.030180721 0.038808405 0.2167592
0.031469721 0.59935546 -0.27541399
0.031226721 0.51532942 -0.18264914
0.029934721 -0.087395549 0.31069708
0.024887722 0.32762742 -0.0045261383
0.02555472 0.70973742 -0.38673973
0.023775721 -0.52746153 0.63253927
0.018974721 0.25819343 0.040933132
0.01883072 0.037227452 0.20571423
0.019339722 0.71011043 -0.37664509
0.019121721 0.48394242 -0.12769413
0.018553721 -0.38831258 0.52305031
0.018579721 -0.34889853 0.49365807
0.013139721 0.21471143 0.067103863
0.013139721 0.32649744 -0.016335011
0.013139721 0.60091543 -0.24615097
0.013139721 0.48352644 -0.13354301
0.013139721 -0.23163652 0.40027094
0.013139721 -0.78984559 0.36896229
0.013139721 -0.44034553 0.55605793
0.013139721 -0.039433599 0.2568059
0.0073687211 0.14676446 0.11160517
0.0069157211 0.75709641 -0.40729094
0.0017827209 -0.0036055446 0.21783018
0.00099272095 0.60152543 -0.23470116
0.00070872158 0.75740242 -0.39713812
0.0021577217 -0.29105353 0.43279219
0.0023907209 -0.61677754 0.56635284
0.0022887215 -0.39161658 0.50799513
-0.0039112791 -0.0044345856 0.21231508
-0.0047032796 0.4001984 -0.090569019
-0.0052562784 0.67983246 -0.30179691
-0.0037652794 -0.88119256 0.26803207
-0.0036462788 -0.13939154 0.3133359
-0.0029862784 -0.47601056 0.56530905
-0.0031502787 -0.39272261 0.50296307
-0.0032272786 -0.35320163 0.47338009
-0.010184279 0.21207243 0.043951035
-0.0098012779 0.065993428 0.15339994
-0.011491278 0.71181345 -0.3304677
-0.011653278 0.75801146 -0.37691593
-0.0088622794 -0.29313052 0.42247295
-0.016560279 0.3703804 -0.081080914
-0.014385279 -0.29417253 0.41730309
-0.015387278 -0.95373356 0.18762207
-0.021763278 0.17433542 0.059647083
-0.022185279 0.28189844 -0.021095753
-0.019621277 -0.70597053 0.46859884
-0.01896728 -0.53704953 0.59365797
-0.020519277 -0.14219153 0.29725218
-0.019320277 -0.44719958 0.52620888
-0.027782278 0.21007544 0.026486874
-0.02678228 -0.0077705979 0.19016886
-0.03008228 0.71109045 -0.34996271
-0.025458278 -0.2962656 0.40693712
-0.026278278 -0.87985456 0.27279329
-0.025075277 -0.70567954 0.46971416
-0.026609277 -0.045447588 0.21847916
-0.03426028 0.32191843 -0.063973904
-0.034506276 0.36876845 -0.099207878
-0.036302276 0.71084845 -0.35648298
-0.036547281 0.75756443 -0.39161587
-0.031009277 -0.2973156 0.40174198
-0.038506277 0.029200435 0.14994526
-0.038701281 0.062081456 0.12519312
-0.04234428 0.67828941 -0.33868599
-0.036705278 -0.78702152 0.37934494
-0.045475282 0.20806342 0.0089302063
-0.044294275 0.028386414 0.1443181
-0.044510275 0.061293423 0.119524
-0.043142281 -0.87887359 0.27633524
-0.043148279 -0.14595652 0.27568913
-0.049811274 -0.011139572 0.16788006
-0.05057928 0.094917417 0.087889194
-0.052760273 0.39608741 -0.13926172
-0.055033274 0.71011841 -0.37611294
-0.053907275 0.55453646 -0.25876999
-0.048135281 -0.2426846 0.3425169
-0.049552277 -0.95166159 0.19489288
-0.048759282 -0.8785516 0.27751017
-0.046984278 -0.4016726 0.46242905
-0.056160279 0.059710443 0.10815716
-0.056432277 0.094151437 0.082156181
-0.061062276 -0.050686598 0.18528128
-0.05803328 -0.40393758 0.45221901
-0.067188278 -0.013689578 0.1510663
-0.072835274 0.59742439 -0.3111701
-0.073143274 0.63073146 -0.33636093
-0.071725279 0.47730643 -0.22031498
-0.074304275 0.75635344 -0.4313798
-0.074497275 0.13663143 0.03098917
-0.075602278 0.24805743 -0.053371906
-0.080638275 0.75615042 -0.43805075
-0.067711279 -0.54806054 0.54937124
-0.082840279 0.36440843 -0.14801598
-0.086141273 0.67636645 -0.38442516
-0.074128278 -0.45884657 0.47586823
-0.085463278 0.055718422 0.079574108
-0.091547281 0.5963794 -0.33054495
-0.091923274 0.6297754 -0.35587692
-0.088930279 0.36385643 -0.15416288
-0.080238275 -0.40850055 0.43170691
-0.088028274 -0.87635553 0.28565598
-0.084119275 -0.55178356 0.53447914
-0.088256277 -0.20490861 0.27110529
-0.093980275 -0.20591259 0.26568794
-0.10422628 0.13292444 0.0017352104
-0.11036628 0.59532547 -0.35002899
-0.095808275 -0.70207357 0.48399496
-0.10170528 -0.056898594 0.1461401
-0.10482828 -0.87544751 0.28910589
-0.10060528 -0.55553353 0.51952028
-0.10755228 -0.057794571 0.14051104
-0.11783227 0.24349046 -0.095449924
-0.12346227 0.62816441 -0.3886447
-0.12715527 0.78766942 -0.58096886
-0.10969928 -0.31229258 0.32816219
-0.12219128 0.13067645 -0.015937805
-0.12498428 0.31307346 -0.15509272
-0.12150028 0.085601449 0.018452168
-0.11070028 -0.61963856 0.5564971
-0.11697428 -0.20995557 0.24393892
-0.11776328 -0.15845752 0.20464993
-0.12870528 0.16152442 -0.04598093
-0.11810628 -0.50108159 0.46002388
-0.11862928 -0.4683696 0.43504429
-0.12432928 -0.11203957 0.16292906
-0.13474728 0.16079545 -0.051942825
-0.13536428 0.19776642 -0.080205917
-0.14252628 0.62718844 -0.40845299
-0.13806027 0.35939342 -0.20375013
-0.13854827 0.38868344 -0.22614002
-0.13994227 0.47225744 -0.29002285
-0.14548327 0.42977643 -0.26428175
-0.14621228 0.47179145 -0.29642916
-0.13353728 -0.25824356 0.26214218
-0.13074727 -0.41893256 0.38508892
-0.14353928 -0.024963558 0.077241898
-0.15759228 0.75366342 -0.51908684
-0.13377628 -0.70026457 0.49151707
-0.14191628 -0.11488259 0.14610815
-0.16170128 0.62620342 -0.42837191
-0.14397128 -0.87340462 0.2970643
-0.13823628 -0.62618661 0.53172302
-0.14593928 -0.2150656 0.21655416
-0.16197027 0.30943841 -0.19221687
-0.14974427 -0.31997752 0.29076624
-0.14674428 -0.47441757 0.40927505
-0.14853528 -0.38221955 0.3385272
-0.16140628 -0.027617574 0.059978962
-0.17548628 0.67241043 -0.47770977
-0.15055928 -0.56695056 0.47423506
-0.16063528 -0.065966606 0.08943224
-0.16738528 -0.02850759 0.054203033
-0.18098527 0.62521142 -0.44840193
-0.16550827 -0.11870551 0.12355089
-0.18670927 0.5910244 -0.42904997
-0.18743728 0.62487841 -0.45510292
-0.17937128 -0.030292511 0.04262495
-0.18098828 0.042595446 -0.013523102
-0.19769327 0.23478544 -0.17497206
-0.19139928 -0.032087564 0.031009197
-0.19394828 0.075995445 -0.052412987
-0.18926628 -0.12256753 0.10084295
-0.21832828 0.78612643 -0.63976669
-0.18860728 -0.87119961 0.30599594
-0.19407228 -0.17137253 0.13209629
-0.20347327 -0.033891559 0.019350052
-0.21192528 0.30450141 -0.24234009
-0.21791327 0.54422843 -0.42772913
-0.19417828 -0.87093353 0.30710125
-0.21430027 0.15114242 -0.13042593
-0.19929428 -0.4332056 0.32191086
-0.21663228 0.0038654208 -0.023005962
-0.21844828 0.072727442 -0.076363087
-0.20613928 -0.39388454 0.2851882
-0.22772227 0.18706346 -0.17169571
-0.23525327 0.4651314 -0.38736582
-0.21790427 -0.17543256 0.10945702
-0.22978728 0.035830438 -0.06103611
-0.23852329 0.35018045 -0.30508614
-0.21263927 -0.58124959 0.41804123
-0.22243728 -0.22865558 0.14430094
-0.21519628 -0.48923862 0.34660721
-0.23916028 0.14810646 -0.15493774
-0.22001928 -0.5236156 0.36707306
-0.24650027 0.18487245 -0.19028711
-0.24864326 0.25825244 -0.24736786
-0.25216228 0.37875545 -0.34110498
-0.23302327 -0.27659357 0.1686821
-0.26482028 0.58658445 -0.50987005
-0.2576963 0.34840941 -0.32441473
-0.2718443 0.74832141 -0.69269609
-0.26216829 0.49790543 -0.44082069
-0.22918528 -0.77761054 0.41775227
-0.22631328 -0.70076454 0.49252224
-0.2534183 -0.0014385581 -0.05866909
-0.24310927 -0.33805358 0.20369387
-0.23358628 -0.64905262 0.44608927
-0.2676903 0.25623345 -0.26637697
-0.2860873 0.84336942 -0.72443485
-0.29108331 0.74845541 -0.68750381
-0.24327727 -0.70499551 0.47740602
-0.27423328 0.06524843 -0.13086891
-0.25468728 -0.53135061 0.33550501
-0.28587028 0.22507542 -0.26270199
-0.2868453 0.25419742 -0.28548908
-0.3006593 0.6667974 -0.60834599
-0.29638728 0.53922343 -0.50852013
-0.25463629 -0.70783353 0.46729088
-0.30456629 0.58430946 -0.550982
-0.30151629 0.49513444 -0.48113489
-0.26926628 -0.44790959 0.25751829
-0.2906073 -0.0068265796 -0.094707966
-0.29303628 0.062716424 -0.14923191
-0.31243828 0.61838639 -0.5848999
-0.31697929 0.74844146 -0.68685198
-0.30964428 0.53837347 -0.52216387
-0.26603028 -0.71068561 0.45714712
-0.30212429 0.14037645 -0.21698713
-0.31791729 0.58354247 -0.56479216
-0.27174228 -0.7121166 0.45206308
-0.27588329 -0.59593761 0.36088324
-0.2940293 -0.086746573 -0.03873682
-0.3084853 0.13959146 -0.22325516
-0.30642331 -0.088694572 -0.050632954
-0.29443631 -0.41193557 0.20355606
-0.3156313 -0.010464549 -0.11894512
-0.33804628 0.58238542 -0.58560896
-0.33170229 0.41458941 -0.45352793
-0.29096028 -0.66295254 0.39466715
-0.31263629 -0.089671612 -0.056594849
-0.3461163 0.61662245 -0.61985683
-0.3088313 -0.35090852 0.14249706
-0.29675129 -0.6643616 0.38947916
-0.3027623 -0.50839257 0.26658487
-0.3515313 0.58160841 -0.59955502
-0.34206629 0.34056944 -0.40944004
-0.30736628 -0.5431726 0.28758621
-0.31237429 -0.4156276 0.18698788
-0.33452129 -0.013217568 -0.13723707
-0.3373183 0.056731403 -0.19246101
-0.33134529 -0.092620611 -0.074546814
-0.33920228 -0.054359555 -0.11156893
-0.34369129 0.055867434 -0.19867992
-0.35523629 0.33933842 -0.42270803
-0.35646528 0.36952442 -0.44656277
-0.3632023 0.53492743 -0.57728004
-0.35980728 0.28971344 -0.39058971
-0.3718603 0.58043444 -0.62057495
-0.34387431 -0.094598532 -0.086565971
-0.35981229 0.13324344 -0.27380085
-0.36628228 0.13244045 -0.28017092
-0.36985829 0.21573246 -0.34619284
-0.37508428 0.33748043 -0.44269991
-0.37638429 0.36774844 -0.46669292
-0.34248731 -0.42184353 0.15919304
-0.3559843 -0.25269651 0.018399239
-0.35830328 -0.19959462 -0.023736954
-0.3444173 -0.5175786 0.22857523
-0.3467423 -0.46434355 0.18633318
-0.3897303 0.36655742 -0.48017788
-0.3935743 0.45311844 -0.54893112
-0.3574453 -0.3604846 0.097281933
-0.38577029 0.13001841 -0.29935408
-0.40939128 0.61184943 -0.71533394
-0.3548933 -0.55390453 0.24440384
-0.40312728 0.36535943 -0.49371481
-0.37705228 -0.20285153 -0.041500092
-0.36242729 -0.52156556 0.21215105
-0.4061273 0.28503042 -0.43698692
-0.41761628 0.53140545 -0.63326311
-0.41074029 0.24092543 -0.40903378
-0.4206953 0.45103943 -0.57659197
-0.4119283 0.12675941 -0.32509804
-0.41738829 0.24020743 -0.41565895
-0.41460228 0.046211421 -0.26785278
-0.44051731 0.57645243 -0.69155598
-0.4382503 0.53006446 -0.65448809
-0.4176133 -0.025401592 -0.21764183
-0.4307223 0.23876745 -0.42894697
-0.4353393 0.33181542 -0.5033741
-0.43900529 0.40569246 -0.56246614
-0.44515529 0.5296154 -0.66158772
-0.41097528 -0.15916359 -0.11064482
-0.4595083 0.40398043 -0.58327293
-0.46928129 0.32860845 -0.53753376
-0.4755933 0.4468134 -0.63256788
-0.48445928 0.48209244 -0.66844893
-0.48945829 0.44574243 -0.64669371
