# .PCD v0.7 - Point Cloud Data file format
VERSION 0.7
FIELDS x y z
SIZE 4 4 4
TYPE F F F
COUNT 1 1 1
WIDTH 1
HEIGHT 512
VIEWPOINT 0 0 0 1 0 0 0
POINTS 512
DATA ascii
0.5362832 -0.77144581 0.38472939
0.51877522 -0.76882273 0.39310932
0.4904862 -0.64434272 0.3224225
0.50332719 -0.50870675 0.15164137
0.47795722 -0.64006978 0.33889961
0.48588121 -0.55407971 0.23099232
0.4821462 -0.29832679 -0.0437994
0.46178919 -0.45650476 0.16446257
0.4652172 -0.33871478 0.029202461
0.4453952 -0.57276672 0.3199544
0.44175521 -0.53989774 0.28997946
0.43551922 -0.53789777 0.29831743
0.44925719 -0.28956181 0.0021471977
0.4575142 -0.1026327 -0.21726465
0.45076722 -0.10111278 -0.20753479
0.45382121 -0.06224376 -0.25541878
0.43279719 -0.32977074 0.074159145
0.4496122 -0.027602732 -0.28637981
0.4220342 -0.38401479 0.15197134
0.44112322 -0.13731879 -0.15144062
0.43733621 -0.098086774 -0.18816185
0.41345721 -0.053500712 -0.19681168
0.39758322 -0.27583081 0.074385166
0.40802419 -0.12959677 -0.1039896
0.40679821 -0.052060723 -0.18714046
0.4115372 0.015430272 -0.2693305
0.40242821 -0.017730772 -0.21749067
0.36217621 -0.60076779 0.49137115
0.40115321 0.063070238 -0.30414438
0.40581721 0.13179827 -0.38756847
0.35420021 -0.66382974 0.53565931
0.39972919 0.24944323 -0.50658655
0.40487021 0.32789028 -0.6014986
0.36303422 -0.31059271 0.17098141
0.34794119 -0.54093081 0.44965935
0.38301021 0.098428249 -0.3123455
0.3758902 -0.012192726 -0.17872667
0.3781012 0.022156239 -0.22021866
0.39783922 0.32883126 -0.5906496
0.33762622 -0.66263074 0.53940725
0.3627542 -0.21628779 0.067799568
0.37429821 0.068204224 -0.26440382
0.39082921 0.32976824 -0.57983351
0.35641921 -0.2146818 0.076740265
0.35930821 -0.1689778 0.021623611
0.37899122 0.25257123 -0.47497749
0.3891612 0.41649824 -0.67234373
0.3265892 -0.66184181 0.54189348
0.3560302 -0.1175037 -0.029412746
0.35187221 -0.078898728 -0.064818382
0.36275122 0.21249324 -0.40348053
0.36814421 0.30276924 -0.51181984
0.37246221 0.37504327 -0.59855652
0.32077619 -0.75290471 0.43968439
0.32299522 -0.45293576 0.39509916
0.35173821 0.14131624 -0.30663586
0.32836619 -0.25751776 0.17123222
0.33259121 -0.074585736 -0.036973476
0.33860621 0.030082226 -0.16218185
0.31321022 -0.41189677 0.36652946
0.3424722 0.21573228 -0.37276983
0.34070921 0.30660725 -0.46967363
0.34897122 0.45631826 -0.64818859
0.30748519 -0.29539281 0.2481513
0.3077212 -0.9283368 0.24305058
0.3313162 0.25974625 -0.40229464
0.3419832 0.45706624 -0.63720179
0.2880502 -0.65913981 0.55051041
0.33317021 0.42292124 -0.58477783
0.28255519 -0.6587618 0.55173159
0.2975812 -0.2494027 0.21434021
0.2873852 -0.44201273 0.44327354
0.30081421 -0.067490757 0.00893116
0.32806921 0.45855224 -0.61531973
0.33033621 0.50230324 -0.66723776
0.2815032 -0.44021076 0.45123529
0.30543721 0.14943624 -0.23731279
0.31118321 0.26276922 -0.37159061
0.27157322 -0.65801078 0.55416441
0.27563721 -0.43841475 0.45917416
0.29709619 0.11420423 -0.18449259
0.29009819 -0.026934743 -0.01753664
0.26608619 -0.65763777 0.55537844
0.28534821 0.0066232681 -0.046392441
0.27561119 -0.19426471 0.19086552
0.28415921 0.11657125 -0.1652317
0.27749121 -0.024232745 0.00080156326
0.29486221 0.34256023 -0.43170738
0.30049521 0.46149525 -0.57195044
0.25587422 -0.4806698 0.53901815
0.26947421 -0.060509741 0.054224491
0.29205319 0.42762327 -0.52045441
0.25669721 -0.33671874 0.37940454
0.2729322 0.15512025 -0.18862581
0.29084221 0.55175924 -0.65484762
0.29240021 0.58626026 -0.69540071
0.28527221 0.42839825 -0.50984573
0.2570582 -0.057749808 0.072171211
0.26961821 0.22733223 -0.26239443
0.27481219 0.34522122 -0.40074778
0.25328922 -0.14328378 0.17255354
0.26311019 0.22836524 -0.25253153
0.26691422 0.31689727 -0.3562665
0.24720521 -0.14181477 0.18122339
0.23499422 -0.42599779 0.51421261
0.27163121 0.58790624 -0.66210842
0.24453622 0.092876256 -0.072221756
0.25014621 0.23042226 -0.23288155
0.25374821 0.31872725 -0.33602762
0.24532922 0.27262723 -0.27112961
0.23650722 0.050464272 -0.012035847
0.22718422 -0.92202979 0.26180553
0.22035722 -0.74571377 0.46230841
0.21925822 -0.3839528 0.49459457
0.23314223 0.12588423 -0.089245796
0.22775422 -0.013599753 0.073170185
0.24973021 0.55532724 -0.58928776
0.24500422 0.43298727 -0.44683552
0.21572222 -0.32509178 0.43587351
0.22491021 -0.087211788 0.15888548
0.22569422 0.096438229 -0.04429245
0.22819123 0.16292328 -0.12158775
0.21229622 -0.82785672 0.37051821
0.20925222 -0.74495572 0.46476841
0.21353622 -0.22734874 0.33213615
0.20463122 -0.46449679 0.6078434
0.21885023 -0.085819781 0.16759539
0.20640323 -0.41728777 0.55295753
0.23743322 0.59061122 -0.60728645
0.22870421 0.35132825 -0.32953262
0.20072922 -0.41556174 0.56064939
0.21557023 0.16511923 -0.10267067
0.22219422 0.35218924 -0.31947756
0.19499022 -0.6529668 0.57092047
0.20701122 0.099966228 -0.016593456
0.19448821 -0.26467675 0.4053545
0.19855322 -0.91988879 0.26835823
0.18609422 -0.55050176 0.68815231
0.20671622 0.27838522 -0.21219873
0.19008923 -0.2212227 0.36502934
0.19477922 -0.080294788 0.20220518
0.19902822 0.23851222 -0.15538168
0.20934922 0.55882227 -0.52488184
0.20268922 0.55939722 -0.51425838
0.19633822 0.35560322 -0.27952957
0.20129922 0.51479125 -0.46288061
0.18140721 -0.91863078 0.27225733
0.19342622 0.47286624 -0.40349674
0.17140321 -0.25843579 0.43751049
0.17266122 -0.21667773 0.38948727
0.17543522 -0.12454981 0.2835393
0.17812422 0.17162228 -0.046533585
0.17211422 -0.99168879 0.19092417
0.17194222 0.17269427 -0.03726244
0.16369322 -0.1217348 0.30029058
0.15424521 -0.2538057 0.46141958
0.15029421 -0.40025574 0.62906218
0.15514623 0.0018482208 0.1789012
0.17055422 0.59588325 -0.50004959
0.15326221 -0.070789754 0.26192522
0.15455022 0.21791023 -0.057566643
0.15080322 0.067450225 0.11413717
0.16203623 0.5185672 -0.40067577
0.14283521 -0.74057573 0.47930527
0.14839222 0.21891725 -0.048266411
0.15001322 0.28680927 -0.12562656
0.13821022 -0.2077108 0.4378562
0.14154223 -0.068112791 0.27879143
0.14379922 0.28773123 -0.11613655
0.13807222 0.036956251 0.16917038
0.15268922 0.67699027 -0.55900478
0.14909922 0.51980925 -0.38017654
0.13360322 -0.15869778 0.39177036
0.13065822 -0.029795766 0.2550683
0.14011322 0.40367824 -0.23734856
0.12628421 -0.73952574 0.48288155
0.12208621 -0.54681879 0.70155334
0.12841922 0.14488727 0.066856384
0.13002022 0.22191924 -0.020516396
0.12442021 -0.9145878 0.28505135
0.12407421 -0.064127743 0.30393314
0.11804621 -0.3540948 0.63282824
0.12097421 0.07333523 0.15808439
0.12673521 0.36475927 -0.17196083
0.11873521 -0.91419679 0.28631449
0.11346421 -0.64797074 0.58833551
0.11912121 0.29138327 -0.078445435
0.12638122 0.67858529 -0.51629353
0.12820822 0.72443527 -0.6264286
0.10628922 -0.44390172 0.69541359
0.10737421 -0.35466081 0.6299715
0.10802021 0.011826277 0.24758339
0.10512121 -0.15161473 0.43212223
0.11334421 0.67937326 -0.49512768
0.11003722 0.48166025 -0.27222872
0.097455211 -0.29643279 0.57582426
0.097219214 -0.64702076 0.59175253
0.099082209 0.18528724 0.072036266
0.10151021 0.33975923 -0.10185051
0.10375021 0.48232126 -0.26233053
0.092163213 0.12153524 0.15379715
0.095387213 0.34059924 -0.092426777
0.097482212 0.48297924 -0.25245857
0.087740213 -0.19773871 0.49169254
0.081413209 -0.29941171 0.56076956
0.082105212 0.25689727 0.02202034
0.086498216 0.60247123 -0.36523056
0.084574215 0.45113724 -0.19564676
0.074908212 0.15453523 0.14669037
0.072897211 -0.017118752 0.33875751
0.073322214 0.019147277 0.2981782
0.077916212 0.41125923 -0.14056253
0.068271212 0.083696246 0.23576832
0.073492214 0.57050228 -0.30811262
0.071363211 0.37200624 -0.086344719
0.067678213 -0.91077274 0.29755354
0.065775216 -0.73583072 0.49579144
0.064004213 -0.4846068 0.6802516
0.062903211 0.12699825 0.19724655
0.063191213 0.15664124 0.16417742
0.063530214 0.19140327 0.12539721
0.063932218 0.23268223 0.079349518
0.064195216 0.25969827 0.049210548
0.057010215 -0.98351079 0.21678352
0.053632215 -0.45486575 0.64688015
0.051535215 0.15873528 0.1815753
0.055605218 0.68285728 -0.40137339
0.057126217 0.76093924 -0.61928463
0.048583217 -0.40531272 0.60445452
0.041422214 0.41568923 -0.083752632
0.038259216 -0.30746073 0.52029419
0.037326217 -0.54735273 0.69835138
0.037673216 -0.45820671 0.63218451
0.034234215 0.12638223 0.19212532
0.033751216 -0.022478759 0.30272055
0.034679215 0.26388925 0.08997345
0.035948213 0.53061825 -0.20082474
0.033009216 -0.25132877 0.47274256
0.033741213 -0.90859181 0.30491638
0.033284213 -0.81610376 0.40963936
0.032335214 -0.45932573 0.62727022
0.032627214 -0.3692537 0.56035137
0.028796215 0.23543125 0.10487127
0.029995214 0.57421625 -0.2386837
0.030121215 0.60686624 -0.27478075
0.030297214 0.65231228 -0.32502747
0.029544214 0.45730925 -0.10942554
0.026758214 -0.54970974 0.68872833
0.021662215 -0.64281172 0.60741138
0.017078215 0.15522623 0.1521163
0.017330214 0.34947723 0.0073971748
0.016805215 -0.90753073 0.30855846
0.016603215 -0.20995277 0.42418623
0.011477215 0.41829425 -0.050270557
0.0055222148 0.15386027 0.14069128
0.0055222148 -0.31360275 0.48961735
0.0055222148 -0.64195579 0.61070633
0.0055222148 -0.06404978 0.3033452
-0.00032078521 0.23233223 0.075822353
0.00010121474 -0.41512877 0.5595603
-0.0059277858 0.042928219 0.21116018
-0.0068197851 0.68660629 -0.29999161
-0.012173787 0.30017525 0.012416363
-0.010865785 -0.73147172 0.51177549
-0.011454785 -0.066614807 0.28697157
-0.017801786 0.18745625 0.090490341
-0.019270785 0.73339522 -0.33037663
-0.019399786 0.76730424 -0.36742783
-0.016746785 -0.21572274 0.3925724
-0.016082786 -0.46952075 0.58272743
-0.016319785 -0.37889975 0.51482916
-0.022336787 -0.21669275 0.38727427
-0.029380785 0.14971924 0.10618639
-0.028948786 0.039818227 0.18868542
-0.030882785 0.53182328 -0.18064356
-0.027760787 -0.26224178 0.41543055
-0.028319785 -0.12004274 0.30868721
-0.036640786 0.45582825 -0.13012171
-0.038328785 0.82354826 -0.40640545
-0.032377783 -0.4729678 0.5677495
-0.042707782 0.45538324 -0.13632441
-0.043104783 0.53106523 -0.1932435
-0.049234785 0.53068423 -0.19956255
-0.042754784 -0.5653097 0.62549925
-0.043286785 -0.47527975 0.55772543
-0.051911782 0.0037702322 0.19085741
-0.049352784 -0.38544875 0.48413944
-0.059324782 0.22601426 0.016985416
-0.063238785 0.76670623 -0.3908205
-0.054488786 -0.72915179 0.52069044
-0.056076784 -0.2225638 0.35531425
-0.057155784 -0.073546708 0.24292231
-0.06955979 0.76653624 -0.39750147
-0.07398279 -0.1273337 0.26494551
-0.083219789 0.22344124 -0.0068325996
-0.080616787 -0.039159775 0.19198322
-0.081328787 0.032704234 0.1375742
-0.081671789 0.067227244 0.11143827
-0.07590279 -0.51479679 0.55209017
-0.076734789 -0.4308297 0.48851728
-0.088371791 0.14267522 0.047903538
-0.089519791 0.25111324 -0.034274578
-0.09120179 0.41013223 -0.15478277
-0.094600789 0.73132926 -0.39819479
-0.083365791 -0.33042675 0.40643358
-0.085585788 -0.97461575 0.24741125
-0.084434785 -0.90158874 0.32988119
-0.095230788 0.22214526 -0.018802643
-0.092270784 -0.040874779 0.18071127
-0.09003979 -0.90127879 0.33104038
-0.10073479 0.17800522 0.0082163811
-0.10125379 0.22149426 -0.024803638
-0.10208779 0.29144424 -0.077915668
-0.10349179 0.40914828 -0.16728449
-0.097660787 -0.079728782 0.20390844
-0.10531079 0.06412226 0.088292599
-0.11332979 0.22018725 -0.036834717
-0.10982879 -0.043462753 0.16373158
-0.10596079 -0.33473772 0.38531256
-0.10503579 -0.80841178 0.43829155
-0.10392278 -0.48820072 0.50205755
-0.10460879 -0.43656772 0.46277952
-0.11877479 0.17593527 -0.0096707344
-0.11428279 -0.72616273 0.53269625
-0.12102779 -0.08330971 0.18141127
-0.12980878 0.10606027 0.030601501
-0.12911779 0.060985267 0.064991474
-0.13742279 0.60322428 -0.34869671
-0.13505378 0.44857025 -0.23070765
-0.13581778 0.10530823 0.024692535
-0.13761277 0.21755427 -0.06102562
-0.14770378 0.76283622 -0.54276657
-0.14184678 0.48221126 -0.26313448
-0.14183778 0.10455322 0.018770218
-0.14236479 0.13617927 -0.0054035187
-0.14755978 0.44764125 -0.24348354
-0.14884079 0.52445829 -0.3022027
-0.13482378 -0.89888376 0.34020948
-0.15031578 0.24478322 -0.095033646
-0.15186878 0.33421224 -0.16345882
-0.15310077 0.40516025 -0.21774244
-0.14365979 -0.13854772 0.1982646
-0.15309478 0.057816267 0.041530609
-0.16291578 0.60191625 -0.37517977
-0.14587177 -0.34238476 0.34803247
-0.14867678 -0.18700272 0.22903061
-0.14402477 -0.44472176 0.42640829
-0.16868678 0.56785727 -0.35597372
-0.17081077 0.68125129 -0.44290352
-0.16640778 0.44623822 -0.26273966
-0.14585379 -0.65080279 0.57826233
-0.15541577 -0.14045078 0.18702126
-0.15638478 -0.08875078 0.14738941
-0.16514678 0.05621922 0.029741287
-0.17734279 0.36135727 -0.2111578
-0.18668479 0.76217824 -0.56790352
-0.16312177 -0.34570271 0.33192825
-0.16429979 -0.28710681 0.28692341
-0.18053678 0.21287924 -0.10377073
-0.17582078 -0.013804734 0.070512295
-0.18300179 0.33136725 -0.19486856
-0.18926178 0.33079427 -0.20118475
-0.19192378 0.16749424 -0.082159519
-0.19290078 0.21152824 -0.11607981
-0.19353779 0.24025327 -0.13820744
-0.19805679 0.44387627 -0.2950654
-0.20781977 0.72414523 -0.6339817
-0.17499478 -0.59542876 0.50554323
-0.19299778 -0.055805743 0.083361149
-0.20345378 0.40108722 -0.26893759
-0.18864678 -0.24589878 0.22993755
-0.18196078 -0.53809375 0.4552412
-0.21559578 0.64634526 -0.46508455
-0.18964279 -0.4542138 0.38435745
-0.22016478 0.56494427 -0.40924644
-0.21514077 0.35805625 -0.24940968
-0.19932078 -0.29355973 0.2540164
-0.19297978 -0.8041597 0.45578432
-0.20411378 -0.096134722 0.1014905
-0.22750378 0.59858626 -0.4422636
-0.20179579 -0.89554971 0.35364056
-0.21012779 -0.097067773 0.095709324
-0.20114678 -0.4566167 0.37375927
-0.22287679 0.16389924 -0.11281681
-0.23315679 0.56420624 -0.42268944
-0.23200078 0.51920128 -0.38785172
-0.20472078 -0.54313773 0.43449259
-0.23530978 0.39849722 -0.3013196
-0.23734277 0.47556424 -0.36103344
-0.21541078 -0.35580677 0.28314924
-0.21696678 -0.29682177 0.23744535
-0.20942378 -0.80341977 0.45899248
-0.24287078 0.44051522 -0.34082651
-0.24054578 0.12425226 -0.10225439
-0.2602008 0.72357023 -0.65135574
-0.22025678 -0.60586578 0.46458054
-0.23150578 -0.20106977 0.15031338
-0.24911077 0.20535922 -0.17202044
-0.25929379 0.56271827 -0.44973278
-0.2666238 0.72361523 -0.64962149
-0.24756877 -0.063975751 0.030679226
-0.2575008 0.27611423 -0.23387051
-0.24971478 0.0095002651 -0.026477814
-0.2738668 0.67276227 -0.66980076
-0.23891377 -0.3603707 0.26124144
-0.22984378 -0.67092878 0.50281858
-0.24350578 -0.2031197 0.13891745
-0.27488279 0.64368623 -0.52696276
-0.26874679 0.43856627 -0.36724377
-0.2794618 0.72370523 -0.64615679
-0.23393078 -0.72538072 0.53906155
-0.25096178 -0.15601975 0.095730305
-0.2752488 0.43807626 -0.37388182
-0.28525579 0.76056427 -0.62858438
-0.25072679 -0.36266977 0.25023317
-0.2659578 -0.066741765 0.012935162
-0.2753078 0.23161727 -0.21983767
-0.24774577 -0.80176276 0.46639442
-0.2507098 -0.55337578 0.39259958
-0.27931979 0.15730822 -0.16869354
-0.29225281 0.56083524 -0.48382759
-0.29335278 0.59516525 -0.51063871
-0.2869148 0.39428127 -0.35375547
-0.2907978 0.51545227 -0.44838667
-0.25756681 -0.52143079 0.36136818
-0.27827281 -0.06859678 0.001057148
-0.28946179 0.27292526 -0.26591682
-0.2973938 0.51503026 -0.45517683
-0.2664558 -0.4292497 0.28298759
-0.29589179 0.27228224 -0.27236271
-0.3082768 0.64218128 -0.56180668
-0.26225379 -0.73244971 0.51383018
-0.2906338 -0.070462763 -0.010865688
-0.30647179 0.39267623 -0.37362576
-0.32528979 0.67319727 -0.6558876
-0.2884948 -0.31012076 0.17032719
-0.27364779 -0.73530179 0.50368643
-0.27551079 -0.68196779 0.46186924
-0.3085888 0.08341527 -0.1450634
-0.2856158 -0.56118876 0.36083221
-0.3016468 -0.11136276 0.0078024864
-0.29014578 -0.43410569 0.26109457
-0.32614079 0.39105922 -0.39360476
-0.32897881 0.46911526 -0.45492363
-0.2859998 -0.80020469 0.47367334
-0.28702378 -0.68476075 0.4515543
-0.28930879 -0.62190872 0.40217733
-0.31549078 -0.07422179 -0.034833431
-0.30205381 -0.43655175 0.25009537
-0.3302958 0.15131724 -0.21912956
-0.34566379 0.55776924 -0.53906965
-0.33656681 0.31717724 -0.34968662
-0.35167581 0.63784122 -0.66422176
-0.29691979 -0.79977781 0.47573137
-0.33845279 0.19546825 -0.2608695
-0.35373381 0.59200621 -0.57331753
-0.34311879 0.31656623 -0.35628748
-0.30909079 -0.56646174 0.33948421
-0.35734978 0.51117921 -0.51688147
-0.32665178 -0.27062172 0.09974432
-0.34809178 0.11102325 -0.20822048
-0.3672998 0.59129322 -0.58739853
-0.36231878 0.46675324 -0.48907375
-0.31328881 -0.79915172 0.4788003
-0.33278379 -0.27173072 0.093967438
-0.33896279 -0.11723679 -0.028007507
-0.32599479 -0.4414807 0.22798634
-0.3389248 -0.27284175 0.088181496
-0.33033079 -0.48384577 0.2549386
-0.33802781 -0.44396371 0.21687937
-0.35943279 -0.080894768 -0.077183723
-0.36409178 0.02951622 -0.16461563
-0.38774979 0.59021723 -0.6086216
-0.39459279 0.58985627 -0.61572361
-0.38584781 0.38612825 -0.4542346
-0.38719979 0.26310122 -0.36386061
-0.37535679 -0.0081297755 -0.14864969
-0.39254779 0.38557225 -0.46103859
-0.3505668 -0.57581776 0.30179024
-0.3868798 0.10621226 -0.24640846
-0.4011918 0.42850226 -0.50239182
-0.40276179 0.46387523 -0.53048754
-0.41700879 0.58723325 -0.66879463
-0.36403081 -0.54484969 0.26417446
-0.39117381 -0.085736811 -0.10775757
-0.39302981 -0.045282781 -0.13995266
-0.41272479 0.38389826 -0.48152065
-0.37249279 -0.49282879 0.21622944
-0.42523378 0.50678921 -0.5867238
-0.4039548 -0.087690771 -0.12006664
-0.4179658 0.069321275 -0.25235653
-0.4195458 0.10214323 -0.27855873
-0.4270978 0.25906026 -0.40381861
-0.41571179 0.022484243 -0.21496964
-0.4428938 0.58730328 -0.66583681
-0.43512678 0.42590022 -0.53700161
-0.4398168 0.38164324 -0.50901842
-0.44195381 0.42537522 -0.54396343
-0.40722281 -0.2852487 0.023881435
-0.45645079 0.55024922 -0.67434978
-0.41859278 -0.18377978 -0.064105511
-0.4574478 0.45996425 -0.5864706
-0.44181979 0.018913269 -0.24041939
-0.46927878 0.55039126 -0.67086649
-0.45649379 0.30592227 -0.47046041
-0.4643448 0.45946926 -0.59353065
-0.46662679 0.50409627 -0.62929964
-0.4525288 0.098021269 -0.31100273
-0.47125679 0.45897326 -0.60060358
-0.46359879 0.18144524 -0.38519382
-0.47190678 0.21051723 -0.41583967
-0.48751178 0.50273323 -0.65077782
