# .PCD v0.7 - Point Cloud Data file format
VERSION 0.7
FIELDS x y z
SIZE 4 4 4
TYPE F F F
COUNT 1 1 1
WIDTH 1
HEIGHT 512
VIEWPOINT 0 0 0 1 0 0 0
POINTS 512
DATA ascii
0.99492598 0.024621665 0.06293869
0.96690297 0.15018368 0.094110489
0.96649492 -0.062384307 0.0147686
0.98287499 -0.19084328 -0.14289427
0.94578099 0.18804568 0.077938557
0.93979001 0.23445368 0.078870296
0.93997693 -0.058779299 0.035317421
0.934044 0.065930665 0.078072548
0.95649397 -0.18055838 -0.083717346
0.94516993 -0.1077984 -0.0021114349
0.92690301 0.15005463 0.087388515
0.92789495 0.066320658 0.080196381
0.92086196 0.11640966 0.088810444
0.90928996 0.067667663 0.087943554
0.90450191 0.23509467 0.080100536
0.9059459 0.26385766 0.069351673
0.9025619 0.30566168 0.050809383
0.90661395 0.35204566 0.020442486
0.89745998 0.38061464 0.00035047531
0.87997997 -0.049629331 0.088799477
0.86813796 -0.049200356 0.090147495
0.87106597 -0.095477402 0.067448616
0.89166999 0.49103865 -0.1390624
0.86507297 -0.095184386 0.068564415
0.86074996 0.38182765 0.01018858
0.83287001 -0.048176348 0.092577457
0.82911599 0.035892665 0.12292767
0.85417295 -0.23325437 -0.07968235
0.81594193 0.12392569 0.13595152
0.81612599 0.15734863 0.13444042
0.81208193 0.24058264 0.12008476
0.83527493 -0.23146135 -0.071575642
0.81040394 0.31009966 0.085834503
0.80597699 0.036245644 0.12268639
0.80498791 0.075047672 0.13091755
0.823138 0.42234266 -0.020170689
0.804039 0.31060368 0.09037447
0.80019295 0.036332667 0.12262535
0.8115319 0.38377565 0.02753067
0.7944119 0.036417663 0.12256432
0.78956699 -0.00099432468 0.11454868
0.79593694 0.35676366 0.060324669
0.7815789 0.12411368 0.13337374
0.78175497 0.15752864 0.13186359
0.78320396 0.24087763 0.11943769
0.77707398 0.036670685 0.12238073
0.78318501 0.35770565 0.069564342
0.79763401 0.46272567 -0.055312634
0.79880393 0.49321267 -0.11724424
0.76858389 0.31147468 0.095387459
0.7645849 0.075611651 0.13048458
0.75295401 0.12425363 0.13122749
0.77270496 -0.2256034 -0.044849396
0.74900401 0.35741967 0.062451363
0.75470197 0.42534065 0.010837555
0.76026595 -0.22445339 -0.039558411
0.75260496 -0.1577794 0.029836655
0.74064696 -0.15719932 0.032061577
0.72621799 0.24072665 0.11162853
0.73189998 0.35727167 0.058895588
0.73763895 0.42508268 0.0056324005
0.73000097 -0.091476381 0.076515675
0.72166193 -0.045139372 0.10014057
0.72146201 0.26943564 0.10201359
0.71935201 0.037465632 0.12175846
0.7319479 0.42499566 0.0038976669
0.75062299 0.53359365 -0.17085457
0.71305394 0.15782565 0.12671232
0.70999694 -0.044838369 0.1009264
0.701998 0.19640565 0.12212563
0.69630694 0.19638467 0.12134647
0.69629097 0.037763655 0.12150669
0.691342 0.00039565563 0.11349869
0.68406796 0.076458633 0.12825775
0.6787219 0.15794164 0.12414074
0.67403793 0.00061768293 0.11330938
0.67263091 0.076497674 0.1274004
0.68053293 0.35680264 0.048231602
0.68634498 0.42428768 -0.0099935532
0.70471692 -0.31206936 -0.19405746
0.68675995 -0.21874136 -0.014154434
0.671996 0.31056863 0.075597763
0.69062793 -0.30810839 -0.17362356
0.65983891 -0.089619339 0.081257343
0.65011799 0.15802264 0.12199736
0.644045 0.07658267 0.12525749
0.63832891 0.076598644 0.12483072
0.66272092 -0.30028635 -0.13321829
0.64485693 -0.2166943 -0.0063495636
0.62709892 0.12468368 0.12179756
0.62926996 0.24035263 0.09838438
0.65735197 0.5282377 -0.27012253
0.61866295 0.26904064 0.087966442
0.60994399 0.12471968 0.12051344
0.60994196 0.038777649 0.12053776
0.6132009 -0.088453352 0.084376335
0.60436201 0.15811968 0.11857271
0.60644197 0.24024266 0.095271587
0.61501801 -0.21526831 -0.00081634521
0.60151696 0.26895964 0.085629463
0.59831798 0.076685667 0.12183571
0.61674094 0.46181265 -0.086648464
0.60155892 -0.088171303 0.085151672
0.59579992 0.26893169 0.084850311
0.59260094 0.076695681 0.12140751
0.5881319 0.19587666 0.10659456
0.59472597 0.35594165 0.030463696
0.57564199 0.12477368 0.11794662
0.585253 -0.21387237 0.0046787262
0.57179892 0.35569566 0.025727749
0.56076097 0.23999667 0.089051723
0.55964899 -0.042488337 0.10258341
0.56880093 -0.28926235 -0.080793381
0.54688299 0.076750636 0.11798763
0.56529498 0.46040267 -0.11085367
0.54160893 0.15796965 0.11201239
0.53183699 -0.086551368 0.08975172
0.53722298 0.42180866 -0.055238247
0.52847898 -0.14963037 0.058391571
0.51883596 0.15781265 0.10892344
0.51863694 0.002317667 0.11154175
0.52606499 0.35497463 0.013901711
0.53145599 0.42170763 -0.056982517
0.53208399 -0.28590935 -0.065235615
0.50229299 -0.2101174 0.019873619
0.49126494 -0.085665286 0.092400551
0.49699295 0.42090464 -0.069892406
0.48362896 0.30838066 0.036782742
0.50317192 0.48674566 -0.24270248
0.48237094 0.38162667 -0.029147625
0.49043795 0.45830464 -0.14598036
0.47398695 -0.085495293 0.092271328
0.46695396 0.0027626753 0.11092854
0.47043595 0.26737666 0.059855461
0.49018696 -0.37038535 -0.22986269
0.46121296 0.0028086305 0.11085844
0.46446094 -0.14817637 0.062598705
0.45215994 0.23921967 0.07373333
0.45496696 0.30800468 0.030906677
0.45742896 0.35358965 -0.0066576004
0.46261996 0.41985065 -0.085847378
0.47008395 -0.36440831 -0.19973469
0.45926696 -0.27941638 -0.034700394
0.44460696 -0.041427314 0.10123253
0.44758496 0.26705468 0.055183411
0.43830496 0.076712668 0.10987043
0.43272695 0.12475765 0.10726261
0.43541795 -0.14755231 0.064489365
0.42935294 0.23887867 0.069080353
0.42687497 0.076694667 0.10901737
0.43962497 0.41913968 -0.096507549
0.43386695 0.41895968 -0.099175453
0.43851694 0.45646665 -0.17520237
0.41794094 0.23870564 0.066755295
0.41069195 -0.084979355 0.091514587
0.41148695 0.35262966 -0.020383358
0.41656795 0.41841966 -0.10718632
0.39978597 0.19452065 0.081057549
0.41167995 -0.34957033 -0.12522364
0.40165594 0.38002467 -0.053355694
0.39641196 -0.20562536 0.038991451
0.38462895 0.26612663 0.042334557
0.38114697 0.076597631 0.10560274
0.37572795 0.12422866 0.099680424
0.37533894 0.039224684 0.10687351
0.37543094 0.07658267 0.1051755
0.38269594 0.35201466 -0.028970242
0.38224596 -0.2760244 -0.020675659
0.37619296 -0.084739387 0.09109354
0.36484694 0.15650666 0.088106632
0.36545897 0.19420868 0.076422691
0.35239196 0.0031466484 0.10680151
0.34934494 0.23761964 0.052802563
0.35021496 0.26559567 0.035326481
0.34149495 0.12387466 0.0950737
0.34198594 0.15627766 0.085027695
0.33578494 0.12381268 0.094305515
0.33788994 0.23743165 0.050476551
0.34370995 0.37882668 -0.070680618
0.32389095 0.039051652 0.1030345
0.33071697 0.35087866 -0.044445515
0.30681095 0.076349676 0.10005665
0.30564794 -0.27283734 -0.0068912506
0.28964996 0.07627666 0.098775387
0.28436795 0.12323463 0.087398529
0.28389195 -0.040464342 0.099235535
0.29086694 -0.33878535 -0.074406624
0.28052795 0.23645866 0.038852692
0.28858694 0.41432667 -0.16626024
0.27331895 0.15553164 0.075794697
0.28272197 0.41413468 -0.16896057
0.26104194 0.076141655 0.096642494
0.26181495 -0.14430135 0.075552464
0.25753695 0.23605365 0.034201622
0.25519794 0.0027106404 0.099555492
0.26254797 0.37616968 -0.10577059
0.25178593 0.23595166 0.033037663
0.24947795 0.0026786327 0.099129677
0.24511395 0.19280267 0.058857441
0.24381295 0.038672686 0.097063541
0.23451996 0.23564065 0.029550552
0.23229095 -0.040284336 0.098567486
0.23780096 0.34876466 -0.072018623
0.22664395 0.038573682 0.095785618
0.22814095 -0.20275229 0.048154354
0.22217695 0.19236267 0.054241657
0.22086996 0.0025076866 0.096999645
0.23018995 0.41124463 -0.20804453
0.21077596 -0.2024743 0.049236298
0.19792296 -0.040332317 0.097232342
0.18129896 0.12192863 0.073599339
0.18154596 0.15440565 0.06349659
0.17606795 -0.20194429 0.05138731
0.16357796 -0.040589333 0.094677448
0.15797795 -0.083898365 0.088283539
0.15374196 0.23412764 0.013267517
0.15410295 0.26219869 -0.0047292709
0.15472995 -0.33068937 -0.035948277
0.15212195 -0.4344123 -0.2047267
0.14067096 -0.040775359 0.092973709
0.14330696 0.30142564 -0.050882339
0.14073695 0.037986636 0.089388371
0.14751995 0.40576565 -0.28070164
0.14197195 -0.26666039 0.021994591
0.13164096 0.30111867 -0.054299355
0.12480696 0.23356164 0.0074515343
0.12351395 0.0017906427 0.089752674
0.12458095 -0.26663536 0.021837711
0.11932895 0.26122564 -0.014849663
0.11297795 -0.26647335 0.022549629
0.10632996 -0.083870351 0.087581635
0.10162595 0.23309964 0.0027966499
0.10137595 -0.26631635 0.023258686
0.095204949 -0.20084232 0.056335449
0.089247949 -0.14378434 0.074617386
0.089113951 -0.083875358 0.0873456
0.084220953 0.23274666 -0.0006942749
0.08349295 0.073841631 0.075126648
0.072117954 0.12033266 0.059049606
0.071906954 0.0013276339 0.085914612
0.074100956 0.36915964 -0.1934185
0.062195953 0.36831164 -0.20360136
0.054839954 0.12005967 0.056752682
0.055028953 0.18889368 0.02076149
0.049853951 -0.41760439 -0.1222043
0.043785952 0.29874468 -0.0799613
0.04392495 -0.41710931 -0.11976147
0.043298952 -0.2002334 0.059462547
0.037468955 -0.041763365 0.085304737
0.037620954 -0.26552635 0.027119637
0.031946953 0.25870568 -0.040198326
0.026203953 0.34115964 -0.1615386
0.026009953 -0.20004731 0.060494423
0.025986953 -0.083972394 0.086367607
0.020245953 -0.041952372 0.084025383
0.020245953 -0.32597333 -0.012524605
0.014484953 -0.19992834 0.061181545
0.014495953 -0.14389831 0.073568344
0.008534953 0.25801265 -0.046971321
0.0087509528 0.036362648 0.076521397
0.002751952 0.23079866 -0.019219398
-0.015143048 -0.41225833 -0.095545292
-0.020423047 0.18718165 0.0057435036
-0.026906047 -0.4113093 -0.090749264
-0.025846045 -0.19996935 0.06110239
-0.025763046 -0.14401931 0.072992325
-0.032551046 0.25677866 -0.058837414
-0.031530049 0.035603642 0.071207523
-0.037225049 0.00015866756 0.077809334
-0.04297705 8.9645386e-05 0.077381611
-0.043159045 0.07162565 0.05836153
-0.04989405 0.22914565 -0.034346581
-0.048898049 -0.20006233 0.060768604
-0.054875046 0.11817265 0.041964531
-0.056096047 0.25606066 -0.065626621
-0.054981045 -0.26459736 0.032618523
-0.071878046 0.034810662 0.06589365
-0.07968805 0.25533366 -0.072420597
-0.077816047 0.070964634 0.053789616
-0.077542044 -0.14423734 0.072236538
-0.089665048 0.11725765 0.035117626
-0.090382047 0.18551266 -0.0081324577
-0.091364048 -0.40675837 -0.067321301
-0.096226044 0.18536967 -0.009288311
-0.098405048 0.29346067 -0.13413429
-0.094967045 0.034341633 0.062857628
-0.10893404 -0.40622133 -0.064329624
-0.11208005 -0.00090134144 0.07149744
-0.11636604 0.29267365 -0.1420145
-0.12350705 -0.085951388 0.075282574
-0.13233705 -0.40552336 -0.060359478
-0.13507804 -0.043953359 0.072506428
-0.13659404 -0.3223893 0.0081553459
-0.14662005 -0.14463729 0.071204662
-0.16391505 -0.044385314 0.07036972
-0.16469705 0.069209635 0.042363644
-0.16389905 -0.14475638 0.070942402
-0.17140804 -0.32218331 0.010150433
-0.18052804 0.25214267 -0.10136747
-0.17634305 -0.26377338 0.039627552
-0.18122904 -0.044653356 0.069086552
-0.18176705 0.032484651 0.051472664
-0.18211505 0.068840683 0.040076733
-0.19291005 0.32745564 -0.31326628
-0.20241405 -0.4035514 -0.048575401
-0.20433004 -0.045021355 0.06737566
-0.20521905 -0.26364332 0.041262627
-0.21340905 -0.5110653 -0.19928551
-0.22505304 0.28783363 -0.18953037
-0.21658905 0.031697631 0.046918392
-0.21575804 -0.14516038 0.070147514
-0.22842805 0.25024968 -0.11828661
-0.22254205 -0.2635774 0.042237759
-0.23038006 0.14499068 -0.012422562
-0.23625806 0.14482665 -0.0135746
-0.23736504 0.18115568 -0.042397499
-0.23983705 0.031159639 0.043881416
-0.23893905 -0.087837398 0.066740513
-0.24611205 0.067434669 0.031694412
-0.24680704 -0.32186836 0.014406681
-0.25777006 0.067169666 0.030170441
-0.26482505 0.11233264 0.00084543228
-0.27070004 0.24821866 -0.13647747
-0.26240006 -0.20161229 0.057513714
-0.26943904 0.066890657 0.028555393
-0.27737606 -0.50183433 -0.15322733
-0.27529106 0.066706657 0.027421474
-0.27454504 -0.2636084 0.044174671
-0.28590605 -0.004979372 0.048811436
-0.28700104 0.066337645 0.025155544
-0.29422405 0.11145467 -0.0048732758
-0.29896206 0.22079766 -0.10533524
-0.29102805 -0.088790357 0.06289053
-0.30699006 0.14280468 -0.02739048
-0.31189305 0.11091965 -0.0083065033
-0.33026105 0.28106964 -0.25566149
-0.31638506 -0.32173735 0.018254757
-0.31407705 -0.14690739 0.063809395
-0.32219404 0.065212667 0.018357754
-0.32218304 -0.3217333 0.01857233
-0.32000905 -0.089348376 0.060750484
-0.33182904 -0.047592342 0.055782318
-0.34456006 0.17716765 -0.072518349
-0.34480304 0.028594673 0.03021431
-0.36830103 0.27795064 -0.28623724
-0.35065204 0.028445661 0.029454708
-0.35158905 0.064255655 0.012688637
-0.36537004 0.21806663 -0.12748432
-0.38106003 0.27690268 -0.2964797
-0.37095603 0.10909367 -0.019757271
-0.37224105 0.14067364 -0.041710377
-0.37341005 -0.0072673559 0.037464619
-0.37790805 -0.1482684 0.059102535
-0.37806705 -0.090525329 0.056461334
-0.38431004 -0.049057364 0.049005508
-0.39599404 -0.049390316 0.047499657
-0.41620505 -0.58006638 -0.27374125
-0.40543604 -0.49255532 -0.10257053
-0.41245604 0.10777563 -0.027781487
-0.40714705 -0.09114331 0.054316521
-0.42719805 -0.57628232 -0.25575733
-0.41353306 -0.049897313 0.045239449
-0.41279304 -0.14905435 0.056529522
-0.43267503 -0.57440239 -0.24681044
-0.42855206 -0.4909634 -0.093551636
-0.42611805 -0.0087203383 0.030652523
-0.44501004 0.21394366 -0.1611824
-0.43861705 0.026120663 0.018055439
-0.45987004 -0.56511635 -0.20253849
-0.46351704 0.21297467 -0.16899252
-0.44769403 -0.20395833 0.054477692
-0.46039504 -0.05128336 0.039213657
-0.45938805 -0.15015036 0.053097725
-0.46626204 -0.051459372 0.038460732
-0.47672206 -0.20441037 0.053983688
-0.47708505 -0.092711389 0.049159527
-0.48593202 0.024425685 0.0091667175
-0.49996606 -0.55980438 -0.17533064
-0.49185905 0.024208665 0.0080394745
-0.48855707 -0.15086335 0.050949574
-0.49420407 -0.20481533 0.052981377
-0.51047111 0.13497466 -0.079946518
-0.5037241 0.023771644 0.0057845116
-0.50196409 -0.32213932 0.028142452
-0.51382899 0.10438168 -0.047738552
-0.50682402 -0.26693934 0.040285587
-0.53779209 0.23266166 -0.27231455
-0.51742005 0.058571637 -0.019112587
-0.51192105 -0.15144938 0.049230576
-0.53187907 0.16980165 -0.12472343
-0.51756501 -0.20543331 0.051262379
-0.52504599 -0.05327034 0.030921459
-0.52340901 -0.20558935 0.050834656
-0.5407021 -0.55704933 -0.15951061
-0.55733299 0.23095065 -0.28749752
-0.54651201 -0.55666333 -0.15726566
-0.54685307 0.13342768 -0.089959621
-0.5393821 0.022442639 -0.00098657608
-0.53595901 -0.26746529 0.039773464
-0.54862702 -0.32292837 0.027816296
-0.56215 0.10223967 -0.06094265
-0.56872499 0.16807365 -0.13686562
-0.55345309 -0.26779336 0.039465427
-0.569206 -0.39967638 -0.0069756508
-0.56518209 -0.095485389 0.038566589
-0.58640003 0.10115165 -0.067554474
-0.58640301 -0.48808736 -0.067590237
-0.582165 -0.15329033 0.044062614
-0.6197691 0.20451063 -0.23570442
-0.59587407 -0.05554837 0.021870613
-0.59366608 -0.20754331 0.045671463
-0.60975802 -0.48777539 -0.063967705
-0.6101011 -0.40001339 -0.0049214363
-0.63101399 0.16451764 -0.16258049
-0.61363208 -0.05613631 0.01960659
-0.61491406 -0.014415324 0.0061674118
-0.61955607 -0.056333363 0.018851757
-0.61881506 -0.32438034 0.026546478
-0.62325108 -0.15442234 0.041045666
-0.63522303 -0.26943737 0.037996769
-0.6506021 -0.5500353 -0.11745024
-0.64477706 -0.4873473 -0.058570385
-0.64698303 0.018291652 -0.021328449
-0.64088702 -0.15492135 0.039749622
-0.64790308 -0.098339379 0.028055668
-0.65382802 -0.098550379 0.027303696
-0.68146002 0.12753165 -0.12681627
-0.66856503 -0.40059239 -0.00203228
-0.67394602 -0.48702937 -0.054109573
-0.67031407 -0.15576929 0.037587643
-0.680264 -0.40072137 -0.0014615059
-0.68487203 -0.058558285 0.010542393
-0.70245802 0.095817685 -0.099060535
-0.70614302 0.12642264 -0.13354445
-0.69277203 -0.017621338 -0.0084233284
-0.70273709 -0.059182346 0.0082745552
-0.71081102 -0.018379331 -0.011794567
-0.74250007 -0.65951532 -0.30114555
-0.72056508 -0.54800636 -0.10085964
-0.73089302 0.12530065 -0.14028263
-0.738217 0.15828568 -0.20661736
-0.71683204 -0.018634319 -0.012918472
-0.71266806 -0.32654637 0.024801731
-0.72642803 -0.4865393 -0.046153545
-0.75094008 0.15753669 -0.21182632
-0.7400161 0.050166667 -0.061461449
-0.72896802 -0.27155334 0.036263466
-0.72902703 -0.21165735 0.035740376
-0.72930801 -0.15753335 0.033257484
-0.73808706 -0.48644537 -0.044398308
-0.75594807 0.12391365 -0.14912939
-0.73521709 -0.15771431 0.032824516
-0.75582004 -0.54770929 -0.095542431
-0.76413 0.092900634 -0.11571264
-0.74897408 -0.10202736 0.015274525
-0.76756799 -0.54762238 -0.093781471
-0.76244509 -0.061315358 0.00071048737
-0.77071106 0.048626661 -0.069654465
-0.75833404 -0.27226633 0.035708427
-0.77306104 -0.48619431 -0.039163589
-0.78301907 0.048004687 -0.072934628
-0.77009606 -0.27256733 0.035442352
-0.7704221 -0.21300834 0.032708645
-0.80849099 0.15412366 -0.23533869
-0.78917909 0.047692657 -0.074574471
-0.79054511 -0.48608834 -0.036567688
-0.80151105 0.047065675 -0.077858448
-0.79678702 -0.10384732 0.0092525482
-0.802562 -0.48665339 -0.037784576
-0.82574904 0.11958265 -0.17727232
-0.80004907 -0.21400028 0.030539513
-0.80057704 -0.16006237 0.026275635
-0.8145591 -0.54732734 -0.086783409
-0.808465 -0.4867484 -0.037510395
-0.81634104 0.011336684 -0.053078651
-0.816401 -0.063305318 -0.0061044693
-0.82243705 0.011076629 -0.054215431
-0.81191409 -0.21440428 0.029671669
-0.81866705 -0.32930332 0.022763729
-0.82344007 -0.27446336 0.031540394
-0.86343002 0.043883681 -0.094301701
-0.85023808 -0.40311331 0.0065836906
-0.85823905 -0.49167532 -0.05460453
-0.85615408 -0.40327829 0.0065326691
-0.85314703 -0.27555138 0.029369354
-0.87401402 -0.55819136 -0.12912464
-0.8590951 -0.27577239 0.028933525
-0.90874803 0.14549863 -0.29904032
-0.88208902 0.042913675 -0.099244595
-0.90131104 0.086209655 -0.15253258
-0.88315499 -0.066405356 -0.018247604
-0.89834404 -0.55921537 -0.13058567
-0.90765309 0.085844636 -0.15462446
-0.89659405 -0.49669236 -0.073364258
-0.93624401 0.14281768 -0.31909943
-0.89047003 -0.16381937 0.01505661
-0.90505409 -0.026931345 -0.047846317
-0.956985 0.14079165 -0.3342123
-0.908535 -0.27991635 0.012726307
-0.90852308 -0.16459531 0.012811661
-0.92663109 0.0064876676 -0.073928356
-0.92957699 -0.028059363 -0.052367687
-0.92655802 -0.41266137 -0.031023502
-0.94047904 -0.22308439 -0.0035223961
-0.97199202 0.036183655 -0.13809633
-0.99856699 0.074201643 -0.23594046
-0.97634006 -0.033710361 -0.085418701
-0.97942603 -0.075475395 -0.065680504
-0.99374306 0.032632649 -0.16205168
-0.97991204 -0.17307931 -0.028765678
-0.99244905 -0.076766312 -0.072440624
-1.021269 -0.0048143268 -0.14288044
