# .PCD v0.7 - Point Cloud Data file format
VERSION 0.7
FIELDS x y z
SIZE 4 4 4
TYPE F F F
COUNT 1 1 1
WIDTH 1
HEIGHT 512
VIEWPOINT 0 0 0 1 0 0 0
POINTS 512
DATA ascii
0.7015447 0.13406736 -0.72138262
0.6792317 0.21715039 -0.68561077
0.68715268 0.2949934 -0.76941442
0.6505447 -0.089390635 -0.4463048
0.62872767 -0.074048638 -0.34089565
0.6588797 0.27147835 -0.66903257
0.66176468 0.30095536 -0.70043468
0.6180737 -0.066558599 -0.2894268
0.60410666 -0.2534346 -0.20017958
0.60538769 -0.027793646 -0.28002644
0.6368717 0.30679739 -0.63279581
0.64604867 0.38948935 -0.73562241
0.65280366 0.51127636 -0.88351774
0.59223771 0.088843405 -0.33302259
0.56839669 -0.17493266 -0.057759762
0.5534367 -0.26716858 0.050072193
0.5741837 0.063269377 -0.26067638
0.58002567 0.1296854 -0.32951641
0.59973568 0.31300241 -0.56181479
0.56661469 0.06583035 -0.2407217
0.59698766 0.3544364 -0.60242367
0.57288671 0.20171338 -0.38689756
0.60730171 0.51585937 -0.80106974
0.54798466 0.10177839 -0.22830057
0.55893266 0.20427835 -0.36289549
0.59237069 0.5173614 -0.77401352
0.57530069 0.35753435 -0.5641408
0.50724667 -0.45513362 0.27255535
0.58846468 0.55144739 -0.80425644
0.50014168 -0.28420061 0.22559738
0.50565469 -0.64943057 0.15632153
0.49341267 -0.40138561 0.31016254
0.51716667 0.0034453869 -0.060098648
0.5004847 -0.19110757 0.15186262
0.52447468 0.14177936 -0.22738647
0.55086267 0.4020654 -0.56646061
0.51431066 0.10888636 -0.17139959
0.51773667 0.1431374 -0.21593046
0.52181369 0.18388736 -0.26890945
0.55564171 0.52099138 -0.70855236
0.52872866 0.32389736 -0.43729544
0.53988171 0.43690437 -0.58392477
0.4731347 -0.27090758 0.2935462
0.47750768 -0.62932664 0.23605728
0.4763037 -0.22935158 0.25188351
0.46961069 -0.39471358 0.33987856
0.49415469 0.04132539 -0.057793617
0.51906568 0.29717439 -0.38910866
0.46369767 -0.3930586 0.34726048
0.51217568 0.29828137 -0.37707853
0.55610067 0.67622435 -1.0567183
0.4467437 -0.2579686 0.35975361
0.44674569 -0.49366063 0.35972357
0.52264166 0.60198337 -0.7735467
0.49822468 0.36814338 -0.4329114
0.51571971 0.60235035 -0.76518536
0.44997168 -0.081632614 0.1633954
0.5041917 0.55722737 -0.69074345
0.4746787 0.3312034 -0.35393667
0.42529669 -0.59766859 0.36122656
0.4516477 0.1564374 -0.10352564
0.44267067 0.053143382 0.028159618
0.41816768 -0.25230557 0.38756943
0.4591237 0.30541736 -0.29993343
0.41316268 -0.59211057 0.38303232
0.48443669 0.63623035 -0.77003574
0.40716368 -0.58947259 0.39337158
0.42709967 0.098123372 0.0082912445
0.46718869 0.52691638 -0.60334063
0.4489097 0.33381736 -0.32445955
0.47453567 0.60453236 -0.7154355
0.40578067 -0.1585086 0.33356047
0.4092187 -0.11712056 0.28110361
0.44250467 0.3344664 -0.31713247
0.39670068 -0.58984667 0.3911643
0.40688768 -0.070216596 0.23363543
0.4035227 -0.034965634 0.2010622
0.42614168 0.22663039 -0.15352535
0.41119868 0.060349405 0.080720425
0.45382169 0.52780735 -0.58743477
0.39184269 -0.74813563 0.29977226
0.45025069 0.63784242 -0.72847557
0.4331497 0.44604239 -0.45281839
0.3775737 -0.30395764 0.44300842
0.3839477 -0.6746586 0.34026146
0.3768037 -0.47072262 0.45542526
0.42664269 0.44657138 -0.44520378
0.37424669 -0.19904357 0.41146946
0.37309068 -0.51334566 0.43036222
0.39291868 0.13203537 0.014110565
0.42727968 0.52957439 -0.55584955
0.4201507 0.44709939 -0.43760443
0.37022069 -0.14825064 0.39060736
0.3733227 -0.10717958 0.33914852
0.37671667 -0.062241614 0.28284359
0.3595987 -0.40743667 0.48013353
0.39582169 0.31212538 -0.22790337
0.36526668 -0.74922663 0.29408121
0.35752669 -0.19615966 0.42631531
0.42421469 0.71926641 -0.82164764
0.3510657 -0.24021763 0.4469862
0.37155169 0.16805238 -0.0062417984
0.43103668 0.7732724 -1.0538015
0.34553769 -0.23922664 0.45188332
0.34707168 -0.51427358 0.42487335
0.3497797 -0.10067958 0.37718534
0.35288069 0.01005739 0.22668839
0.40107468 0.60804641 -0.63531637
0.38537669 0.41791937 -0.35454845
0.33843669 -0.40609258 0.48504639
0.3729887 0.34148037 -0.23756647
0.3249507 -0.4725346 0.44450426
0.3341907 0.07245636 0.16800547
0.38164368 0.68616837 -0.7374506
0.4005577 0.8111304 -1.0983348
0.32101768 -0.51523358 0.41936064
0.3312397 0.11257738 0.1186862
0.31118268 -0.35702664 0.50789022
0.3183707 0.015588403 0.26347446
0.30604368 -0.35719961 0.50681162
0.3296687 0.34577239 -0.18861341
0.30242869 -0.048257649 0.36833429
0.30576667 -0.71272558 0.18818951
0.29407769 -0.091232598 0.43153143
0.30207369 0.11672038 0.15048027
0.28777069 -0.013122618 0.34057522
0.2926687 -0.62687057 0.23474741
0.2856707 -0.045381606 0.38594532
0.29837668 0.24195635 -0.010514736
0.33813369 0.77625138 -0.88603354
0.2888957 -0.8914066 0.19828129
0.28228369 0.080195367 0.2241044
0.30235469 0.38501036 -0.22657442
0.28191268 -0.62731761 0.23244047
0.27140468 -0.13388759 0.46838856
0.2730127 0.022827387 0.31186533
0.2747497 0.051213384 0.27208233
0.29634368 0.3853454 -0.22250938
0.26901367 -0.042528629 0.40345955
0.30525768 0.61107934 -0.56705761
0.30732268 0.6422894 -0.61532879
0.27750769 0.28041637 -0.051188469
0.2888307 0.45522138 -0.32136154
0.25532869 -0.13210863 0.47796631
0.25632867 -0.087226629 0.45411158
0.25457469 -0.35899264 0.49596262
0.26537168 0.18141741 0.10616732
0.26152968 -0.82931262 0.19979334
0.2684477 0.32323736 -0.10837936
0.3084507 0.85743636 -1.1043777
0.2442627 -0.35936457 0.49378157
0.2540037 0.18230039 0.11348343
0.26414868 0.3496964 -0.14470434
0.3017827 0.85744935 -1.1025577
0.25146669 -0.83522159 0.17805529
0.24260171 0.085981369 0.2662735
0.25668368 0.42560238 -0.25261545
0.2506817 0.42591038 -0.24851656
0.2508117 0.53748941 -0.41557646
0.2327197 0.42682937 -0.23624659
0.20743071 -0.12684566 0.50652456
0.2194747 0.28429037 -0.012895584
0.2088107 0.18579435 0.14259148
0.19847471 -0.032869637 0.46257925
0.2163187 0.45869538 -0.27146864
0.19762771 -0.44019967 0.32327843
0.2053747 0.35317636 -0.10526037
0.2088787 0.42804438 -0.21995258
0.19562571 -0.63110262 0.21381235
0.18551371 -0.17317861 0.54478741
0.19142669 -0.38916367 0.35126257
0.1861387 -0.38936859 0.35013628
0.1863777 0.18751639 0.15705442
0.1808487 -0.38957459 0.34900856
0.1878847 0.35420537 -0.093512535
0.17927571 0.2869494 0.01366663
0.1711227 0.22631437 0.11059141
0.18540271 0.57033634 -0.43473864
0.15691671 0.0044773817 0.45332861
0.1644057 -0.71931463 0.15744925
0.1550847 -0.44193763 0.31416464
0.1600637 0.53968835 -0.37693357
0.1670057 0.7230314 -0.68280935
0.1500847 0.43010938 -0.19251156
0.1333497 -0.16752166 0.57445335
0.1332387 0.095504403 0.33510828
0.15449171 0.72312236 -0.67950678
0.1387987 -0.8643046 0.06970644
0.1500857 0.77836537 -0.76987648
0.1207977 0.040087402 0.42748356
0.1184447 -0.21891862 0.5500164
0.1184747 -0.11916357 0.54848433
0.1225207 0.29025936 0.046949387
0.1387327 0.81441641 -0.83764553
0.1164237 -0.31458157 0.37956762
0.1133717 0.16169441 0.25115824
0.1250767 0.57114041 -0.41942167
0.1188477 0.3569324 -0.062572479
0.1155367 -0.95804864 0.12710762
0.1096517 0.23060036 0.14940834
0.1048767 0.041548371 0.43739128
0.1247827 0.77849036 -0.76310062
0.1058727 -0.31499666 0.37731743
0.1088977 -0.63525563 0.19488955
0.1039337 -0.027561605 0.49422359
0.1122367 0.54037941 -0.36487961
0.1001047 0.29080141 0.052237511
0.090991698 0.13684738 0.30534029
0.1036267 0.85768336 -1.0690765
0.073663704 0.071795404 0.41584539
0.074156702 0.10056239 0.37242651
0.085265703 0.69039339 -0.60679579
0.068368703 0.072261393 0.41917038
0.077774704 0.61499238 -0.47906446
0.075779699 0.50042534 -0.2885766
0.081596702 0.8143484 -0.84399939
0.066798702 -0.16830558 0.56907749
0.0693537 -0.39417964 0.32509565
0.063209698 -0.24564165 0.40880632
0.064918697 -0.55768162 0.23082352
0.0609737 0.29173237 0.061496258
0.058211703 0.1013124 0.37794733
0.058306701 -0.31691867 0.36714363
0.060055703 0.64563441 -0.53097534
0.049816702 -1.0468867 0.06381321
0.048397701 0.69014436 -0.61536837
0.049852703 0.81423438 -0.85367775
0.0411947 -0.16925663 0.56365061
0.037826702 0.19576138 0.22699451
0.041524701 0.61499137 -0.47938061
0.043494701 0.81421137 -0.85561466
0.036147699 -0.070922613 0.54763365
0.031126702 -0.023616612 0.51868439
0.031577699 0.85754937 -1.0917525
0.025810702 -0.16983861 0.56038237
0.020848701 0.010959387 0.49465466
0.021009702 0.074228406 0.43312359
0.021131702 0.10244536 0.38630819
0.023409702 0.61482239 -0.48350859
0.022565702 0.43245137 -0.16119051
0.011582701 0.77811939 -0.78554153
0.010849701 -0.97913164 0.054579258
0.0052717011 0.50099438 -0.27943134
0.0052717011 -0.31916159 0.35573721
5.8700796e-05 0.046346366 0.47002125
-0.00082629919 0.64512539 -0.54495573
-0.00043329922 0.39580339 -0.094082355
-0.0010392992 0.77806735 -0.78853846
-0.0002022991 -0.64097458 0.17080021
0.00013470091 -0.069456637 0.55642939
0.00010470115 -0.023113608 0.52184439
-0.0062482995 0.43273637 -0.15721369
-0.011679299 0.35965937 -0.031056404
-0.012157299 0.46273938 -0.21362257
-0.011401299 -0.80522257 0.074804306
-0.011157298 -0.64157861 0.16836452
-0.010971298 -0.51758665 0.23925352
-0.010229299 -0.022993624 0.52263165
-0.016737299 0.25793135 0.13899136
-0.015844299 0.10355037 0.39468622
-0.016813299 -0.72918361 0.11722326
-0.015179299 -0.11260659 0.58525562
-0.022490298 0.29365236 0.081358433
-0.023255298 0.39582336 -0.093759537
-0.022888299 -0.94926268 -0.0096697807
-0.022339299 -0.72950858 0.11598349
-0.0303583 0.54063737 -0.36077881
-0.0306523 0.57130241 -0.41702557
-0.032637298 0.7779364 -0.79603672
-0.0344803 0.85720938 -1.1479936
-0.027367298 -0.56240958 0.21051121
-0.033997297 0.33466136 0.015651226
-0.035855297 0.50044441 -0.28849745
-0.0373533 0.14103836 0.33847523
-0.038431298 0.23437536 0.1840353
-0.0470783 0.46222436 -0.22123051
-0.0476273 0.50028539 -0.29108763
-0.040946297 -0.068970621 0.55955219
-0.054159299 0.54034638 -0.36607552
-0.0512603 0.35940236 -0.033898354
-0.054784298 0.23477238 0.18789148
-0.057243295 0.046936393 0.47445822
-0.062592298 0.35919237 -0.036290646
-0.066170298 0.25870436 0.14691448
-0.067534298 -0.98746866 0.026690483
-0.067421302 -1.0552647 0.036659241
-0.077999301 0.54005134 -0.37137175
-0.0803423 0.64443439 -0.56316137
-0.073195301 -0.87732166 0.021829605
-0.072717302 -0.80907267 0.060904503
-0.078759298 -0.9880206 0.024953365
-0.071730301 -0.068633616 0.56191349
-0.0871493 0.43144739 -0.1746645
-0.083282299 -0.73319668 0.10224533
-0.086594298 0.1985504 0.25210619
-0.089177296 0.29326636 0.077967644
-0.091942295 0.39463639 -0.10840559
-0.081861302 -0.11517066 0.57107449
-0.081986301 -0.068526626 0.56270266
-0.096643299 0.35855335 -0.043458462
-0.098538302 0.23426938 0.1837492
-0.1078533 0.53967535 -0.37799263
-0.1190333 0.68824434 -0.67738056
-0.1038323 -0.56660861 0.19351864
-0.1072783 0.1679104 0.30316925
-0.1198113 0.53952336 -0.38064146
-0.1224803 0.61299634 -0.52623653
-0.1118823 -0.81162757 0.051974297
-0.1075823 -0.40249163 0.28658533
-0.1117583 0.14224237 0.34909248
-0.1180443 0.16763139 0.30104542
-0.1394003 0.7210204 -0.76283169
-0.12361629 -1.0595636 0.023473263
-0.1178673 -0.068173647 0.56548262
-0.1248823 0.047459364 0.47919559
-0.1331373 0.1416654 0.34491539
-0.1418073 -0.95760268 -0.037119389
-0.1319373 -0.19976765 0.39778233
-0.1281143 -0.068078637 0.56628036
-0.1409063 0.19720036 0.24128151
-0.1478693 0.35756737 -0.054193497
-0.1523433 0.46060637 -0.24404049
-0.13894629 -0.3257876 0.32443142
-0.1461643 -1.0613387 0.018155575
-0.1407093 -0.45606464 0.24965048
-0.1433133 -0.2543866 0.36439753
-0.1575013 -0.99180561 0.013614655
-0.18228529 0.56778938 -0.48723173
-0.1584923 -0.20093364 0.39204931
-0.16658629 0.16635036 0.29150724
-0.1866813 0.53692341 -0.42791176
-0.1733733 -0.45784158 0.2424016
-0.17599531 0.14048541 0.33658457
-0.1842483 0.29119736 0.058480263
-0.20550729 0.64084435 -0.6578064
-0.1870303 -0.95740658 -0.035250664
-0.1816483 0.010757387 0.4962244
-0.18329629 0.075292349 0.44378328
-0.2368643 0.76983738 -1.2607656
-0.1851033 -0.20212561 0.38628864
-0.2225343 0.60945839 -0.60875034
-0.1921073 0.010402381 0.49419165
-0.23102731 0.64003241 -0.67903471
-0.1899523 -0.06954062 0.55915546
-0.2044573 0.1653254 0.28411341
-0.2035673 -0.32900459 0.3102603
-0.20109729 -0.20285267 0.38282061
-0.2118253 0.19537139 0.2272706
-0.2141553 0.23147535 0.16056252
-0.2383703 0.56549937 -0.53285456
-0.2415683 0.60877937 -0.62443352
-0.2154893 -0.65384561 0.12235928
-0.20781229 0.0098643899 0.49114323
-0.22377031 0.2898134 0.045312405
-0.22865629 0.35426438 -0.091175556
-0.2263763 -0.95554858 -0.027486801
-0.22105829 -0.65420562 0.12109137
-0.23199029 -0.95528656 -0.026371479
-0.2171133 -0.20358962 0.37934256
-0.2218563 0.10292339 0.39416552
-0.2432493 0.38910937 -0.1756897
-0.2297533 0.1389634 0.32621145
-0.2255553 0.073946357 0.43549252
-0.26102433 0.53360337 -0.4878006
-0.27066332 0.6377784 -0.73870564
-0.2414353 -0.82061559 0.022129536
-0.2377803 -0.65529662 0.11727762
-0.27740133 0.63733739 -0.75039244
-0.2331513 -0.20433658 0.37585449
-0.25259131 0.28765637 0.023875237
-0.26428032 0.42451939 -0.26713371
-0.2414393 0.073431373 0.43238449
-0.27296832 0.45427439 -0.33591652
-0.24684231 -0.33124465 0.3007226
-0.25156531 -0.53106457 0.18563557
-0.2505233 -0.25951165 0.34101057
-0.2417953 -0.071497619 0.54924822
-0.2538453 0.1019544 0.38810921
-0.2689313 -0.98647362 0.035517216
-0.26261532 -0.53174168 0.18314028
-0.26436332 0.16317439 0.26846123
-0.30793232 0.60430437 -0.72944069
-0.28857231 0.42310137 -0.2860198
-0.27274433 0.19216835 0.20151758
-0.26429531 -0.026270628 0.50777149
-0.27326331 0.072383404 0.42616749
-0.3321113 0.63375235 -0.84526777
-0.33762231 0.67938137 -0.96434546
-0.29338732 -0.95092362 -0.0086073875
-0.27602533 -0.20637363 0.36650848
-0.29913032 0.28415436 -0.010694504
-0.3390553 0.63329637 -0.85730839
-0.30930433 0.38495839 -0.22643852
-0.31659931 0.45115939 -0.38112974
-0.29820532 -0.82481056 0.0089015961
-0.29028431 -0.53345758 0.17687941
-0.28698531 -0.4121626 0.24682236
-0.29536331 0.1902014 0.18525743
-0.31936732 0.42097539 -0.31448174
-0.3038983 -0.8252396 0.007569313
-0.29246432 -0.41247767 0.24559546
-0.2979463 -0.41279358 0.24436951
-0.32366532 0.3478744 -0.16331053
-0.30493331 -0.4654296 0.21295643
-0.2988103 0.041147351 0.44146442
-0.32301331 -0.89560968 -0.036310673
-0.32632732 -0.94622463 0.0093913078
-0.32669732 -0.82697564 0.0022273064
-0.31934631 -0.57979065 0.14485741
-0.31596532 -0.46609658 0.21046925
-0.31764531 0.13301337 0.28248262
-0.32781631 0.22324538 0.088414192
-0.30959833 0.040290356 0.43603945
-0.3288573 0.13195539 0.27459335
-0.34598932 -0.89744562 -0.041739464
-0.34097633 0.18621337 0.15251064
-0.32984832 -0.20901567 0.35472822
-0.33124033 0.038565397 0.42516136
-0.3358283 0.095479369 0.34310627
-0.32571632 -0.076347649 0.52395535
-0.35971132 0.24434638 0.016550541
-0.41836432 0.59214938 -1.0163555
-0.35909832 -0.94158667 0.027351379
-0.33329332 -0.030878603 0.48179722
-0.38551033 0.37636936 -0.33328772
-0.33653331 -0.12629062 0.51613235
-0.38653931 0.34036636 -0.24949551
-0.35464132 0.066272378 0.38609123
-0.39300433 0.33948636 -0.25961971
-0.3754223 -0.93928868 0.036317348
-0.34943232 -0.03227663 0.47378063
-0.37163231 0.15339941 0.19226837
-0.36017632 0.065704405 0.38229227
-0.38085333 -0.93852657 0.039304256
-0.36386532 0.035946369 0.40877819
-0.42338532 0.43867439 -0.56436968
-0.43227232 0.47446337 -0.70966959
-0.3768253 0.063990355 0.37086964
-0.37851331 -0.21148556 0.34402943
-0.38796133 0.062842369 0.36323261
-0.43221033 0.33413839 -0.32102251
-0.39740732 0.089353383 0.30041742
-0.3947843 -0.21232861 0.34044123
-0.46268532 0.39998537 -0.6013217
-0.4404923 0.23248041 -0.094588757
-0.42583531 -0.58702368 0.12040758
-0.41924632 -0.42007667 0.21705723
-0.43606231 0.17419636 0.052589417
-0.43812031 -0.88116163 0.022787571
-0.45331031 0.23041737 -0.11391258
-0.44339833 -0.87987059 0.027824402
-0.41038331 -0.12990266 0.49996758
-0.46638331 0.26345336 -0.21730661
-0.44378132 0.082974374 0.25523758
-0.4567433 0.1157524 0.15266943
-0.53714931 0.33519739 -0.8550415
-0.46886331 -0.67162663 0.063855648
-0.45705932 -0.27049166 0.29532051
-0.51042533 0.25187236 -0.33530378
-0.46576032 -0.3436026 0.25187922
-0.4766553 -0.5906406 0.1086483
-0.48679531 0.13536239 0.049138546
-0.4712913 -0.34393758 0.25063133
-0.49571431 -0.76271659 0.006670475
-0.48595232 -0.5464856 0.13210058
-0.55871034 0.26749039 -0.72194147
-0.51253629 0.16047639 -0.062650681
-0.48700333 0.047412395 0.2581954
-0.4900423 -0.27237862 0.28794527
-0.51476634 -0.8174116 0.050451279
-0.50855029 -0.54808956 0.12687254
-0.49566031 -0.013638616 0.35115719
-0.49229732 -0.13857359 0.45607138
-0.51986933 -0.54890066 0.12424946
-0.52973032 -0.81172758 0.072949409
-0.5977093 0.17333835 -0.6622138
-0.55576533 0.1168884 -0.10010147
-0.55482131 0.09294939 -0.022762775
-0.57375532 0.13963538 -0.2413764
-0.52462333 -0.017776608 0.32590723
-0.5448153 -0.59566063 0.092769623
-0.55023932 0.060687363 0.094601631
-0.54906631 0.034722388 0.17105722
-0.55390131 -0.55136865 0.11634827
-0.55101329 -0.056820631 0.33157921
-0.56271231 -0.05856663 0.32144356
-0.57570529 -0.43027765 0.18137455
-0.60063529 0.0152964 0.034305573
-0.5898993 -0.48416966 0.1478734
-0.60404831 -0.73701566 0.11609459
-0.6315943 0.0031583905 -0.051145554
-0.61546433 -0.73800367 0.11335564
-0.59179729 -0.15762657 0.35473442
-0.6095593 -0.43260258 0.17358637
-0.61521429 -0.43299562 0.1722846
-0.64897531 -0.033403635 -0.053212643
-0.62800634 -0.58290964 0.15503454
-0.61389232 -0.32689959 0.34855938
-0.63544434 -0.57474965 0.1906786
-0.63317329 -0.12286156 0.26602554
-0.63278532 -0.45848662 0.26977348
-0.64186329 -0.17017859 0.28704548
-0.67295933 -0.65512258 0.14975023
-0.67866331 -0.65560764 0.14838743
-0.66354531 -0.33021468 0.33719349
-0.6905303 -0.57589668 0.19165754
-0.69789934 -0.34389561 0.27246141
-0.70243633 -0.28676659 0.23264265
-0.69999331 -0.46349865 0.25408936
-0.72428828 -0.29595667 0.18655443
-0.73850232 -0.48497063 0.16001654
-0.74857229 -0.37503666 0.12219954
