# .PCD v0.7 - Point Cloud Data file format
VERSION 0.7
FIELDS x y z
SIZE 4 4 4
TYPE F F F
COUNT 1 1 1
WIDTH 1
HEIGHT 512
VIEWPOINT 0 0 0 1 0 0 0
POINTS 512
DATA ascii
0.95346135 0.24911332 -0.20681
0.92504638 0.16564131 -0.093574047
0.92724735 0.20827633 -0.10884809
0.93330234 0.27067834 -0.32145596
0.88220835 0.21924531 0.00042390823
0.87310839 0.17827934 0.023820877
0.93283534 0.30831134 -0.40660906
0.89529538 0.28292632 -0.17940617
0.87703037 0.26029134 -0.089948177
0.91587937 0.34905934 -0.46499634
0.8369754 0.099082351 -0.011348248
0.81576437 0.23005533 0.10529566
0.81872237 0.2982043 -0.0059928894
0.78168839 0.2344653 0.14731789
0.75682038 0.28392732 0.16393709
0.79818535 0.37094432 -0.1705451
0.74458039 0.19492233 0.17108107
0.75481236 0.066948295 0.039620876
0.79877436 0.43670833 -0.374547
0.76353335 0.37406433 -0.13064814
0.77128339 0.40427831 -0.1956439
0.71547538 0.072231293 0.079409122
0.72038537 0.40986332 -0.11655092
0.68210936 0.038001299 0.069335938
0.68346637 0.38800132 0.05703783
0.6675514 0.11959434 0.14974308
0.69394839 -0.069904685 -0.091283321
0.68050736 0.41638333 -0.021791935
0.6572364 -0.01466167 0.032782078
0.64458334 0.042084336 0.098195076
0.62832838 0.17026931 0.19928408
0.7106964 0.5895263 -0.59103012
0.62905139 0.080306292 0.13780594
0.61590737 0.29421133 0.26499367
0.61739635 0.40221533 0.25058985
0.61991137 0.12263334 0.17155266
0.61091834 0.36261031 0.25932789
0.60802436 0.04535532 0.12079287
0.59222436 0.32414633 0.27909374
0.65891939 0.56420028 -0.38910627
0.59473938 0.40261233 0.25389194
0.5866524 0.32420832 0.27928066
0.61562735 0.5294683 -0.1331892
0.57658738 0.29487431 0.26858187
0.59234738 -0.049479663 0.047166824
0.56998438 0.3243553 0.27941513
0.58797735 0.46584031 0.092545986
0.57212937 0.048087299 0.13929701
0.56163335 0.24659634 0.25033092
0.62106138 0.59766531 -0.37835503
0.55039239 0.2467953 0.25136089
0.54311138 0.29527432 0.26995802
0.59484035 0.60089135 -0.2930131
0.54338437 0.43629432 0.26697683
0.53755337 0.2953223 0.27000189
0.54065537 0.085635304 0.17397881
0.53029937 0.40552831 0.28887892
0.53176636 0.43673432 0.27260685
0.58836335 0.64354932 -0.4237361
0.55056536 0.57525134 -0.13254499
0.51115537 0.24741435 0.25432968
0.50859934 0.43760931 0.28383684
0.54045737 0.60624135 -0.15234613
0.49577039 0.2044273 0.23884869
0.49163038 0.36569533 0.28814507
0.50783938 -0.13059968 0.026529789
0.50398535 -0.080899656 0.072915077
0.48874736 0.51764131 0.25629711
0.5134964 0.57915533 -0.041552067
0.56038439 0.73102534 -0.60583115
0.48312038 0.08799535 0.18883801
0.47660136 0.29569632 0.2689867
0.49426436 0.58309436 0.051836014
0.51610237 0.64995933 -0.21665907
0.52608538 0.6803093 -0.33939695
0.46916139 0.40615931 0.2925539
0.46879739 0.43870133 0.29707193
0.53490937 0.73246133 -0.5246172
0.47313136 0.053380311 0.17325068
0.47550535 0.0021193027 0.1434207
0.46645439 0.51778328 0.2571559
0.46566534 0.58620632 0.12459183
0.47394639 -0.32527268 -0.21167707
0.44458738 -0.075904667 0.10317183
0.43436238 0.20511931 0.24077082
0.43341136 0.24793833 0.25356579
0.42951438 0.17552733 0.23103189
0.44132236 -0.12328565 0.070243835
0.42240936 0.54882932 0.25218296
0.44236538 0.65595931 -0.022855282
0.47444338 0.76967335 -0.4649539
0.42179236 0.055117309 0.18332195
0.42067936 0.089760303 0.198843
0.42357737 0.0046133399 0.1584177
0.41562638 0.3245973 0.26934195
0.41947338 -0.035173655 0.13681889
0.40960237 0.5190233 0.27622795
0.40828237 0.12974334 0.21603203
0.40760338 0.59058231 0.225739
0.45144036 0.77046835 -0.40115833
0.41172937 -0.12072068 0.085289001
0.45406237 0.81262732 -0.52779198
0.39608037 0.1758073 0.23129606
0.39474937 0.24793935 0.25082302
0.38922438 0.24793732 0.25043011
0.38738638 0.5191853 0.27774382
0.38732538 0.47791231 0.27864313
0.41305837 0.73835135 -0.19195318
0.37129036 0.40508631 0.27035713
0.36663038 0.29531533 0.25669289
0.37081236 -0.11779267 0.10215807
0.36057737 0.54964131 0.26483011
0.36234236 0.5911653 0.23678589
0.38023138 -0.29576766 -0.047553062
0.35885236 0.090802312 0.20343971
0.34441838 0.54933834 0.25754309
0.36171937 -0.29243362 -0.029426098
0.33902338 0.5492363 0.25510883
0.33903837 0.32380432 0.25485706
0.34366837 0.66216934 0.17692184
0.35638937 0.74108332 -0.037190914
0.33345237 0.51819134 0.25565004
0.32869336 0.24750632 0.242136
0.32805437 0.51807833 0.25321674
0.33235237 0.66224229 0.17867708
0.34356436 -0.28988671 -0.01578331
0.34043738 -0.22687972 0.038459778
0.32596436 0.057022333 0.19246292
0.32282138 0.29476434 0.24781179
0.32247236 0.36397031 0.25395679
0.36083838 0.85058331 -0.42169428
0.33753237 -0.28904366 -0.011254311
0.31149337 0.40404531 0.252141
0.34749737 0.85059834 -0.40207911
0.32035536 -0.16087663 0.091103077
0.30739936 0.17576331 0.22545385
0.30090338 0.29444432 0.24298096
0.30829638 0.74357134 0.10422611
0.30054736 -0.068763673 0.14393806
0.29571536 0.24710733 0.23614407
0.29668236 0.6204893 0.21768093
0.29045638 0.54817432 0.23043108
0.28978938 0.43593633 0.24337196
0.31975436 0.85064632 -0.33810997
0.30926237 -0.42420864 -0.13450003
0.28445137 0.29419231 0.23927307
0.28048936 0.62014234 0.20742893
0.27421537 0.54779232 0.22171068
0.27585036 0.66262132 0.18826771
0.27004537 0.057414293 0.19267988
0.26848936 0.20455134 0.22506571
0.26797038 0.32253331 0.23587608
0.27189636 0.69316733 0.15414286
0.25748438 0.20435631 0.22263479
0.27881536 -0.51481569 -0.23822594
0.26889738 -0.35010064 -0.023940086
0.25197938 0.20425731 0.22141886
0.25346136 0.61950135 0.18877411
0.25870636 -0.22044063 0.073278904
0.25140938 -0.15749073 0.10934591
0.24083337 0.43467534 0.22195292
0.24570337 -0.15728474 0.11041212
0.24300537 -0.27913964 0.041236877
0.23160037 0.0084963441 0.17693806
0.23132238 0.58923936 0.18357086
0.22978836 0.40205133 0.22017193
0.21891037 0.2036553 0.21411467
0.21869236 0.32134634 0.21953678
0.22089636 0.61866432 0.16467285
0.21926236 0.47407332 0.20534182
0.21327338 0.24553531 0.21593571
0.21529937 -0.029832661 0.16437483
0.21483836 0.0084753036 0.17610168
0.21318737 0.29260832 0.21813488
0.21321237 0.32119435 0.21750593
0.22158536 -0.34456873 0.0043988228
0.20823437 0.12941432 0.20230198
0.20260838 0.43356931 0.20367384
0.19950937 -0.11141568 0.13620472
0.20888437 -0.49041164 -0.11946011
0.19450137 -0.15566468 0.1187439
0.20896436 -0.60093772 -0.2853179
0.18573937 0.29179931 0.20796394
0.18600138 0.40076831 0.20046902
0.18075237 0.090327322 0.19091177
0.18037137 0.1738683 0.20209885
0.18561137 0.74269634 0.048183918
0.17475937 0.32011533 0.20325804
0.16919936 0.24443632 0.20288086
0.17074837 0.54476732 0.15490389
0.17326237 0.69132131 0.077064037
0.16489138 -0.029824674 0.16264868
0.16913538 -0.33999968 0.027614117
0.15314937 0.056461334 0.18049479
0.15269037 0.20203632 0.19596577
0.15483737 0.5868603 0.12362099
0.15874037 -0.39896762 -0.0078930855
0.15487337 -0.15489066 0.12240171
0.14730337 0.12817633 0.18936491
0.14878437 -0.11090165 0.13796902
0.14838237 -0.066733658 0.15192795
0.15130237 0.6906693 0.05056572
0.14162637 0.20173532 0.19270706
0.13644537 0.056212306 0.17802477
0.13741837 0.51259029 0.14203167
0.13791837 -0.15462971 0.12358999
0.13476537 0.69012731 0.028640747
0.13781036 0.77446634 -0.087663174
0.11975236 0.05584234 0.17462587
0.12172838 0.58565629 0.093779087
0.12530337 0.74098635 -0.052507877
0.11397538 0.2426253 0.18242073
0.11494938 0.47042933 0.14106274
0.10843436 0.24244034 0.1803689
0.11149137 -0.33642268 0.045675755
0.10305236 0.055428326 0.17092609
0.10320437 0.0073203444 0.16394472
0.10456437 0.54227829 0.10161686
0.11110137 -0.63172972 -0.19796705
0.097351372 0.12678832 0.17592573
0.091898367 0.28857732 0.16893196
0.092492372 0.42952433 0.13932705
0.088567376 -0.33538473 0.050889969
0.080665372 0.1996603 0.17101479
0.080885373 0.31660634 0.15901709
0.081527367 -0.15436971 0.12397194
0.075156368 0.24113131 0.16603279
0.07527937 0.0067372918 0.158988
0.077220373 0.58378136 0.047776699
0.07583037 0.42875832 0.1274271
0.071142368 0.54079431 0.070295811
0.058408372 0.087286294 0.16250372
0.059110373 0.42796633 0.11518908
0.053762369 0.46768832 0.09406805
0.056960367 -0.61770368 -0.13498497
0.051035367 0.6861583 -0.13013411
0.042181373 0.39491731 0.11494207
0.042328373 0.42716932 0.10290766
0.042099372 -0.15463972 0.12164211
0.036082372 0.16920334 0.15514374
0.03658437 0.39463031 0.11085367
0.04142037 -0.76580071 -0.31542826
0.03064137 -0.068239689 0.13911009
0.030571371 0.23925531 0.14581585
0.035191372 -0.7610687 -0.29536724
0.026509367 0.58115029 -0.016120911
0.026836373 0.61091334 -0.050165176
0.028235368 -0.69608963 -0.19582796
0.019391369 0.23869532 0.13986874
0.01385837 -0.11196667 0.12839413
0.013791371 0.23841435 0.13688803
0.008104369 0.052487314 0.14599085
0.0082503706 0.2847923 0.12499571
0.008685369 -0.33303273 0.062743664
0.008398369 -0.21431565 0.10381269
0.0025803708 0.23785132 0.13092375
0.0034083687 0.5372113 -0.0045752525
-0.0027906299 0.39257833 0.081725121
-0.0027076304 0.42474133 0.065804958
-0.0087006297 -0.033094704 0.13582373
-0.0086066294 0.28387129 0.11447573
-0.0075956304 0.6084463 -0.11724091
-0.008287631 -0.38905966 0.041326046
-0.008388631 -0.3327297 0.06430912
-0.014329631 0.1225403 0.13721609
-0.014314631 0.1668613 0.13284874
-0.013693631 -0.54907763 -0.045053005
-0.01990563 0.2367143 0.11896276
-0.01949963 0.53569329 -0.036066055
-0.019727631 0.42378831 0.051324844
-0.01989563 -0.15556967 0.11523771
-0.031062631 0.50410432 -0.019627094
-0.031087629 -0.4636997 0.0090956688
-0.036824629 0.60536534 -0.20078707
-0.036824629 -0.68209171 -0.13500309
-0.042688631 0.57603228 -0.13940716
-0.042528629 -0.38840866 0.044685841
-0.04845063 0.53353733 -0.080655098
-0.048171632 0.30999529 0.079181671
-0.053729631 -0.034797668 0.12343597
-0.060150631 0.53255033 -0.1010251
-0.05956763 -0.33242667 0.065948009
-0.065839633 0.50149536 -0.068560123
-0.066026628 0.53205431 -0.11126328
-0.07067363 -0.071428657 0.116611
-0.076918632 -0.46200264 0.017669678
-0.082315631 0.27949333 0.065068722
-0.082641631 -0.46186674 0.018383026
-0.087700635 0.11870533 0.10367393
-0.088673629 -0.54384065 -0.020184994
-0.09332063 -0.1151157 0.10743999
-0.095293626 0.49881732 -0.11863995
-0.095825627 0.52873933 -0.1796279
-0.094493628 0.41859332 -0.026987076
-0.096267626 -0.82092762 -0.23026419
-0.10801963 0.52691633 -0.21720219
-0.10617063 0.41768432 -0.040612221
-0.10591963 -0.54312372 -0.016644001
-0.11029463 -0.037336707 0.10541582
-0.11202863 0.41722831 -0.047446251
-0.11125263 -0.46139669 0.020988941
-0.11791163 0.41669631 -0.055418015
-0.11973863 -0.8147707 -0.20499802
-0.11613863 -0.21669972 0.089707851
-0.12171963 0.046213329 0.096121788
-0.12253163 0.2767213 0.034122944
-0.12735063 -0.0012436509 0.098256111
-0.12886463 0.34421533 -0.010196209
-0.13338962 -0.92863369 -0.33428717
-0.13302763 -0.038537681 0.097003937
-0.13901064 0.11554331 0.076483727
-0.14014563 0.30363834 0.0042357445
-0.13945763 -0.38792169 0.048047066
-0.14195162 -0.71775866 -0.11069822
-0.14078364 -0.59610462 -0.03635788
-0.14440462 -0.074845672 0.093590736
-0.14571464 0.27496731 0.01462698
-0.14698362 0.38228333 -0.061928272
-0.14516063 -0.38794971 0.047991753
-0.14610863 -0.54164672 -0.0091352463
-0.15062362 -0.33337069 0.061727047
-0.15622863 0.11436433 0.066410065
-0.15663463 0.18669134 0.044296741
-0.15758163 -0.54132271 -0.0074043274
-0.16198564 0.11394632 0.062844753
-0.16151063 -0.11823267 0.087604046
-0.16485663 0.38049832 -0.086672306
-0.16842863 -0.91289771 -0.27270317
-0.16155162 -0.16041172 0.085453987
-0.16756862 0.075927317 0.068214893
-0.16722862 -0.076115668 0.085147858
-0.17776462 0.41056731 -0.14709806
-0.17320164 -0.27323771 0.070725918
-0.17876562 -0.21910167 0.076229095
-0.18452463 -0.004758656 0.072706699
-0.18791263 0.3389793 -0.076600075
-0.18762863 -0.66623974 -0.064061165
-0.18680464 -0.59441364 -0.027765274
-0.19086263 0.11184233 0.044968128
-0.19009262 -0.11981869 0.077635765
-0.19392262 0.33832735 -0.084865093
-0.19255163 -0.59420764 -0.02669096
-0.19622763 0.04140234 0.058967113
-0.19852063 0.27049834 -0.034842968
-0.19994463 0.33767432 -0.093148232
-0.19980063 -0.71252072 -0.087250233
-0.20286663 0.15476334 0.021657944
-0.20230962 -0.38900065 0.043664932
-0.20958363 0.22356331 -0.016097069
-0.21099663 0.2972793 -0.070069313
-0.21644562 -0.66472769 -0.056736946
-0.21308963 -0.22071767 0.067285061
-0.22079363 0.18151033 -0.0048732758
-0.22300063 0.2960943 -0.083868027
-0.23034564 0.3342253 -0.1367979
-0.22867163 -0.71068072 -0.078654289
-0.24098264 -0.99008465 -0.29748297
-0.24271363 0.33259231 -0.15749311
-0.24264362 0.037884295 0.032064915
-0.24296163 -0.46176767 0.021955967
-0.24754862 -0.79552865 -0.12401915
-0.25245163 0.2650913 -0.094481945
-0.25102463 -0.66348863 -0.05029726
-0.25432462 0.03693831 0.024859905
-0.25956261 0.29187632 -0.13302326
-0.25363362 -0.33677065 0.045683861
-0.25340363 -0.27675068 0.052622795
-0.25974262 -0.010160685 0.033947945
-0.27369761 -1.0740057 -0.37592888
-0.26987565 -0.98126566 -0.26366711
-0.26486763 -0.79383767 -0.1165781
-0.26533562 -0.047176659 0.037632942
-0.26594463 -0.46227467 0.0201931
-0.27093065 -0.082849681 0.041072845
-0.27776963 0.035032332 0.010398865
-0.28223562 -0.79271364 -0.11139488
-0.27639365 -0.22424567 0.047929764
-0.29004964 0.066101313 -0.010318279
-0.29235062 0.17458332 -0.070224285
-0.29877362 -0.97450769 -0.2374053
-0.28797662 -0.2250247 0.043647766
-0.30367562 -0.7075367 -0.062685966
-0.31151962 -0.12796068 0.027288914
-0.31184462 -0.0861637 0.019535065
-0.31738263 -0.12845969 0.024207115
-0.32284063 0.17106831 -0.10336733
-0.31850064 -0.015195668 -0.0019183159
-0.32980263 0.28049433 -0.26607609
-0.32313964 -0.39360273 0.023638725
-0.33451864 -0.34101272 0.025581837
-0.33472064 -0.1713407 0.021135807
-0.34170762 -0.54225969 -0.005877018
-0.34675863 -0.46514273 0.0092101097
-0.36431763 -1.1396956 -0.36313534
-0.35422263 -0.018657684 -0.026512146
-0.35391665 -0.59403765 -0.020140171
-0.37559363 -1.1347407 -0.34531021
-0.35779163 -0.34246862 0.01868391
-0.36448964 -0.13249469 -0.00055122375
-0.38191062 0.24200231 -0.35049009
-0.37388164 -0.96248269 -0.18921614
-0.37902763 0.16359735 -0.17383528
-0.38254964 -1.0385677 -0.24337101
-0.37068063 -0.54323065 -0.009059906
-0.39548662 0.19929332 -0.26234531
-0.39989564 -1.0358657 -0.23270702
-0.39447162 -0.87844563 -0.13090611
-0.38731864 -0.23242664 0.0033478737
-0.40042964 0.090744317 -0.13244724
-0.41559464 0.13087732 -0.19346333
-0.42121062 -1.1206946 -0.29391289
-0.40957463 -0.78786373 -0.085774899
-0.41617662 0.020552337 -0.09926796
-0.41465363 -0.025139689 -0.072453022
-0.43140063 0.15431333 -0.26186228
-0.41952363 -0.70726967 -0.055883884
-0.41779464 -0.59603763 -0.025895119
-0.42856562 0.018991292 -0.11107826
-0.42533463 -0.70734763 -0.055878162
-0.43280363 -0.78769362 -0.083744049
-0.42889664 -0.54579663 -0.017978191
-0.43712962 -0.098284662 -0.058685303
-0.43549663 -0.18040669 -0.031588078
-0.46209162 0.12204534 -0.27355003
-0.45987263 0.014801323 -0.1428113
-0.45870662 -0.59795773 -0.032182217
-0.47817862 -0.95424271 -0.1524291
-0.47071162 -0.24014568 -0.038511276
-0.47041562 -0.59851873 -0.033986092
-0.48757663 0.041581333 -0.20507288
-0.48120663 -0.068902671 -0.10917091
-0.47606564 -0.29328573 -0.03177309
-0.50613666 0.10906631 -0.39245605
-0.48761463 -0.54936373 -0.031091213
-0.49859664 -0.10565066 -0.10617828
-0.50407565 -1.0245717 -0.18551826
-0.51124465 0.0068573356 -0.2031889
-0.49951664 -0.35386074 -0.0354743
-0.49939662 -0.55009866 -0.033756256
-0.5178026 0.0057322979 -0.21176624
-0.51078862 -0.87561464 -0.11269617
-0.51728463 -0.10801965 -0.12141991
-0.51447564 -0.78863871 -0.082240105
-0.51298362 -0.70998764 -0.061426163
-0.52357763 -0.10889965 -0.12711811
-0.5376296 0.0022463202 -0.23833513
-0.54876465 0.060430348 -0.38996315
-0.52415967 -0.66784465 -0.05491209
-0.52534562 -0.24613571 -0.071062088
-0.53209066 -0.78920972 -0.083279133
-0.52955866 -0.35675371 -0.049210072
-0.53145862 -0.24682271 -0.074780941
-0.53299862 -0.19140267 -0.09549427
-0.53594464 -0.66846073 -0.056735039
-0.55094665 -0.078966677 -0.17737293
-0.5411666 -0.40984869 -0.04880619
-0.54257363 -0.30024862 -0.067302227
-0.54836762 -0.71185565 -0.066761971
-0.57178265 -0.0048346519 -0.29264593
-0.58288664 -0.48218071 -0.060554981
-0.60567063 -1.0485387 -0.26449919
-0.60090363 -0.9523257 -0.13609219
-0.60767561 -0.71546769 -0.077352047
-0.63074166 -0.093425691 -0.27607727
-0.61654365 -0.87761366 -0.11214304
-0.62487161 -0.60968971 -0.073173046
-0.65172464 -0.09812969 -0.30848122
-0.6315186 -0.48731971 -0.082079887
-0.64486766 -0.42118669 -0.09992218
-0.6537466 -0.2088567 -0.19748497
-0.6510666 -0.4219557 -0.1034112
-0.65729862 -0.4227767 -0.1071701
-0.68404663 -0.17558765 -0.26555014
-0.66757363 -0.71999371 -0.091284275
-0.70431066 -0.11338866 -0.41475105
-0.6776126 -0.37461174 -0.13492393
-0.67998964 -0.3182677 -0.15983725
-0.67362165 -0.72055066 -0.09308815
-0.68551666 -0.68002164 -0.094521999
-0.69665861 -0.37735069 -0.14817333
-0.72632164 -0.14867067 -0.38805389
-0.70940465 -0.37918866 -0.15703726
-0.71226561 -0.32327569 -0.18570709
-0.75086963 -0.15762067 -0.44831228
-0.72439063 -0.49854767 -0.12935925
-0.73190063 -0.32654274 -0.20266294
-0.72215563 -0.72505665 -0.10754728
-0.73594064 -0.88425565 -0.12661123
-0.73433262 -0.72619963 -0.11117506
-0.73439765 -0.68508065 -0.11180592
-0.75575262 -0.22896373 -0.31670427
-0.75842565 -0.33122873 -0.22707891
-0.75856262 -0.43699265 -0.17212534
-0.75284362 -0.68707263 -0.118608
-0.76774764 -0.38845062 -0.20204926
-0.76673561 -0.57706964 -0.13760233
-0.79795462 -0.29004073 -0.31287813
-0.80588663 -0.34038067 -0.27500391
-0.80417162 -0.44439566 -0.20623493
-0.79721063 -0.62908065 -0.1446619
-0.80728662 -0.51062965 -0.18092489
-0.80215365 -0.73370063 -0.13587189
-0.82399362 -0.44779766 -0.22196007
-0.82679361 -0.51375973 -0.19437122
-0.86224765 -0.40631163 -0.28985596
-0.87114662 -0.45662165 -0.26304817
-0.88447964 -0.35873866 -0.37242222
-0.86083663 -0.63807464 -0.17846823
-0.8672986 -0.63908565 -0.18232107
-0.9269796 -0.53178167 -0.27247429
-1.0234296 -0.45328665 -0.5287323
-1.0188346 -0.5520817 -0.36205721
