# .PCD v0.7 - Point Cloud Data file format
VERSION 0.7
FIELDS x y z
SIZE 4 4 4
TYPE F F F
COUNT 1 1 1
WIDTH 1
HEIGHT 512
VIEWPOINT 0 0 0 1 0 0 0
POINTS 512
DATA ascii
0.98910087 0.09520638 -0.072413921
0.99119884 0.13296539 -0.085812092
0.98589176 -0.2569716 -0.051924229
0.97705585 -0.099203587 -0.032670975
0.97132486 -0.31945062 -0.071023941
0.96153784 0.13373041 -0.083588123
0.97901279 -0.55105066 -0.23786402
0.94969183 0.13403237 -0.082697868
0.93618882 -0.018731594 -0.031511307
0.94141483 -0.31781363 -0.06648016
0.92380482 -0.017768621 -0.026285172
0.92471379 0.019039392 -0.032441139
0.91852784 0.019498408 -0.029839993
0.9161768 -0.13731158 -0.013822079
0.91888183 0.13574737 -0.072022915
0.90528083 -0.016331613 -0.018468857
0.90617579 0.020413399 -0.024641991
0.89639479 0.067381382 -0.03724432
0.9023658 -0.4490366 -0.11995506
0.91716784 0.36034238 -0.26613808
0.90416282 0.36103338 -0.25897121
0.86990082 -0.24745858 -0.013630867
0.86187482 -0.048694611 0.0025968552
0.88552082 0.29555237 -0.16780615
0.92757583 0.4639104 -0.56108904
0.85209084 0.32484937 -0.18286991
0.85891581 0.36342639 -0.23401928
0.83275878 -0.36229658 -0.037979126
0.82627279 0.14163041 -0.032701015
0.81959283 -0.009767592 0.017700672
0.82041883 0.026698411 0.011465073
0.81826782 0.10482842 -0.015818119
0.84606081 0.36410338 -0.2269249
0.88688284 0.46566239 -0.53699923
0.8368538 -0.52985263 -0.15698814
0.80057079 -0.085906625 0.031695843
0.80139083 -0.0083906054 0.025384903
0.87128681 0.46721938 -0.51278496
0.81130379 0.25395441 -0.095848083
0.7985608 0.18668342 -0.041887283
0.8276338 0.40416339 -0.26884222
0.7919358 -0.3002826 0.0098280907
0.78962779 0.14392442 -0.017129898
0.8144688 -0.59052157 -0.2123971
0.7768448 -0.041991591 0.038473129
0.80769682 0.36611342 -0.20574808
0.81439483 0.4049944 -0.25876713
0.77117884 -0.0061175823 0.038140774
0.76996982 -0.12468159 0.047774792
0.76463681 -0.18201363 0.044841766
0.76612681 -0.51758766 -0.10763502
0.74187583 0.032345414 0.044573784
0.7696228 0.3680954 -0.18471622
0.76695782 -0.57841861 -0.16269398
0.7341128 -0.35009956 0.014148712
0.74141979 0.30348241 -0.095912933
0.71930784 -0.29269862 0.042809963
0.71583283 -0.34786856 0.023796082
0.74436581 0.43937141 -0.27214622
0.7072928 -0.29145765 0.048263073
0.69894284 -0.078134596 0.07147789
0.70115483 0.1926254 0.0023498535
0.70685482 0.25974238 -0.047671318
0.68816382 -0.00085961819 0.066646099
0.68716282 -0.1188426 0.075499058
0.69849581 0.30566841 -0.075977325
0.6773988 0.035558403 0.061553001
0.67491382 -0.34530056 0.032728672
0.67003679 -0.11832559 0.076908112
0.69361079 0.41087139 -0.18996286
0.66025883 0.03597641 0.062850952
0.71977484 0.5157544 -0.4850049
0.65895182 -0.17506361 0.074880123
0.66080582 0.19340241 0.0052008629
0.65387982 4.7385693e-05 0.069478989
0.65189284 -0.34437156 0.035141945
0.65753382 0.30643541 -0.071722031
0.64039683 -0.34391356 0.036343098
0.63846684 -0.4185816 0.00034570694
0.62768281 0.082218409 0.049394131
0.64261079 -0.65010762 -0.20916891
0.62351578 0.37309837 -0.13598824
0.60170484 -0.1163336 0.082539082
0.62006581 -0.56152165 -0.10141611
0.63993281 -0.7267406 -0.36083221
0.63770682 0.52073038 -0.39957905
0.60321283 -0.50119865 -0.047782898
0.59056181 0.26203942 -0.035786152
0.5804798 0.037848413 0.068915844
0.61593384 0.48162439 -0.29928493
0.60663182 -0.64781857 -0.20268297
0.57066083 0.22235841 -0.0070171356
0.57323682 0.26231641 -0.034521103
0.55711484 0.0024763942 0.077481747
0.57036179 0.30776137 -0.065318108
0.5514378 0.0026134253 0.077950954
0.55171782 0.19538337 0.01299572
0.54639179 0.038611412 0.071518898
0.56082582 0.3355664 -0.087081909
0.5487268 -0.34040856 0.045856953
0.5400908 0.002884388 0.078889847
0.54145283 -0.28554666 0.063778877
0.54390979 -0.55783355 -0.091699123
0.5393188 -0.49824655 -0.039751053
0.53758979 0.3358714 -0.085504055
0.52439284 -0.28498864 0.065333843
0.51771283 -0.22491658 0.077362061
0.51373482 0.084644377 0.058144093
0.52017981 0.33609641 -0.084316254
0.50439984 0.15322042 0.034904003
0.50103384 0.039591372 0.074996948
0.5405488 0.52141142 -0.39557505
0.49983084 -0.17016864 0.089324951
0.50857979 0.3362444 -0.083523273
0.4885208 -0.16984558 0.09034586
0.48625582 0.11677742 0.049199104
0.51407683 0.4825474 -0.29283905
0.48464984 -0.28372264 0.06895113
0.48371482 -0.22389162 0.080443859
0.48031479 -0.33796561 0.05287075
0.47400683 0.085434377 0.061213017
0.50212181 0.4826504 -0.29207325
0.46764183 -0.28319359 0.070496082
0.49209279 0.52173042 -0.39346695
0.46416181 -0.49497461 -0.030478001
0.44651377 0.11751741 0.052287102
0.44180483 0.15433538 0.039784908
0.43807679 -0.029795587 0.089946747
0.4573648 0.41385639 -0.16960001
0.44235182 0.37527537 -0.12344122
0.42801982 -0.28199565 0.07408905
0.42942679 0.26446241 -0.023930073
0.43427378 -0.63774264 -0.17292309
0.41061783 0.041427374 0.081968784
0.41034579 0.22488439 0.0047011375
0.40900379 -0.40984654 0.024138927
0.4065938 -0.49261665 -0.023505211
0.41049981 0.41433039 -0.16625023
0.38737983 -0.028683603 0.094151974
0.38385081 -0.33477461 0.062644005
0.38135278 -0.11065459 0.10075283
0.37719178 -0.28052461 0.07868576
0.3869558 -0.55096459 -0.072300911
0.37614179 0.2253744 0.0072340965
0.37840879 0.37596041 -0.11891603
0.35956782 -0.22041464 0.091649055
0.36099982 0.3761394 -0.11767626
0.35788381 0.41483739 -0.16246033
0.34642082 -0.40777159 0.030479908
0.3433758 -0.27958763 0.081736088
0.34269679 -0.21997464 0.093165874
0.33629978 0.22592437 0.010198116
0.32060683 -0.48933566 -0.013295174
0.3135618 0.22622842 0.011898041
0.30933982 0.043295383 0.089846134
0.32042181 0.37654442 -0.11476898
0.30688882 0.19917637 0.030932903
0.29754382 -0.026851594 0.10161304
0.31705183 0.5227654 -0.38523626
0.28603482 -0.16463161 0.10852909
0.28207278 0.088845372 0.07618475
0.2979508 -0.69308758 -0.24275112
0.28888279 -0.5471766 -0.060615063
0.27567679 0.043871403 0.092478752
0.2748428 -0.16437459 0.10952902
0.26924682 -0.16424763 0.11002779
0.2773788 -0.54675758 -0.059267044
0.26394278 -0.026211619 0.10440683
0.26161379 0.19977838 0.034318924
0.2809478 0.52295637 -0.38341713
0.25574178 -0.40499961 0.039552689
0.2478518 -0.27712059 0.090317726
0.25832278 -0.62899756 -0.14481497
0.25482577 0.44687539 -0.1973629
0.2413028 -0.10764563 0.11237192
0.23584779 -0.066948593 0.10980988
0.24522381 0.37724942 -0.10933018
0.2404948 0.48462939 -0.27470303
0.23143379 -0.54513955 -0.053929329
0.21909179 -0.066635609 0.11120272
0.2236418 -0.48598456 -0.0020833015
0.21821178 0.26710439 -0.0080242157
0.2137828 -0.21687555 0.1047039
0.2269998 -0.68974757 -0.23168993
0.20792779 -0.066431582 0.11213207
0.22085179 0.52325642 -0.38029909
0.21227381 0.41609839 -0.15180588
0.21520479 -0.68921864 -0.22988987
0.2085008 -0.54436362 -0.051290989
0.19170681 0.045213401 0.099082947
0.1882018 0.20068741 0.039852142
0.1932788 0.37770039 -0.10553122
0.1854908 -0.16244364 0.11748075
0.18065479 -0.2755456 0.096323967
0.1916398 -0.68818355 -0.22632599
0.1774348 0.4163684 -0.14922094
0.1633168 -0.065640628 0.11584568
0.16388279 -0.27517259 0.097818851
0.1521758 -0.065450609 0.11677504
0.15950181 -0.62478161 -0.130054
0.1608468 0.52353442 -0.3770709
0.1516618 0.34003741 -0.058227062
0.1537068 -0.62454963 -0.12921
0.1465008 -0.16166759 0.12093878
0.1418878 0.090907395 0.087269783
0.1414468 0.045950413 0.10305691
0.13555481 -0.023996592 0.11509991
0.1345048 0.34018242 -0.056969166
0.12571579 0.15896738 0.064795971
0.1251258 -0.32769156 0.088136673
0.1195228 0.091202378 0.08905077
0.11540879 0.2285524 0.026926041
0.1133478 0.011108398 0.11436796
0.11735579 0.3403244 -0.055706978
0.1085958 0.12268138 0.078942776
0.1077818 0.011190414 0.11483192
0.1105288 0.48541439 -0.26566219
0.097174793 0.091488421 0.090834141
0.10691279 0.52376539 -0.37407112
0.091340795 0.44795439 -0.18618202
0.079964802 0.011589408 0.11715698
0.074834801 -0.32656765 0.092970848
0.074611798 -0.27332866 0.10575199
0.0702978 0.22900039 0.030400753
0.075165801 0.48560441 -0.26315308
0.068046801 0.44808939 -0.1845479
0.063471802 -0.27311563 0.10673809
0.0584528 0.15973538 0.070193768
0.0587558 0.20208842 0.049749851
0.060913801 0.37871838 -0.095696926
0.053139798 0.20214337 0.050182819
0.056727797 -0.68282259 -0.20675611
0.046622798 -0.21354663 0.11953068
0.046488799 -0.15986264 0.12977505
0.046503797 -0.1042456 0.12859488
0.041793801 -0.39957464 0.060420036
0.042932801 -0.53940761 -0.032811165
0.035916798 0.12352741 0.084770679
0.036504798 0.22931641 0.033019066
0.038949803 0.4482514 -0.18249512
0.035395801 -0.15967858 0.13075113
0.0249778 -0.39921463 0.062026978
0.025869798 -0.53896058 -0.030961037
0.0207288 0.3789894 -0.09266901
0.0080047995 0.12382638 0.087018013
0.0085557997 0.2691204 0.0081758499
0.0089447983 0.34114039 -0.047633171
0.007754799 -0.21288562 0.1229558
0.0076828003 -0.15923464 0.13318872
0.007692799 -0.10367763 0.13183498
0.0021697991 -0.063171625 0.12929201
0.0052087978 0.52415335 -0.36816216
-0.0087322015 0.12399942 0.088367939
-0.0089012012 -0.021941602 0.12716389
-0.0072242003 0.4860104 -0.25722933
-0.0140342 0.26930141 0.0099468231
-0.0133752 0.4485234 -0.17876625
-0.013629202 -0.61861563 -0.10599232
-0.014466202 -0.10337061 0.13368511
-0.0255422 -0.1587286 0.13610601
-0.030940201 0.31430638 -0.019382954
-0.030840201 0.41773641 -0.13347721
-0.030979201 -0.47896266 0.025815964
-0.036611199 0.37934738 -0.088312149
-0.042174201 0.093059421 0.10202074
-0.042213202 0.20300138 0.057591915
-0.042417202 0.4486644 -0.17667532
-0.059571199 -0.61724257 -0.09999609
-0.064525202 0.1609394 0.080133915
-0.064814202 0.26968139 0.013942719
-0.064311199 0.013392389 0.12922382
-0.064411201 -0.32388663 0.10614395
-0.069819197 -0.062263608 0.13531303
-0.071849197 0.48629141 -0.25250626
-0.070370197 -0.47810864 0.029932022
-0.076089203 0.26976138 0.014833927
-0.0764312 0.34168637 -0.04116106
-0.076701201 0.37957639 -0.085242271
-0.0772442 0.44882441 -0.17414427
-0.0753842 -0.21161366 0.13025808
-0.081098199 0.09343338 0.10516882
-0.081409201 0.20331341 0.060666084
-0.080921203 0.013571382 0.13061571
-0.081940204 0.31465042 -0.015343189
-0.091943204 -0.062009633 0.13716412
-0.092999205 0.26987737 0.016171932
-0.092077196 0.048718393 0.12175894
-0.094767198 -0.67796564 -0.18649626
-0.091901198 -0.15780759 0.14191389
-0.1030582 0.013800383 0.13247013
-0.1031742 -0.27035856 0.12141609
-0.1099022 0.26998937 0.017512798
-0.1115442 0.4181504 -0.12724113
-0.1168872 -0.61568463 -0.092743874
-0.1195182 -0.15745866 0.14432573
-0.1264212 0.23060238 0.045800686
-0.1362042 -0.020515621 0.13782501
-0.1365972 -0.32274759 0.11284971
-0.1362402 -0.21080661 0.13557768
-0.1470072 -0.67657864 -0.17993402
-0.14720219 -0.0614236 0.14179373
-0.1518442 0.41833338 -0.1240983
-0.1512232 -0.61483455 -0.088522911
-0.1498962 -0.53506863 -0.012527943
-0.1490142 -0.47658956 0.037986755
-0.1538872 -0.39599657 0.078836918
-0.1526342 -0.15706766 0.14721107
-0.15462521 -0.47649062 0.038553715
-0.1605742 0.27030241 0.021546841
-0.15854621 0.049308419 0.12715197
-0.16266119 -0.61456561 -0.087135315
-0.16732819 0.34217441 -0.034162998
-0.1699432 0.094179392 0.1123929
-0.17392521 0.38005841 -0.077710152
-0.1692262 -0.10155559 0.14663887
-0.1781192 0.31520742 -0.0076599121
-0.17541221 -0.32220662 0.11642313
-0.18032721 -0.061106622 0.14457083
-0.19203821 -0.32199061 0.11794567
-0.1972782 0.04961139 0.13030767
-0.21550719 0.52477944 -0.35419703
-0.2025312 -0.21004665 0.14134979
-0.2111982 0.27057838 0.025601864
-0.21496621 0.16206038 0.092414856
-0.21606821 0.2311424 0.052949905
-0.2221112 0.44937241 -0.16338921
-0.2301362 0.48683938 -0.24064398
-0.2194152 -0.26892555 0.1315589
-0.2245512 -0.019740582 0.14523792
-0.2336822 0.27068937 0.027410984
-0.2402882 -0.53356957 -0.0034832954
-0.2440542 0.23128539 0.055197716
-0.2430262 -0.39480865 0.087013721
-0.2499032 -0.47500861 0.04800272
-0.27110919 0.48694938 -0.23750591
-0.26850021 -0.53317165 -0.00072002411
-0.26955122 -0.32110059 0.12498713
-0.29289418 0.52492839 -0.34892988
-0.28866023 0.48699239 -0.23615313
-0.27946621 -0.10062063 0.1558919
-0.2848832 -0.15580356 0.15867996
-0.2918632 0.094962418 0.12238884
-0.29669821 -0.53280759 0.002011776
-0.29630721 -0.20918465 0.1494751
-0.30339122 0.12621641 0.11241674
-0.30798417 0.31576937 0.0028409958
-0.30797321 -0.53267157 0.0030961037
-0.31263322 -0.060098588 0.1556859
-0.31676322 0.2316044 0.061077118
-0.3192482 -0.53254056 0.0041747093
-0.3181392 -0.060065627 0.15614891
-0.32354921 0.27106339 0.034687996
-0.34048522 0.52500236 -0.34559631
-0.33371222 0.38062739 -0.065071106
-0.32485718 -0.32058859 0.12995005
-0.3238622 -0.20897865 0.15185404
-0.34147018 0.4189744 -0.10906029
-0.33492219 0.015565395 0.15194893
-0.34167719 0.095201373 0.12650394
-0.35029918 0.23172438 0.063807011
-0.35310018 0.31591439 0.006524086
-0.3539142 0.16274941 0.10388088
-0.3569172 -0.20876062 0.15470171
-0.36432618 -0.53207064 0.0084457397
-0.3623392 -0.018881619 0.15682697
-0.37057221 0.16281039 0.10526276
-0.37403917 0.050614417 0.14484692
-0.38527417 0.27125442 0.039731979
-0.39974523 0.4872064 -0.22747421
-0.39398921 0.34296638 -0.016216278
-0.40779322 0.38079637 -0.059102058
-0.4016242 0.050714374 0.14713478
-0.42966318 0.52510238 -0.33914995
-0.40221918 -0.32004261 0.13681269
-0.40620518 -0.059634626 0.16356468
-0.40653223 0.015874386 0.15798092
-0.41170818 -0.059614599 0.16403008
-0.42488217 0.38082737 -0.057713985
-0.44749218 0.52511638 -0.33783007
-0.42793822 0.34303242 -0.013468266
-0.41879022 -0.31995165 0.1382699
-0.43014318 0.27135938 0.043421745
-0.43763721 0.31611341 0.013473988
-0.4396742 0.2319634 0.071135044
-0.44766319 0.38086337 -0.055859089
-0.45045519 0.41917941 -0.10022688
-0.43535823 -0.31986964 0.13972092
-0.4335252 -0.099813581 0.16886091
-0.44313419 -0.39315259 0.10487986
-0.47062522 -0.67129362 -0.14416027
-0.45608318 0.016024411 0.16215992
-0.48152918 0.48730141 -0.2209549
-0.4560132 -0.20829356 0.16320276
-0.49502718 0.52514541 -0.33426189
-0.46793622 -0.47302866 0.068301678
-0.48748422 -0.60981464 -0.052047253
-0.48434621 0.050923407 0.15402889
-0.5187912 0.52515435 -0.3324523
-0.49396718 0.31619537 0.018140793
-0.48755223 -0.39297557 0.10875368
-0.48353022 -0.20821357 0.16555405
-0.50460321 0.38092738 -0.051197052
-0.49442822 -0.018459618 0.16796589
-0.49537218 0.050940394 0.1549511
-0.52252018 -0.67097759 -0.13920689
-0.5071342 -0.31961858 0.14596367
-0.51191121 0.050962389 0.15633678
-0.51620322 -0.05935359 0.17284679
-0.51643318 -0.01842761 0.16982508
-0.52413321 0.095675409 0.14170885
-0.52899319 0.23208141 0.078540802
-0.52293622 0.050973415 0.15726185
-0.54216921 0.4192594 -0.09268713
-0.5455842 -0.67088461 -0.13707733
-0.53867418 -0.60957766 -0.047272205
-0.56631017 0.5251624 -0.32877588
-0.5457772 -0.31955564 0.14929008
-0.5449512 -0.26706457 0.15955114
-0.55907518 0.27150542 0.054129124
-0.5609802 0.20518941 0.09959507
-0.5549382 -0.018397629 0.17308092
-0.58663118 0.4873454 -0.21241188
-0.57031018 0.1631614 0.1219697
-0.57767618 0.20519042 0.10099411
-0.57922417 0.23209542 0.082741737
-0.59759218 0.44993439 -0.13372231
-0.58986819 -0.60947859 -0.042700291
-0.59044421 0.095691383 0.14729214
-0.58767921 -0.059324622 0.1788888
-0.61199319 -0.53101456 0.030590057
-0.62020516 0.34315038 0.0023980141
-0.6322152 0.4499234 -0.13085508
-0.60366219 -0.15470564 0.18595076
-0.62022716 0.16314042 0.12618208
-0.63450819 -0.53104663 0.032491684
-0.64282119 0.34313542 0.0042977333
-0.62658119 -0.20814455 0.17771196
-0.64600921 0.31621039 0.030875683
-0.64106816 -0.47285056 0.083148003
-0.63769519 0.016114414 0.17751312
-0.65435117 0.27146238 0.06214571
-0.66398716 0.3809194 -0.037919044
-0.6552332 0.050919414 0.16842794
-0.65971017 0.016077399 0.17937803
-0.66780919 0.095605373 0.15384102
-0.66409421 -0.15480864 0.19106293
-0.67071718 0.016054392 0.18030977
-0.68805617 0.34308738 0.00812006
-0.67275721 -0.31969559 0.16004992
-0.68696821 -0.018550575 0.18425798
-0.6929642 -0.39305663 0.12622976
-0.69657218 0.12672442 0.1453681
-0.70011818 0.20506042 0.11134672
-0.7077052 -0.53129864 0.038548946
-0.70097119 0.095533371 0.15665913
-0.73129421 0.41915739 -0.076825142
-0.70362818 -0.20834959 0.18421268
-0.71318418 0.12668341 0.14678097
-0.71681821 0.20502442 0.11277199
-0.7151832 -0.39315462 0.12807798
-0.7147572 0.015936375 0.18404388
-0.76179117 0.4872224 -0.19776821
-0.72979617 0.12663841 0.14819574
-0.74938518 0.38080037 -0.030672073
-0.75422621 0.4191204 -0.074872971
-0.7591002 -0.67139959 -0.11937428
-0.73242819 0.050726414 0.17499971
-0.78515321 0.48718739 -0.19577503
-0.74779421 0.015821397 0.18684673
-0.77216518 0.38075542 -0.028724194
-0.7533012 0.015799403 0.18731499
-0.77249819 0.20487338 0.11754179
-0.78119618 0.31597137 0.042370796
-0.8001532 -0.67296958 -0.12147427
-0.77103919 0.050584376 0.17830181
-0.76883119 -0.10007763 0.19723892
-0.81330818 -0.67627156 -0.13407993
-0.79896116 0.31527942 0.036570072
-0.82652116 -0.67959559 -0.14675617
-0.8052482 -0.4774096 0.079142094
-0.81313616 0.26968938 0.060771942
-0.83816421 0.44749439 -0.14605188
-0.8045342 0.013689399 0.17794991
-0.83496422 -0.62185156 -0.071686268
-0.80327016 -0.15779257 0.18831778
-0.82080621 0.12400138 0.13662672
-0.82533419 0.20234239 0.10000992
-0.81749421 0.047897398 0.16341114
-0.8219592 0.012646377 0.17247486
-0.82200718 -0.21278656 0.17209387
-0.82088417 -0.10355759 0.18110609
-0.84098518 -0.27351165 0.15473604
-0.84405619 -0.1608876 0.1745348
-0.86020517 -0.48529756 0.04847002
-0.88800418 0.41459939 -0.12282896
-0.91578221 0.44328839 -0.20033693
-0.89170319 -0.54822266 -0.017436028
-0.88546419 0.1205374 0.11576509
-0.94587916 0.47763041 -0.33702087
-0.87920916 -0.16358662 0.16264868
-0.8854472 -0.06736362 0.15796995
-0.89363021 0.0434044 0.13898611
-0.8971802 -0.068146586 0.15428877
-0.90759921 0.087800384 0.11925983
-0.9355132 -0.55488956 -0.042199135
-0.9451862 0.30792642 -0.028408051
-0.9372282 0.08611238 0.1097331
-0.93883616 -0.02950263 0.13825893
-0.97517419 -0.56345356 -0.076051235
-0.95066321 -0.030270576 0.13454676
-0.9680472 -0.41432762 0.053627014
-0.97674519 0.15225637 0.072386742
