# .PCD v0.7 - Point Cloud Data file format
VERSION 0.7
FIELDS x y z
SIZE 4 4 4
TYPE F F F
COUNT 1 1 1
WIDTH 1
HEIGHT 512
VIEWPOINT 0 0 0 1 0 0 0
POINTS 512
DATA ascii
0.24486837 0.95649958 0.063898563
0.23252936 0.87963456 0.074760437
0.23260136 0.91457856 0.07266283
0.23268636 0.95653957 0.070146561
0.22640036 0.82520455 0.079431534
0.22657835 0.91459757 0.074068546
0.22666137 0.95654953 0.071553707
0.22055636 0.91461754 0.075476646
0.21430737 0.79181457 0.084244728
0.21447337 0.87971753 0.07897377
0.21453936 0.91463655 0.076879501
0.20815636 0.71385956 0.090322495
0.20821536 0.74588358 0.088403702
0.20836136 0.82532555 0.083638668
0.20215537 0.71392453 0.091721535
0.20235436 0.82536554 0.085038662
0.20258737 0.95658755 0.077177525
0.19602036 0.63473952 0.097868443
0.19607836 0.66809452 0.095869541
0.19615737 0.71399057 0.093117714
0.19644336 0.87979954 0.083181858
0.19650336 0.91469455 0.081091881
0.19008335 0.66817057 0.097266674
0.19029036 0.79200554 0.08984375
0.19034636 0.82544553 0.087840557
0.19049636 0.91471356 0.082495689
0.18429336 0.79205257 0.091243744
0.17805336 0.63498855 0.10205173
0.17817736 0.71418452 0.097306728
0.17822737 0.74617255 0.095390797
0.17786136 0.51293755 0.1093626
0.17791636 0.54758453 0.10728645
0.17798336 0.59057653 0.10471153
0.17849237 0.91475153 0.085298538
0.17855737 0.95662558 0.082790852
0.17207037 0.63507152 0.10344362
0.17223836 0.74622953 0.096786499
0.17183237 0.47008753 0.11285782
0.17188536 0.51304758 0.11075163
0.17235936 0.82556355 0.092038631
0.17255737 0.95663553 0.084193707
0.16608836 0.63515353 0.10483646
0.16613737 0.66847056 0.10284042
0.16625136 0.74628651 0.098180771
0.16602336 0.59076059 0.10749388
0.16011037 0.63523459 0.10622883
0.16022237 0.71437752 0.10148859
0.16026737 0.74634355 0.099576473
0.15993837 0.51326555 0.11353064
0.16037937 0.82564157 0.094833851
0.15998736 0.54788959 0.11145687
0.16004837 0.59085256 0.10888577
0.16045536 0.87996054 0.091583729
0.16050436 0.91480857 0.089497566
0.16056336 0.95665354 0.086995602
0.15424336 0.71444154 0.10288382
0.15428635 0.74640059 0.1009717
0.15401736 0.54799056 0.11284447
0.15407537 0.59094357 0.11027479
0.15451536 0.91482759 0.09089756
0.15457137 0.95666355 0.088395596
0.14816336 0.63539755 0.10900879
0.14820637 0.66869259 0.10701561
0.14823537 0.42642558 0.10571575
0.14836836 0.79233158 0.099622726
0.14810537 0.59103453 0.11166477
0.14244036 0.39518756 0.098638535
0.14233236 0.74651253 0.10375977
0.14243236 0.82575655 0.099020481
0.14208436 0.54819155 0.11562061
0.14355937 0.95640355 0.045220852
0.13626537 0.66883856 0.10979748
0.13630337 0.42662853 0.10788155
0.13635837 0.74656856 0.1051507
0.13607836 0.51369858 0.11907768
0.13641337 0.79242355 0.10241175
0.13612036 0.54829055 0.11700773
0.13745436 0.91434056 0.050530434
0.13082436 0.29894656 0.083843708
0.13184837 0.33852154 0.030514717
0.13029936 0.66891158 0.11118889
0.13012137 0.47074658 0.1204195
0.13065936 0.82559556 0.092400551
0.12429935 0.63571858 0.11456442
0.12433536 0.66898453 0.11257744
0.12438536 0.71475655 0.10984373
0.12420335 0.54848957 0.11977959
0.11972736 0.33911455 0.036486626
0.11837436 0.66905653 0.11396646
0.11842436 0.42692858 0.11112976
0.11842235 0.7148186 0.11123276
0.11822435 0.47093058 0.12257671
0.11917636 0.79139555 0.068019867
0.11363235 0.33964556 0.04192543
0.11238135 0.63587755 0.11734056
0.11246736 0.42702854 0.11221075
0.11226135 0.51412356 0.12461567
0.11233836 0.5915736 0.11998653
0.10738835 0.17715955 0.057576656
0.10750236 0.21698058 0.050306797
0.10699935 0.094934583 0.082361698
0.10710336 0.71334857 0.075722694
0.10633335 0.47111255 0.12473154
0.10811435 0.78969252 0.011377811
0.10122135 0.14366955 0.069915771
0.10112835 0.26746458 0.076204777
0.10076735 0.020737529 0.10050154
0.10092735 0.29959857 0.08971262
0.10088836 0.057221532 0.092355728
0.10064835 0.63541758 0.10852051
0.10100336 0.66764957 0.084582806
0.10056136 0.42722553 0.11437178
0.10196435 0.74344254 0.019846439
0.10036836 0.51433355 0.12738085
0.10248736 0.78888655 -0.015427113
0.10039935 0.54888153 0.12531757
0.10043736 0.59175056 0.12275648
0.095148355 0.26756555 0.077066422
0.094800353 0.020967543 0.10201788
0.094913356 0.057442546 0.093874454
0.095045358 0.63413858 0.084421635
0.095382355 0.66647959 0.060313702
0.095424354 0.39160556 0.05730772
0.096021354 0.71081156 0.014574528
0.094452351 0.47129357 0.12688541
0.094426356 0.51443851 0.12876272
0.094455354 0.54897857 0.12669945
0.089373358 0.17776954 0.062412739
0.089357354 0.34175754 0.063614845
0.088941358 0.057662547 0.095393658
0.089052357 0.095573545 0.086932659
0.089403354 0.63284957 0.060150623
0.089423351 0.39172757 0.058608532
0.088515356 0.47138357 0.12795973
0.088579357 0.54874456 0.12307262
0.088982351 0.58993554 0.0922575
0.083372355 0.17797154 0.064024448
0.083192356 0.26776654 0.07878685
0.082789354 -0.022102416 0.11180782
0.083074354 0.095784545 0.088454723
0.083718352 0.63155353 0.035727501
0.083423354 0.39184958 0.059907436
0.083323352 0.58849156 0.068034649
0.076912351 0.021651566 0.10656166
0.077277355 0.34280658 0.074421883
0.077004358 0.058101535 0.09842968
0.078429356 0.66226053 -0.027152538
0.077426352 0.39197057 0.061207771
0.078836352 0.70759153 -0.063026428
0.076645352 0.47156155 0.13010979
0.076987356 0.51239854 0.099908829
0.076772355 -0.064801395 0.11892366
0.071506351 0.21762556 0.05550766
0.070886351 -0.021651447 0.11468172
0.070955351 0.021877527 0.10807467
0.071086355 0.30023658 0.095568657
0.071251355 0.34332955 0.07981348
0.071040355 0.058319569 0.099946499
0.071129352 0.096204579 0.091497421
0.072383352 0.62815452 -0.02820158
0.072655357 0.66095352 -0.054255486
0.070833355 0.42770958 0.11976576
0.071294352 0.51068151 0.075748444
0.071558356 0.5439626 0.050569534
0.072323352 0.58308351 -0.022517204
0.070773356 -0.1234414 0.1254468
0.070827357 -0.064566433 0.12035751
0.065393351 0.17857355 0.068853855
0.065002352 0.022102535 0.10958672
0.065161355 0.096413553 0.093017578
0.065441355 0.39221156 0.063804626
0.064964354 0.42718953 0.11350965
0.066258356 0.58315957 -0.021317482
0.064884357 -0.064333498 0.12179089
0.059230357 0.34437156 0.090580463
0.059785359 0.50720954 0.026908875
0.058945358 -0.064100444 0.12322378
0.053335357 0.14534056 0.082756519
0.053419359 0.17897058 0.072071552
0.053333357 0.26825655 0.083078861
0.053101357 0.022551537 0.11261082
0.053207356 0.30061257 0.099076748
0.053232357 0.34489053 0.095955849
0.053164359 0.058969557 0.10449457
0.053465359 0.39243954 0.066280842
0.053473357 0.42314357 0.065202713
0.053719357 0.46411055 0.03385973
0.05295736 -0.2389794 0.13092089
0.052949358 -0.17779547 0.13193989
0.052968357 -0.12274045 0.12952566
0.053006358 -0.063868463 0.12465668
0.047363359 0.14554554 0.084359646
0.047366358 0.26835257 0.083935738
0.047212359 0.059184551 0.10600853
0.047667358 0.42109954 0.040804863
0.048429359 0.53611356 -0.068297386
0.04866736 0.57831955 -0.10238552
0.047029357 -0.23873645 0.13220882
0.047038358 -0.12250847 0.13088465
0.041459359 0.17936558 0.075285435
0.041401356 0.26844853 0.08479166
0.04117436 -0.02053839 0.12185669
0.04146136 0.34288657 0.074944496
0.041820358 0.41903955 0.016216755
0.042503357 0.53430259 -0.09571743
0.041118357 -0.29299349 0.13115644
0.041103359 -0.23849446 0.13349581
0.041111358 -0.12227839 0.13224173
0.035483357 0.17956156 0.076891422
0.035437357 0.26854354 0.085646629
0.03524036 -0.020318449 0.12328959
0.035452358 0.29895955 0.082801819
0.035315357 0.059611559 0.10903549
0.035359357 0.097446561 0.10061169
0.035930358 0.41696554 -0.0085282326
0.035192359 -0.29274243 0.13244486
0.03518036 -0.23825341 0.13478374
0.03521036 -0.063179433 0.12894964
0.029508358 0.17975754 0.078499794
0.029499358 0.26801056 0.080631733
0.029307358 -0.020099461 0.12472343
0.029333359 0.023438573 0.11865377
0.029596359 0.29647654 0.058516502
0.029737359 0.33821255 0.026086807
0.029369358 0.059824526 0.11055088
0.029405359 0.097650528 0.10212946
0.029898359 0.38563955 -0.010761261
0.029262358 -0.12181944 0.13495588
0.029282358 -0.062951505 0.13038063
0.023501359 0.14636058 0.090764523
0.023538359 0.17995256 0.080103874
0.023621358 0.26541758 0.056334496
0.023398358 0.023658574 0.12016153
0.023699358 0.29397655 0.034060478
0.023813358 0.33584958 0.0013957024
0.023427358 0.06003654 0.11206245
0.023456357 0.097853541 0.1036458
0.024021359 0.38143754 -0.058311462
0.024225358 0.45244855 -0.11661148
0.023378359 -0.36469847 0.12611866
0.023334358 -0.1765905 0.13872242
0.023342358 -0.12159139 0.13631248
0.017603358 0.21923554 0.06930542
0.017701358 0.26280558 0.031864643
0.017760359 0.29145855 0.009431839
0.017428359 -0.29199344 0.13630581
0.017422358 -0.23753744 0.13864088
0.017424358 -0.12136441 0.13766956
0.011607357 0.18034053 0.083311558
0.011628358 0.21941954 0.070905685
0.011527358 -0.019447505 0.12901974
0.011537357 0.024095535 0.12317753
0.011551357 0.060457528 0.11508656
0.011512358 -0.29174644 0.13759089
0.011508358 -0.23730141 0.13992453
0.011505357 -0.1761145 0.14143181
0.011552357 -0.44343239 0.11465788
0.0056363577 0.14696455 0.095559597
0.0056253579 0.098459542 0.10819149
0.0058423579 0.37413055 -0.14098358
0.0055983579 -0.29150146 0.13887453
0.0055963579 -0.12091345 0.14037848
0.0056283576 -0.49572343 0.10436058
-0.00031564239 0.024522543 0.12614489
-0.00031564239 0.28095454 -0.093239307
-0.00031564239 0.32339358 -0.12868547
-0.00031564239 -0.23683041 0.14249372
-0.00031564239 -0.1756435 0.14414072
-0.00031564239 -0.061823428 0.13752365
-0.00031564239 -0.44294339 0.1169548
-0.0062436424 0.061083555 0.11961842
-0.0062676421 0.096389532 0.092523575
-0.0062326421 -0.36346847 0.13220549
-0.006224642 -0.29101139 0.14144468
-0.0062736422 -0.56538349 0.085841656
-0.012536643 0.20120257 -0.089209557
-0.012165642 0.024115562 0.12331676
-0.012640643 0.27527958 -0.14869642
-0.012148643 -0.3632254 0.13342047
-0.012229643 -0.5651384 0.086921692
-0.012172643 -0.4424594 0.11924982
-0.018734641 0.15572256 -0.12233114
-0.018299641 0.089931548 0.043683529
-0.018061642 -0.36298448 0.13463688
-0.018036641 -0.2905274 0.14401054
-0.018221641 -0.61013645 0.073606491
-0.018098641 -0.44221944 0.12039471
-0.024805643 0.19970256 -0.10235834
-0.023933642 -0.23590249 0.14762259
-0.023965642 -0.061692417 0.13840342
-0.031117642 0.11683357 -0.14578915
-0.031009642 0.15587056 -0.12105417
-0.030120641 -0.026380479 0.082840443
-0.031268641 0.060328543 -0.18024349
-0.029831642 -0.23567349 0.14890385
-0.030151641 -0.60967749 0.075601578
-0.030088643 -0.56441039 0.090155602
-0.029833641 -0.11958247 0.14849854
-0.029996641 -0.49422246 0.1112628
-0.029946642 -0.44174248 0.12268686
-0.037172642 0.15531558 -0.12566423
-0.036208641 -0.03004247 0.0584445
-0.037574641 0.016668558 -0.20238113
-0.035790641 -0.36226743 0.13827848
-0.035741642 -0.28984648 0.14765644
-0.035728641 -0.23544544 0.15018463
-0.03571764 -0.1742534 0.15224981
-0.036042642 -0.069232404 0.090245724
-0.03592664 -0.49397749 0.11241055
-0.043687642 0.19011652 -0.18652821
-0.044040643 -0.075461447 -0.24439716
-0.043639641 0.060521543 -0.17871618
-0.041695643 -0.36203045 0.1394906
-0.041638643 -0.28962249 0.1488657
-0.041638643 -0.17485839 0.14879847
-0.042073641 -0.60922343 0.077594757
-0.042145643 -0.073044479 0.065903664
-0.04178464 -0.44127041 0.12497377
-0.049653642 0.11584055 -0.15364027
-0.049851641 0.14857054 -0.18193531
-0.05013464 -0.02550143 -0.22248936
-0.049823642 0.060617566 -0.1779542
-0.048268642 -0.69276947 0.044782639
-0.047514644 -0.23499149 0.15274382
-0.048032641 -0.60899848 0.078588486
-0.047988642 -0.13010341 0.084912777
-0.050423641 -0.12462646 -0.26386213
-0.04778064 -0.49348944 0.11470461
-0.047700644 -0.4410364 0.12611771
-0.056268644 0.14515656 -0.21041012
-0.056187641 0.016969562 -0.20007753
-0.05342764 -0.28917843 0.15128279
-0.053824641 -0.18319446 0.10079384
-0.053990643 -0.60877544 0.079582691
-0.054140642 -0.13413948 0.060524464
-0.056680642 -0.12448043 -0.26288128
-0.053616643 -0.44080347 0.12726068
-0.062575646 -0.025264442 -0.22074032
-0.06238864 0.017067552 -0.19931221
-0.06218864 0.060805559 -0.17643118
-0.059318643 -0.28895742 0.15249157
-0.05998164 -0.18740743 0.076545715
-0.059946641 -0.60855347 0.08057642
-0.068588644 0.017165542 -0.19854641
-0.068580642 0.057981551 -0.19774342
-0.065297648 -0.36109442 0.1443367
-0.066223644 -0.69206649 0.047791481
-0.065756649 -0.24527746 0.096486568
-0.069561645 -0.25267941 -0.29988813
-0.065899648 -0.60833341 0.081567764
-0.065755643 -0.56299049 0.096604824
-0.069396645 -0.19085544 -0.28270435
-0.065439649 -0.44034141 0.12954283
-0.075229645 -0.074840486 -0.24000025
-0.074787647 0.017262578 -0.19778156
-0.071192645 -0.36086446 0.14554548
-0.071550645 -0.29681247 0.11133766
-0.072693646 -0.78527039 0.0021238327
-0.075845644 -0.25250441 -0.29881334
-0.071851648 -0.60811347 0.082560539
-0.075438648 -0.12404948 -0.25995255
-0.071467645 -0.49253041 0.11928749
-0.081464648 -0.074719489 -0.2391243
-0.081226647 -0.02491647 -0.21812248
-0.081646644 0.050371528 -0.25518227
-0.077185646 -0.3623895 0.1380105
-0.078186646 -0.69160444 0.049792767
-0.082129642 -0.25232941 -0.29773951
-0.077803649 -0.60789639 0.083550453
-0.077631645 -0.56252843 0.098749638
-0.081689648 -0.12390739 -0.25897551
-0.077385649 -0.4923014 0.12039375
-0.087859645 0.0098135471 -0.25165415
-0.088258646 0.046520531 -0.28424549
-0.083392642 -0.36722344 0.11400557
-0.088605642 -0.3199355 -0.31269121
-0.088409647 -0.25215644 -0.29666853
-0.083752647 -0.6076805 0.084540844
-0.083565645 -0.56229943 0.09981966
-0.088203646 -0.19040245 -0.27975512
-0.087937646 -0.12376648 -0.25800037
-0.083160646 -0.43965739 0.13296366
-0.094082646 -0.029407442 -0.24928713
-0.095013648 -0.37903947 -0.32043934
-0.091425642 -0.86896545 -0.046317577
-0.090141647 -0.69114846 0.051789761
-0.094898649 -0.31975144 -0.3116045
-0.094688646 -0.25198442 -0.29559422
-0.089699648 -0.60746545 0.085528851
-0.089498647 -0.5620715 0.10088968
-0.094468646 -0.19025344 -0.27877522
-0.089063644 -0.43943149 0.13410187
-0.10073964 -0.033580482 -0.27829838
-0.095938645 -0.37698942 0.065518856
-0.097488649 -0.86876947 -0.045503139
-0.096116647 -0.69092339 0.052787781
-0.10118864 -0.31955642 -0.31044722
-0.10096565 -0.25181347 -0.29452324
-0.095645644 -0.60725147 0.086516857
-0.095429644 -0.56184441 0.10195875
-0.10073265 -0.1901055 -0.27779436
-0.095127642 -0.49165148 0.12358475
-0.10689464 -0.079412401 -0.27009058
-0.10773665 -0.45578939 -0.32686853
-0.10760765 -0.37863141 -0.31812048
-0.10208964 -0.6906994 0.053783417
-0.10724165 -0.25164348 -0.29345131
-0.10158964 -0.60704046 0.087503433
-0.10699464 -0.18995839 -0.27681541
-0.10145465 -0.44742447 0.096568584
-0.11403865 -0.45556051 -0.32563257
-0.11390264 -0.37842947 -0.3169632
-0.10961264 -0.86838144 -0.043878555
-0.11376464 -0.31916839 -0.30813551
-0.10728864 -0.56139547 0.10409689
-0.11325665 -0.18981344 -0.27583551
-0.11304665 -0.12451845 -0.26246214
-0.10722064 -0.49501449 0.10842943
-0.10778765 -0.45258945 0.072300434
-0.12019464 -0.37822849 -0.31580448
-0.11567265 -0.86819047 -0.043067455
-0.12004864 -0.31897646 -0.30698013
-0.11347464 -0.60662049 0.089476585
-0.11321464 -0.5611735 0.10516357
-0.12271365 -0.94618541 -0.098565578
-0.12082864 -0.7835595 0.0094256401
-0.12000564 -0.6900894 0.056550503
-0.12633064 -0.31878549 -0.30582523
-0.11913864 -0.56095248 0.10623074
-0.12882164 -0.94602543 -0.097880363
-0.12683864 -0.78335339 0.010333538
-0.12597464 -0.6898945 0.057447433
-0.13261163 -0.31859547 -0.30467129
-0.13251963 -0.19380444 -0.29967642
-0.13906164 -0.37763244 -0.31233454
-0.13493064 -0.94586748 -0.097196579
-0.13384464 -0.86762744 -0.040641308
-0.13284963 -0.78315741 0.01120472
-0.13889264 -0.3184064 -0.30351734
-0.13859664 -0.25080842 -0.28810215
-0.13135864 -0.60685247 0.088810444
-0.14551264 -0.4544335 -0.31945848
-0.14534564 -0.37743551 -0.3111763
-0.13989964 -0.8674435 -0.039835453
-0.13885863 -0.78298241 0.011999607
-0.13791063 -0.68951041 0.059238434
-0.14516963 -0.31821948 -0.30236435
-0.14630264 -0.20361346 -0.35880327
-0.14557263 -0.58967048 -0.32246828
-0.15162864 -0.37724048 -0.31002331
-0.14387564 -0.6893205 0.060132504
-0.15227464 -0.2599985 -0.34084415
-0.15808764 -0.45399147 -0.31699133
-0.15791065 -0.37704641 -0.30886745
-0.15083764 -0.62423342 0.01526165
-0.15806364 -0.65775841 -0.31588411
-0.15935063 -0.94525546 -0.094474316
-0.15805563 -0.86690146 -0.037427425
-0.15616764 -0.69291741 0.045784473
-0.15742365 -0.63010639 -0.0095791817
-0.16434364 -0.65747648 -0.31451225
-0.16443564 -0.58890039 -0.31855345
-0.17065664 -0.45355445 -0.31452513
-0.17074764 -0.53565949 -0.3183794
-0.17810063 -0.38702947 -0.36086655
-0.16889064 -0.78213543 0.015954494
-0.17702964 -0.53541547 -0.31707621
-0.18366764 -0.4567005 -0.32988453
-0.17765763 -0.94481546 -0.092449188
-0.17620364 -0.86637443 -0.035024166
-0.17489363 -0.78197044 0.01674366
-0.17604364 -0.71136039 -0.028690338
-0.18317464 -0.65663844 -0.31040049
-0.18331064 -0.53517145 -0.31577015
-0.18225063 -0.86620146 -0.034225464
-0.18118864 -0.78469747 0.0063314438
-0.18276563 -0.71760446 -0.053892136
-0.18944664 -0.6563614 -0.30902958
-0.18829864 -0.8660385 -0.033456326
-0.18789764 -0.79117948 -0.018622398
-0.19525763 -0.7759375 -0.2906394
-0.19559364 -0.69930047 -0.30304146
-0.19571863 -0.65608543 -0.3076582
-0.19583663 -0.58764249 -0.31203413
-0.19434664 -0.86590642 -0.032797337
-0.20150964 -0.77562743 -0.28921032
-0.20198664 -0.65581244 -0.30629015
-0.20211163 -0.58740741 -0.3107934
-0.20039465 -0.86577541 -0.032138348
-0.20145664 -0.80427545 -0.069025517
-0.20811963 -0.69873947 -0.30030537
-0.20825164 -0.65553945 -0.30492115
-0.20927164 -0.59392649 -0.34031916
-0.21437864 -0.69846147 -0.29893827
-0.21483164 -0.65770549 -0.31419039
-0.21648964 -0.60048944 -0.37003946
-0.21424663 -0.94398743 -0.088439465
-0.21969464 -0.85540241 -0.26674318
-0.22204764 -0.66451842 -0.34374428
-0.22376864 -0.60712141 -0.40006828
-0.22049764 -0.88216549 -0.092668533
-0.22592163 -0.8550685 -0.26525736
-0.22932364 -0.67138249 -0.37351227
-0.22744563 -0.88909847 -0.1183095
-0.23214464 -0.85473639 -0.26377249
-0.23549365 -0.7147184 -0.36746645
-0.23288764 -0.94657749 -0.097192287
-0.24070464 -0.78665251 -0.33282232
-0.24392164 -0.92223746 -0.24138451
-0.24804763 -0.79402548 -0.36255026
-0.24693964 -0.96099049 -0.14873743
-0.25829765 -0.93638843 -0.29367447
