# .PCD v0.7 - Point Cloud Data file format
VERSION 0.7
FIELDS x y z
SIZE 4 4 4
TYPE F F F
COUNT 1 1 1
WIDTH 1
HEIGHT 512
VIEWPOINT 0 0 0 1 0 0 0
POINTS 512
DATA ascii
0.7315374 0.15409803 0.6774621
0.72775042 0.11603403 0.66178417
0.72602344 0.15417403 0.67742538
0.7173304 0.11538303 0.65589523
0.71211344 0.11505604 0.65294313
0.71083939 0.15272802 0.66476822
0.70172441 0.11432701 0.64651918
0.70068741 0.15175903 0.65631008
0.69560242 0.15127301 0.65207434
0.69051141 0.15078503 0.64783335
0.68613744 0.11318702 0.63657522
0.67572939 0.11241603 0.62988615
0.67520142 0.14931601 0.63508129
0.6705184 0.112028 0.62653017
0.67008644 0.14882404 0.63082218
0.6653024 0.11163801 0.62317133
0.66496444 0.14833105 0.62655735
0.6600824 0.11124802 0.61980724
0.65485841 0.110856 0.61643934
0.65470344 0.14734101 0.61801624
0.64962941 0.11046404 0.6130662
0.64956445 0.14684403 0.61373806
0.64439642 0.11007005 0.60969114
0.64441842 0.14634603 0.60945511
0.62894344 0.14484501 0.59658003
0.6076684 0.10721999 0.5855093
0.60822344 0.14282805 0.57934618
0.58746541 0.059571028 0.49606943
0.58218139 0.140279 0.55770111
0.58211344 0.05913502 0.492558
0.57171941 0.13925099 0.54900837
0.56602639 0.057817042 0.48199511
0.56007344 0.10351002 0.55440521
0.5606544 0.057375014 0.47846508
0.55476141 0.103091 0.55092621
0.55072141 0.13718104 0.53156614
0.5401814 0.13613904 0.52281523
0.53911644 0.055594027 0.464293
0.53346145 0.101403 0.53694916
0.52432442 0.13456601 0.50965214
0.51743442 0.100124 0.5264163
0.51208246 0.099695027 0.52289629
0.51372045 0.13351101 0.50085211
0.50690943 0.052381039 0.43940115
0.49599344 0.098399043 0.51230526
0.49062145 0.097965002 0.50876522
0.49243146 0.131387 0.4831934
0.47455144 -0.0065839887 0.32728338
0.46737346 0.088087022 0.43536425
0.46279946 0.085792005 0.41838503
0.46502644 0.11860704 0.38440514
0.45819044 0.047437012 0.40150213
0.45711446 0.085810006 0.41814423
0.45445046 0.11686504 0.37051821
0.44660044 0.083959043 0.40402842
0.44178843 0.082004011 0.38952017
0.44291845 0.11706603 0.37131405
0.43778744 0.11579502 0.36136436
0.43106446 0.044251025 0.37754917
0.43028843 0.082222998 0.39040709
0.43071446 -0.012214959 0.28690338
0.42563945 0.043551028 0.37233925
0.42021745 0.04282701 0.3669591
0.41973746 -0.013794959 0.27570438
0.41478646 0.042100012 0.3615694
0.41453946 0.078972042 0.36586237
0.41423646 -0.014587998 0.27008915
0.40934846 0.041372001 0.35617018
0.40838945 0.080009997 0.37304926
0.40389946 0.04064101 0.35075998
0.40320545 -0.016181946 0.25882626
0.39767843 -0.016983032 0.25317812
0.39154243 0.079234004 0.36647606
0.38745746 0.038574994 0.33543539
0.38688144 0.11418504 0.34625244
0.38055846 0.11565804 0.35707521
0.37090644 0.03659302 0.32073498
0.36990646 -0.021018982 0.22478437
0.36537445 0.035929024 0.31581926
0.36377746 0.11456203 0.34791422
0.36432645 -0.021832943 0.2190733
0.35983545 0.035263002 0.31089735
0.35135245 0.079593003 0.36703444
0.35289344 0.11292201 0.33496141
0.34743744 0.11209899 0.32846832
0.33434844 0.079104006 0.36268616
0.33201945 0.031904995 0.28616142
0.32784945 0.11899203 0.37977839
0.32643145 0.031228006 0.28119135
0.32083645 0.030550003 0.27621126
0.31786343 0.076864004 0.34569645
0.31523445 0.02986902 0.27122211
0.31235144 0.076113045 0.34001827
0.30962443 0.02918601 0.26622725
0.30586445 0.11622 0.35784531
0.30129746 0.074605048 0.32861423
0.29489744 0.11455601 0.34480333
0.27837044 0.11204404 0.32515717
0.28226244 -0.045848966 0.055299282
0.27283844 0.111202 0.31858301
0.27598745 -0.044642925 0.063130379
0.26232344 0.069265008 0.2884202
0.26983643 -0.08811295 0.067749977
0.26353544 -0.042479038 0.077139378
0.25901744 0.021872997 0.21331835
0.25618243 0.10866404 0.29879427
0.25307643 0.022247016 0.2157321
0.25250545 0.10004002 0.23338699
0.25119644 -0.040630937 0.089075089
0.24506044 -0.039786935 0.094517231
0.25099143 -0.17594302 -0.099604607
0.23423545 0.065237045 0.25829601
0.21352744 0.39558405 0.7750802
0.22823444 0.066118002 0.26451111
0.24324845 -0.260584 -0.25671577
0.23913544 -0.17824996 -0.11393166
0.23498945 -0.093842983 0.029998302
0.21942244 0.16668504 0.371737
0.21249145 0.31110901 0.6198411
0.22449444 0.01870203 0.1901474
0.23320144 -0.17948699 -0.12158966
0.22920145 -0.09512496 0.021638393
0.20533945 0.31762999 0.68071413
0.20151244 0.400123 0.82215118
0.21668445 0.10388905 0.26146221
0.23552945 -0.35765195 -0.43498564
0.20823045 0.16552401 0.36212635
0.20705345 0.20445204 0.40708113
0.19952345 0.319134 0.69464111
0.21538845 -0.040519953 0.088785172
0.19628544 0.39976704 0.81828737
0.22497745 -0.26408398 -0.2774148
0.22129945 -0.18197203 -0.13695955
0.21753545 -0.09739995 0.0067672729
0.20262244 0.16494101 0.35730839
0.19622245 0.26622701 0.61016512
0.19418545 0.31871903 0.69061613
0.19105145 0.399409 0.81441736
0.20498745 0.066119015 0.26389217
0.20491545 0.104626 0.26672506
0.21887445 -0.26532602 -0.28473663
0.21532945 -0.18322003 -0.14467192
0.18581045 0.39905 0.8105402
0.19929345 0.065443039 0.25884914
0.19905245 0.104909 0.26872206
0.21677545 -0.36147702 -0.45645094
0.18942845 0.20731103 0.43054008
0.19774745 -0.042140961 0.077528
0.18226945 0.35126102 0.73432207
0.18056245 0.39870101 0.80676317
0.19359344 0.064766049 0.2537961
0.21050045 -0.36275995 -0.46363688
0.20663045 -0.26782095 -0.29943657
0.20332445 -0.18555999 -0.15913868
0.19182645 -0.042492986 0.075048447
0.18991844 0.014376044 0.15909624
0.17695445 0.35086805 0.73036623
0.18788445 0.064087033 0.2487421
0.20773445 -0.45254493 -0.62595701
0.20421445 -0.36404598 -0.47083998
0.20049144 -0.26907504 -0.30681086
0.19729245 -0.18663895 -0.16580963
0.17275345 0.31711602 0.67509842
0.18592045 -0.042981982 0.071650982
0.18412645 0.013648033 0.15389013
0.17164645 0.350416 0.72582912
0.17007345 0.397879 0.79794836
0.18216744 0.063407004 0.24368525
0.18812545 -0.10293901 -0.02936697
0.17214344 0.20894504 0.44380903
0.16739745 0.31662202 0.67035723
0.16634044 0.34991604 0.7208271
0.16481245 0.39749002 0.79377222
0.17568244 0.10578603 0.2748332
0.19485645 -0.45526099 -0.64051056
0.18817645 -0.27159297 -0.32160902
0.18519345 -0.18880594 -0.17919779
0.16681945 0.17375201 0.4271121
0.16617745 0.21079004 0.4591012
0.17428745 -0.045429945 0.055082321
0.17070545 0.062041044 0.23353243
0.16986744 0.10586101 0.27527714
0.18839745 -0.45662594 -0.6478157
0.17629345 -0.10531902 -0.04483366
0.16124044 0.17316705 0.42231607
0.16050544 0.21098101 0.46058607
0.16842344 -0.046440959 0.048226357
0.16405545 0.10593402 0.27572012
0.17306244 -0.19111097 -0.19339275
0.15453644 0.21313304 0.47845316
0.15276745 0.26233 0.57496023
0.15930344 0.059980035 0.21836519
0.17259845 -0.37052894 -0.50704384
0.16956244 -0.27496302 -0.34141493
0.16437244 -0.10738003 -0.058242798
0.14591244 0.31451303 0.65020323
0.14486945 0.389498 0.70993137
0.15353845 0.059291005 0.21326637
0.16623844 -0.37183094 -0.51430082
0.16333644 -0.27609003 -0.34802961
0.15839544 -0.10841501 -0.06497097
0.14445244 0.17140204 0.40787125
0.14187844 0.26100802 0.56314611
0.14050744 0.31405503 0.64581919
0.15075545 -0.049456954 0.027789116
0.14918545 0.0092410445 0.12248039
0.16242544 -0.46190202 -0.67601681
0.15986544 -0.37313902 -0.52157879
0.15709744 -0.27722096 -0.3546629
0.14484344 -0.050467968 0.020950317
0.14333144 0.008498013 0.11720324
0.14063644 0.10771203 0.28876114
0.15590544 -0.46325099 -0.68321276
0.15348044 -0.37444901 -0.52886868
0.15085645 -0.27844894 -0.36184359
0.13322145 0.17021704 0.39820004
0.13090844 0.26000202 0.55413198
0.13746844 0.0077540278 0.11193037
0.14460544 -0.27969098 -0.36910486
0.14039445 -0.11153996 -0.085242748
0.13298544 -0.05250001 0.0072212219
0.12928544 0.105542 0.27217436
0.14066844 -0.37699103 -0.54299784
0.13834144 -0.280936 -0.37638092
0.13437144 -0.11258793 -0.092028618
0.12094444 0.211694 0.46590424
0.13627045 -0.46732497 -0.70490265
0.13423644 -0.37816203 -0.54950666
0.12834345 -0.11372101 -0.099355698
0.11439444 0.25848299 0.54055643
0.12108144 -0.054574966 -0.0067687035
0.11322944 0.34131604 0.63588333
0.11772144 0.10504401 0.26825714
0.12779245 -0.379336 -0.5560298
0.12403944 -0.20014894 -0.24888468
0.12230144 -0.11484802 -0.10663891
0.10977845 0.21057004 0.45638227
0.10887444 0.25797403 0.53601599
0.10792844 0.31128001 0.6193862
0.11520945 -0.056901932 -0.022357941
0.11392644 0.0047590137 0.090737343
0.10805844 0.338462 0.60793018
0.10499844 0.167225 0.37386942
0.10706045 0.054372013 0.17694044
0.10616644 0.104276 0.26231098
0.11487545 -0.38172996 -0.56930161
0.11016844 -0.11689198 -0.11984777
0.098581448 0.209445 0.44686317
0.097812444 0.25695103 0.52691221
0.10122244 0.053664029 0.17174721
0.10038145 0.10389 0.25933504
0.10840544 -0.38303101 -0.57650185
0.10681045 -0.28677297 -0.4104228
0.10408445 -0.11791897 -0.12647581
0.092970446 0.20887601 0.44205427
0.097990438 -0.11894798 -0.13311386
0.087350443 0.20830703 0.4372592
0.088823445 0.10262799 0.24968338
0.094111443 -0.289042 -0.42361975
0.091930449 -0.12093902 -0.14589357
0.082269445 0.16479903 0.35423231
0.083652444 0.051522017 0.15606642
0.083038442 0.10189605 0.24410105
0.086329445 -0.13368094 -0.22740793
0.076566443 0.16418904 0.34930706
0.076087445 0.20716602 0.42764616
0.075635448 0.298729 0.50160408
0.077778444 0.050805032 0.15082598
0.082393445 -0.38811195 -0.60457468
0.080510445 -0.20792496 -0.29635859
0.070443444 0.20659304 0.4228282
0.07001844 0.25437105 0.50402498
0.070184439 0.295618 0.47245121
0.071895443 0.050087035 0.1455884
0.071437448 0.10044003 0.2330184
0.076677442 -0.47916901 -0.76767874
0.065133445 0.16296101 0.33940601
0.064790443 0.20601904 0.41800022
0.066001445 0.049367011 0.14034033
0.069995448 -0.48054099 -0.77491665
0.067964442 -0.21008503 -0.30950165
0.059130445 0.20544201 0.41316223
0.059129443 0.28930902 0.41334105
0.063301444 -0.48187995 -0.78198195
0.062750444 -0.39165103 -0.62407494
0.061675444 -0.21116996 -0.31609297
0.053667441 0.16172904 0.32949543
0.053253442 0.25250399 0.4875493
0.054183446 0.04827404 0.13237333
0.053965442 0.098157048 0.21567345
0.055747442 -0.29620004 -0.46511269
0.047688443 0.24917603 0.45828438
0.048259445 0.048129022 0.13130999
0.049600445 -0.39402795 -0.63714075
0.049311444 -0.29736292 -0.47183371
0.042332444 0.047984004 0.13024616
0.043146443 -0.48560297 -0.80158377
0.042834442 -0.23237395 -0.44449759
0.036402445 0.15986603 0.31454611
0.036402445 0.20311904 0.3937192
0.036402445 0.047807038 0.12896109
0.036402445 -0.48685193 -0.80814791
0.029649444 -0.48810399 -0.81472397
0.029871443 -0.25167394 -0.56133556
0.024543444 0.047742009 0.12849712
0.024603443 0.091167033 0.16278028
0.022884443 -0.48943901 -0.82173061
0.023450444 -0.30182803 -0.49758673
0.018611444 0.047621012 0.127635
0.018706443 0.091346025 0.16414642
0.0069174431 0.091639996 0.1664114
0.0025114454 -0.493577 -0.84341002
0.0036754422 -0.31554496 -0.57665396
0.00090044364 0.13850003 0.14345121
-0.0034675561 -0.40382302 -0.69076157
-0.005241558 0.044707 0.10660744
-0.010152556 -0.40502 -0.69728994
-0.010930557 0.13854003 0.14385128
-0.010757558 0.091919005 0.16862011
-0.016849555 0.13852805 0.14379835
-0.017214555 0.043404043 0.097245216
-0.023558557 -0.407426 -0.71039057
-0.024083555 -0.35035503 -0.77727556
-0.022767555 0.13849801 0.14360332
-0.022543557 0.091998041 0.16930723
-0.03027856 -0.40864897 -0.71704102
-0.029214557 0.042173028 0.0884161
-0.038541559 -0.501194 -0.88314486
-0.037010554 -0.40987599 -0.72370577
-0.038410556 -0.36636293 -0.86949396
-0.045422558 -0.50244999 -0.88967657
-0.043752555 -0.41106701 -0.73016882
-0.041247558 0.040933013 0.079553127
-0.050850559 -0.41777802 -0.76689768
-0.046469558 0.13815004 0.1410594
-0.047275554 0.040311038 0.075112343
-0.059225556 -0.50500798 -0.90295696
-0.052403558 0.13800704 0.13999319
-0.05794156 0.091693997 0.16741419
-0.070269555 0.13717002 0.13353825
-0.093932554 -0.51139903 -0.93604279
-0.082297564 0.13589501 0.12352705
-0.081614554 0.091019034 0.1626792
-0.089784548 0.035229027 0.038902283
-0.095888555 0.034552991 0.034116268
-0.093590558 0.089819014 0.15381241
-0.10199456 0.033906996 0.029549122
-0.11056755 -0.021660924 -0.092386723
-0.11253056 0.13268203 0.098367214
-0.11679755 -0.022364974 -0.097169876
-0.11423256 0.032609046 0.020390034
-0.11164655 0.087796032 0.13888025
-0.12468855 0.13138503 0.08825016
-0.14182155 -0.025295973 -0.11701679
-0.13881156 0.02997905 0.0018901825
-0.13585055 0.085078001 0.11887741
-0.14809756 -0.026016951 -0.12188768
-0.14913355 0.12868702 0.067244053
-0.15120256 0.028403997 -0.0092086792
-0.15741256 0.027613044 -0.014774799
-0.16698055 -0.028193951 -0.13655376
-0.16758056 0.12659103 0.050974369
-0.17329255 -0.028923988 -0.1414628
-0.16633256 0.081551015 0.093018055
-0.17961355 -0.029655933 -0.14637756
-0.18594556 -0.030390978 -0.15130472
-0.18231355 0.024622023 -0.035736561
-0.17860556 0.080080032 0.082262993
-0.19228455 -0.031126976 -0.15623999
-0.18475555 0.079342008 0.076873302
-0.19852956 0.12306404 0.023684978
-0.20103656 0.022578001 -0.049957752
-0.21775857 -0.034175992 -0.1766448
-0.21356556 0.021205008 -0.059484959
-0.21565956 0.075626016 0.04980135
-0.22187254 0.07487005 0.044313431
-0.22810656 0.07407403 0.038519382
-0.23886156 0.017970026 -0.0820117
-0.23435354 0.07327503 0.032716274
-0.24061054 0.072475016 0.026903152
-0.25791454 0.015619993 -0.098287582
-0.25315556 0.070868015 0.015250206
-0.26426354 0.014910042 -0.10317659
-0.25944656 0.070061028 0.0094079971
-0.26767755 0.114703 -0.040663719
-0.27563354 -0.041129947 -0.2228756
-0.27062055 0.014196992 -0.10807371
-0.27838156 0.067629039 -0.0081748962
-0.28681856 0.11224705 -0.059503555
-0.29510954 -0.04351294 -0.23863173
-0.28471556 0.066815019 -0.014053822
-0.30165255 -0.04440093 -0.24451971
-0.29619354 0.011189044 -0.12875175
-0.29964554 0.11058801 -0.07220459
-0.30820256 -0.04527998 -0.25035
-0.30263656 0.010358036 -0.13448
-0.30383354 0.064231038 -0.032717705
-0.32127056 -0.046862006 -0.26075172
-0.31023157 0.063358009 -0.039009571
-0.31897554 0.10808301 -0.091346741
-0.31664455 0.062484026 -0.045313835
-0.33192354 0.10640204 -0.1041646
-0.34794354 0.0047560334 -0.17283964
-0.35150155 0.103724 -0.12460184
-0.36072555 -0.051662922 -0.29220867
-0.36093554 0.0032610297 -0.18298578
-0.37120456 0.101008 -0.1452837
-0.38062456 0.00069701672 -0.20047998
-0.38440955 0.09918505 -0.15914202
-0.39405257 -0.056124926 -0.32146692
-0.38721356 -0.0001629591 -0.20633888
-0.39381155 -0.0010249615 -0.21220779
-0.38811654 0.05240202 -0.11774158
-0.40042055 -0.0018889904 -0.21808767
-0.39470357 0.051443994 -0.12460566
-0.42091355 -0.059715986 -0.34491062
-0.42023256 -0.0043039918 -0.2343936
-0.42447054 0.093419015 -0.20294571
-0.43435857 -0.061404943 -0.35584974
-0.43346757 -0.0058709979 -0.24492359
-0.45655754 -0.13060701 -0.49796581
-0.47036156 -0.13248098 -0.50956678
-0.46138254 -0.064810991 -0.37785864
-0.45831156 0.088440001 -0.24066496
-0.47499856 -0.066605926 -0.38946295
-0.46155456 0.041290998 -0.19720173
-0.49810955 -0.13626397 -0.53291178
-0.51205456 -0.13817096 -0.5446558
-0.50245756 -0.070392013 -0.41396475
-0.49963954 0.082002997 -0.28940964
-0.51904559 -0.13912892 -0.55054474
-0.50658661 0.080918014 -0.29760361
-0.53309661 -0.141119 -0.56279182
-0.5212146 -0.017463923 -0.32296181
-0.5164116 0.032411039 -0.26054287
-0.54718459 -0.14309502 -0.57492256
-0.54173857 -0.020164013 -0.34098959
-0.53730458 0.028937042 -0.2852726
-0.54882956 0.074010015 -0.34983397
-0.56839359 -0.14604592 -0.59298563
-0.5559426 0.072831035 -0.35873079
-0.57548755 -0.147035 -0.59903097
-0.5553956 -0.021829009 -0.35200882
-0.57174957 -0.079631925 -0.47319174
-0.55845958 0.025252044 -0.31153202
-0.57022458 0.070463002 -0.37659883
-0.57878256 -0.080628991 -0.47959089
-0.5655486 0.024016023 -0.32032967
-0.59684759 -0.15002203 -0.61725092
-0.5846746 0.06793803 -0.39568281
-0.60399258 -0.15102303 -0.62334776
-0.57977957 0.021533012 -0.33798981
-0.59193456 0.066662014 -0.40532398
-0.6111806 -0.15208197 -0.62981987
-0.59921759 0.065382004 -0.41499567
-0.61841059 -0.15318799 -0.63660479
-0.5969606 -0.02738297 -0.38893461
-0.60135156 0.017648041 -0.36563301
-0.63286257 -0.15533102 -0.64968395
-0.61092257 -0.029263973 -0.4014039
-0.62118059 0.061515033 -0.44415998
-0.64007956 -0.156358 -0.6559186
-0.62807256 -0.08720696 -0.52137661
-0.62856358 0.060190022 -0.45416355
-0.64731055 -0.15738797 -0.66216564
-0.62317759 0.013604999 -0.3944006
-0.63601357 0.058798015 -0.46467972
-0.64236557 -0.089262962 -0.53448057
-0.63188159 -0.031976938 -0.41927862
-0.64953256 -0.090294957 -0.54105377
-0.6690836 -0.16049695 -0.68099356
-0.6459806 -0.033893943 -0.43194771
-0.6451906 0.0095190406 -0.42343664
-0.67636758 -0.16153896 -0.68729687
-0.66390759 -0.09236896 -0.55424595
-0.65263456 0.0080560446 -0.43386078
-0.67106956 -0.093335986 -0.56034279
-0.66013557 -0.035822988 -0.44467258
-0.69097859 -0.16363394 -0.69994497
-0.69835061 -0.16475999 -0.70678377
-0.68263358 0.0021520257 -0.47586584
-0.71312058 -0.16699302 -0.72031069
-0.69984061 -0.097232938 -0.58487082
-0.7043376 0.045720994 -0.56344271
-0.7204926 -0.16805995 -0.72673464
-0.69576061 -0.040697932 -0.47673893
-0.69777358 -0.00083398819 -0.49708557
-0.7278766 -0.16912997 -0.73317099
-0.70289159 -0.04163301 -0.4828496
-0.7054556 -0.002440989 -0.50853682
-0.71007556 -0.04262495 -0.48935699
-0.72769958 0.041072011 -0.59852982
-0.72906059 -0.10150993 -0.61192656
-0.71727258 -0.04361999 -0.49587774
-0.72448659 -0.044616938 -0.50241375
-0.75771761 -0.17367697 -0.76061583
-0.74375957 -0.10366893 -0.62554979
-0.76524359 -0.17486393 -0.76779461
-0.73895258 -0.046620965 -0.51553059
-0.77279359 -0.17606592 -0.77506685
-0.75850558 -0.10582495 -0.63912964
-0.75441861 -0.049870968 -0.53760099
-0.76008856 -0.014034986 -0.59109974
-0.77018261 -0.053398967 -0.56165075
-0.77609056 -0.017596006 -0.61648083
-0.78413355 -0.019387007 -0.6292429
-0.79546458 -0.11105001 -0.67180681
-0.79418957 -0.058943987 -0.59947586
-0.80044758 -0.023159027 -0.65616465
-0.81041658 -0.11324799 -0.68557596
-0.81791258 -0.11434996 -0.69246769
-0.81893158 -0.065142989 -0.6419487
