# .PCD v0.7 - Point Cloud Data file format
VERSION 0.7
FIELDS x y z
SIZE 4 4 4
TYPE F F F
COUNT 1 1 1
WIDTH 1
HEIGHT 512
VIEWPOINT 0 0 0 1 0 0 0
POINTS 512
DATA ascii
0.39748192 0.28399092 0.62146616
0.39244893 0.25555688 0.61568403
0.38561192 0.25790793 0.63729334
0.38630593 0.28460193 0.62671232
0.38687593 0.20326692 0.53422928
0.38004193 0.2582249 0.63990307
0.38073292 0.2848959 0.6292243
0.36789492 0.21783793 0.66135311
0.37177894 0.28192991 0.59961128
0.36235592 0.21817088 0.66393614
0.35129392 0.21883291 0.66908932
0.35513794 0.25470489 0.60532904
0.35059494 0.25314689 0.59045124
0.33696294 0.2154249 0.63824034
0.34144694 0.25000888 0.56048298
0.33792493 0.13332689 0.52628517
0.33240294 0.21378392 0.6235323
0.33683994 0.24842793 0.54539537
0.33271894 0.13272089 0.52113104
0.33220994 0.24683791 0.530231
0.32750592 0.13211387 0.51597023
0.32321694 0.21047688 0.59390497
0.32755992 0.24524093 0.5150013
0.31906694 0.17082089 0.57022333
0.31859192 0.20881093 0.57899237
0.32288694 0.24363589 0.49969816
0.31388494 0.1702469 0.56514025
0.32172894 0.072893918 0.41792631
0.31181893 0.13028389 0.50044203
0.30927694 0.20545387 0.54894495
0.30657294 0.12966889 0.49524212
0.30458492 0.20376188 0.53380728
0.31110692 0.071558893 0.40725613
0.30131894 0.12905389 0.49003935
0.29828992 0.16851389 0.54983616
0.29987192 0.20206189 0.51860237
0.30578393 0.070888877 0.40191221
0.29605794 0.12843788 0.48483419
0.29633293 0.19761491 0.47929525
0.30045193 0.070217907 0.39655638
0.29090694 0.19740391 0.47717237
0.29511294 0.069543898 0.39118719
0.28708193 0.19338387 0.44161224
0.28022194 0.12657893 0.46914911
0.27870092 0.16283792 0.50139618
0.27492794 0.12595493 0.46389818
0.27328992 0.1626159 0.49928904
0.27904093 0.067510903 0.37502098
0.26962492 0.1253289 0.45863533
0.26938793 0.15840089 0.46386099
0.27220994 0.1889289 0.40171242
0.27689093 0.020181894 0.29863405
0.25899294 0.12407392 0.44809723
0.25848994 0.15795189 0.45961905
0.26226994 0.18571991 0.3730402
0.25366592 0.12344092 0.44278812
0.25446394 0.1537289 0.42413521
0.26054493 0.017989874 0.28200197
0.25749293 0.06477493 0.35334635
0.24832992 0.12280589 0.4374733
0.2499959 0.15059292 0.39772415
0.28542393 -0.33999413 -0.44754696
0.24298491 0.12217188 0.43216801
0.24448691 0.15036392 0.39557934
0.24960493 0.016518891 0.27086735
0.23797591 0.12046188 0.41825199
0.23994993 0.14722091 0.36911821
0.27052793 -0.33030611 -0.3922267
0.26857892 -0.26341909 -0.34369469
0.23248093 0.12022489 0.4161272
0.23580693 0.062005877 0.33148813
0.26683193 -0.40704614 -0.45816898
0.26344094 -0.32672912 -0.37186003
0.22791392 0.11695689 0.38975
0.23312591 0.014296889 0.2540884
0.21744992 0.37451589 0.66214514
0.25639394 -0.32317406 -0.3516078
0.22239192 0.11671591 0.38760996
0.21204391 0.37463289 0.66326141
0.25840792 -0.48650211 -0.57174492
0.25179794 -0.39555007 -0.39565992
0.24938791 -0.3196401 -0.33147383
0.21786292 0.11307889 0.358284
0.23591892 -0.12291211 -0.13413477
0.22898391 -0.050373077 0.055002213
0.20663892 0.37474889 0.66437721
0.24133892 -0.2530511 -0.28193569
0.23899792 -0.18075806 -0.2180829
0.21231292 0.11282188 0.35601711
0.21582592 0.13402492 0.25788116
0.22818491 -0.11586708 -0.087403774
0.22319092 -0.05075711 0.052113056
0.24311392 -0.47360212 -0.50448275
0.23181291 -0.17613214 -0.18874693
0.20666692 0.11290091 0.35645342
0.21006791 0.13418889 0.25905037
0.19504592 0.33197892 0.68924999
0.21102892 0.011303902 0.23155499
0.20849991 0.058502913 0.30395126
0.19619891 0.37405992 0.65620708
0.23697491 -0.47488815 -0.51146078
0.23263492 -0.39387709 -0.3871727
0.22893691 -0.31081408 -0.28127384
0.22766691 -0.24685615 -0.24489689
0.22457491 -0.1710301 -0.15635967
0.20104392 0.11289692 0.35622501
0.21125592 -0.094243109 0.05629015
0.21159491 -0.051527083 0.046329975
0.18966791 0.33210289 0.69035721
0.20548192 0.01054889 0.2258873
0.20301192 0.057797909 0.29842329
0.19112092 0.37332088 0.64767504
0.22658491 -0.39506906 -0.39392567
0.22068992 -0.24283415 -0.22077274
0.21725291 -0.16528314 -0.11984491
0.19582091 0.11138791 0.34395599
0.19855991 0.13451588 0.26139116
0.20579092 -0.051914096 0.04343605
0.19992591 0.0097929239 0.22021341
0.19751592 0.057088912 0.29287338
0.21602091 -0.30791205 -0.26496267
0.21369891 -0.23853511 -0.19496965
0.19049291 0.14326292 0.33423996
0.19965892 -0.095059097 0.050461292
0.17897792 0.3321749 0.69075108
0.18094791 0.37176692 0.62975311
0.21444991 -0.39746612 -0.4074769
0.20668991 -0.23391706 -0.16722584
0.18430291 0.11236888 0.35144901
0.18485092 0.14325893 0.33402205
0.19385591 -0.095480144 0.047472
0.19416492 -0.052691102 0.037640095
0.17532292 0.28671992 0.63720417
0.18975592 0.004011929 0.17794037
0.18649292 0.055667877 0.28176022
0.21230292 -0.48007113 -0.53952885
0.20408592 -0.31011313 -0.2780509
0.20033191 -0.23245913 -0.15859985
0.19643392 -0.15184516 -0.034557819
0.17861992 0.1125949 0.35307932
0.17925191 0.14308488 0.33239698
0.17941292 0.18085092 0.32713604
0.17009191 0.28622591 0.63221312
0.16881892 0.33058888 0.67386913
0.20610692 -0.48137707 -0.54658175
0.20227292 -0.39987808 -0.42109489
0.17370291 0.1426999 0.32901001
0.16485192 0.2857309 0.62721205
0.17850292 0.0025879145 0.16726208
0.16564992 0.36920989 0.60035038
0.19989891 -0.48268408 -0.55364275
0.19616792 -0.40109104 -0.42793083
0.19210991 -0.31232709 -0.29119682
0.18855192 -0.23449606 -0.1712966
0.16736092 0.11261892 0.35294104
0.16824892 0.1418919 0.32210398
0.16771391 0.18242991 0.34068012
0.17650291 -0.097186148 0.035565376
0.17408592 -0.04087311 0.11947632
0.15960492 0.28523391 0.62220335
0.15862991 0.32891089 0.65603733
0.16989492 0.053517878 0.26498318
0.19861792 -0.59520608 -0.73215199
0.19367991 -0.48399609 -0.56072092
0.19005191 -0.40230709 -0.43477964
0.18264592 -0.23551911 -0.17766476
0.15578292 0.25142193 0.56578398
0.16841291 -0.041690111 0.11362028
0.15434791 0.2847349 0.61717319
0.16706392 0.001893878 0.16189814
0.16434191 0.0527969 0.25937128
0.19224492 -0.59666115 -0.73957968
0.15628691 0.1117819 0.34591818
0.15628392 0.18307489 0.34603119
0.16500992 -0.098940074 0.023542404
0.14908391 0.28423488 0.61213827
0.15878092 0.052074909 0.25375414
0.17080091 -0.23757905 -0.19046783
0.15704091 -0.043331087 0.10186338
0.14381091 0.28373289 0.60709333
0.14329392 0.32615489 0.62683105
0.14516191 0.36529791 0.5555172
0.17946492 -0.59958214 -0.75447989
0.17494991 -0.48795706 -0.58205271
0.16486391 -0.23861307 -0.19689178
0.14640291 0.10496593 0.29103708
0.14687292 0.13602191 0.27246332
0.13983792 0.24982488 0.5503993
0.14971691 0.0017089248 0.16009712
0.15018491 0.037288904 0.14162111
0.14003591 0.36416489 0.5425601
0.17305692 -0.60104913 -0.76195669
0.14130491 0.13538188 0.2669754
0.14562891 -0.044982076 0.090058327
0.13323991 0.28272593 0.59698534
0.14391091 0.0017638803 0.16035128
0.14430192 0.03767091 0.1443634
0.16240491 -0.49061912 -0.59636068
0.15929791 -0.40844208 -0.46925402
0.15295692 -0.24069005 -0.20976782
0.13523991 0.10390788 0.28227806
0.13109091 0.19592088 0.45833111
0.12794192 0.28222191 0.59192419
0.13818891 0.0013399124 0.15714025
0.13840991 0.038134873 0.14773798
0.15311392 -0.40968007 -0.4761939
0.14698692 -0.24173015 -0.21621084
0.12959792 0.10364687 0.2800622
0.13014592 0.13409293 0.25594234
0.12381491 0.2482149 0.53493834
0.13610692 -0.10337108 -0.0067310333
0.13251992 0.00055891275 0.1513381
0.13814192 -0.16127008 -0.09641695
0.12388192 0.10379893 0.28114796
0.12024692 0.1947419 0.44772434
0.13029592 -0.10426408 -0.012818813
0.12843892 -0.047476113 0.072266102
0.11732191 0.28120589 0.58176041
0.11759292 0.3207109 0.56937027
0.12684092 -0.00022608042 0.14552402
0.14729892 -0.60696715 -0.79205275
0.14349991 -0.49464208 -0.61794186
0.11839192 0.1359849 0.27149439
0.11308992 0.24713689 0.52460718
0.12447491 -0.10516208 -0.018930912
0.11199991 0.28069592 0.5766592
0.11242591 0.31946993 0.55629921
0.12115292 -0.0010120869 0.13969707
0.12063292 0.040401876 0.16449738
0.11864291 -0.10606211 -0.025055885
0.11692892 -0.049150109 0.060352325
0.10725892 0.31811589 0.54204702
0.13083492 -0.49734515 -0.632411
0.10688692 0.13665491 0.27686834
0.11115892 -0.049990118 0.054377079
0.10208092 0.31670189 0.5271821
0.12784791 -0.6114561 -0.81481361
0.11453591 -0.16511708 -0.1215148
0.10093892 0.1050449 0.29067326
0.10114291 0.13698888 0.27955103
0.098450914 0.19236892 0.42642307
0.096936919 0.24550492 0.50901508
0.10694991 -0.10786611 -0.037316799
0.096900918 0.31515789 0.5109663
0.10402792 -0.0033851266 0.12214899
0.10291192 0.042892873 0.18299913
0.10860892 -0.16608506 -0.12781572
0.095352918 0.10436088 0.28509712
0.095156915 0.17757988 0.29635906
0.091535918 0.24495691 0.50379133
0.091707915 0.31353492 0.49392509
0.097062916 0.043453872 0.18714142
0.11334892 -0.51887614 -0.74588394
0.089666918 0.1376549 0.28491306
0.089567915 0.17696691 0.29087496
0.095214918 -0.10968405 -0.049641609
0.086522914 0.31168789 0.4745512
0.084151916 0.10299093 0.27392817
0.083936915 0.1379869 0.28759527
0.089331917 -0.11059612 -0.055822849
0.088703915 -0.060002089 -0.015834808
0.081327915 0.30970192 0.45373106
0.086813919 -0.0057790875 0.10449505
0.085632913 0.042492926 0.17967415
0.10124992 -0.53188509 -0.81444168
0.078212917 0.13831788 0.29027319
0.075277917 0.24330592 0.48806715
0.074693918 0.27572888 0.52744436
0.076136917 0.30745488 0.43018627
0.081056915 -0.0065811276 0.098587036
0.079938918 0.041741908 0.17390919
0.095018916 -0.53721112 -0.84252787
0.072750919 0.1751259 0.27443218
0.077535912 -0.11242908 -0.068223953
0.076888919 -0.060850084 -0.021921635
0.069465913 0.27391988 0.50968695
0.088602915 -0.62055713 -0.86080694
0.064395919 0.24219888 0.47755337
0.070973918 -0.061275125 -0.024968624
0.069511913 -0.008192122 0.086744308
0.061305918 0.1036129 0.27859402
0.061065912 0.13930589 0.29829836
0.058939919 0.24164289 0.47228003
0.075416915 -0.62363011 -0.87628603
0.055650912 0.10320991 0.27529812
0.055359915 0.13963389 0.30096817
0.055634916 0.17541587 0.27676725
0.057925917 -0.0098121166 0.074854374
0.057064913 0.038715899 0.15070915
0.068803914 -0.62517315 -0.88404989
0.069386914 -0.55482608 -0.93541861
0.049990915 0.10280591 0.27199841
0.049688913 0.13962293 0.30081034
0.049950913 0.17531091 0.27577925
0.048003919 0.24052691 0.46170807
0.053196914 -0.062558115 -0.034125805
0.048522919 0.26396388 0.4121232
0.051321916 0.037951887 0.14486599
0.062178917 -0.62672108 -0.89183664
0.062823914 -0.5582481 -0.95347166
0.04432492 0.10239792 0.26867723
0.044033915 0.13941491 0.2990222
0.056228913 -0.56164211 -0.97136784
0.038407914 0.1387549 0.29345131
0.038589917 0.1749599 0.27258635
0.037098914 0.2385909 0.44347525
0.048887916 -0.62983114 -0.90745592
0.032981917 0.1014629 0.26108217
0.032907918 0.17472088 0.27043915
0.03250692 0.2255699 0.32154131
0.034631915 -0.01308012 0.050926208
0.03403192 0.035652876 0.12731314
0.04222092 -0.63139409 -0.91529465
0.04294192 -0.56843311 -1.0071659
0.027303917 0.1009329 0.25680017
0.027226919 0.17443091 0.26784897
0.035541914 -0.63296014 -0.92314768
0.021471919 0.1367619 0.27667713
0.021543918 0.1741029 0.26492929
0.021263918 0.22441691 0.31066704
0.022455918 0.03410691 0.11553621
0.015937919 0.099609911 0.24612331
0.015858917 0.17368591 0.26122713
0.016652917 0.033330917 0.1096344
0.022142919 -0.63610905 -0.93891287
0.010132918 0.13542092 0.26541519
0.010168917 0.17321593 0.25706911
0.010837918 0.032554924 0.10373211
0.0044749174 0.1726709 0.25225639
0.0086889174 -0.63927704 -0.95475388
-0.0011610817 0.096669912 0.22250223
-0.001244083 0.13407391 0.25412416
-0.00061708316 -0.018057108 0.014649391
-0.00081908144 0.030993879 0.091878414
0.0019619185 -0.64241415 -0.9703989
-0.0069310823 0.1711579 0.23893118
-0.0065290825 -0.018894076 0.0085682869
-0.012603082 0.090996921 0.17702723
-0.012450082 -0.019734085 0.0024709702
-0.012518082 0.029420912 0.079957962
-0.011575082 -0.64836115 -1.0000486
-0.018385082 0.090270877 0.1712141
-0.018385082 0.13203692 0.23708534
-0.018385082 -0.65135413 -1.0149598
-0.024175081 0.089543879 0.16539097
-0.024117082 0.13135588 0.23139524
-0.024260081 0.027839899 0.067999363
-0.029975083 0.088817894 0.15958118
-0.030146081 0.027047873 0.062016964
-0.035786085 0.088089883 0.15375519
-0.036042083 0.026251912 0.056007385
-0.041377082 0.12929791 0.21423912
-0.047440082 0.086621881 0.14204121
-0.047224082 0.12657988 0.19156027
-0.048210084 -0.024825096 -0.034385681
-0.053133085 0.12335491 0.16464233
-0.053796083 0.023848891 0.037894249
-0.059735082 0.023042917 0.031832218
-0.06502708 0.11799389 0.11993027
-0.07101208 0.11566788 0.10054111
-0.071626082 0.14649689 0.022377968
-0.071647085 0.021426916 0.019686222
-0.07701508 0.11351693 0.082620144
-0.078307085 -0.029132128 -0.065425873
-0.077618085 0.020617902 0.013610363
-0.083041087 0.11148393 0.065693378
-0.083600082 0.019803882 0.0075073242
-0.088552088 0.081423879 0.10069895
-0.094469085 0.080671906 0.094737053
-0.095144086 0.10782391 0.035243034
-0.096499085 -0.031746089 -0.084202766
-0.10258508 -0.032624125 -0.090497017
-0.10652909 0.077276886 0.067679405
-0.10868208 -0.033505082 -0.096811771
-0.11261208 0.07542789 0.052947998
-0.11342208 0.10296488 -0.0051250458
-0.11870509 0.073701918 0.039206982
-0.12568808 0.10002691 -0.02948761
-0.12704408 -0.036159098 -0.11579275
-0.13094108 0.070441902 0.013273239
-0.13184308 0.098617911 -0.041165829
-0.13318609 -0.037047088 -0.12213564
-0.13934009 -0.037938118 -0.12849474
-0.13793509 0.012368917 -0.048013687
-0.14323208 0.067405879 -0.010838032
-0.14420308 0.095883906 -0.063790798
-0.15040709 0.094563901 -0.074699879
-0.15013409 0.010688901 -0.060502052
-0.15662308 0.093274891 -0.085354805
-0.15624909 0.0098459125 -0.066762924
-0.16178608 0.063114882 -0.044859886
-0.16799708 0.061755896 -0.055617809
-0.16909608 0.09077692 -0.10596371
-0.16851409 0.0081549287 -0.079302788
-0.17466408 0.0073028803 -0.08561182
-0.18046409 0.059115887 -0.076492786
-0.18082808 0.0064489245 -0.09193182
-0.19318509 0.0047369003 -0.10458899
-0.20050609 0.084950924 -0.15389681
-0.19938108 0.0038778782 -0.11092901
-0.20682308 0.083862901 -0.16282082
-0.21315408 0.082771897 -0.17176199
-0.21815708 0.051808894 -0.13407183
-0.21949008 0.081724882 -0.180336
-0.22447708 0.050679922 -0.14293671
-0.22584109 0.08067888 -0.1888938
-0.23081309 0.049549878 -0.15180302
-0.23054108 -0.00046306849 -0.14290094
-0.23857209 0.078655899 -0.20540762
-0.23681009 -0.0013390779 -0.14934063
-0.25134307 0.076695919 -0.22137785
-0.24938108 -0.0030961037 -0.16223574
-0.26415509 0.074793875 -0.23684168
-0.26200107 -0.0048630834 -0.17517996
-0.26902208 0.043251872 -0.20102262
-0.27057406 0.07386291 -0.24439478
-0.28334206 0.07235688 -0.25652266
-0.28738707 -0.0084341168 -0.20128393
-0.30250508 0.070306897 -0.27291059
-0.30015606 -0.010236084 -0.21443176
-0.32176206 0.068242908 -0.28937101
-0.31940308 -0.012957096 -0.23423481
-0.32820106 0.067551911 -0.29487276
-0.33609608 -0.066947103 -0.33285093
-0.33229506 -0.014784098 -0.24751186
-0.34116408 0.066021919 -0.30709267
-0.34264407 -0.067928076 -0.33967686
-0.34920508 -0.068912089 -0.34651804
-0.34523907 -0.016622126 -0.26083994
-0.35228708 0.033058882 -0.2793088
-0.35880408 0.032178879 -0.2860527
-0.36737806 0.062581897 -0.33462477
-0.36475307 -0.019399107 -0.28094578
-0.37188208 0.030396879 -0.29970884
-0.37128305 -0.020330071 -0.28767586
-0.37844208 0.029501915 -0.30655861
-0.38056606 0.060847878 -0.34847069
-0.38717806 0.059977889 -0.35541296
-0.38885108 -0.074874103 -0.38786793
-0.39160007 0.027705908 -0.320292
-0.39384907 0.059004903 -0.36320591
-0.39550507 -0.075878084 -0.39481258
-0.39095306 -0.023140073 -0.30796099
-0.40217307 -0.076885104 -0.40177202
-0.39753607 -0.024082124 -0.31475401
-0.40733308 0.05683291 -0.38065863
-0.41148606 0.024881899 -0.34188175
-0.41555107 -0.078909099 -0.4157486
-0.41822207 0.023755908 -0.35054302
-0.42768806 0.053549886 -0.40699673
-0.42400208 -0.027880073 -0.34207296
-0.43174607 0.021493912 -0.36792803
-0.43450806 0.052448928 -0.41581869
-0.43065107 -0.028836071 -0.34893799
-0.44137806 0.051275909 -0.42523766
-0.44534007 0.019218922 -0.38538885
-0.45216107 0.018076897 -0.39414883
-0.45601407 -0.085055053 -0.45805883
-0.45903707 0.016855896 -0.40353298
-0.46604207 0.015406907 -0.41473103
-0.46961308 -0.087128103 -0.47228861
-0.48012206 0.012494922 -0.43722582
-0.47758508 -0.035612106 -0.39744663
-0.49582407 -0.14328307 -0.58196068
-0.49012008 -0.090261042 -0.49375582
-0.48434407 -0.036592126 -0.40444183
-0.49429008 0.0095639229 -0.45984077
-0.49111807 -0.037575126 -0.41145372
-0.50386208 -0.092365086 -0.50814581
-0.49790606 -0.038560092 -0.41848183
-0.51075608 -0.093422115 -0.5153656
-0.50471008 -0.039550126 -0.42552805
-0.51766306 -0.094482124 -0.52260399
-0.53152108 -0.096612155 -0.53712797
-0.52520108 -0.042534113 -0.44675303
-0.53206211 -0.043535113 -0.45386076
-0.54680812 -0.0047020912 -0.57080603
-0.56289208 -0.010188103 -0.61370802
-0.55418611 -0.049188077 -0.495152
-0.57313508 -0.15579015 -0.66400766
-0.58853608 -0.22252613 -0.78168869
-0.58025712 -0.1569491 -0.67157698
-0.56971109 -0.05410707 -0.53131866
-0.60442507 -0.30465609 -0.99300098
-0.58049709 -0.1041711 -0.58851862
-0.60305011 -0.22503108 -0.79733467
-0.5945431 -0.15927714 -0.68676901
-0.58755308 -0.10526508 -0.59593201
-0.61167908 -0.29171604 -0.9094739
-0.60170913 -0.16044611 -0.69439173
-0.5946241 -0.10636109 -0.6033597
-0.61907709 -0.29306716 -0.91756296
-0.60171312 -0.10746211 -0.6108098
-0.60349011 -0.067901075 -0.63338995
-0.62649411 -0.29442304 -0.92568064
-0.60881609 -0.10856515 -0.61827469
-0.61278409 -0.072577119 -0.66813993
-0.63392609 -0.2957831 -0.93381691
-0.6322751 -0.23008913 -0.82886982
-0.62330413 -0.16397613 -0.71737194
-0.62503612 -0.082028091 -0.73889875
-0.64137512 -0.2971471 -0.94197178
-0.62306708 -0.11078209 -0.63325787
-0.64884108 -0.29851609 -0.95014668
-0.63777912 -0.16634506 -0.73277283
-0.65632409 -0.29988915 -0.95834494
-0.64504212 -0.16753608 -0.74050379
-0.66382611 -0.30126709 -0.9665637
-0.67134309 -0.30264908 -0.97480297
-0.67660612 -0.23779505 -0.87675381
-0.66692311 -0.17113012 -0.76380682
-0.6864301 -0.30542606 -0.99134493
