# .PCD v0.7 - Point Cloud Data file format
VERSION 0.7
FIELDS x y z
SIZE 4 4 4
TYPE F F F
COUNT 1 1 1
WIDTH 1
HEIGHT 512
VIEWPOINT 0 0 0 1 0 0 0
POINTS 512
DATA ascii
0.22362716 -0.30657035 -0.3335762
0.22061217 -0.23243529 -0.24023628
0.21654816 -0.30206531 -0.30780315
0.21392116 -0.22974926 -0.22418118
0.21199816 -0.15802735 -0.162992
0.21540716 -0.39685434 -0.47485828
0.20964916 -0.29831833 -0.2863903
0.19810717 -0.10446328 -0.10731316
0.20722017 -0.38577932 -0.41434526
0.20279017 -0.29459435 -0.26510906
0.20062916 -0.22441727 -0.19229221
0.19900817 -0.1540063 -0.13766909
0.19968116 -0.37813932 -0.37265491
0.19402917 -0.2217713 -0.17645788
0.17498316 0.19190466 0.28588772
0.18527016 -0.10067135 -0.082387924
0.19249417 -0.37233335 -0.34100723
0.18919517 -0.28721732 -0.22292709
0.16889316 0.1934517 0.29932499
0.17894116 -0.099088371 -0.071997166
0.18247317 -0.28364831 -0.20251703
0.17970017 -0.1480363 -0.1000309
0.17590517 -0.28086632 -0.18664122
0.15921816 0.14639568 0.23011208
0.15679017 0.19652569 0.32603502
0.15513617 0.2778337 0.39135599
0.17581816 -0.44565231 -0.42568398
0.17155217 -0.35694832 -0.25716925
0.16798617 -0.21171528 -0.1162672
0.15523016 0.10347569 0.15694809
0.15210417 0.15297067 0.28487587
0.14980516 0.24750268 0.37896395
0.16007116 -0.094384372 -0.041108131
0.15957716 -0.04644531 -0.020916939
0.14918417 0.27917969 0.40436506
0.15923816 -0.0066363215 -0.0070300102
0.16546516 -0.35776728 -0.26181126
0.16160217 -0.20962232 -0.10375309
0.16060117 -0.14213735 -0.062792301
0.14558716 0.15700769 0.3184557
0.14478417 0.19957167 0.35252571
0.15381916 -0.092828333 -0.030875206
0.15334517 -0.044965327 -0.010744095
0.14239816 0.32605368 0.45376301
0.15945016 -0.35919529 -0.26978731
0.15688217 -0.27631134 -0.16083431
0.15428917 -0.14024132 -0.050813198
0.14333716 0.10471267 0.16658306
0.13881916 0.20108467 0.36568594
0.14758717 -0.091277301 -0.020671844
0.14713116 -0.043490291 -0.00060129166
0.13653116 0.32728767 0.46651602
0.14688416 -0.0042123199 0.01026392
0.13561517 0.37779069 0.50686502
0.15342116 -0.36062735 -0.27778196
0.14890717 -0.20546228 -0.078861237
0.14803816 -0.13861436 -0.040553093
0.13551717 0.11612469 0.25786495
0.13361517 0.16021669 0.3450017
0.14137216 -0.089731276 -0.010499001
0.13147616 0.28318071 0.44306183
0.13068716 0.32851666 0.4792161
0.14049016 0.03752166 0.029931068
0.12981017 0.37891066 0.51940489
0.12927917 0.40939569 0.54371595
0.14737916 -0.36206335 -0.28579092
0.14499116 -0.27895433 -0.17635298
0.14288417 -0.20558733 -0.079753876
0.14180516 -0.13699335 -0.030322075
0.12863116 0.12291569 0.31213808
0.12696217 0.2040897 0.3918457
0.12614417 0.25310266 0.430861
0.13517717 -0.08819133 -0.00035905838
0.12562117 0.28450167 0.45585489
0.12486616 0.32973969 0.49186516
0.13459416 -0.0018033385 0.027469158
0.12402816 0.38002568 0.53189373
0.14132416 -0.36350328 -0.29381895
0.13902716 -0.28028232 -0.18414211
0.13559116 -0.13537735 -0.020123005
0.12174016 0.16339767 0.37133408
0.12106717 0.20558268 0.40485191
0.12028717 0.25448769 0.44370794
0.12899916 -0.086656272 0.0097537041
0.11906816 0.33095771 0.50446701
0.12847117 -0.00060433149 0.036039829
0.11710717 0.45387268 0.60212898
0.11643916 0.49580067 0.63544273
0.13726817 -0.44102031 -0.40221691
0.13525416 -0.36494833 -0.30186892
0.13304816 -0.28161532 -0.19195509
0.13110016 -0.20805436 -0.094933987
0.12939416 -0.13376635 -0.009950161
0.11702116 0.12428468 0.32287693
0.11601816 0.16386467 0.37512589
0.11519916 0.20706868 0.41780186
0.11445616 0.25586569 0.45650291
0.12284017 -0.08512634 0.019834995
0.12256916 -0.038459301 0.033977032
0.11398016 0.28712869 0.48129606
0.11142616 0.45482469 0.61429501
0.11078916 0.49666569 0.64747906
0.13371216 -0.54548234 -0.54635525
0.12917216 -0.36639732 -0.30993605
0.12705716 -0.28295237 -0.19978428
0.12519017 -0.20929235 -0.10254622
0.11049417 0.16308671 0.36851978
0.10864817 0.25723869 0.469244
0.11670016 -0.083602369 0.029883862
0.11627416 0.001781702 0.053111076
0.11359216 0.059999704 0.19949389
0.10681815 0.38334268 0.56907415
0.10637917 0.41356969 0.5930028
0.10576716 0.4557727 0.62641191
0.10516116 0.49752769 0.65946674
0.12492417 -0.44413632 -0.41882706
0.12105316 -0.28429228 -0.20763111
0.11926717 -0.21053427 -0.11017704
0.11740117 -0.1334843 -0.0083723068
0.10587417 0.12263268 0.30943775
0.10495816 0.16230667 0.36189985
0.10391416 0.2075367 0.42171097
0.10286316 0.25860471 0.48193598
0.11060315 -0.082294285 0.03850174
0.11038417 -0.035977304 0.051056862
0.10243316 0.28973168 0.50653076
0.11019915 0.0029686689 0.061615944
0.10778517 0.060073674 0.19994497
0.10112716 0.38443869 0.58136892
0.10071117 0.41460168 0.60520411
0.099674165 0.4978987 0.66458607
0.12111317 -0.54890829 -0.56365299
0.11873117 -0.4457013 -0.42715931
0.11503616 -0.28563827 -0.21549892
0.10028116 0.12180269 0.30269289
0.098416165 0.20680666 0.41519499
0.10452016 -0.080998361 0.047042847
0.10431316 -0.034742296 0.059566975
0.096693158 0.2910257 0.51907492
0.096108153 0.3357777 0.55437374
0.095457166 0.38553071 0.59361792
0.11479115 -0.55062932 -0.57233095
0.11252216 -0.44727129 -0.43551826
0.11084317 -0.37077528 -0.33427811
0.10900515 -0.28698629 -0.22338009
0.093851164 0.16073769 0.34861279
0.091824159 0.25816971 0.47767496
0.098660156 -0.081665337 0.042495728
0.098259166 -0.033511341 0.068055153
0.091135159 0.29128671 0.52154398
0.090425164 0.33696866 0.56672382
0.096173167 0.060217679 0.2008481
0.089811161 0.38661671 0.60581493
0.089439154 0.41665369 0.62946272
0.08892116 0.4585937 0.66248369
0.10470717 -0.3722443 -0.34243107
0.10296115 -0.28833836 -0.23127604
0.099810153 -0.13693029 -0.030712128
0.088282153 0.15995067 0.34194803
0.087389156 0.20533967 0.40212488
0.09283416 -0.082750261 0.035171986
0.084779158 0.33806568 0.57809305
0.091129154 0.015203714 0.15004492
0.083838165 0.41767269 0.64152098
0.10210516 -0.55408233 -0.58973408
0.10006616 -0.45042926 -0.45230627
0.098557159 -0.37371737 -0.35060501
0.083440155 0.11929971 0.28237772
0.081860155 0.20460266 0.39556885
0.080892161 0.2568177 0.46485472
0.08027716 0.29000968 0.50889874
0.078257158 0.41868669 0.65352869
0.077800155 0.46045369 0.68629503
0.078363165 0.52826869 0.64598894
0.095740154 -0.55581731 -0.59847021
0.090834156 -0.29105836 -0.24714708
0.089458153 -0.2168023 -0.14860821
0.088021159 -0.13924628 -0.045692921
0.077110156 0.15836871 0.32857704
0.076319158 0.20386368 0.38899803
0.075410157 0.25613868 0.45842409
0.080189154 -0.029845297 0.093362808
0.074006155 0.3368907 0.56567097
0.079632163 0.013271689 0.13587475
0.078823164 0.059837699 0.19772291
0.073096156 0.38923568 0.63519001
0.072699159 0.4196977 0.66549206
0.072351158 0.46090567 0.69204807
0.089360163 -0.55755931 -0.60723209
0.087553158 -0.45360726 -0.46918011
0.083458155 -0.21806735 -0.15635014
0.082108155 -0.14040929 -0.053211212
0.070765153 0.20312268 0.38241291
0.075277165 -0.086025298 0.013093948
0.069375157 0.28872466 0.49620008
0.073864162 0.012301683 0.12876415
0.067751154 0.38870269 0.62909412
0.066977158 0.46094468 0.6924839
0.067290157 0.4980917 0.66681099
0.082964167 -0.55930728 -0.61602402
0.077442154 -0.21933836 -0.16411829
0.066494167 0.11677366 0.26192093
0.065202162 0.20237869 0.37581205
0.06390816 0.28807968 0.48983002
0.063189164 0.33570868 0.55319595
0.062398162 0.38816768 0.62298679
0.061922159 0.41965669 0.6648798
0.06189416 0.49813369 0.66733789
0.074981153 -0.45680434 -0.48613214
0.060264159 0.15597868 0.30841112
0.059627157 0.20163369 0.36920214
0.058896158 0.25408971 0.43904972
0.063512161 -0.088225305 -0.0017108917
0.05843116 0.28743267 0.48344803
0.062295157 0.010352671 0.11449671
0.057034161 0.38763267 0.61687088
0.056594159 0.41915566 0.65884781
0.056233156 0.46102268 0.69335794
0.056500163 0.49817568 0.66786575
0.064288154 -0.14392132 -0.075878143
0.054626163 0.15517771 0.30165911
0.053370159 0.25340271 0.43256283
0.057610158 -0.089329302 -0.0091381073
0.052332159 0.33451968 0.54066896
0.056492161 0.0093736649 0.10733795
0.05086216 0.46106067 0.69379616
0.051106159 0.49821767 0.66839314
0.063900158 -0.49071628 -0.66443396
0.049444161 0.11422569 0.24133873
0.048977159 0.15437371 0.29488993
0.048444159 0.20013571 0.35593081
0.047832161 0.25271368 0.42606306
0.051049162 -0.034951329 0.057435036
0.046887159 0.3339237 0.53439808
0.05067616 0.0083916783 0.10016394
0.046274159 0.38655668 0.60460472
0.04590616 0.4181487 0.64674377
0.057235163 -0.56635827 -0.65141392
0.04373616 0.11337167 0.23444271
0.042834159 0.19938368 0.34927273
0.04228216 0.25202268 0.41954803
0.045184162 -0.035992324 0.05012989
0.04193116 0.28548169 0.46423101
0.04143016 0.33332568 0.52810383
0.044847161 0.0074067116 0.092970848
0.044355161 0.05431968 0.15560675
0.040545158 0.4176417 0.64066696
0.040129159 0.4610647 0.6937561
0.05076316 -0.56813329 -0.66031218
0.05150716 -0.50793332 -0.75500393
0.038017161 0.11251467 0.22753382
0.03721416 0.19862968 0.34260082
0.036722161 0.2513327 0.41304111
0.039307158 -0.037035286 0.042813778
0.03641016 0.28482771 0.45779371
0.038983159 0.0068876743 0.089162827
0.03547116 0.38547367 0.59226799
0.035183161 0.41704071 0.63346577
0.034767158 0.46101868 0.69313097
0.04427816 -0.56991428 -0.66922998
0.032287162 0.1116547 0.22061014
0.031958159 0.15194768 0.27449512
0.031151161 0.2506367 0.40649796
0.030877162 0.2841717 0.45134401
0.031015161 0.32382971 0.42888975
0.030068159 0.38473868 0.58391714
0.029804159 0.41650671 0.62706184
0.037777159 -0.57170135 -0.67817593
0.025940161 0.19711471 0.32922077
0.026049159 0.2401467 0.30826092
0.02751616 -0.039131343 0.028125763
0.025279161 0.32637066 0.45538807
0.024640162 0.38416666 0.5774169
0.031261161 -0.57349533 -0.68714714
0.020283161 0.19635367 0.32249689
0.020331159 0.24050468 0.31158495
0.01958916 0.32889068 0.48167276
0.021330159 0.0060006976 0.082633018
0.021135161 0.050585687 0.12721109
0.01901116 0.41543269 0.61420298
0.01887816 0.45726869 0.64470577
0.01461716 0.19559067 0.31577301
0.01461616 0.24098271 0.31603813
0.014002159 0.32988268 0.49200678
0.013598161 0.41489267 0.60775709
0.01818116 -0.57710236 -0.70517492
0.0092441607 0.10819167 0.19275808
0.00893916 0.19482571 0.30902672
0.00890816 0.24148971 0.32077169
0.0084781591 0.32924169 0.48529482
0.009570159 0.0040037036 0.068109035
0.0094531607 0.048701704 0.1129179
0.0081741605 0.4143517 0.60129404
0.0034531597 0.1073187 0.18575811
0.0032641599 0.1930877 0.29374599
0.0030571595 0.28021669 0.41258669
0.0029421598 0.32859868 0.47857714
0.00367116 0.0030006766 0.060822964
0.0035931598 0.047755659 0.10574484
0.0050401604 -0.58073026 -0.723279
-0.00234984 0.10644567 0.17874908
-0.0023888401 0.14581871 0.22317886
-0.0026058401 0.32795566 0.47184992
-0.0022798399 0.046806693 0.098558903
-0.0026688399 0.38127571 0.54464912
-0.0027068402 0.41326469 0.58832312
-0.0081668403 0.14494568 0.21588373
-0.0081668403 0.32730871 0.4650979
-0.0081668403 0.38069266 0.5380497
-0.0081668403 0.41271871 0.58181381
-0.01400384 0.10318869 0.15265703
-0.01389984 0.19064671 0.27227688
-0.01383584 0.24412769 0.34544706
-0.01379584 0.27810168 0.39191008
-0.01367384 0.3801077 0.53143787
-0.01371584 0.40440768 0.48278999
-0.01481084 -0.59040731 -0.7714901
-0.01985484 0.10225767 0.14520884
-0.019756839 0.14319366 0.20125008
-0.01964584 0.18982869 0.26509714
-0.019517839 0.24337667 0.33841705
-0.01943684 0.27739269 0.38498878
-0.01932084 0.3260107 0.45155096
-0.019192841 0.37952071 0.52480984
-0.02149684 -0.59524828 -0.79559708
-0.025404841 0.18900871 0.25790071
-0.025089839 0.27668166 0.37805271
-0.02491484 0.32535869 0.44475508
-0.024722841 0.37893271 0.51816893
-0.028225839 -0.60012132 -0.81985331
-0.030919841 0.24186766 0.32432175
-0.03075684 0.27596766 0.37109613
-0.03052384 0.32470369 0.43794203
-0.03181484 0.042778671 0.068122864
-0.03026684 0.37834269 0.51151085
-0.037487842 0.099451661 0.12277508
-0.037241839 0.14054668 0.17919111
-0.036638841 0.24111068 0.31725502
-0.03775984 0.04176271 0.060461998
-0.03612484 0.37158269 0.43509007
-0.04177884 -0.60833436 -0.8607192
-0.04309484 0.13965869 0.17180204
-0.042757839 0.18653268 0.23620701
-0.042370841 0.24034971 0.31016493
-0.048567839 0.18570268 0.22894382
-0.047826841 0.27381468 0.3501358
-0.047415841 0.32272971 0.41741276
-0.055237841 0.096615672 0.10015774
-0.054389842 0.18486971 0.22165871
-0.053870842 0.2388227 0.29593897
-0.053070839 0.32206768 0.41053915
-0.06230684 -0.61873728 -0.91242218
-0.060226839 0.18403369 0.21435404
-0.059641842 0.23805571 0.28879786
-0.05927084 0.27236867 0.33608007
-0.058739841 0.32140368 0.4036479
-0.06167784 0.037668705 0.0296278
-0.066074841 0.18319571 0.20703697
-0.064419836 0.32073867 0.39674377
-0.067690842 0.03663671 0.021872997
-0.076145843 -0.62569135 -0.94695616
-0.073110834 0.093754709 0.077381134
-0.071218833 0.23651469 0.27447271
-0.070762843 0.27091366 0.32196093
-0.083345845 -0.55245835 -0.98881197
-0.079094842 0.09279567 0.069752693
-0.076527834 0.27018267 0.31487894
-0.079758838 0.034563661 0.0063056946
-0.085093841 0.091832697 0.062104702
-0.084441841 0.13336271 0.11954784
-0.082306847 0.26944971 0.30777693
-0.096795842 -0.54877633 -0.96932507
-0.088096842 0.26871467 0.30066013
-0.091884837 0.032477677 -0.0093412399
-0.10349384 -0.54693335 -0.95956516
-0.10323684 -0.4808833 -0.93848419
-0.097129837 0.089898705 0.046755791
-0.09637484 0.1315397 0.10446072
-0.093899846 0.26797771 0.29352713
-0.097967833 0.031429708 -0.017194271
-0.10990085 -0.47913331 -0.92880201
-0.10173585 0.1757167 0.14170074
-0.10038584 0.23262066 0.23836374
-0.10406484 0.030378699 -0.025064945
-0.11684184 -0.54326636 -0.94012022
-0.10836184 0.12970471 0.089298725
-0.10554384 0.2664957 0.279212
-0.11017583 0.02932471 -0.032956123
-0.12393583 -0.62851232 -0.96044397
-0.12315483 -0.4753353 -0.90778828
-0.11504284 0.0889377 0.039318085
-0.11437784 0.1287837 0.081696987
-0.11630283 0.028266668 -0.04087019
-0.12974484 -0.47330528 -0.8965559
-0.12919784 -0.39764231 -0.86168909
-0.12126385 0.086801708 0.02230072
-0.12286684 0.11008769 -0.07437706
-0.12356883 -0.021608293 -0.11669397
-0.13756983 -0.62867731 -0.96105099
-0.13631484 -0.47128326 -0.88536215
-0.12751584 0.084654689 0.0051989555
-0.14334284 -0.53599936 -0.9015193
-0.14286584 -0.46926826 -0.87419796
-0.13379884 0.082495689 -0.011988163
-0.13591483 0.10371071 -0.12743616
-0.13601583 -0.023877323 -0.13293314
-0.13476583 0.025072694 -0.064720154
-0.14992684 -0.53419727 -0.89192915
-0.14939784 -0.4672603 -0.86306906
-0.14867684 -0.39112526 -0.82376289
-0.14011584 0.080324709 -0.02926302
-0.14226283 -0.025017321 -0.14108706
-0.15649584 -0.53239936 -0.88235998
-0.15591283 -0.46525937 -0.85197115
-0.15512083 -0.38888329 -0.81070518
-0.15420784 -0.31844026 -0.76318312
-0.14852384 -0.026161313 -0.14925623
-0.15905184 -0.23759931 -0.67371988
-0.15296884 0.07519871 -0.070090294
-0.16349083 -0.17398828 -0.57239008
-0.15479884 -0.027307332 -0.15744305
-0.15335983 0.021849692 -0.088747978
-0.16888484 -0.46127826 -0.82987309
-0.16793884 -0.38442534 -0.78473091
-0.16683283 -0.31332034 -0.73192406
-0.16940583 -0.17016834 -0.54678106
-0.16532683 -0.095004261 -0.35984707
-0.16108984 -0.028458297 -0.16565418
-0.17637983 -0.52944428 -0.86642122
-0.17534284 -0.45929831 -0.81887531
-0.17431584 -0.38220936 -0.7718091
-0.17310683 -0.31077737 -0.71639109
-0.17133084 -0.2315883 -0.6350193
-0.17527984 -0.16637534 -0.52134895
-0.16893484 -0.078083336 -0.24175215
-0.16739483 -0.029612303 -0.1738863
-0.18177883 -0.45728928 -0.80771589
-0.17299883 0.064965665 -0.15164614
-0.18099684 -0.16184932 -0.49102926
-0.17531984 -0.079311311 -0.25016928
-0.17208683 0.018594682 -0.11295986
-0.18815283 -0.45494634 -0.79471397
-0.18700783 -0.37780231 -0.74609327
-0.18557984 -0.30572432 -0.68551302
-0.18005283 -0.031932294 -0.1904211
-0.17835784 0.017502666 -0.12107325
-0.19450484 -0.45261234 -0.78175926
-0.19328484 -0.37535828 -0.73184109
-0.19177784 -0.30321532 -0.67017317
-0.18813384 -0.081780374 -0.2670722
-0.18640384 -0.03309834 -0.19871712
-0.20136784 -0.45412034 -0.78986216
-0.19950584 -0.37269431 -0.71631193
-0.19788383 -0.30028135 -0.6522522
-0.19456483 -0.083019316 -0.27555323
-0.19094583 0.015309691 -0.13735723
-0.21134983 -0.53914732 -0.91657829
-0.20828784 -0.45593637 -0.79964209
-0.20101583 -0.21401733 -0.52192402
-0.20326284 -0.14337331 -0.3672123
-0.20101184 -0.084263265 -0.28405809
-0.19915384 -0.035440326 -0.21537495
-0.21840183 -0.54110831 -0.92669916
-0.21187383 -0.36740035 -0.68544006
-0.20676483 -0.21009129 -0.49666119
-0.20980284 -0.14470834 -0.37593985
-0.20359583 0.013101697 -0.1537261
-0.22546984 -0.54307729 -0.93685293
-0.21591283 -0.29085535 -0.59468889
-0.21395184 -0.086762369 -0.30112505
-0.21196383 -0.037796319 -0.23211098
-0.22916284 -0.46142334 -0.82917213
-0.22293083 -0.14739031 -0.39345312
-0.23615684 -0.46326631 -0.83907604
-0.22895184 -0.29118627 -0.5963192
-0.22543684 -0.20723933 -0.47788715
-0.22695383 -0.089276373 -0.31828213
-0.22483584 -0.040168285 -0.24893808
-0.22375883 0.0051016808 -0.21368408
-0.24316983 -0.46511537 -0.84900808
-0.23921484 -0.37345034 -0.71956825
-0.23573284 -0.29275531 -0.60561609
-0.23210584 -0.20867735 -0.48688698
-0.23612684 -0.15009028 -0.4110651
-0.23348184 -0.090541303 -0.32689905
-0.23129684 -0.041360319 -0.25738716
-0.25020283 -0.46696931 -0.85896301
-0.23879284 -0.21012026 -0.49591398
-0.24274884 -0.15144736 -0.41991091
-0.24002284 -0.091809332 -0.33553696
-0.23777284 -0.042556286 -0.26585627
-0.25304985 -0.37686235 -0.73882484
-0.24549584 -0.21156937 -0.50496721
-0.24426384 -0.043756306 -0.27435112
-0.25999284 -0.37857729 -0.74849319
-0.25618383 -0.29749435 -0.63366699
-0.25221583 -0.21302336 -0.51404619
-0.25315586 -0.094358265 -0.3528862
-0.25077185 -0.04496032 -0.282866
-0.26695484 -0.38029736 -0.75818586
-0.26303583 -0.29908532 -0.64307213
-0.25974783 -0.095639288 -0.36159801
-0.25729683 -0.046168327 -0.29140806
-0.26940483 -0.15692335 -0.45553923
-0.27679384 -0.3022843 -0.66197395
-0.27297884 -0.098214328 -0.37908602
-0.28369984 -0.30389231 -0.67146301
-0.27961883 -0.099506319 -0.38785887
-0.29062283 -0.30550629 -0.68098021
-0.29756385 -0.30712432 -0.69052124
-0.29633182 -0.16246933 -0.49154186
-0.29974085 -0.22333735 -0.57831907
