# .PCD v0.7 - Point Cloud Data file format
VERSION 0.7
FIELDS x y z
SIZE 4 4 4
TYPE F F F
COUNT 1 1 1
WIDTH 1
HEIGHT 512
VIEWPOINT 0 0 0 1 0 0 0
POINTS 512
DATA ascii
0.89139277 -0.038727641 0.13382816
0.89291978 0.040804386 0.12302828
0.88015777 -0.032877564 0.17164087
0.88096976 0.0099824071 0.16586113
0.86904776 -0.027092576 0.2090373
0.86984777 0.015521407 0.2033062
0.86055177 -0.024085581 0.2281003
0.86011279 0.019685388 0.23126316
0.86277378 0.053543389 0.21208811
0.85494679 -0.024215579 0.22644806
0.84890574 0.019437373 0.22797203
0.84591079 0.05318439 0.20714188
0.83769077 0.019186378 0.22467995
0.83208179 0.01905942 0.22303295
0.82903177 0.052819371 0.20219612
0.81566876 -0.025150597 0.21486425
0.81524378 0.018675387 0.21809387
0.81777078 0.052572429 0.19889927
0.81005174 -0.025287628 0.2132082
0.80962878 0.018546402 0.21644592
0.80401176 0.018416405 0.21479893
0.80650479 0.052323401 0.19560289
0.79881376 -0.025563598 0.20988894
0.79319274 -0.025703609 0.20823002
0.79523277 0.052071393 0.19230795
0.78715074 0.018021405 0.20985317
0.78959274 0.051944375 0.19066
0.78152776 0.017887414 0.20820332
0.78395277 0.051817417 0.18901205
0.77631778 -0.026126623 0.20324612
0.77831078 0.051688373 0.18736506
0.77069074 -0.026269615 0.20158291
0.76464778 0.017483413 0.20325613
0.75379676 -0.026702583 0.1965909
0.75572479 0.051169395 0.18077612
0.75007474 0.051037371 0.17912912
0.74252778 -0.026995599 0.19325924
0.74442279 0.050905406 0.17748404
0.73648274 0.016795397 0.19500208
0.73124975 -0.027291596 0.18992424
0.73311275 0.050639391 0.17418909
0.72560978 -0.027441621 0.18825531
0.72745579 0.0505054 0.17254305
0.71996778 -0.027591586 0.18658495
0.71956378 0.016374409 0.19004631
0.72179675 0.050370395 0.17089701
0.70827478 0.01608938 0.18674088
0.71047276 0.050098419 0.16760397
0.70302975 -0.028047621 0.18157291
0.70262975 0.015945375 0.18508625
0.70480877 0.049962401 0.16595697
0.69738078 -0.02820158 0.17990112
0.69698179 0.01580143 0.18343306
0.69914275 0.049824417 0.16431189
0.69133174 0.015656412 0.18177986
0.69347578 0.049686372 0.16266489
0.68607575 -0.028511584 0.17655325
0.68567878 0.01551038 0.18012428
0.68780476 0.049547374 0.16101933
0.68042177 -0.028667629 0.17487907
0.68002576 0.015363395 0.17846918
0.68213379 0.049408376 0.15937424
0.67476678 -0.028824627 0.17320108
0.67437077 0.01521641 0.17681408
0.67646074 0.049268425 0.1577282
0.67078578 0.0491274 0.15608311
0.66305375 0.0149194 0.17350197
0.66510874 0.048986375 0.15443611
0.65778679 -0.02930057 0.16817093
0.65739375 0.014770389 0.17184496
0.65942979 0.048844397 0.15279102
0.65212375 -0.029461622 0.16649103
0.64606774 0.014468372 0.16853094
0.64079279 -0.02978462 0.16313219
0.64238477 0.048413396 0.14785433
0.63669777 0.048269391 0.14620924
0.63100976 0.048123419 0.14456415
0.62339276 0.013856411 0.16190004
0.61810678 -0.030441582 0.15640306
0.61962974 0.047831416 0.14127398
0.61242878 -0.030608594 0.15471697
0.61393577 0.047683418 0.13962793
0.60675174 -0.030775607 0.15303087
0.60824078 0.047535419 0.13798189
0.60254377 0.047386408 0.13633823
0.59539074 -0.031112611 0.1496582
0.59500778 0.013075411 0.15360308
0.59684479 0.047237396 0.13469315
0.58402079 -0.031453609 0.14628315
0.57795274 0.012597382 0.14862013
0.57973576 0.046785414 0.12975788
0.57226479 0.01243639 0.14695692
0.57402974 0.046632409 0.12811422
0.56695378 -0.03197062 0.14121103
0.56657475 0.012274384 0.14529514
0.56088179 0.012112379 0.14363098
0.55689776 0.04617238 0.12317896
0.54986775 -0.032495618 0.13613319
0.54949176 0.011785388 0.14030409
0.54416877 -0.032672644 0.13443804
0.54379374 0.011620402 0.13864088
0.53846776 -0.03284955 0.13274288
0.53809375 0.011454403 0.13697624
0.53276378 -0.033028603 0.13104486
0.53402674 0.045549393 0.11660099
0.52705878 -0.033207655 0.12934923
0.52668679 0.011121392 0.13364506
0.52830476 0.045391381 0.1149559
0.52098078 0.010953426 0.13197994
0.52258074 0.045233428 0.11331129
0.51564276 -0.033569574 0.12595224
0.51685476 0.045074403 0.1116662
0.50993079 -0.033751607 0.12425232
0.50421774 -0.03393364 0.12255096
0.50539476 0.044755399 0.10837603
0.49966276 0.044594407 0.10673428
0.49392879 0.044432402 0.10508823
0.48670077 0.0099313855 0.1219759
0.48819274 0.044270396 0.10344315
0.48097974 0.0097584128 0.12030602
0.47561979 -0.034861565 0.11403513
0.47671175 0.043943405 0.10015488
0.46989375 -0.035049558 0.11232805
0.47096974 0.043779373 0.098510265
0.46416575 -0.035238624 0.11062193
0.46522474 0.043614388 0.096865177
0.45270276 -0.035618544 0.10720491
0.45234579 0.0088803768 0.11195707
0.44661278 0.0087034106 0.11028528
0.44087777 0.0085244179 0.10861301
0.44222376 0.042947412 0.090287209
0.43549377 -0.036195636 0.10207415
0.43514076 0.0083454251 0.10694027
0.43646878 0.042779386 0.088643074
0.42975175 -0.036390543 0.10035515
0.42939976 0.0081654191 0.10526705
0.43070978 0.042610407 0.086997986
0.41791478 0.0078024268 0.10191917
0.41918877 0.042270422 0.083708286
0.41252276 -0.036991596 0.095128059
0.41216877 0.0076203942 0.100245
0.41342476 0.042098403 0.082064152
0.40677476 -0.037193656 0.093384266
0.40765876 0.041927397 0.08041811
0.40102276 -0.03739655 0.091638088
0.40066975 0.0072523952 0.096894264
0.40188876 0.041754425 0.078773975
0.39527076 -0.037600636 0.089890957
0.39491677 0.0070683956 0.095218182
0.39611876 0.041581392 0.077127934
0.38951576 -0.037805557 0.088140965
0.38916177 0.0068824291 0.093543053
0.38340577 0.006696403 0.091866016
0.38457078 0.041232407 0.073839188
0.37799877 -0.038217545 0.084639072
0.37764478 0.0065094233 0.090187073
0.37879276 0.041057408 0.072194099
0.37223676 -0.038425565 0.082887173
0.37301275 0.040881395 0.070549011
0.36723176 0.040704429 0.068903923
0.36035377 0.0059434175 0.085153103
0.36144775 0.040527403 0.067260265
0.35493776 -0.039053559 0.077621937
0.35458577 0.0057533979 0.083475113
0.34881377 0.0055614114 0.081794262
0.34987277 0.040170372 0.063969135
0.33761677 -0.039690614 0.072347164
0.33726576 0.0051773787 0.078433037
0.33828875 0.039811373 0.060678959
0.33183777 -0.039904594 0.070585251
0.33148777 0.0049843788 0.076753139
0.33249375 0.039630413 0.059033871
0.32605577 -0.040120602 0.068821907
0.32027277 -0.040336609 0.067057133
0.31992477 0.0045943856 0.0733881
0.31413975 0.0043994188 0.071704865
0.31509376 0.039083421 0.054098129
0.30869976 -0.040771604 0.0635252
0.30835375 0.0042024255 0.070022106
0.30928975 0.038899422 0.052452087
0.30290878 -0.040990591 0.061758041
0.30256376 0.0040053725 0.068337917
0.30348277 0.038715422 0.050806046
0.29711476 -0.041210651 0.059987068
0.29677075 0.0038074255 0.066653252
0.29097676 0.0036084056 0.064969063
0.29186076 0.038344383 0.047513962
0.28552076 -0.04165256 0.056446075
0.28518078 0.0034083724 0.063282013
0.28604776 0.038158417 0.045868874
0.27972075 -0.041875601 0.054672241
0.27938175 0.0032073855 0.061595917
0.28023177 0.037971377 0.044224262
0.27441177 0.037783384 0.042576313
0.26811075 -0.042323589 0.051121235
0.26777577 0.0028043985 0.058222294
0.26859078 0.037594378 0.040932178
0.26276776 0.037405372 0.039286137
0.25616077 0.002397418 0.05484724
0.25694177 0.037215412 0.037639141
0.25067776 -0.043003559 0.045783997
0.25034976 0.0021933913 0.053158283
0.24486075 -0.043231606 0.044002056
0.24453475 0.0019873977 0.051466942
0.24528275 0.036833405 0.034346104
0.23944975 0.036641419 0.032701015
0.22739775 -0.043923616 0.038650036
0.22707976 0.0013673902 0.046397209
0.22156976 -0.044155598 0.036860943
0.22125475 0.0011584163 0.044704914
0.21574076 -0.044388652 0.03507328
0.21542875 0.00094938278 0.043012142
0.21609275 0.035865426 0.026113033
0.20990874 -0.04462254 0.033284187
0.20959975 0.00073939562 0.041320324
0.21024774 0.0356704 0.024466038
0.20376875 0.00052839518 0.039627075
0.20439975 0.035473406 0.022819042
0.19793575 0.00031638145 0.037932873
0.19854975 0.035276413 0.021173
0.19239575 -0.045331597 0.027904987
0.18655275 -0.045569658 0.026110172
0.18625875 -0.00010961294 0.034543037
0.18684076 0.0348804 0.017877102
0.18070775 -0.045808554 0.024312973
0.18041775 -0.00032359362 0.032847881
0.18098275 0.03468138 0.01623106
0.16900775 -0.046289563 0.02071619
0.16339375 0.034079373 0.011288166
0.15702476 -0.0011885762 0.026058197
0.15165575 0.033674419 0.0079922676
0.14557675 -0.047263622 0.013502121
0.14531276 -0.0016255975 0.022661209
0.13971075 -0.047509551 0.011694908
0.13945176 -0.0018455982 0.020961285
0.13990575 0.033267379 0.0046958923
0.13358974 -0.0020666122 0.01925993
0.12797275 -0.048004627 0.0080780983
0.12772475 -0.0022876263 0.017559052
0.12185675 -0.002509594 0.015858173
0.11598475 -0.0027335882 0.014154911
0.11637676 0.032442391 -0.0018978119
0.11034276 -0.048753619 0.0026402473
0.11011174 -0.0029566288 0.012452126
0.11048876 0.032235384 -0.0035481453
0.10446075 -0.049005628 0.00082206726
0.10423575 -0.0031815767 0.010746956
0.10459775 0.03202641 -0.0051960945
0.098703757 0.031817377 -0.0068449974
0.086796746 -0.049766541 -0.0046319962
0.086907744 0.031396389 -0.010144711
0.08070375 -0.0040895939 0.0039272308
0.081005752 0.031185389 -0.01179409
0.075101748 0.030973375 -0.013443947
0.069106758 -0.050537586 -0.010100842
0.06892176 -0.004547596 0.00051307678
0.063202754 -0.050795555 -0.011928082
0.063024759 -0.0047786236 -0.0011949539
0.063282758 0.030546427 -0.016742706
0.057370756 0.030332386 -0.018393993
0.051388752 -0.051316619 -0.015583038
0.051226754 -0.0052415729 -0.0046138763
0.045537751 0.029901385 -0.021695137
0.033505756 -0.0059435964 -0.0097460747
0.033691753 0.029467404 -0.02499485
0.027593751 -0.0061786175 -0.01145792
0.027765755 0.02924943 -0.026647091
0.021799754 -0.052634597 -0.02475214
0.021678757 -0.0064156055 -0.013169765
0.01587275 -0.052901626 -0.02658987
0.0099437535 -0.053169608 -0.028429031
0.0098397546 -0.006890595 -0.016596794
0.0099707544 0.028590381 -0.031600952
0.0039147548 -0.0071296096 -0.018312931
0.004031755 0.02837038 -0.033250809
-0.0019272454 -0.0537076 -0.032114029
-0.002011247 -0.0073686242 -0.020026684
-0.0078502446 0.027925372 -0.036555767
-0.013873246 -0.0078505874 -0.023459911
-0.019746246 0.027478397 -0.039860725
-0.031656247 -0.055071592 -0.041350842
-0.031651244 0.027028382 -0.043167114
-0.037611246 -0.055347562 -0.043202877
-0.037608244 0.026802421 -0.044818878
-0.043569244 -0.055623651 -0.04505682
-0.043581247 -0.0090705752 -0.032053947
-0.043568246 0.026575387 -0.046472073
-0.049533244 -0.0093166232 -0.033774853
-0.049533244 0.026348412 -0.04812479
-0.055486247 -0.0095645785 -0.035496712
-0.061465245 -0.056460619 -0.050627708
-0.061442245 -0.0098125935 -0.037219048
-0.067437246 -0.056741595 -0.05248785
-0.067401245 -0.010061622 -0.038940907
-0.067438245 0.025660396 -0.053085804
-0.073413245 -0.057023644 -0.054349899
-0.073365241 -0.010311604 -0.040666103
-0.079391249 -0.057306647 -0.056211948
-0.079330243 -0.010563612 -0.042407036
-0.079391249 0.0251984 -0.056395054
-0.085372247 0.024966419 -0.058049679
-0.091356248 -0.057875633 -0.059943676
-0.097344249 -0.058161616 -0.061811924
-0.097245246 -0.011336625 -0.047689915
-0.10322525 -0.011595607 -0.04945612
-0.10920624 -0.011855602 -0.051218987
-0.10932325 0.024030387 -0.064670086
-0.11532925 -0.059025645 -0.067426682
-0.11519025 -0.012116611 -0.052984715
-0.11531824 0.023794413 -0.066324711
-0.12133025 -0.059315562 -0.069299698
-0.12117824 -0.012378573 -0.054751873
-0.12733725 -0.059606552 -0.071177959
-0.12717025 -0.012642622 -0.056520939
-0.12731925 0.023320377 -0.069636822
-0.13334525 -0.059898615 -0.073055744
-0.13316424 -0.012905598 -0.058289051
-0.13332325 0.023082376 -0.071292877
-0.13935624 -0.060192585 -0.074935913
-0.13916124 -0.0131706 -0.060058117
-0.14516224 -0.013435602 -0.06182909
-0.14534125 0.022592425 -0.074688911
-0.15116525 -0.013702571 -0.06359911
-0.15135525 0.022346377 -0.076390743
-0.15741324 -0.061077595 -0.080583096
-0.15717424 -0.0139696 -0.065372944
-0.15737425 0.022098422 -0.078092098
-0.16343825 -0.061375618 -0.082470894
-0.16318424 -0.014237583 -0.067146778
-0.16448924 0.052424371 -0.14586306
-0.16946724 -0.061673641 -0.084358692
-0.16919824 -0.014506578 -0.068921089
-0.16941725 0.021601379 -0.0814991
-0.17055924 0.052269399 -0.14692879
-0.17549925 -0.061973572 -0.086246967
-0.17663126 0.052114427 -0.14799213
-0.18123625 -0.01504761 -0.072474003
-0.18270725 0.051959395 -0.1490531
-0.18726026 -0.015319586 -0.074250698
-0.19361925 -0.062878609 -0.091927052
-0.20530125 -0.015829623 -0.07741785
-0.21133626 -0.016100585 -0.079167843
-0.21147124 0.021015406 -0.084891796
-0.21737425 -0.016372621 -0.080919743
-0.22341526 -0.016644597 -0.082673073
-0.22356024 0.020490408 -0.088400841
-0.22960925 0.020226419 -0.090158939
-0.23566325 0.01996237 -0.091915131
-0.24155925 -0.017468572 -0.087936878
-0.24171925 0.019697428 -0.093673706
-0.24761425 -0.017745614 -0.089694023
-0.25384223 0.01916343 -0.097192764
-0.25973225 -0.018300593 -0.09320879
-0.25990823 0.018895388 -0.098954678
-0.27186725 -0.018859625 -0.096727848
-0.27205223 0.018357396 -0.10247993
-0.27812925 0.018086374 -0.10424376
-0.28401324 -0.019422591 -0.10024977
-0.29029423 0.017543375 -0.10777378
-0.29617524 -0.019988596 -0.10377598
-0.29638124 0.017270386 -0.10953999
-0.30856624 0.016721427 -0.11307573
-0.31466323 0.016445398 -0.1148448
-0.32076624 0.016169429 -0.11661577
-0.32687023 0.015891373 -0.11838675
-0.33297825 0.015613377 -0.12015772
-0.33884823 -0.021998584 -0.11614513
-0.34520724 0.015054405 -0.12370491
-0.35107324 -0.022581577 -0.11968708
-0.35719022 -0.02287358 -0.12145901
-0.36943623 -0.02346158 -0.12500811
-0.37556523 -0.023757577 -0.12678289
-0.38169724 -0.024053574 -0.12855911
-0.38197625 0.013355374 -0.1343689
-0.39397225 -0.024648607 -0.13211393
-0.40041125 0.012493372 -0.13971281
-0.40656322 0.012205422 -0.1414957
-0.41887724 0.011624396 -0.14506388
-0.42472523 -0.026152611 -0.14101887
-0.42504025 0.011333406 -0.14685106
-0.43088824 -0.026456594 -0.1428051
-0.43120924 0.01104039 -0.14863873
-0.43705323 -0.026761591 -0.14458799
-0.43737924 0.010747373 -0.15042686
-0.44939524 -0.027372599 -0.14815998
-0.44973224 0.01015842 -0.154006
-0.45557123 -0.027680576 -0.14994907
-0.46175325 -0.027988613 -0.15173769
-0.46829024 0.0092673898 -0.15938282
-0.47412524 -0.02860862 -0.15531874
-0.47448424 0.0089684129 -0.16117668
-0.48031723 -0.028919578 -0.15710974
-0.48651522 -0.029231608 -0.15890169
-0.49271423 -0.029544592 -0.16069889
-0.49891824 -0.029858589 -0.1624918
-0.49929723 0.0077643991 -0.168365
-0.50512522 -0.030172586 -0.16428804
-0.51133627 -0.03048861 -0.16608381
-0.51755327 -0.030805588 -0.16788292
-0.51794922 0.0068523884 -0.17376471
-0.52377224 -0.031123579 -0.16968203
-0.52417427 0.0065463781 -0.17556667
-0.53040224 0.0062394142 -0.17737103
-0.53622323 -0.031761646 -0.1732831
-0.53663522 0.0059313774 -0.1791749
-0.54245526 -0.032082558 -0.17508602
-0.54869026 -0.032403588 -0.17688704
-0.55535823 0.0050023794 -0.18459368
-0.56117225 -0.033049583 -0.18049669
-0.56160623 0.004691422 -0.1864028
-0.57411724 0.0040653944 -0.1900239
-0.57992822 -0.03402555 -0.18591881
-0.58618724 -0.034352541 -0.18772793
-0.58664221 0.0034353733 -0.19364882
-0.59291124 0.0031194091 -0.19546175
-0.60499126 -0.035339594 -0.19316292
-0.62383026 -0.036335588 -0.19860792
-0.62431926 0.0015254021 -0.20454788
-0.63012022 -0.036669612 -0.20042372
-0.64270926 -0.037340641 -0.20406103
-0.64321423 0.00055742264 -0.21001291
-0.64900923 -0.037677646 -0.20588207
-0.66162521 -0.038354635 -0.20952606
-0.66214722 -0.00041860342 -0.21548796
-0.66793823 -0.03869462 -0.21134996
-0.66846526 -0.0007455945 -0.21731377
-0.67425621 -0.039035559 -0.21317482
-0.68057823 -0.039376616 -0.21499872
-0.69323623 -0.04006362 -0.21865368
-0.69378626 -0.0020645857 -0.22463512
-0.70647126 -0.0027295947 -0.22830009
-0.71225524 -0.041100621 -0.22414589
-0.71860325 -0.041448593 -0.2259779
-0.71917522 -0.0033985972 -0.23197174
-0.72495526 -0.041797638 -0.22781181
-0.73131126 -0.042146564 -0.22964382
-0.73189521 -0.00407058 -0.23564768
-0.73767322 -0.042497635 -0.23148203
-0.73826122 -0.0044085979 -0.23748684
-0.74404025 -0.042849541 -0.23331976
-0.75040925 -0.043201566 -0.23515797
-0.75678426 -0.043555617 -0.23699808
-0.75738925 -0.005427599 -0.24301386
-0.76316226 -0.043910623 -0.23883867
-0.77593523 -0.04462254 -0.24252272
-0.78228521 -0.044921637 -0.24396276
-0.78290123 -0.0067285895 -0.24987888
-0.78862423 -0.045202613 -0.24526501
-0.78922325 -0.0069686174 -0.25096989
-0.79487425 -0.045357585 -0.24569702
-0.79547924 -0.0071185827 -0.25140285
-0.80110723 -0.045485616 -0.24592972
-0.80169523 -0.0072135925 -0.2514329
-0.80785924 -0.00724262 -0.25098372
-0.81339222 -0.045502543 -0.24472284
-0.81396723 -0.0072005987 -0.25001907
-0.82547122 -0.045251608 -0.24163675
-0.83731723 -0.04471159 -0.23653603
-0.83786124 -0.0063785911 -0.24138498
-0.84368521 -0.0060005784 -0.23796701
-0.85504025 -0.0049055815 -0.22868395
-0.87069523 -0.040551543 -0.20350313
-0.87108725 -0.0021696091 -0.20684004
-0.87983221 -0.036842585 -0.17637682
-0.88006324 0.0015913844 -0.17831707
-0.88421923 -0.034811616 -0.16159391
-0.88858926 -0.032790542 -0.14687204
-0.89294124 -0.030778587 -0.13220596
-0.89727724 -0.028773606 -0.1175971
-0.90159422 -0.026779592 -0.1030488
-0.91017723 -0.022815585 -0.07412672
-0.91041321 0.015086412 -0.076007843
-0.91467923 0.016981423 -0.061623096
-0.91869324 -0.018885612 -0.045432091
-0.92292523 -0.01693362 -0.031170845
-0.92316121 0.02074641 -0.033018112
-0.93133926 -0.013054609 -0.0028166771
-0.93552226 -0.011127591 0.01128006
-0.93576026 0.026333392 0.0094652176
-0.94151723 0.026498377 0.011425972
-0.94699323 -0.010742605 0.015500069
-0.9477722 0.026138425 0.0096230507
-0.96029526 0.025416374 0.0060129166
-0.96111625 0.0637604 -9.8705292e-05
-0.96576923 -0.011867583 0.010095119
-0.97203726 -0.012245595 0.0082912445
-0.97283822 0.024691403 0.0023989677
-0.97367221 0.063063383 -0.0037231445
-0.97830921 -0.012623608 0.006485939
-0.97911721 0.024326384 0.00058889389
-0.97995621 0.062713385 -0.0055351257
-0.98458624 -0.013002574 0.004679203
-0.98540026 0.023961425 -0.0012197495
-0.98624521 0.062363386 -0.007349968
-0.99798226 0.023227394 -0.0048470497
-0.99883926 0.061658382 -0.010983944
-1.0042802 0.022859395 -0.0066609383
-1.0051433 0.061305404 -0.012802124
-1.0105833 0.022490382 -0.0084767342
-1.0232042 0.021748424 -0.012113094
-1.0240862 0.060238421 -0.018265724
-1.0295223 0.021376371 -0.013931751
-1.0421712 0.020629406 -0.017574787
-1.0430713 0.059163392 -0.023739815
-1.0485053 0.02025342 -0.019398689
-1.0557543 0.058441401 -0.027396679
-1.0675323 0.019121408 -0.024878025
-1.0684563 0.057715416 -0.031059742
-1.0738853 0.018742383 -0.026706696
-1.0748153 0.05735141 -0.032892704
-1.0802443 0.018362403 -0.028536797
-1.0875493 0.056620419 -0.036563873
