# .PCD v0.7 - Point Cloud Data file format
VERSION 0.7
FIELDS x y z
SIZE 4 4 4
TYPE F F F
COUNT 1 1 1
WIDTH 1
HEIGHT 512
VIEWPOINT 0 0 0 1 0 0 0
POINTS 512
DATA ascii
1.0444794 0.55111545 -0.0027880669
1.0301223 0.55236143 0.013060093
1.0231553 0.58881444 0.019447803
1.0107293 0.55301744 0.019973755
1.0110793 0.58875346 0.017066956
0.99835134 0.55313343 0.020146847
0.99714434 0.63109541 -0.022148132
0.98702836 0.58856446 0.011334896
0.98639435 0.63031042 -0.036622047
0.97383136 0.55322647 0.018593788
0.97510034 0.58840644 0.0075440407
0.97087032 0.50654447 -0.0095882416
0.96772134 0.55323642 0.018045902
0.96162236 0.55324048 0.017407894
0.95558435 0.55320448 0.016219139
0.95738232 0.58805442 0.00018978119
0.94963735 0.50856245 0.014191151
0.94954437 0.55316848 0.015028954
0.95150232 0.58791745 -0.0025620461
0.94350535 0.55313146 0.013839722
0.94562536 0.58777547 -0.0053658485
0.93075931 0.50898343 0.017573833
0.93145531 0.55303544 0.011170864
0.92548734 0.55294746 0.0092787743
0.92833036 0.58712745 -0.01710701
0.91951835 0.55285847 0.0073871613
0.91354734 0.55276942 0.0054941177
0.91713035 0.58646941 -0.028308868
0.90757436 0.55268043 0.0036001205
0.90007532 0.50913948 0.016328812
0.90168631 0.55253047 0.0008687973
0.89396936 0.50914544 0.015780926
0.88986933 0.46300542 -0.0043129921
0.88990134 0.55222744 -0.0046262741
0.88279831 0.46380144 0.0044951439
0.88181335 0.50911844 0.014184952
0.87577432 0.50907445 0.01299715
0.86942232 0.46478343 0.014914989
0.86973232 0.50902945 0.011809826
0.86369133 0.50898343 0.010622025
0.85709435 0.46489942 0.015087128
0.85765237 0.50893545 0.0094017982
0.86098832 0.55101442 -0.024626255
0.85093236 0.46495748 0.015172958
0.85167634 0.50883442 0.0075139999
0.85536134 0.55064344 -0.030405998
0.84569937 0.50873345 0.0056247711
0.84986931 0.55016547 -0.037684917
0.83862734 0.46505547 0.015163898
0.84459531 0.54951245 -0.047390938
0.83373535 0.50852942 0.001844883
0.82780033 0.50838643 -0.00056314468
0.82072133 0.43313146 0.0093159676
0.82189137 0.50821745 -0.0033040047
0.81421036 0.43352544 0.013189793
0.81423032 0.46506345 0.012979984
0.80421531 0.50764543 -0.012330055
0.79002732 0.46488148 0.0086140633
0.78346735 0.43377846 0.013302803
0.78398132 0.46482646 0.0074267387
0.77737033 0.43377745 0.012757778
0.78112733 0.50638944 -0.030612946
0.77127433 0.43377542 0.012212753
0.77198732 0.46461743 0.0038928986
0.77544135 0.50598145 -0.036388874
0.76517832 0.43377346 0.011666775
0.76599735 0.46450245 0.0020070076
0.77007335 0.50527143 -0.046021938
0.75301635 0.43373245 0.010179996
0.74857134 0.38017744 -0.010452271
0.74697232 0.43367147 0.0089969635
0.74216634 0.46387947 -0.0074248314
0.73488033 0.43354946 0.0066280365
0.72848731 0.38226247 0.0097560883
0.72229934 0.38236946 0.010389805
0.71860635 0.46289843 -0.021023273
0.71083331 0.43312246 -0.00011110306
0.70701635 0.46216142 -0.030727863
0.69773233 0.38257647 0.01066494
0.69163936 0.38256747 0.010119915
0.69569832 0.46108043 -0.044497967
0.68696135 0.43243545 -0.0096969604
0.69026732 0.46025944 -0.05470705
0.66921437 0.43167442 -0.019606113
0.66122335 0.38244343 0.0066270828
0.65517235 0.38237047 0.0054459572
0.65746635 0.43102646 -0.027779102
0.64888036 0.33678645 0.0077829361
0.64912033 0.38229746 0.0042648315
0.65169632 0.43055344 -0.033527851
0.64591634 0.43008047 -0.039288044
0.63660836 0.33688843 0.0079517365
0.64032334 0.42934543 -0.047987938
0.63047338 0.33693844 0.008038044
0.63501036 0.42821246 -0.061182022
0.62035733 0.30191845 -0.025503159
0.60603333 0.33698547 0.0069417953
0.60020334 0.30499643 0.0021080971
0.5999403 0.33696842 0.0063977242
0.60102737 0.38110048 -0.011366844
0.59384733 0.33695042 0.0058560371
0.59505033 0.38087445 -0.014097214
0.58157432 0.30555344 0.0062189102
0.58315235 0.38030642 -0.020748138
0.56959236 0.33665442 0.0015320778
0.56320333 0.30566245 0.0061888695
0.56353033 0.33656847 0.0003490448
0.55381131 0.37800443 -0.04646492
0.54492533 0.30559546 0.0045599937
0.54543436 0.33612245 -0.0049982071
0.53395832 0.25415146 -0.020229816
0.5327543 0.30551046 0.0031299591
0.52729833 0.25535047 -0.010014057
0.52737737 0.33554643 -0.01157999
0.52086937 0.25606143 -0.0040841103
0.52062833 0.30532444 0.00077390671
0.52137834 0.33529848 -0.014305115
0.51456237 0.30523044 -0.00040626526
0.51537538 0.33505046 -0.017031193
0.50825536 0.25697845 0.0033760071
0.50849438 0.30513644 -0.0015869141
0.5021323 0.25702143 0.0034589767
0.50341833 0.33441347 -0.023828983
0.48988634 0.25710547 0.0036277771
0.49037033 0.30464548 -0.0070338249
0.48376435 0.25714546 0.0037107468
0.48558235 0.33314043 -0.037107944
0.47967833 0.33258045 -0.042843819
0.47156933 0.25709844 0.0027627945
0.47227535 0.30401546 -0.013736248
0.47383633 0.33185142 -0.05023098
0.46547434 0.25706643 0.0022220612
0.46625733 0.30375242 -0.016457081
0.46807635 0.33089143 -0.059857845
0.46023533 0.30348843 -0.019179821
0.45328134 0.25700045 0.0011367798
0.44739234 0.21480745 -0.0046582222
0.44113433 0.25679743 -0.0011248589
0.43493235 0.21555245 0.0010929108
0.43505934 0.25668943 -0.0023021698
0.42898333 0.25658143 -0.0034809113
0.42436135 0.30083847 -0.045382023
0.41685033 0.25627947 -0.006567955
0.41848135 0.30001748 -0.05328083
0.41264832 0.29900545 -0.062960148
0.40436134 0.21565044 0.00082397461
0.39866534 0.25571042 -0.012182236
0.39254636 0.17825848 -0.012385845
0.39261335 0.25546545 -0.014533043
0.37998134 0.17962646 -0.0018010139
0.37383932 0.17976046 -0.00091123581
0.37388933 0.21535146 -0.0026192665
0.36780435 0.21523148 -0.0037932396
0.36842632 0.25423247 -0.026086807
0.36160433 0.17982346 -0.00074386597
0.36239535 0.25381243 -0.029952049
0.35563233 0.21498942 -0.0061459541
0.35635734 0.25339144 -0.033815861
0.35032636 0.25290447 -0.038249969
0.34327134 0.17983544 -0.0011210442
0.33717135 0.17978644 -0.0016622543
0.33739835 0.21442646 -0.011300087
0.33830234 0.25163746 -0.049684048
0.33235034 0.25063646 -0.058624268
0.32496732 0.17968547 -0.0027441978
0.32523534 0.21401244 -0.015038013
0.31916535 0.21371847 -0.017624855
0.31277335 0.17949843 -0.0044970512
0.31309134 0.21340847 -0.020337105
0.30696034 0.12587243 -0.020238876
0.30093336 0.21278745 -0.025764942
0.29448235 0.12757248 -0.0076079369
0.28839234 0.17894745 -0.0093622208
0.28218633 0.12810844 -0.0037550926
0.26995635 0.12815446 -0.0035891533
0.26401734 0.17806143 -0.016821861
0.25773033 0.12816143 -0.0036950111
0.25182533 0.17743248 -0.022015095
0.25250635 0.20613146 -0.082089901
0.25162333 0.12809944 -0.0042362213
0.24572435 0.17710245 -0.024724007
0.23961934 0.17677146 -0.027436256
0.23960534 0.085022449 -0.025979042
0.23351735 0.17633343 -0.031001091
0.23339534 0.086273432 -0.016963959
0.22722735 0.087007463 -0.011691093
0.22718835 0.12780446 -0.0066990852
0.22107133 0.087739468 -0.0064268112
0.22108135 0.12765545 -0.0078701973
0.21518233 0.17480445 -0.043388844
0.20906535 0.17409748 -0.04908514
0.20883934 0.087815464 -0.0059480667
0.19660935 0.087845445 -0.0057840347
0.18440033 0.12650645 -0.016727924
0.17215134 0.046026468 -0.027788162
0.17215134 0.087633431 -0.0073690414
0.16603634 0.087558448 -0.0079088211
0.15991034 0.048045397 -0.01369524
0.15991934 0.087473452 -0.0085158348
0.15380335 0.048797488 -0.008441925
0.14767635 0.087146461 -0.010855198
0.14145134 0.12403345 -0.035378933
0.13542734 0.086815476 -0.01320219
0.13529134 0.12352145 -0.039226055
0.12322334 0.048849463 -0.0079321861
0.12294034 0.12229443 -0.048435211
0.11710134 0.048765421 -0.0084738731
0.11088234 0.08583647 -0.020131111
0.11052534 0.12060642 -0.061106205
0.10427034 0.11933744 -0.070653915
0.098733343 0.048508406 -0.010093212
0.098583341 0.085221469 -0.024470806
0.092606343 0.048411489 -0.010706902
0.092419341 0.084840477 -0.027171135
0.086353339 0.00088441372 -0.021705151
0.086253338 0.084457457 -0.029871941
0.080337338 0.048054457 -0.013041973
0.074242339 0.0024344921 -0.011209965
0.073894337 0.083574474 -0.03611517
0.067695342 0.083033442 -0.039954185
0.061913341 0.047486424 -0.016738892
0.061488338 0.082489431 -0.04379797
0.055889338 0.002479434 -0.010625839
0.05526334 0.081840456 -0.048410892
0.049771339 0.0024764538 -0.010545254
0.049598344 0.046925426 -0.020449162
0.049011342 0.081042469 -0.054089069
0.043652341 0.0024673939 -0.010494232
0.043435335 0.046643496 -0.022304058
0.042749345 0.080243468 -0.059775829
0.036406338 0.078952432 -0.069021225
0.031388342 0.0022704601 -0.01157093
0.031086341 0.045988441 -0.026634216
0.029924333 0.076803446 -0.084481239
0.025255337 0.0021704435 -0.012111187
0.019121334 0.0020704269 -0.012649059
0.018698335 0.045178413 -0.032025814
0.018289343 -0.049089551 -0.050796986
0.012497336 0.044771433 -0.034725189
0.012561336 -0.046154499 -0.031900883
0.0068323463 0.0017673969 -0.014391899
0.0066163391 -0.044876575 -0.023587227
0.00067934394 0.0015704632 -0.015559196
-0.0062156618 0.043102503 -0.045915127
-0.0053926557 -0.04333055 -0.013411045
-0.011634663 0.0011724234 -0.017899036
-0.011515662 -0.043343544 -0.01333189
-0.018800661 0.041587472 -0.056154251
-0.017639667 -0.043356538 -0.013252258
-0.023982659 0.00064945221 -0.021054268
-0.025121659 0.040748477 -0.061830997
-0.023762658 -0.043370605 -0.013173103
-0.030168653 0.00034546852 -0.022905827
-0.031552657 0.039413452 -0.070960045
-0.029885665 -0.043384552 -0.013092041
-0.042549655 -0.0002655983 -0.026616096
-0.042153656 -0.043528557 -0.01364994
-0.048764661 -0.00065350533 -0.029014111
-0.054992661 -0.0010865927 -0.031704903
-0.054443657 -0.043757558 -0.014728069
-0.061224654 -0.0015205145 -0.034397125
-0.067462653 -0.0019555092 -0.037091255
-0.066740662 -0.044005513 -0.01590395
-0.080020666 -0.0031065941 -0.04433012
-0.079086661 -0.044437528 -0.01823616
-0.086316645 -0.0037145615 -0.048161983
-0.085262656 -0.044654608 -0.019402981
-0.092232674 -0.11012053 -0.041673183
-0.099021673 -0.0052905083 -0.05820322
-0.098000646 -0.1084975 -0.031622887
-0.097628653 -0.045122504 -0.021934032
-0.10389367 -0.10746551 -0.025139809
-0.10383967 -0.045449495 -0.023784161
-0.11866167 -0.0095345974 -0.085743904
-0.11627066 -0.046105504 -0.027482033
-0.12809965 -0.10624051 -0.016727924
-0.12874466 -0.046861529 -0.031796932
-0.13423067 -0.10627151 -0.016649246
-0.14036265 -0.10630357 -0.016571045
-0.15267065 -0.10652351 -0.017345905
-0.16499966 -0.1067965 -0.018422127
-0.16656366 -0.050128579 -0.050991058
-0.17116466 -0.1069355 -0.018959999
-0.17295066 -0.050877571 -0.05547905
-0.18354967 -0.10736859 -0.020972252
-0.18975267 -0.10761356 -0.022137165
-0.19681066 -0.16819358 -0.03956604
-0.19595867 -0.10785854 -0.023303032
-0.20216665 -0.10810554 -0.024467945
-0.20837966 -0.16589153 -0.02565527
-0.20840067 -0.10842049 -0.026046276
-0.21424466 -0.16504657 -0.02045393
-0.21465367 -0.10878158 -0.027890205
-0.22037166 -0.1650486 -0.020125866
-0.22090867 -0.10914254 -0.029736042
-0.22651267 -0.16509557 -0.020048141
-0.23343265 -0.10987461 -0.03346014
-0.23974866 -0.1103766 -0.036139965
-0.24494267 -0.16524255 -0.019830227
-0.25112367 -0.16539955 -0.020368099
-0.25239766 -0.11138451 -0.041502953
-0.25872967 -0.11189055 -0.044188023
-0.26967666 -0.16587651 -0.021981239
-0.27155265 -0.11327851 -0.05180788
-0.27586266 -0.16603756 -0.022519112
-0.27797565 -0.11397552 -0.055626869
-0.28832367 -0.16657853 -0.024837017
-0.29103866 -0.11586654 -0.066257
-0.29455766 -0.16685057 -0.02600193
-0.29763967 -0.11695051 -0.072397232
-0.30818367 -0.23384058 -0.045146942
-0.31369665 -0.23215854 -0.035528183
-0.31950265 -0.2312876 -0.030333996
-0.31962466 -0.16819561 -0.032071114
-0.32530266 -0.23041856 -0.025147915
-0.32592365 -0.1685915 -0.033914089
-0.33136666 -0.2302475 -0.023777008
-0.34493268 -0.17000055 -0.04069519
-0.35130966 -0.17054451 -0.043370247
-0.35769367 -0.1710906 -0.046050072
-0.36219263 -0.23068154 -0.023889065
-0.36412066 -0.17172551 -0.049235821
-0.36839968 -0.2308656 -0.02442503
-0.37460768 -0.23105049 -0.024962902
-0.37708968 -0.1732136 -0.056849003
-0.38360065 -0.17398953 -0.060828209
-0.38703269 -0.2314235 -0.02603817
-0.39024866 -0.17505252 -0.066451073
-0.39955163 -0.23200154 -0.028203964
-0.40375465 -0.17756057 -0.079880238
-0.41075164 -0.17929256 -0.089330196
-0.41292268 -0.29075849 -0.04047823
-0.41209567 -0.23261058 -0.030529022
-0.41862267 -0.2897476 -0.034673214
-0.41837168 -0.23291755 -0.031692028
-0.42469865 -0.23332751 -0.033413887
-0.43033469 -0.28848851 -0.027041912
-0.43103868 -0.23375952 -0.035252094
-0.43650764 -0.28857553 -0.026967049
-0.43738467 -0.23419356 -0.037091255
-0.44267964 -0.28866351 -0.026892185
-0.44373363 -0.2346276 -0.038929939
-0.42167264 -0.54780054 0.21322775
-0.44885367 -0.2887516 -0.026816845
-0.42557067 -0.54239452 0.2366538
-0.45502764 -0.28884161 -0.026742935
-0.45653468 -0.23568749 -0.04363203
-0.43787467 -0.5172416 0.16544819
-0.43707865 -0.54161859 0.24099398
-0.44174564 -0.5119015 0.18921089
-0.45936465 -0.47444952 0.061475754
-0.44940865 -0.50133049 0.236269
-0.46322066 -0.4691776 0.085959911
-0.47993565 -0.28962851 -0.028628826
-0.48244065 -0.2382946 -0.055630207
-0.46704763 -0.46393859 0.11029816
-0.48900765 -0.23909557 -0.059430122
-0.45806068 -0.49358749 0.27103281
-0.47085065 -0.45873952 0.13445807
-0.48190564 -0.4331255 0.016410828
-0.49558365 -0.23989761 -0.063231945
-0.46383065 -0.49333453 0.27268505
-0.48570865 -0.42796052 0.041241169
-0.50720567 -0.38197052 -0.11984921
-0.50230366 -0.2409656 -0.0684762
-0.50504965 -0.2907815 -0.032339096
-0.50906968 -0.2421025 -0.074090958
-0.49323368 -0.41774356 0.090367794
-0.51135665 -0.2911166 -0.033499241
-0.49695766 -0.41268849 0.11468697
-0.52310765 -0.24526453 -0.090147018
-0.48688567 -0.49233854 0.27927685
-0.49312466 -0.42828453 0.27608299
-0.53040469 -0.29233253 -0.038038254
-0.49840367 -0.49184859 0.28256702
-0.50797564 -0.39773154 0.18666601
-0.52952963 -0.35201657 0.032260895
-0.53315967 -0.34714854 0.057001114
-0.54318565 -0.29327154 -0.041708946
-0.51658165 -0.62349761 0.22020674
-0.51228064 -0.53825951 0.26255417
-0.50991368 -0.49136353 0.28585196
-0.54958564 -0.29374254 -0.043547153
-0.51805365 -0.53801155 0.26420403
-0.51566768 -0.49112356 0.28749418
-0.51661265 -0.42832255 0.27827072
-0.52819663 -0.62297261 0.22353983
-0.58058769 -0.28138649 -0.28344297
-0.52296966 -0.42937255 0.27411604
-0.56149668 -0.29304254 -0.03861618
-0.53400064 -0.62271249 0.22520494
-0.57554066 -0.26132655 -0.17336988
-0.52716666 -0.49064851 0.29077101
-0.52933663 -0.43042457 0.26995516
-0.56504965 -0.28832757 -0.013337135
-0.53980267 -0.62245452 0.22686815
-0.57911468 -0.2566396 -0.14715815
-0.53535867 -0.53727555 0.26914692
-0.53291464 -0.49041259 0.29240799
-0.54210764 -0.39461553 0.20493984
-0.55864865 -0.33800352 0.10544205
-0.56857568 -0.2836436 0.011783123
-0.58266467 -0.25199056 -0.1211462
-0.53865963 -0.49017751 0.29404497
-0.54855365 -0.39565456 0.20068884
-0.56520468 -0.33901858 0.1010561
-0.57491463 -0.28407156 0.010194778
-0.58618563 -0.2473675 -0.095273972
-0.57176769 -0.34003556 0.096666813
-0.58157164 -0.28506052 0.0056800842
-0.55720168 -0.6216886 0.23184919
-0.58967966 -0.24277353 -0.069564819
-0.55265063 -0.53655255 0.27407885
-0.59598464 -0.24300361 -0.070149899
-0.63584167 -0.24301159 -0.43703794
-0.55588764 -0.48948252 0.2989459
-0.56130469 -0.43571854 0.249084
-0.56795067 -0.3987875 0.18790817
-0.58492166 -0.34207559 0.087872028
-0.59491366 -0.28704655 -0.0033650398
-0.62945265 -0.22250354 -0.31873608
-0.56416965 -0.53607857 0.27736092
-0.56772465 -0.43678558 0.24489594
-0.59151566 -0.34310055 0.083465099
-0.60160166 -0.2880435 -0.0078969002
-0.60949665 -0.24495053 -0.079409122
-0.62325966 -0.20262754 -0.20407724
-0.56736565 -0.48902655 0.30220699
-0.57415569 -0.43785357 0.24070215
-0.58092767 -0.40088856 0.17936087
-0.59811568 -0.34412551 0.079054832
-0.60472667 -0.34515452 0.074638844
-0.61500263 -0.29004252 -0.016976833
-0.63232166 -0.19716561 -0.17137194
-0.58704168 -0.43999755 0.23230314
-0.59394068 -0.40299749 0.17079592
-0.62171865 -0.29104555 -0.021523952
-0.62983668 -0.24788558 -0.093336105
-0.63919765 -0.19812059 -0.17613697
-0.58718866 -0.53514659 0.28391075
-0.58459467 -0.48840749 0.30685472
-0.59349865 -0.44107258 0.22809792
-0.61797667 -0.34721756 0.065793037
-0.62844366 -0.29205155 -0.02607584
-0.64608467 -0.19907653 -0.1809082
-0.60699064 -0.40511656 0.16221285
-0.62461764 -0.34825361 0.061360836
-0.59868866 -0.53468859 0.2871809
-0.67685664 -0.1754595 -0.39360094
-0.61353165 -0.4061805 0.15791416
-0.64192563 -0.29406953 -0.035201073
-0.65026969 -0.25084257 -0.10731506
-0.61292464 -0.44431353 0.21544886
-0.62007964 -0.40724552 0.1536088
-0.64868069 -0.2950815 -0.039769173
-0.65710068 -0.25183153 -0.11198616
-0.67583466 -0.15559757 -0.27267504
-0.61941868 -0.44539857 0.21122408
-0.64459366 -0.35137355 0.048037052
-0.66394168 -0.25282454 -0.11666393
-0.61592668 -0.53401351 0.29207277
-0.62592065 -0.44648552 0.20699406
-0.63320464 -0.40938354 0.14498711
-0.65127367 -0.35241759 0.043582916
-0.66222364 -0.29711258 -0.04892683
-0.67079467 -0.25381851 -0.12134695
-0.68067968 -0.20389354 -0.20485926
-0.62167066 -0.53379154 0.29370213
-0.68986869 -0.15747952 -0.28249884
-0.65796167 -0.3534646 0.039125919
-0.68762869 -0.20486259 -0.20966721
-0.62947565 -0.49615157 0.27801704
-0.63895565 -0.4486686 0.1985178
-0.68452865 -0.25581455 -0.13073111
-0.63315064 -0.53335154 0.29695797
-0.63592368 -0.4972676 0.27388096
-0.70394266 -0.15937054 -0.292346
-0.65296566 -0.4126085 0.1320138
-0.67136765 -0.35556555 0.030194759
-0.68260968 -0.30017757 -0.062703133
-0.69141066 -0.25681555 -0.13543224
-0.64237964 -0.49838555 0.26973772
-0.67808467 -0.3566196 0.025723934
-0.70854163 -0.20778656 -0.22413015
-0.64884567 -0.49950659 0.26559114
-0.66618568 -0.4147706 0.12334108
-0.69625264 -0.3022325 -0.071916103
-0.72513765 -0.1622225 -0.3071661
-0.66513568 -0.45306158 0.18151093
-0.70308864 -0.30326355 -0.076530933
-0.72253865 -0.2097466 -0.23380184
-0.73222464 -0.16317749 -0.31211996
-0.69829863 -0.35979652 0.012269974
-0.70993567 -0.30429649 -0.081151009
-0.68608963 -0.41803253 0.11029291
-0.71679163 -0.30533254 -0.085778236
-0.72597969 -0.26185656 -0.15902519
-0.74642968 -0.16509449 -0.32204485
-0.75726265 -0.11383653 -0.40840292
-0.69274265 -0.41912353 0.10593605
-0.71182364 -0.36192656 0.0032739639
-0.72365868 -0.3063705 -0.090410233
-0.75354964 -0.16605651 -0.32701921
-0.76447463 -0.11476958 -0.41350412
-0.71860266 -0.36299551 -0.0012321472
-0.73053765 -0.3074106 -0.095047951
-0.75066066 -0.2136935 -0.2532239
-0.75771666 -0.21468651 -0.25809383
-0.76782364 -0.16798759 -0.33698511
-0.75382566 -0.26593161 -0.17800713
-0.76478463 -0.21568155 -0.26297092
-0.75123167 -0.31054556 -0.10899496
