# .PCD v0.7 - Point Cloud Data file format
VERSION 0.7
FIELDS x y z
SIZE 4 4 4
TYPE F F F
COUNT 1 1 1
WIDTH 1
HEIGHT 512
VIEWPOINT 0 0 0 1 0 0 0
POINTS 512
DATA ascii
0.99144107 -0.32867944 0.074642658
1.041775 -0.022270501 -0.38858557
1.0162311 -0.058584511 -0.38747644
1.004755 0.23553652 -0.39687538
0.99043107 -0.057756484 -0.3841095
0.98003709 0.28110451 -0.40225935
0.9736141 0.28121251 -0.40166759
0.97101104 0.36188349 -0.43195677
0.8784951 -0.41253448 0.22244644
0.90279108 -0.2881465 -0.026174545
0.90785807 -0.24245548 -0.11837864
0.93709308 -0.19516754 -0.41463757
0.85108906 -0.40512753 0.25834846
0.88569808 -0.28910446 -0.034059525
0.91915208 0.024336517 -0.37002468
0.92268705 -0.15305549 -0.40011549
0.90634108 0.024694502 -0.3683548
0.90598708 0.074910522 -0.36529779
0.91126704 -0.19420648 -0.41092348
0.83846205 -0.3599025 0.21830559
0.86926407 -0.29106045 -0.047903538
0.90773004 0.4883115 -0.49120235
0.85305405 -0.29344153 -0.064268589
0.84355909 -0.35340953 -0.087369442
0.86715704 -0.18565655 -0.35591555
0.86970806 0.2060625 -0.37902069
0.79566205 -0.54967153 0.23950338
0.8731311 0.53624952 -0.52662754
0.86095107 0.3269785 -0.41451454
0.86454409 0.4076235 -0.44758177
0.84514809 0.030180514 -0.32666445
0.86076909 0.45380852 -0.47164059
0.84200609 -0.1457445 -0.35581255
0.84824604 0.32709849 -0.41419554
0.76395905 -0.45889151 0.32131147
0.80916905 -0.23868346 -0.10525846
0.82850105 -0.14431649 -0.34683275
0.82912809 0.4538455 -0.47427845
0.81989408 0.40797251 -0.44643164
0.78634506 -0.24044955 -0.11899281
0.79266405 -0.0085254908 -0.3022418
0.71678305 -0.38712645 0.33888721
0.77282107 -0.0068734884 -0.29034758
0.77271509 0.084499478 -0.28926754
0.77489609 0.16056651 -0.31150866
0.71125704 -0.52715254 0.33753347
0.78613609 0.56990647 -0.55766153
0.76004809 0.28687048 -0.3518014
0.76446706 0.41117451 -0.39812136
0.74389207 -0.16833746 -0.24715471
0.76806206 0.48845151 -0.50284481
0.75748807 0.36610949 -0.39098358
0.7582351 0.41116449 -0.39888144
0.68784708 -0.38529849 0.34573746
0.73992008 -0.0041484833 -0.27062845
0.73981208 0.037856519 -0.2694726
0.74165106 -0.13521153 -0.2891078
0.72789407 -0.37213147 -0.20772362
0.72698307 0.087587476 -0.26457167
0.73133808 0.24513948 -0.31197071
0.72129709 0.11881649 -0.27002668
0.72980106 0.3315255 -0.36347675
0.73445308 0.4103595 -0.41459274
0.66400009 -0.56887245 0.35955143
0.70093006 -0.088981509 -0.24954748
0.71016008 0.33232349 -0.35399055
0.69454408 0.089761496 -0.24705076
0.72026908 0.53627151 -0.54108047
0.72316706 0.56951153 -0.5742054
0.70123506 0.28947049 -0.32352352
0.69709706 0.33285248 -0.34768152
0.68143207 -0.087218523 -0.23785639
0.66820204 -0.16447246 -0.2268548
0.60906607 -0.42475748 0.47738028
0.70309907 -0.57289147 -0.64242458
0.66180807 0.0022575259 -0.22381258
0.66229105 0.091908514 -0.22962475
0.69855505 0.65305752 -0.66604757
0.65638405 -0.12640351 -0.23248863
0.66011506 0.24850953 -0.2778616
0.66953605 0.4120135 -0.39245558
0.69869804 0.7110815 -0.74715757
0.64890504 0.0033065081 -0.21608067
0.64296609 0.29201448 -0.29548836
0.58449507 -0.54996955 0.43925524
0.58221406 -0.49719751 0.46792221
0.63441205 0.24971348 -0.26554346
0.63652509 0.2922945 -0.29238844
0.57251406 -0.54729652 0.45053864
0.61678606 0.0059065223 -0.1968298
0.62023008 0.22022152 -0.24158764
0.64271706 0.57124054 -0.53382778
0.56434703 -0.49336255 0.48466921
0.61110306 -0.12178051 -0.20243835
0.55828607 -0.42103946 0.49189758
0.64623004 -0.57616246 -0.66421652
0.59833109 0.096125484 -0.19505739
0.62218606 0.53763855 -0.51606369
0.54868907 -0.54199445 0.47296762
0.54148602 -0.41998446 0.4959116
0.58542407 -0.11917549 -0.18540335
0.59270406 -0.32590246 -0.28573656
0.60263509 0.5379265 -0.51054859
0.57215005 0.0094935298 -0.17007971
0.56572706 0.051300526 -0.16515446
0.56029803 0.098607481 -0.1744957
0.56178004 0.1732955 -0.19596577
0.57584304 0.45896649 -0.39962244
0.55792308 0.25325352 -0.22886276
0.55881107 0.4929305 -0.42677546
0.55341607 0.41532651 -0.34555244
0.53127706 -0.24910653 -0.19583559
0.52175206 -0.073027492 -0.14212561
0.55519104 0.6533165 -0.66632557
0.51532006 0.014015496 -0.13602257
0.54691005 0.6176635 -0.63813353
0.51874405 0.37409151 -0.28862858
0.50290108 0.05569452 -0.13057041
0.50378305 -0.1510545 -0.14498377
0.52807707 0.5712235 -0.54218578
0.53434408 0.61749053 -0.64464855
0.49657103 -0.01987648 -0.12570667
0.49746403 0.10266352 -0.14051151
0.49671903 -0.11048651 -0.1281476
0.50873607 0.41657349 -0.32747841
0.49486804 0.25612551 -0.19859743
0.45233205 -0.41450047 0.51736641
0.48497805 0.10346252 -0.13375759
0.48589402 -0.1968205 -0.14939976
0.48859704 0.25640953 -0.19558573
0.44623503 -0.5884285 0.52811241
0.47996703 0.1780355 -0.15156746
0.48259205 0.57179952 -0.52919865
0.45301604 -0.067055523 -0.10092068
0.41764903 -0.58257449 0.5521102
0.44049403 0.019889474 -0.091179371
0.44149205 0.10622948 -0.11022758
0.44623303 0.3003605 -0.20068359
0.43574604 0.13667548 -0.11543274
0.45006803 0.4948535 -0.39336157
0.45125404 -0.5267185 -0.41636562
0.39893302 -0.51235354 0.59892941
0.42333004 -0.19007754 -0.10775661
0.42529705 0.22963649 -0.14725256
0.40978703 -0.10266149 -0.076028347
0.43699703 0.61771548 -0.64252138
0.42451403 -0.52005446 -0.38263941
0.40549803 -0.23490047 -0.1118927
0.39853105 -0.18742752 -0.091257572
0.43051803 0.65056252 -0.78235435
0.39459905 -0.29938745 -0.1366396
0.39049804 -0.36332846 -0.17998934
0.38992503 0.5409345 -0.45032549
0.36856303 0.18435353 -0.091076374
0.39163205 0.61780751 -0.6414957
0.34001005 -0.61089849 0.59017038
0.37191504 0.4638665 -0.3187356
0.35920203 -0.35900152 -0.15633059
0.32804206 -0.56619644 0.61949444
0.35314703 0.46418449 -0.31350756
0.37334803 0.64918554 -0.83935165
0.33639705 -0.096167505 -0.032030582
0.34689903 0.46428952 -0.31176567
0.31226304 -0.60579145 0.61081028
0.33306304 0.23389649 -0.10301638
0.31820604 -0.094573498 -0.021124363
0.30603504 -0.0045285225 -0.011511803
0.30689204 0.11462247 -0.037350655
0.30947703 0.4649145 -0.30132961
0.27783105 -0.44902146 0.67844534
0.29407805 -0.12998551 -0.0076355934
0.29652405 0.2355575 -0.085476398
0.30725104 0.54204047 -0.4268136
0.27247605 -0.44870555 0.67976665
0.27696505 0.1461305 -0.02933836
0.26996705 -0.051572502 0.0088014603
0.27348804 0.3073675 -0.11724758
0.27673206 0.4228085 -0.23338175
0.27693003 -0.49194646 -0.24046469
0.27275804 -0.34719145 -0.091112614
0.27361104 0.49758351 -0.34378862
0.27568805 0.5423395 -0.42055273
0.27807206 0.57286751 -0.50865746
0.24519104 -0.48745346 0.70648146
0.26054806 -0.3455385 -0.081907749
0.25270104 0.11792648 -0.0079884529
0.25357604 0.4658305 -0.28570747
0.24631205 0.57292354 -0.50791454
0.23524004 -0.27924049 -0.020037651
0.23005006 0.23853648 -0.053537369
0.22343305 0.1914345 -0.021670341
0.22584805 0.3496545 -0.13699055
0.22707105 -0.48313749 -0.19538879
0.22263503 0.4663285 -0.27704763
0.20308205 -0.44466448 0.69704723
0.21922106 0.54244751 -0.41925335
0.20502904 0.49859351 -0.32443762
0.20086405 0.30993551 -0.085799694
0.19794104 0.4667215 -0.27012873
0.20040704 0.54247952 -0.4188118
0.19553104 0.3505635 -0.12479067
0.18808404 0.24039048 -0.033360481
0.19552004 0.57300448 -0.50670052
0.18073404 -0.044252515 0.06228447
0.18393704 0.3838675 -0.15362453
0.18275505 -0.40537345 -0.073949337
0.18159804 0.54251051 -0.41836357
0.16589004 -0.58239949 0.70656443
0.16894704 -0.04329747 0.069350243
0.16308504 -0.11831552 0.070898533
0.16532806 0.3514615 -0.11262751
0.15718305 -0.042346478 0.076399326
0.15350005 -0.4702965 -0.12906742
0.14554504 0.040658474 0.073230267
0.13977304 0.079464495 0.065730572
0.14153704 0.3850365 -0.13645935
0.12448505 0.49974149 -0.30164337
0.11816105 -0.57594752 0.73353338
0.12230404 -0.26652551 0.055319309
0.11789605 -0.47152352 0.77700043
0.11202705 -0.57082748 -0.27227259
0.10456905 -0.11321849 0.10597849
0.099013045 0.24425352 0.0095114708
0.099350043 0.38618252 -0.11936378
0.091871046 -0.43840051 0.72538233
0.087137043 0.011588514 0.11389542
0.087145045 0.044474483 0.10480356
0.087165043 0.12774652 0.081776619
0.081334047 -0.32176852 0.052856445
0.075539045 0.012370527 0.1201582
0.075522043 0.083451509 0.10052443
0.069575042 0.24550849 0.023692608
0.069440044 -0.45586252 -0.05359745
0.063358046 0.3871485 -0.10476542
0.065678045 -0.52799451 0.78140926
0.051665045 -0.45284355 -0.03768158
0.052275047 -0.25880551 0.10199022
0.045805044 0.3148315 -0.023649693
0.044534046 -0.43582547 0.73763037
0.035171047 -0.032646477 0.14952326
0.028788045 0.20049548 0.071640491
0.029426046 -0.032196522 0.15296745
0.028566044 0.24723852 0.043458462
0.023447044 0.086633503 0.12873554
0.020962045 -0.54754651 -0.15610743
0.023166046 -0.31425548 0.096449375
0.029296044 -0.52403748 0.79889631
0.017402045 0.15983051 0.10203028
0.012200043 -0.14867151 0.16022158
0.011065044 0.24797052 0.051898479
0.012091048 -0.19282746 0.14984035
0.006304048 0.049658477 0.14853334
0.0061850473 0.087677479 0.13809252
0.0086000487 -0.52181244 0.8088336
0.0078470483 -0.43385947 0.74723959
-0.0049519539 -0.14716047 0.17050362
-0.012840956 0.54194051 -0.4321456
-0.013649955 0.35659951 -0.040374756
-0.015070952 0.4283855 -0.14217854
-0.017109953 -0.3091135 0.12658644
-0.022173956 0.018858492 0.17295647
-0.022033952 -0.10244548 0.18186855
-0.022984952 0.1617555 0.12136459
-0.028133951 0.47011951 -0.2064414
-0.022179954 -0.18934155 0.17258263
-0.038333952 0.5409835 -0.45476866
-0.030675955 0.3171525 0.0070996284
-0.035835952 0.2778725 0.04926157
-0.036530957 0.3173275 0.009455204
-0.040672958 0.20360452 0.10501242
-0.027786955 -0.55862355 0.80810738
-0.04529696 -0.2482655 0.16694736
-0.050434954 -0.1431855 0.19776964
-0.051692955 0.16311049 0.13511562
-0.066371955 0.5002625 -0.28945875
-0.063004948 0.42913949 -0.12873173
-0.04436595 -0.43110955 0.76107931
-0.061967961 0.02145052 0.19447041
-0.071579956 0.31836748 0.023571491
-0.073093958 -0.52516651 -0.043138504
-0.067515962 -0.18477654 0.20264721
-0.073013954 -0.098207474 0.21242523
-0.06454996 -0.62832844 0.79275227
-0.063400961 -0.45811844 0.83976364
-0.10278595 0.5385505 -0.51190376
-0.086554952 -0.36855555 0.12932539
-0.092332952 0.2058745 0.12985945
-0.10943895 0.50027049 -0.28824663
-0.10209695 -0.52005053 -0.016926765
-0.10111395 -0.059697509 0.23021221
-0.10461495 0.2524575 0.10487032
-0.10739795 0.056753516 0.21009445
-0.11306296 -0.24109745 0.21200848
-0.11962295 0.13839853 0.18455124
-0.12513694 0.3595885 0.0040721893
-0.13683894 0.35979351 0.0073204041
-0.14126796 0.32039648 0.051673412
-0.14081696 0.026497483 0.23712635
-0.14585596 -0.092253506 0.2560854
-0.15145996 0.28150851 0.095621586
-0.15497896 0.20857549 0.16002035
-0.15758795 0.027555525 0.24620247
-0.15790796 0.059829473 0.23746252
-0.15702096 -0.13406152 0.26166153
-0.17022896 0.4307605 -0.098537445
-0.16253495 -0.090907514 0.26608133
-0.17188397 0.3604005 0.01706028
-0.16704395 -0.41876245 0.14597559
-0.14022896 -0.45415151 0.86024046
-0.16804796 -0.054474473 0.27032423
-0.17505595 0.098338485 0.23639965
-0.17905396 0.25486851 0.13464546
-0.19045195 0.2552315 0.13921165
-0.19099796 0.029648483 0.26429033
-0.21557295 0.4984605 -0.32205248
-0.19893298 0.32203448 0.074968338
-0.19180897 -0.28945851 0.24495125
-0.19601795 -0.016194522 0.27976465
-0.21648595 0.47024351 -0.19860172
-0.20300996 0.28307748 0.11633921
-0.17392695 -0.42456853 0.79607439
-0.20131597 -0.13034952 0.28821325
-0.20854896 0.10005349 0.25289536
-0.20967197 0.1426425 0.22768831
-0.20682895 -0.1298905 0.29151726
-0.21147296 0.2109645 0.18724728
-0.19806096 -0.3038255 0.48838139
-0.21774697 -0.050661504 0.30010748
-0.24079496 0.47022551 -0.19785261
-0.22524998 0.10087353 0.26087666
-0.22333795 -0.1285215 0.30141354
-0.19962296 -0.56084347 0.80428743
-0.19975197 -0.42365754 0.80154133
-0.23467597 -0.013669491 0.30066347
-0.24122497 0.064800501 0.28263426
-0.25953496 0.43132949 -0.085160732
-0.23051697 -0.3024025 0.49772358
-0.21678796 -0.4738915 0.77350521
-0.24630696 0.033063531 0.29424524
-0.24522296 -0.084330499 0.31563759
-0.22272196 -0.47695553 0.75981855
-0.26491195 0.36195251 0.043010235
-0.24648997 -0.26296544 0.40048742
-0.26167795 -0.12536848 0.32439423
-0.27916098 0.39319751 -0.0037317276
-0.24688795 -0.54832149 0.70149136
-0.26783395 -0.22521055 0.31474829
-0.24685895 -0.44523048 0.70203447
-0.27378696 0.034738481 0.30913448
-0.27258697 -0.12447751 0.33093452
-0.27926895 0.035070479 0.31210566
-0.27804795 -0.046425521 0.33394766
-0.28991395 0.21410751 0.22407341
-0.26550096 -0.50063753 0.65400219
-0.27844796 -0.46391654 0.6155324
-0.29977196 -0.12227148 0.34722662
-0.29985997 -0.044976473 0.34573364
-0.30042496 -0.0094454885 0.33622837
-0.31908995 0.32504648 0.11997652
-0.30120698 -0.26070654 0.41659737
-0.30525696 -0.16337645 0.34942961
-0.31206796 0.037046492 0.32988453
-0.31123397 -0.22087848 0.3435216
-0.35290995 0.4677875 -0.23762465
-0.32726297 0.17547953 0.26749754
-0.34006095 0.3631455 0.064079285
-0.34319097 0.39414549 0.014332294
-0.33737397 0.25976151 0.19820642
-0.32831195 -0.43303347 0.42727137
-0.34381297 0.17618448 0.27547026
-0.33769095 -0.16066051 0.36887121
-0.34300995 -0.11879951 0.37314129
-0.35013396 0.039312482 0.35052347
-0.35370097 -0.07594651 0.38064337
-0.36032796 0.17688453 0.28342962
-0.37801197 0.3946355 0.024036407
-0.38390496 0.39462149 0.024241447
-0.36090097 -0.27161849 0.3573842
-0.36626795 -0.2710675 0.36094427
-0.37680897 0.17757851 0.2913723
-0.37034497 -0.21506846 0.38266945
-0.39897695 0.3263635 0.14228821
-0.39337397 0.041851521 0.37397957
-0.39167896 -0.21299756 0.39678955
-0.39670596 -0.15578949 0.40424442
-0.42631295 0.36444649 0.088371277
-0.40204197 -0.15535349 0.40744352
-0.40762696 -0.21145749 0.40734243
-0.41433397 -0.26616752 0.39283657
-0.41293195 -0.21094751 0.41085148
-0.42663398 0.074861526 0.37883663
-0.42325994 -0.1124835 0.42123461
-0.45185599 -0.56809151 0.13503027
-0.44010499 -0.38286948 0.35107231
-0.43926796 -0.15233451 0.4297533
-0.44992098 0.11143547 0.3685174
-0.45570299 -0.46061254 0.29893541
-0.47845998 0.32760549 0.16460323
-0.46626994 -0.45892453 0.3082633
-0.47656396 0.2637955 0.25435543
-0.46563396 -0.10921448 0.44662666
-0.47424194 -0.32109749 0.41170549
-0.47639397 -0.2052815 0.45054436
-0.49520698 0.15523148 0.36499357
-0.51240593 0.32811552 0.17416763
-0.55316895 0.42662051 -0.14328575
-0.49816999 -0.31357551 0.45526361
-0.50450695 0.0030804873 0.44678164
-0.52620494 0.26517248 0.27444363
-0.54033494 -0.54627955 0.24609423
-0.52538091 0.051273525 0.46099043
-0.52012193 -0.099658489 0.51560545
-0.55192393 0.32869351 0.18532753
-0.56677794 0.3940745 0.031059265
-0.5253849 -0.13978249 0.5180583
-0.53774691 0.081941485 0.44808245
-0.56039494 0.22245753 0.33266926
-0.56627792 -0.54098153 0.27373457
-0.56584096 0.22261548 0.33486652
-0.56678891 -0.53008449 0.32544661
-0.57128292 0.22277153 0.33706236
-0.56039995 0.055510521 0.49859047
-0.56228191 0.085475504 0.48021555
-0.56811893 -0.098149478 0.53052521
-0.57402992 -0.13922048 0.52659035
-0.59148693 0.18812448 0.41379261
-0.60388392 0.22370249 0.35022736
-0.58562291 -0.02413547 0.52109337
-0.59414792 0.086611509 0.49310255
-0.61439294 0.26709747 0.3052125
-0.63471895 0.36508951 0.11657763
-0.59624392 -0.36243749 0.47365141
-0.59503692 -0.30996048 0.48485422
-0.65156394 0.39248049 0.015523434
-0.61156493 -0.43639147 0.43514252
-0.67104292 0.39139351 0.0011234283
-0.62085795 0.055101514 0.50178146
-0.62757093 0.085962474 0.4913373
-0.76635391 -0.17565548 -0.56438255
-0.76684195 -0.13400447 -0.56860638
-0.75200796 -0.41561151 -0.44040155
-0.75667596 -0.36303651 -0.48074245
-0.65189391 0.083440483 0.47292948
-0.67106992 0.29604352 0.30845833
-0.76385695 -0.41454256 -0.4328084
-0.70484293 0.3647415 0.11959457
-0.74262792 -0.56598949 -0.19964838
-0.67550892 0.22908652 0.41489649
-0.80776191 -0.17186248 -0.53176451
-0.69843996 0.22847348 0.4112215
-0.77193993 -0.56425154 -0.18739271
-0.79928392 -0.41136348 -0.41008568
-0.81767094 0.0079874992 -0.50738955
-0.81953794 -0.17079055 -0.52248764
-0.82343292 0.0085214972 -0.50194168
-0.79614192 -0.50985253 -0.28283644
-0.72973496 -0.59806848 0.25031137
-0.82700992 0.061766505 -0.47913456
-0.83128595 -0.12775648 -0.51321936
-0.81518793 -0.46308053 -0.33474541
-0.73191291 0.2715165 0.3693285
-0.85213792 0.011173487 -0.47480869
-0.75844395 0.33542949 0.29602766
-0.86609292 -0.12441951 -0.48330641
-0.85191196 -0.40645254 -0.37486076
-0.87182695 -0.070084512 -0.47800541
-0.88340592 -0.12276947 -0.46842766
-0.77734894 0.29643452 0.32643461
-0.85806495 -0.55715454 -0.14060354
-0.89126295 -0.35004652 -0.38454437
-0.90546793 -0.20142853 -0.44186449
-0.82286495 0.36961851 0.20371723
-0.89809692 -0.40186346 -0.34194565
-0.90860391 -0.34840453 -0.37212658
-0.92592895 0.017914474 -0.4050808
-0.92854393 -0.19930148 -0.42369175
-0.92928994 -0.11842847 -0.42899561
-0.84713191 0.2882995 0.2382164
-0.94578993 -0.19772053 -0.41010761
-0.94639099 -0.11682248 -0.41429949
-0.9419229 -0.28752351 -0.3831048
-0.95399392 0.020448506 -0.37857151
-0.87482196 0.3665435 0.16747427
-0.9533509 -0.28638947 -0.37413359
-0.95354187 -0.45050645 -0.24619865
-0.96605694 -0.34301651 -0.33094978
-0.98030198 -0.060375512 -0.38426256
-0.98610699 -0.15449148 -0.38045263
-0.97242296 -0.39459145 -0.28889036
-0.97810388 -0.39404154 -0.28483057
-0.95458794 -0.54940546 -0.087741375
-0.99515188 0.16353452 -0.23208141
-1.0199159 -0.19099855 -0.35167265
-1.0234929 -0.23552048 -0.33381271
-0.99015999 0.26329452 -0.041601658
-1.039418 -0.016237497 -0.31418657
-1.0211539 0.1662935 -0.19887257
-1.0422289 -0.10794652 -0.33193541
-1.0314969 0.16738653 -0.18567038
-1.0681679 -0.33364248 -0.25761843
-1.081224 -0.14539051 -0.29870844
-1.0683119 -0.38542151 -0.22029066
-1.090719 -0.04962647 -0.27969265
-1.0923389 -0.18383145 -0.28942966
-1.0725409 0.17170048 -0.13331175
-1.0924189 0.12115449 -0.17767668
-1.1104439 -0.0096845031 -0.24704838
-1.1131879 -0.22722948 -0.2631855
-1.1374769 -0.0072205067 -0.22150755
-1.1523089 -0.22927153 -0.27024651
-1.1618569 -0.047811508 -0.25271559
-1.1656749 -0.1440295 -0.27426147
