# .PCD v0.7 - Point Cloud Data file format
VERSION 0.7
FIELDS x y z
SIZE 4 4 4
TYPE F F F
COUNT 1 1 1
WIDTH 1
HEIGHT 512
VIEWPOINT 0 0 0 1 0 0 0
POINTS 512
DATA ascii
1.0020037 -0.018011153 -0.17113543
1.0080997 0.10296685 -0.21370173
1.0013556 0.10348082 -0.20981264
0.98804873 -0.36208713 -0.20314264
0.96751171 -0.18880022 -0.14417362
0.9816007 -0.43266416 -0.24570036
0.98439574 0.25595784 -0.31102753
0.95730072 0.13625085 -0.20404673
0.97060871 0.29834884 -0.34811974
0.92889869 -0.18589616 -0.12988758
0.94148374 0.18037486 -0.22420454
0.94016272 -0.49068618 -0.26089144
0.92599869 -0.29534113 -0.15402937
0.92021972 0.061945856 -0.15663242
0.93353474 -0.48993111 -0.25777054
0.91953373 -0.29477417 -0.15142441
0.9137997 0.062298834 -0.15434456
0.90327471 -0.18398511 -0.12040663
0.9343797 -0.58385515 -0.35989952
0.92070872 -0.58183312 -0.35150433
0.92462569 0.37512684 -0.43173456
0.88036269 0.024286866 -0.13168955
0.8776027 -0.098667145 -0.10983944
0.91051972 0.37597185 -0.42064333
0.8711977 0.11102885 -0.15588856
0.8734827 0.14038485 -0.17423344
0.8649177 -0.097851157 -0.10546637
0.87551671 -0.42017019 -0.19056463
0.86480671 0.11135381 -0.15362263
0.89711672 0.37645984 -0.41488075
0.85231268 -0.097108185 -0.10159636
0.84752274 -0.0081601739 -0.11200142
0.87048274 0.30301481 -0.30036068
0.84577674 0.11222786 -0.14770365
0.86395073 0.30326587 -0.29789066
0.84267473 -0.28837311 -0.12207365
0.8333807 -0.056529164 -0.095265388
0.85742474 0.30351686 -0.2954216
0.82978672 0.026903868 -0.11587477
0.8208257 -0.055827141 -0.091411591
0.81722271 0.027518868 -0.11218834
0.8185057 0.067161858 -0.12310362
0.8504197 0.37814984 -0.39477253
0.81632268 0.14289182 -0.1564455
0.82623571 0.26342481 -0.24147177
0.80795372 0.11385584 -0.13683176
0.8198427 0.26364386 -0.23958874
0.80669671 0.18627787 -0.17883778
0.83955073 0.41957083 -0.46497536
0.8196947 -0.56753719 -0.29204178
0.80056971 -0.34461415 -0.12547636
0.80373269 0.23511982 -0.20649767
0.80707473 0.26407987 -0.23582745
0.74561071 -0.090085149 0.2022295
0.81065071 0.37957785 -0.37761545
0.78563869 -0.4117372 -0.15463543
0.77656072 0.11519283 -0.12779856
0.72805971 -0.15873814 0.30803251
0.76657474 -0.41003811 -0.14737654
0.7735967 0.30637085 -0.2679944
0.7098527 -0.080410182 0.26616955
0.74365073 0.18868387 -0.16052341
0.7309227 0.071176827 -0.097346306
0.73737073 0.18892086 -0.15869665
0.7672677 -0.67773318 -0.44314671
0.7278477 0.23779482 -0.18431664
0.7347827 -0.55758119 -0.25141859
0.66270274 -0.25285816 0.39191628
0.65932971 -0.19522214 0.42484236
0.70788771 0.11807185 -0.10801077
0.71526474 0.23823184 -0.1806345
0.68624073 -0.074197173 0.047025681
0.70339674 -0.40447819 -0.12336063
0.64671272 -0.19259119 0.43956947
0.69099873 0.14794183 -0.12031651
0.6786077 -0.079868138 0.0049324036
0.72072774 0.42295185 -0.42081833
0.68309873 0.11903882 -0.10138369
0.69014871 0.23909885 -0.17328453
0.66439569 -0.12233216 -0.032297611
0.66284972 0.074070871 -0.078609467
0.65342873 -0.086037159 -0.042449474
0.68548173 -0.6630131 -0.38153362
0.6589337 0.24009383 -0.16498041
0.59687871 -0.18224311 0.49766159
0.6553517 0.26905787 -0.19187832
0.63727874 0.035785854 -0.061583519
0.64465272 -0.46189213 -0.14184046
0.65061373 0.35148782 -0.27386856
0.63840771 -0.4613862 -0.13974047
0.62528771 0.19285285 -0.12834835
0.6167267 -0.08419615 -0.032414436
0.63416672 0.31053686 -0.22783136
0.61082768 -0.045300186 -0.033052444
0.63167769 0.35195482 -0.26899672
0.63639873 0.42505184 -0.39342356
0.55565572 -0.22736216 0.5294776
0.59445173 0.037570834 -0.050418377
0.59535772 0.076760828 -0.060982704
0.58924574 0.077000856 -0.059385777
0.59685373 0.24198383 -0.14906073
0.61712372 0.42547783 -0.38793659
0.59482169 -0.4578861 -0.12510967
0.5370217 -0.29006016 0.49136353
0.53209871 -0.17268717 0.54998827
0.56025672 0.12351382 -0.070292473
0.56826472 0.27153283 -0.16981745
0.5110597 -0.11919916 0.5411725
0.57964474 -0.64621818 -0.31126738
0.58837873 0.46650285 -0.49883556
0.49768567 -0.1684742 0.57277966
0.56033772 0.38613385 -0.30183554
0.52567071 -0.16150618 -0.0086145401
0.53733569 0.27239287 -0.16196346
0.4829357 -0.27803719 0.55317545
0.5207817 0.0069768429 -0.022350311
0.54142171 0.38655683 -0.29686165
0.53146774 -0.53656411 -0.16446877
0.51152867 0.12522984 -0.057927608
0.52189672 0.31346387 -0.19911766
0.50651371 -0.5341711 -0.15434647
0.48342669 -0.11515015 0.0029115677
0.48367068 -0.039695144 -0.00057840347
0.47738168 -0.077547133 0.004925251
0.43525869 -0.2109592 0.61495447
0.45937169 -0.076760173 0.0094232559
0.47237867 0.31471485 -0.18641853
0.46928468 -0.5307492 -0.13983345
0.45366269 -0.038490176 0.0065302849
0.45370269 0.19822484 -0.085307598
0.47834468 0.46864885 -0.46637249
0.46398169 -0.63027811 -0.24427462
0.40226769 -0.20845616 0.62723541
0.45811367 0.42870784 -0.34552431
0.39789468 -0.26632714 0.6116333
0.42971468 -0.037540138 0.012205601
0.44417867 0.35637185 -0.22093868
0.42944369 0.19890583 -0.079703331
0.42681968 0.27526182 -0.13523674
0.41368267 0.083419859 -0.015480518
0.40558767 -0.15575111 0.021767616
0.41702667 0.31597185 -0.17364073
0.41946468 0.35687885 -0.21528864
0.39984968 -0.036369145 0.019287586
0.41089368 0.31610787 -0.17224836
0.41624168 0.38920885 -0.26499844
0.41398567 -0.62573814 -0.22588062
0.39919069 0.19974583 -0.072705746
0.39083168 0.12905282 -0.029869556
0.40096068 0.35725585 -0.21105576
0.39550167 -0.52455115 -0.11341333
0.3886627 0.24776083 -0.098130703
0.38416767 0.27627182 -0.12561941
0.36578268 0.085022867 -0.0040454865
0.35882267 0.013093829 0.016491413
0.3592777 0.04643482 0.0076584816
0.35487068 0.13013983 -0.021603584
0.35572067 0.15886283 -0.038377762
0.36396068 0.43036985 -0.32300663
0.34492767 0.20122284 -0.060138702
0.32908469 0.014158845 0.023572445
0.32950068 0.047458827 0.014758587
0.3345857 -0.51984417 -0.093074322
0.31761068 0.047864854 0.017595291
0.31638369 -0.10779715 0.044632435
0.32652369 0.43098384 -0.31449747
0.30888468 0.20218182 -0.051778316
0.31106168 0.39111584 -0.24141741
0.31454468 -0.69722116 -0.32281637
0.26701868 -0.15116513 0.66382647
0.28679568 -0.069550157 0.052513599
0.2618317 -0.2560792 0.66083431
0.26136768 -0.19940615 0.67212248
0.2616877 -0.1510452 0.66433334
0.25649369 -0.25593412 0.66141367
0.28919169 0.43158484 -0.30599642
0.2507197 -0.19914615 0.67319536
0.2669687 0.20327681 -0.04204464
0.26813468 -0.51527119 -0.073091507
0.27194768 -0.61345816 -0.17464972
0.26099268 0.20343083 -0.040655613
0.26389068 0.49582183 -0.6477437
0.2495847 0.39218783 -0.22756052
0.2191797 -0.25494611 0.66545153
0.2397337 -0.19164717 0.061781406
0.2371287 0.20399982 -0.035542488
0.2138557 -0.25480819 0.66602755
0.2232607 0.089467824 0.029081345
0.2220687 -0.10407114 0.067007542
0.2185207 0.16257983 -0.0075936317
0.2192587 0.20441586 -0.031763554
0.2306647 0.47253785 -0.40508747
0.2186017 -0.4319272 -0.010240555
0.22310869 -0.6095252 -0.15775251
0.2109047 0.018080831 0.05047226
0.2055677 0.089970827 0.032970428
0.20447069 -0.10341513 0.071058273
0.2128357 0.39280784 -0.21933842
0.20302069 0.28025186 -0.085596561
0.1948157 0.16316086 -0.002597332
0.2119287 0.49651185 -0.63504648
0.1948487 -0.43057621 -0.0038223267
0.18688069 -0.06590414 0.075612545
0.2054477 0.49659786 -0.6334424
0.1902107 -0.5104512 -0.051550388
0.18891869 -0.43024111 -0.0022215843
0.17518871 -0.10233718 0.077797413
0.16951169 -0.028182149 0.071923256
0.16850969 -0.60554516 -0.14042234
0.15764269 -0.064879179 0.082339287
0.17308469 0.49702683 -0.62535858
0.1611217 0.28105283 -0.077096462
0.15342771 0.16415584 0.0061354637
0.1475237 0.16429585 0.0073833466
0.1554817 0.47349083 -0.38908863
0.1339217 -0.19650316 0.68497849
0.1408827 0.091765821 0.047201633
0.1413077 0.13591886 0.025063515
0.1402847 -0.027254164 0.078324318
0.1235067 -0.14835513 0.67652225
0.14079669 0.49745286 -0.61717749
0.13126369 0.28161085 -0.071026325
0.13358569 0.39393985 -0.20405769
0.12849869 -0.18720019 0.087362289
0.1227777 -0.026705146 0.082160473
0.1305217 0.47374085 -0.38484335
0.1129457 -0.14856219 0.67508459
0.1121017 -0.42600513 0.018464565
0.10626969 0.16525984 0.016105652
0.10217769 -0.60086513 -0.11953354
0.095164701 0.25415784 -0.035627365
0.094445698 -0.42505813 0.023202419
0.088437699 0.13719583 0.036216259
0.0877437 -0.14276117 0.097322464
0.089122698 -0.50457215 -0.024161339
0.088566698 -0.4247452 0.02477932
0.082232699 0.054936826 0.070117474
0.085005701 0.39460683 -0.19464445
0.076714694 0.13747382 0.038692474
0.076125696 -0.14234215 0.099996567
0.078046694 0.32257384 -0.10007763
0.078160696 -0.5992142 -0.11201763
0.064819694 0.093789816 0.063956261
0.065127693 0.16619784 0.024817467
0.067361698 0.43466684 -0.25968933
0.060114693 0.32287085 -0.096394539
0.053040694 0.022757828 0.085129261
0.049805693 -0.10458618 0.61469746
0.047162693 -0.024404168 0.098745346
0.048661694 0.39509284 -0.18758059
0.042201694 0.32316482 -0.092711449
0.033758696 -0.10402316 0.61822128
0.029822696 0.056349814 0.081577301
0.030517694 0.39533183 -0.18404531
0.030697696 0.43510884 -0.25248146
0.024167694 -0.50097418 -0.0066666603
0.018316695 0.28363281 -0.047972679
0.018438695 -0.66606712 -0.18724966
0.012392695 0.023832858 0.093619347
0.012392695 0.43532583 -0.24887562
0.0065106954 -0.50008714 -0.0022535324
-3.0454248e-07 0.47498783 -0.36241674
-0.004940304 -0.13963616 0.11775541
-0.010713304 -0.096066177 0.11957359
-0.011278304 0.28410786 -0.04227066
-0.017373305 -0.59301817 -0.083041668
-0.023309305 0.32417583 -0.07965374
-0.028841306 0.25634283 -0.011304379
-0.036324307 0.43589085 -0.23925734
-0.030135307 -0.25765121 0.64724445
-0.043323305 0.47537783 -0.35488462
-0.040728305 -0.15229714 0.65187263
-0.046003304 -0.20142114 0.65567064
-0.058945302 0.32465684 -0.073170662
-0.062828302 0.025667846 0.10874748
-0.056858305 -0.25994217 0.63493061
-0.069157302 -0.41723216 0.064315319
-0.0707803 -0.59003615 -0.068532467
-0.0788633 0.43629485 -0.23208332
-0.083242305 0.36518085 -0.11001778
-0.085588299 -0.13719118 0.13476324
-0.085585304 -0.057497144 0.1350193
-0.096010305 0.39676285 -0.16157532
-0.1003573 -0.58843517 -0.060552597
-0.10480531 -0.49489212 0.024643421
-0.1262223 0.027134836 0.12152338
-0.1379163 0.06019485 0.11538553
-0.14165731 -0.58625817 -0.049468517
-0.1436733 0.060317814 0.11654854
-0.1500193 0.39727885 -0.1527195
-0.1560123 0.39733383 -0.15173435
-0.1534363 -0.58565021 -0.046323776
-0.14332131 -0.26890814 0.58733749
-0.16799431 0.39744484 -0.14976168
-0.16306131 -0.49234319 0.038616657
-0.17219031 0.02815187 0.13079834
-0.17185231 -0.018894136 0.14291525
-0.1791203 -0.65131021 -0.11730433
-0.1791703 0.14256686 0.088821411
-0.1919423 0.39766183 -0.14580536
-0.1957183 0.09945184 0.11679029
-0.20817029 0.36642784 -0.089624405
-0.20721631 0.09965384 0.11894035
-0.2058883 -0.054593146 0.15897369
-0.2126563 0.32657784 -0.045057774
-0.2162773 0.25901282 0.022656441
-0.2200343 0.36653885 -0.087675571
-0.1987173 -0.27812314 0.53842831
-0.2172803 -0.13359815 0.16200829
-0.2221103 0.25908881 0.023718357
-0.2318943 0.36664784 -0.0857234
-0.23524231 0.029389858 0.14278364
-0.25293532 0.47652984 -0.32849455
-0.24702029 0.062314868 0.13648653
-0.26746231 0.36692983 -0.080405712
-0.24221431 -0.11787617 0.53483152
-0.26634932 0.17212486 0.088377476
-0.26732531 0.21343583 0.065103531
-0.26874933 0.25958383 0.031118393
-0.26745731 -0.48837411 0.061952591
-0.2654753 -0.40969813 0.10922432
-0.24735631 -0.22210217 0.54153728
-0.28980932 0.47668985 -0.32400131
-0.27740532 0.32723683 -0.03409338
-0.27426732 -0.08923918 0.17339563
-0.27175131 -0.086033165 0.48164129
-0.26995632 -0.22580111 0.52116728
-0.2941533 -0.57935512 -0.011699677
-0.27513531 -0.17402816 0.52673626
-0.28137931 -0.12209219 0.5095706
-0.30596331 0.14443386 0.11117935
-0.3266153 0.43819985 -0.19253635
-0.31624633 0.10125387 0.13752937
-0.31746033 0.14458382 0.11314964
-0.31712332 -0.4081161 0.11991167
-0.35133633 0.47678983 -0.3192234
-0.34128532 0.17307484 0.1012373
-0.34618232 0.14494985 0.11807823
-0.34831131 -0.051912129 0.18471241
-0.35399032 -0.051813185 0.18574142
-0.34015033 -0.2416321 0.43329334
-0.3713693 0.32802284 -0.019285679
-0.34629732 -0.24360216 0.42225742
-0.37343332 0.26057285 0.047529697
-0.37487432 0.14530385 0.1230073
-0.37580132 0.17348486 0.10717535
-0.40058333 0.47680584 -0.3162055
-0.39283532 0.43850785 -0.1838274
-0.35630533 -0.18899918 0.44023752
-0.39084831 0.26072484 0.050271511
-0.38804331 -0.051238179 0.1919136
-0.39878932 0.17374784 0.11113834
-0.40201131 0.10237384 0.1522274
-0.40353933 0.14564383 0.12794065
-0.42296633 0.43857685 -0.18083572
-0.39720032 -0.069458187 0.31811523
-0.40604633 -0.28624618 0.17943668
-0.42086232 -0.63960516 -0.052815437
-0.42672431 -0.6393882 -0.051445484
-0.42072332 0.14584184 0.13090038
-0.42564833 0.26101583 0.055755615
-0.41740933 -0.28602111 0.18147135
-0.40448833 -0.14362615 0.37860823
-0.41219932 -0.10745317 0.34643936
-0.42749831 0.17406583 0.11609125
-0.42268533 -0.014429152 0.18856049
-0.44166631 0.32854682 -0.0081496239
-0.43463832 -0.48332214 0.096280575
-0.41693333 -0.14675713 0.35937262
-0.43485832 0.032522857 0.17846823
-0.44056231 0.21536481 0.094804287
-0.44884431 0.26118386 0.059223652
-0.45678133 0.36794385 -0.055726528
-0.46040133 0.39927486 -0.10814333
-0.4401423 -0.28563321 0.18524265
-0.43795732 -0.11486113 0.29867363
-0.44541231 -0.014172137 0.19205666
-0.46268532 0.36796984 -0.05494976
-0.44864732 -0.4046942 0.14579439
-0.43690032 -0.15408313 0.31378841
-0.46189132 -0.6381892 -0.043602467
-0.45109332 -0.014109135 0.19293261
-0.4600763 -0.40448618 0.14770126
-0.49906829 0.47679284 -0.31000137
-0.47055331 0.10300982 0.16250467
-0.48098731 0.065586865 0.17724848
-0.48197332 0.10309887 0.16413069
-0.48378533 0.14634186 0.14003229
-0.52368927 0.47677985 -0.30841637
-0.4855653 -0.28490222 0.19276333
-0.48426533 -0.17083418 0.20985842
-0.4925923 -0.3470751 0.17612028
-0.48992631 -0.1707592 0.21077156
-0.52187932 0.36803985 -0.049572468
-0.52596927 0.39939085 -0.10154676
-0.53795427 0.43833685 -0.17667246
-0.51512831 0.065898836 0.18251848
-0.53052527 -0.01330018 0.20518351
-0.5417043 0.26156783 0.07064724
-0.54448628 -0.57241821 0.03716135
-0.53542429 -0.049505174 0.21520567
-0.54226726 -0.28407216 0.20213366
-0.56109929 -0.48104215 0.11740255
-0.56339329 -0.12762517 0.22321939
-0.56492627 -0.2837652 0.20587063
-0.57123929 0.03380686 0.19951868
-0.57625031 -0.28361714 0.20773649
-0.58681828 0.14699984 0.15477133
-0.5938853 0.26173782 0.077120304
-0.61707628 0.43787384 -0.17770147
-0.59968126 0.26175487 0.077841282
-0.61068428 0.36804685 -0.041902542
-0.60908931 -0.63662815 -0.024555683
-0.60543531 0.17521483 0.14160061
-0.61736131 0.32918584 0.014249325
-0.59737527 -0.16955411 0.22766638
-0.61418331 -0.57139111 0.048183441
-0.60531729 0.034012854 0.20430946
-0.62844431 0.36803883 -0.040354729
-0.60304731 -0.16953516 0.22832346
-0.61852229 -0.4803251 0.1262126
-0.61196631 -0.34552813 0.19492245
-0.61427128 -0.084421158 0.23083544
-0.62319028 0.066604853 0.19803953
-0.62693328 0.14710283 0.15951538
-0.6306473 0.21639383 0.12129164
-0.65124631 0.39937985 -0.090694427
-0.63606226 0.10388082 0.18444443
-0.63263232 -0.012690187 0.21911526
-0.64879131 0.28960186 0.055772305
-0.66317827 0.39937183 -0.089649677
-0.65842229 0.32919186 0.018291473
-0.6484893 -0.40224218 0.17576742
-0.64282429 -0.22704816 0.23202229
-0.66837329 -0.63725114 -0.021701336
-0.66091031 -0.57145715 0.052411556
-0.65322727 0.10387087 0.18608141
-0.65952832 0.21638286 0.12404966
-0.64876127 -0.048912168 0.23004246
-0.67598832 0.36787483 -0.038003445
-0.67435026 -0.6374222 -0.021875381
-0.6553663 -0.012663186 0.22160959
-0.6622563 0.03408885 0.21055365
-0.66873729 0.17521584 0.14783859
-0.70271528 0.43718383 -0.18096256
-0.69925326 0.39916083 -0.089186668
-0.70890629 0.43709585 -0.18180466
-0.66714627 -0.2832191 0.21887922
-0.67611527 0.10385084 0.18826723
-0.68024927 0.17520583 0.14893961
-0.69017428 -0.57164919 0.054511547
-0.68183726 0.10384482 0.18881464
-0.69560128 0.28946686 0.058954239
-0.69010627 0.14705884 0.16554451
-0.69176328 0.17519385 0.15004349
-0.68419826 -0.28319311 0.22083044
-0.70773929 -0.57178211 0.055752277
-0.69514626 -0.012640178 0.22597933
-0.70299828 0.066665828 0.20679951
-0.70082927 -0.012640178 0.22660351
-0.71479028 0.17516387 0.15225363
-0.7253083 -0.57192612 0.056983471
-0.74040031 0.21629184 0.13180351
-0.7482903 0.28928483 0.062559605
-0.73961431 -0.4803611 0.13870668
-0.74026728 -0.4025842 0.18384838
-0.74884629 0.066394866 0.20970535
-0.77758026 0.36717883 -0.036752701
-0.76652527 -0.57268417 0.058063507
-0.78960931 0.39857185 -0.088128567
-0.80172729 0.39845884 -0.088422775
-0.78452331 -0.57359612 0.055853367
-0.77098829 0.03347683 0.21776628
-0.80183226 0.36681685 -0.038991451
-0.77218926 -0.34632921 0.20776844
-0.77797431 -0.3464601 0.20774364
-0.8138513 -0.6445812 -0.039131641
-0.78929228 0.065830827 0.20979643
-0.79097229 -0.12827617 0.24297953
-0.82633829 0.36632285 -0.042986393
-0.82479131 0.32770485 0.017673492
-0.80113029 -0.34699416 0.20763731
-0.83272129 -0.64658117 -0.045990467
-0.80486327 -0.01458317 0.22402048
-0.82220131 0.26032984 0.085805416
-0.81083727 -0.40559411 0.17639923
-0.80362129 -0.17209315 0.2339263
-0.83902127 -0.64725113 -0.048280716
-0.81356627 0.064407825 0.20084429
-0.81186432 -0.23310411 0.21431541
-0.87255728 0.43386284 -0.21728277
-0.8352803 0.054702818 0.12187052
-0.83480728 0.094673812 0.12556458
-0.83672231 -0.068231165 0.11061335
-0.84905028 0.047220826 0.060620308
-0.8655563 -0.16893113 -0.020851612
-0.8650313 -0.12375617 -0.016802311
-0.9039883 0.23653382 -0.17498541
-0.92243427 -0.028952181 -0.26721334
-0.92035526 0.13159084 -0.2516346
-0.92948729 -0.57645118 -0.32007742
-0.9396193 -0.17236412 -0.34882975
-0.9351393 0.17147583 -0.31546974
-0.95366931 -0.046659172 -0.40615654
-0.95317829 -0.009373188 -0.40252066
-0.96009427 -0.5281831 -0.45367432
-0.99033332 -0.36722016 -0.58108664
-1.0005903 0.094324827 -0.60828066
-0.99911523 0.19837487 -0.59758234
-1.0214603 -0.18398213 -0.71158171
-1.0161313 0.19154686 -0.67317867
-1.0244533 -0.39287317 -0.73315048
