# .PCD v0.7 - Point Cloud Data file format
VERSION 0.7
FIELDS x y z
SIZE 4 4 4
TYPE F F F
COUNT 1 1 1
WIDTH 1
HEIGHT 1024
VIEWPOINT 0 0 0 1 0 0 0
POINTS 1024
DATA ascii
0.98668694 0.32133991 -0.23794699
0.98378992 0.40766388 -0.21533585
0.97511292 0.37752289 -0.1962142
0.96857691 0.40962291 -0.19374704
0.96493691 0.32384789 -0.21431398
0.96166295 0.37837392 -0.18821907
0.95816594 0.32433492 -0.21003819
0.95557094 0.41013688 -0.18920326
0.95999891 0.45214289 -0.22475004
0.94907492 0.41039288 -0.18693399
0.95241094 0.4530499 -0.21391106
0.94268894 0.32200688 -0.23643398
0.93614495 0.37912989 -0.18275309
0.92240393 0.32346088 -0.22359085
0.91980594 0.37763089 -0.2018013
0.91817492 0.41060692 -0.18812609
0.92009991 0.45409387 -0.20427418
0.91284293 0.4100439 -0.195508
0.90755695 0.40944088 -0.20337105
0.90068191 0.3261649 -0.197721
0.89908892 0.27588391 -0.23763895
0.89395696 0.3786459 -0.1932869
0.88696992 0.3273859 -0.18647194
0.88815093 0.2746309 -0.25122929
0.88057494 0.32762086 -0.18474197
0.88088095 0.37929291 -0.18741989
0.88316095 0.40933686 -0.20743608
0.88390195 0.27287692 -0.26896429
0.87439293 0.3795839 -0.18484497
0.88169295 0.45095789 -0.24942303
0.8612619 0.38029987 -0.17817116
0.85487092 0.27688688 -0.23275805
0.85065794 0.3270309 -0.19428396
0.84400195 0.37942088 -0.19006491
0.84411395 0.4110629 -0.19109726
0.83794194 0.32744491 -0.19130802
0.83820093 0.37915587 -0.19370604
0.83219093 0.37906086 -0.19543219
0.82733995 0.27969688 -0.20810795
0.82617891 0.37896591 -0.19715691
0.81894195 0.32802588 -0.18723822
0.82006991 0.37895089 -0.19796991
0.8218829 0.40924788 -0.21521902
0.81419694 0.28055489 -0.20105886
0.80629092 0.32840991 -0.18452787
0.80770195 0.3790459 -0.1981802
0.80443895 0.40843391 -0.22677088
0.79449892 0.2818749 -0.19011402
0.79546994 0.37902391 -0.19968128
0.78804392 0.28221589 -0.18741512
0.78937095 0.37899786 -0.20059586
0.79255593 0.40807986 -0.23223019
0.78391391 0.24838489 -0.20796585
0.78159291 0.28255689 -0.18471718
0.77705294 0.2491709 -0.20125389
0.77716893 0.37894392 -0.20242596
0.77031893 0.24983191 -0.19570398
0.76871294 0.28323489 -0.17932892
0.77106792 0.37891591 -0.20334101
0.77504694 0.4072479 -0.24393225
0.76373792 0.25033492 -0.19161415
0.76228195 0.28357291 -0.17663813
0.75716496 0.25083691 -0.18753099
0.75887996 0.37884492 -0.20534086
0.74987692 0.32976788 -0.17588091
0.75287294 0.37872487 -0.20728111
0.74682492 0.37864292 -0.20878506
0.73684394 0.28466791 -0.16831827
0.73112196 0.25264591 -0.17298508
0.73052794 0.2849049 -0.16658211
0.72471595 0.25299388 -0.17030191
0.72232395 0.19951892 -0.21163797
0.71268094 0.33033991 -0.17332983
0.70806795 0.2020489 -0.19060087
0.70548695 0.25409591 -0.16168308
0.71066993 0.37796891 -0.21975422
0.70475692 0.37773389 -0.22294903
0.69414592 0.33057588 -0.17250919
0.69883895 0.37749791 -0.22615004
0.68649793 0.28646487 -0.15522814
0.6739549 0.28690189 -0.15201187
0.68137795 0.37645489 -0.23949099
0.67249393 0.15863591 -0.20764112
0.66808993 0.20645392 -0.1552
0.66728395 0.25615889 -0.14560509
0.66475993 0.16094589 -0.18892288
0.66096193 0.25646991 -0.14321518
0.65782791 0.16213292 -0.17954922
0.65516794 0.28755289 -0.14719629
0.64873993 0.20796686 -0.14345407
0.64833194 0.2570889 -0.13843822
0.64891392 0.2877689 -0.14559317
0.64392692 0.1646359 -0.15969992
0.64202493 0.25739688 -0.13605309
0.64490491 0.33103287 -0.17185307
0.62941194 0.20953888 -0.13113785
0.63024491 0.28831691 -0.1417141
0.62297493 0.2100789 -0.12688303
0.62642294 0.33123589 -0.17119122
0.61787391 0.28860086 -0.1398921
0.61087191 0.16870087 -0.12821817
0.61072594 0.25869787 -0.12629318
0.60445392 0.2589919 -0.12400484
0.60548395 0.28891987 -0.13770485
0.60803795 0.33132488 -0.17166901
0.59818792 0.25928491 -0.12172127
0.59925491 0.28913289 -0.13608408
0.60194594 0.3313089 -0.17228889
0.59268194 0.13305187 -0.12972784
0.59153795 0.17055291 -0.11415386
0.59122396 0.21228087 -0.10987616
0.59192592 0.25957787 -0.11943722
0.5930289 0.28934592 -0.13446188
0.58491594 0.21268392 -0.10678101
0.58566892 0.25986892 -0.11715603
0.58680695 0.28955692 -0.13284206
0.58975893 0.33127588 -0.17352629
0.57870495 0.17176092 -0.1049633
0.57861394 0.2130869 -0.10369015
0.57941592 0.26015991 -0.11487484
0.58058697 0.28976792 -0.13122225
0.58365196 0.33127487 -0.17397785
0.58430791 0.074782908 -0.18312216
0.56601095 0.21392089 -0.097227097
0.56692696 0.26073986 -0.11032104
0.57132894 0.33142489 -0.17328119
0.55950195 0.17360789 -0.090848923
0.56071097 0.26099491 -0.108356
0.56516993 0.33149892 -0.17293215
0.55901194 0.33157289 -0.1725812
0.55557197 0.083089888 -0.12213326
0.54715794 0.1386959 -0.087596893
0.54681796 0.17470092 -0.082558155
0.54709893 0.21525991 -0.086731911
0.54053295 0.17516792 -0.07906723
0.54219496 0.085586905 -0.10409689
0.53442895 0.13996691 -0.078237057
0.53425395 0.17563391 -0.075579166
0.53592992 0.26194191 -0.10114527
0.54054296 0.33179188 -0.17152929
0.53849894 0.040891886 -0.14034414
0.52171695 0.17656291 -0.06861496
0.52492595 0.2914089 -0.11892605
0.52823693 0.33193487 -0.17082405
0.51734394 0.26271391 -0.095097065
0.50920892 0.1774869 -0.061666965
0.51257992 0.2917859 -0.11600304
0.50994593 0.089888871 -0.073551178
0.50296593 0.17794687 -0.058199883
0.50517994 0.047504902 -0.094399929
0.50357693 0.090646863 -0.068196297
0.50263095 0.00093686581 -0.15262794
0.49038196 0.1439119 -0.049321175
0.49049795 0.1788649 -0.0512743
0.49118698 0.21837288 -0.062861919
0.48645395 0.26398587 -0.085037231
0.48792493 0.29253489 -0.1101613
0.47812396 0.17964292 -0.045482159
0.47882193 0.21905386 -0.057581902
0.47959393 0.050939918 -0.070970058
0.47850293 0.092972875 -0.052054882
0.47188097 0.14502686 -0.041445255
0.47264695 0.21939391 -0.054944038
0.47412795 0.2644909 -0.081020832
0.47561693 0.29290491 -0.10724306
0.47922897 0.33221591 -0.17084694
0.46572292 0.14539689 -0.038824081
0.46648395 0.21971887 -0.052433014
0.46867293 0.0099568963 -0.09159708
0.46946597 0.29308987 -0.10578394
0.47308892 0.3322739 -0.170578
0.46605194 0.094035864 -0.044705868
0.45983797 0.094565868 -0.041039944
0.45424592 0.2202149 -0.048737049
0.44751793 0.18105888 -0.035333157
0.44952494 0.26549089 -0.072998047
0.45359296 -0.043874145 -0.14934826
0.44923395 0.013554871 -0.067536831
0.45468092 0.33244789 -0.16976786
0.44338995 0.26572788 -0.071100235
0.44292295 0.014366865 -0.062198162
0.43596792 0.2208429 -0.044176102
0.43732697 0.26581991 -0.070550919
0.43928295 -0.037648082 -0.10851717
0.43662196 0.015177906 -0.056866169
0.43876696 0.29400289 -0.098495007
0.44241196 0.3325609 -0.16922522
0.42989892 0.22101289 -0.042990208
0.43268597 -0.03602314 -0.098003864
0.42277396 0.14795887 -0.020541191
0.42314392 0.1820879 -0.027983189
0.41665995 0.14832091 -0.017939091
0.41776896 0.22135091 -0.040622234
0.41915196 0.2660929 -0.068903923
0.42043895 0.29443187 -0.095217228
0.41656095 0.09817791 -0.015923977
0.41309494 0.2661829 -0.06835413
0.41082096 0.058318913 -0.021015167
0.41045195 0.098559916 -0.013324261
0.40444392 0.14904189 -0.012738228
0.40490395 0.1828509 -0.022480965
0.40704095 0.26627189 -0.06780386
0.40527493 0.019196868 -0.030349255
0.40829396 0.2945779 -0.094376087
0.40434992 0.098940909 -0.010725975
0.40098894 0.26636088 -0.067253113
0.40040892 -0.029306054 -0.054726124
0.39353794 0.2220189 -0.035887241
0.39280796 0.020789921 -0.019806862
0.39952397 0.3329069 -0.16769695
0.38669896 0.18360788 -0.016988277
0.38748795 0.22218388 -0.034703255
0.38888794 0.2665379 -0.066151142
0.38662297 0.021475911 -0.015300274
0.39017093 0.2946049 -0.094944954
0.38607293 0.10007888 -0.0029492378
0.38214296 -0.028427124 -0.049676895
0.38048393 0.022034883 -0.011669159
0.38412797 0.29461288 -0.095134258
0.37998992 0.10045588 -0.00035905838
0.37457895 0.18410891 -0.013329983
0.37435293 0.022591889 -0.0080432892
0.38135695 0.33259588 -0.17174721
0.38018095 -0.087518096 -0.14427328
0.36852497 0.18435788 -0.011502266
0.37074596 0.2667979 -0.064495087
0.37204593 0.29462689 -0.095510006
0.36785996 0.062079906 0.0043578148
0.36784095 0.1012069 0.0048098564
0.37339592 -0.084886074 -0.12771606
0.36207092 0.15088487 0.00017499924
0.36247492 0.1846059 -0.0096759796
0.36470193 0.26688391 -0.063941956
0.36395597 -0.027724147 -0.045755863
0.36259598 0.022006869 -0.012618065
0.36600494 0.29463291 -0.09569788
0.36175096 0.062612891 0.0079669952
0.36664295 -0.082268119 -0.11124229
0.35603195 0.1511429 0.0019960403
0.35726798 0.2230019 -0.028789997
0.35865796 0.26696891 -0.063389301
0.36338496 0.33177388 -0.1810813
0.34999794 0.1513989 0.0038137436
0.35123295 0.2231639 -0.027608871
0.35392195 0.29464489 -0.096067905
0.35744196 0.33135891 -0.18564796
0.34987694 0.062528908 0.0068850517
0.34965497 0.10232687 0.012551785
0.34436792 0.18527889 -0.0047702789
0.34657693 0.26713789 -0.062281132
0.34544092 -0.025658131 -0.032703876
0.35149193 0.33094388 -0.19021702
0.33835596 0.18544692 -0.003595829
0.34053797 0.26722187 -0.061726093
0.33849096 0.02292192 -0.007185936
0.33764094 0.10277188 0.015458107
0.34091294 -0.075930119 -0.071698189
0.33191794 0.15216488 0.009264946
0.33234698 0.18561387 -0.0024232864
0.33314097 0.22364491 -0.024065018
0.33313894 -0.024290085 -0.024034977
0.32633895 0.18577987 -0.001250267
0.32711294 0.22380388 -0.022881985
0.32846394 0.26738691 -0.060616016
0.32634395 0.023814917 -0.0013990402
0.32595095 0.1020509 0.0095710754
0.32108995 0.22396189 -0.021700859
0.32242894 0.26746887 -0.060060978
0.32004297 0.062872887 0.008272171
0.32003397 0.10194087 0.0085301399
0.31395793 0.15259892 0.012107849
0.31422096 0.024702907 0.0043759346
0.31402194 0.063169897 0.010221958
0.31401294 0.1022259 0.010478973
0.30812195 0.15219188 0.0086541176
0.30833393 0.1862759 0.0022668839
0.30863294 -0.02157414 -0.0067682266
0.30816793 0.025144875 0.0072588921
0.31163794 0.29467088 -0.097348213
0.30800495 0.063465893 0.012167931
0.30960596 -0.070193052 -0.036099911
0.30233496 0.18643892 0.0034408569
0.30303594 0.22442091 -0.018270969
0.30433196 0.26771289 -0.058392048
0.30252594 -0.020899057 -0.0024662018
0.30211896 0.025586903 0.010138988
0.30198994 0.06376189 0.014114857
0.30198193 0.10279089 0.014351845
0.29644793 0.1861909 0.0011777878
0.29704195 0.2245059 -0.01772213
0.29830295 0.26779187 -0.057836056
0.29734194 -0.06875205 -0.027275085
0.29061794 0.18570691 -0.0030488968
0.29104996 0.22458887 -0.01717329
0.29229194 0.26781291 -0.057829857
0.28997493 0.06434989 0.018003941
0.29446197 -0.14576113 -0.1288619
0.29122594 -0.068046093 -0.022948265
0.28628594 0.26781291 -0.05800724
0.28747493 0.29467589 -0.098062992
0.27798194 0.027339876 0.021631718
0.28143495 0.29467589 -0.098238945
0.27287596 0.18514091 -0.0082969666
0.27427393 0.26781291 -0.058358192
0.27198493 0.027644873 0.02358675
0.27539295 0.29467487 -0.098417282
0.27197796 0.065224886 0.023828983
0.27207294 0.10371292 0.020431042
0.26826894 0.26781189 -0.058533192
0.26598793 0.065514863 0.02576685
0.26683897 -0.065240145 -0.0057058334
0.26000696 0.02824688 0.027463913
0.26012695 0.10407591 0.022861958
0.26242596 -0.13505006 -0.06490612
0.25625795 0.2678079 -0.058878899
0.25731295 0.29450387 -0.10056591
0.25626296 -0.13406205 -0.059081078
0.25471094 -0.063950062 0.0022301674
0.24854594 0.15266091 0.010689735
0.24962495 0.22286791 -0.033449173
0.24803595 0.066379905 0.031578064
0.25010896 -0.13307714 -0.053268909
0.24297795 0.1855709 -0.0054731369
0.24363995 0.22286987 -0.033576012
0.24454895 0.26642388 -0.07212925
0.24206495 0.029142916 0.033269882
0.24527995 0.29426789 -0.10316801
0.24222495 0.10461688 0.026503086
0.24396795 -0.1320951 -0.047466278
0.24263495 -0.062830091 0.0090999603
0.23700295 0.18565488 -0.0049071312
0.23765595 0.22287089 -0.03370285
0.23869695 0.26564491 -0.079555035
0.23660694 -0.062272072 0.012527943
0.23025994 -0.015605092 0.030892849
0.23337895 0.29338491 -0.11207104
0.23011795 0.067235887 0.037375927
0.23058595 -0.06171608 0.01595211
0.22428295 -0.015258074 0.033083916
0.22415495 0.06750387 0.039189816
0.21970195 0.22287089 -0.034080982
0.22073394 0.26505089 -0.08550787
0.21819995 0.030282915 0.040699005
0.22171995 0.29110187 -0.13463306
0.21950695 -0.12819314 -0.024372101
0.21859695 -0.060895085 0.020947933
0.21278995 0.15317887 0.014065742
0.21371695 0.22287089 -0.034205914
0.21472195 0.26495486 -0.08652401
0.21261595 -0.06053412 0.023142815
0.20870794 0.26485789 -0.08754015
0.20981194 0.28978288 -0.14775515
0.20631894 0.068051875 0.042816162
0.20663895 -0.060173154 0.025337696
0.20119995 0.18596691 -0.0030202866
0.20269296 0.26476091 -0.088553905
0.19524094 0.18596488 -0.0031442642
0.19442496 0.03111589 0.046073914
0.19786695 0.28839689 -0.16151428
0.19469595 -0.059455156 0.029721737
0.18977794 0.22286087 -0.034706116
0.19082895 -0.19750011 -0.10161591
0.18379395 0.22285789 -0.034828186
0.18468295 0.26412487 -0.094805241
0.18587795 0.28700387 -0.1753149
0.18326694 -0.12395012 0.00067901611
0.17736995 0.18595392 -0.0035090446
0.17781195 0.22283089 -0.03514719
0.17867994 0.26386791 -0.097296238
0.17662095 0.031731904 0.050097942
0.17986596 0.28630489 -0.18223095
0.17840496 -0.19331408 -0.077652931
0.17726395 -0.12337005 0.0041079521
0.17681395 -0.058386087 0.036284924
0.17267095 0.2636109 -0.099784851
0.17069194 0.031935871 0.051438808
0.17084694 0.10651988 0.039600849
0.17086194 -0.058032155 0.038467884
0.16478994 -0.012492061 0.050544739
0.16491595 0.10661691 0.04025507
0.16491094 -0.057678103 0.040650845
0.15923795 0.15388191 0.018878937
0.15949595 0.18593687 -0.0038719177
0.16064095 0.26309389 -0.10476685
0.15886395 -0.012280107 0.051885128
0.15890494 0.068893909 0.048215866
0.15899394 0.10664189 0.040379047
0.15929994 -0.12179112 0.013440132
0.15461995 0.26283491 -0.10726023
0.15293995 -0.01207006 0.05322504
0.15307394 0.10664886 0.04036808
0.15395594 -0.18740511 -0.04386425
0.14736095 0.1538949 0.018857956
0.14699894 0.032706916 0.056545734
0.14791194 -0.18648505 -0.038617134
0.14735395 -0.12075615 0.019578934
0.14162594 0.18587989 -0.0045289993
0.14108695 0.032807887 0.057197094
0.13548195 0.15390491 0.018836975
0.13567095 0.18579489 -0.0052919388
0.13523094 -0.056038141 0.0508461
0.12926595 0.03300792 0.058496952
0.12398895 0.22187388 -0.044105053
0.12335595 -0.011077166 0.059597015
0.12340195 0.069474876 0.052122116
0.12382795 -0.18283105 -0.017724991
0.11780494 0.18553489 -0.0075769424
0.11745195 0.033204913 0.059795856
0.11748895 0.069568872 0.052772999
0.11783095 -0.1819241 -0.012526989
0.11746895 -0.055127144 0.056550026
0.11184495 0.18544692 -0.0083379745
0.11153895 -0.010739088 0.061793804
0.11154494 0.03330189 0.060444832
0.11164295 -0.11769509 0.03786087
0.11155394 -0.05482614 0.058448792
0.10566495 0.069755912 0.054075718
0.10571295 0.10668188 0.040287018
0.10586095 -0.18011606 -0.002155304
0.10564495 -0.054594159 0.059907913
0.099859945 0.15346289 0.015105724
0.10003295 0.22108889 -0.051102161
0.099890947 -0.1792171 0.0030179024
0.093918949 0.1533699 0.014351845
0.093830943 -0.010238051 0.065082073
0.093847945 0.069939911 0.055378914
0.093873948 0.10668391 0.040270805
0.09386795 -0.11674106 0.043584824
0.087977946 0.15327692 0.013596058
0.087999947 0.1850909 -0.011382103
0.087931946 -0.010072112 0.066177845
0.087934949 0.033554912 0.062150002
0.087940946 0.069999874 0.055808067
0.087954946 0.10668391 0.040261745
0.087949947 -0.11642516 0.045488834
0.082032949 0.1066829 0.04025507
0.082032949 -0.11611009 0.047392845
0.082032949 -0.053901076 0.064296722
0.076027945 0.22027689 -0.058264256
0.075933948 0.25666589 -0.16538715
0.076113947 0.10668188 0.040246964
0.076091945 -0.17705214 0.015482903
0.076121949 -0.11579609 0.049294949
0.076135948 -0.05373013 0.065392017
0.070143946 0.15299392 0.011333942
0.070098944 0.18472189 -0.014453888
0.070018947 0.22007191 -0.06005621
0.069818944 0.25568891 -0.17452526
0.070221946 0.070015907 0.055931091
0.070193946 0.10665488 0.040050983
0.070155948 -0.17652309 0.018542767
0.070239946 -0.053560138 0.066487789
0.06368795 0.25470889 -0.18368387
0.064353943 -0.0094181299 0.070557117
0.064314947 0.069980919 0.055687904
0.064307943 -0.11517215 0.053095818
0.064345948 -0.053391099 0.067583084
0.058246948 0.15280187 0.009827137
0.058149949 0.18429488 -0.017987251
0.057988949 0.21959287 -0.064236164
0.058436945 0.033851862 0.064258099
0.057989947 -0.25275707 -0.063815117
0.058404945 -0.11486113 0.05499506
0.05229795 0.15270489 0.0090751648
0.052539945 0.033908904 0.064680099
0.052429948 0.10655189 0.039320946
0.052030947 -0.25061107 -0.05202198
0.052562945 -0.053055167 0.069771767
0.046190947 0.1838659 -0.021522999
0.045929946 0.21877289 -0.071393967
0.046683948 -0.0091230869 0.072597027
0.046643946 0.033964872 0.0651021
0.046141949 -0.24674213 -0.030777931
0.046463948 -0.17442107 0.030749798
0.040391948 0.15245587 0.007144928
0.040205948 0.1836499 -0.023292065
0.040748946 0.034020901 0.065524101
0.040682945 0.069833875 0.054721832
0.040257946 -0.24384415 -0.014853001
0.040718947 -0.11393607 0.060679913
0.034435946 0.1523239 0.006128788
0.033844948 0.21794891 -0.078564167
0.034905948 -0.0090070963 0.073440075
0.034650948 -0.17337906 0.036831856
0.034903947 -0.052558064 0.073051929
0.028476946 0.15219188 0.0051107407
0.029016946 -0.0089510679 0.073862076
0.028737947 0.10640389 0.038352013
0.028387949 -0.24228013 -0.0061950684
0.028749947 -0.17286015 0.039869785
0.022517946 0.1520589 0.0040941238
0.023129947 -0.0088951588 0.074282169
0.023064949 0.034183919 0.066792011
0.022459947 -0.2416091 -0.0024671555
0.023060948 -0.11302006 0.066354752
0.023137946 -0.05223012 0.075236797
0.01655595 0.15192491 0.0030770302
0.016226947 0.1826809 -0.031198025
0.015668944 0.21670491 -0.08934021
0.017171949 0.034236908 0.067212105
0.016538948 -0.24094009 0.0012569427
0.017073944 -0.16989815 0.057058811
0.017181948 -0.11271715 0.068243027
0.010222949 0.18242288 -0.033297062
0.010955945 0.10616487 0.03670311
0.010623947 -0.24027312 0.0049757957
0.011305951 -0.11241508 0.070130825
0.0046259463 0.15165591 0.0010428429
0.0054719448 -0.0087320805 0.075546741
0.0053869486 0.034339905 0.068058014
0.0052189454 0.06959188 0.05328083
0.0050189495 0.10602289 0.035696983
0.0047129467 -0.23960805 0.008687973
0.0053239465 -0.16897511 0.062503815
0.0054309443 -0.11211407 0.072016716
-0.0013410524 0.15151989 2.8133392e-05
-0.0017990544 0.1819039 -0.037495136
-0.00041305274 -0.0086791515 0.075969696
-0.0011900514 -0.23894405 0.012395859
-0.00040305406 -0.11133611 0.076798916
-0.0073160529 0.15132087 -0.0014948845
-0.0086710528 0.2148909 -0.10501528
-0.0062970519 -0.0086270571 0.076390743
-0.0064060539 0.034319878 0.068061829
-0.0066060498 0.06950587 0.052801132
-0.0070860535 -0.23828316 0.016097069
-0.01383505 0.18138188 -0.041694164
-0.012305051 0.034274876 0.067822933
-0.012519054 0.069461882 0.052562714
-0.012796052 0.10559487 0.032678127
-0.01297605 -0.23762405 0.019793987
-0.012111053 -0.051269054 0.08178091
-0.019292057 0.15078092 -0.0056500435
-0.020925052 0.2136569 -0.11569023
-0.018432051 0.069416881 0.052321911
-0.018739052 0.10544991 0.031672001
-0.025288053 0.15051091 -0.0077280998
-0.023946054 -0.0084750652 0.077656746
-0.024108052 0.034181893 0.067349911
-0.02434805 0.069371879 0.052084923
-0.024684049 0.1053049 0.030666828
-0.033369049 0.21138191 -0.13549089
-0.030263051 0.069325864 0.051846027
-0.030630052 0.10515988 0.029662132
-0.030670054 -0.23631012 0.027267933
-0.029659055 -0.10951912 0.088222027
-0.029632054 -0.050042152 0.089899063
-0.035708055 -0.0083781481 0.078500748
-0.035911053 0.03408587 0.066875935
-0.03657905 0.10501391 0.028657913
-0.035852052 -0.16772711 0.070297718
-0.03553205 -0.10946906 0.088624001
-0.043291047 0.14969391 -0.01396513
-0.044046059 0.17971689 -0.055125237
-0.041589051 -0.0083301067 0.078923702
-0.041814052 0.034035921 0.066638947
-0.042529054 0.10486686 0.027651787
-0.04437305 -0.30963111 -0.073014259
-0.042460054 -0.23559511 0.03139782
-0.041404054 -0.10942006 0.089025974
-0.049302056 0.1494199 -0.016046047
-0.052169055 0.2079429 -0.16538429
-0.047719046 0.033986866 0.066402912
-0.048012048 0.069183886 0.051130772
-0.048482046 0.10471988 0.026648998
-0.048351049 -0.23523915 0.03346014
-0.047601059 -0.16737914 0.072518826
-0.047277048 -0.10937107 0.089428902
-0.056219056 0.17872691 -0.063160896
-0.053200051 -0.0071231127 0.087198734
-0.053929046 0.069134891 0.050894737
-0.053473055 -0.16720712 0.073628902
-0.053055048 -0.049400091 0.094431877
-0.061331049 0.14887089 -0.020205975
-0.062315047 0.17822987 -0.067184925
-0.059042051 -0.0068571568 0.089094162
-0.059847057 0.069084883 0.050656796
-0.060121059 -0.23453116 0.037577152
-0.059342057 -0.16703606 0.074738026
-0.058935046 -0.04945612 0.094196796
-0.067706048 -0.30316007 -0.038537979
-0.065210059 -0.16686511 0.075844765
-0.071219057 0.034528911 0.070676804
-0.07170105 0.068882883 0.04944706
-0.073503047 -0.30155611 -0.02998209
-0.070696056 -0.04956913 0.093728065
-0.08065106 0.17673486 -0.079274178
-0.077019051 0.035103917 0.07482481
-0.077641055 0.068726897 0.048450947
-0.079322055 -0.30023015 -0.02287817
-0.076627046 -0.10914207 0.091444016
-0.076579049 -0.049627066 0.093493938
-0.086777046 0.17623389 -0.083310127
-0.082934052 0.034952879 0.07390976
-0.08357206 0.06862092 0.047826767
-0.084236056 0.10382092 0.020626068
-0.083621055 -0.23313212 0.045786858
-0.089376047 0.069213867 0.05227375
-0.091090053 -0.29887009 -0.015440941
-0.088344052 -0.049745083 0.093024731
-0.097514048 0.14720488 -0.032707214
-0.099051058 0.17522889 -0.091394901
-0.094361052 -0.0071941614 0.087680817
-0.094770059 0.034647882 0.072080135
-0.095185056 0.069741905 0.056250095
-0.094527051 -0.1660291 0.081376076
-0.10121305 -0.23209512 0.051928043
-0.10960706 0.14664286 -0.036879063
-0.10617906 -0.0075150728 0.085857868
-0.10661505 0.034338892 0.070250034
-0.10710405 0.069212914 0.052735806
-0.10869806 -0.29684412 -0.004322052
-0.11568205 0.14626187 -0.039761066
-0.11209005 -0.0076761246 0.084948063
-0.11253905 0.034183919 0.069334984
-0.11455505 -0.2961731 -0.00062799454
-0.11292306 -0.2314111 0.056008816
-0.12179506 0.14574289 -0.043745995
-0.11846605 0.034027874 0.06841898
-0.11903605 0.068680882 0.049221992
-0.11877406 -0.23107016 0.058046818
-0.13041505 0.17055792 -0.12954807
-0.12439406 0.033870876 0.067504883
-0.12500605 0.068413913 0.04746294
-0.12625006 -0.29483616 0.0067448616
-0.13386105 0.1454289 -0.045897007
-0.12983505 -0.0081660748 0.08221674
-0.13178006 0.10360289 0.020305157
-0.13209106 -0.29417014 0.010425091
-0.12965305 -0.16505814 0.087991714
-0.13782005 0.10318089 0.017306805
-0.13630705 -0.23005617 0.064152718
-0.13529605 -0.10874915 0.095462799
-0.14294106 0.06760788 0.042183876
-0.14138106 -0.16491115 0.08921814
-0.14132406 -0.050317049 0.090914726
-0.14957206 -0.29218614 0.021429062
-0.14725006 -0.16487515 0.089622021
-0.15352105 -0.0088291168 0.078573704
-0.15409605 0.032959878 0.062116146
-0.15491505 0.067065895 0.038661957
-0.15539606 -0.29156816 0.024878025
-0.15312105 -0.1648401 0.090024948
-0.15288906 -0.10864806 0.096665859
-0.15310705 -0.050453067 0.090446949
-0.15944706 -0.0089970827 0.077663898
-0.16006605 0.032678902 0.060368061
-0.16121705 -0.29097307 0.02821207
-0.15899006 -0.16480708 0.090425014
-0.15875305 -0.10861611 0.097066879
-0.16537505 -0.0091661215 0.076753139
-0.16485906 -0.16477406 0.090826035
-0.17670105 0.14250088 -0.067892075
-0.17130505 -0.0093351603 0.075843811
-0.17201807 0.03211391 0.05686903
-0.17290007 0.06624788 0.03337574
-0.17294104 -0.29028511 0.032259941
-0.17072804 -0.16474211 0.091227055
-0.17890106 0.065972865 0.031611919
-0.18026005 0.10020292 -0.003742218
-0.17659606 -0.16471207 0.091629028
-0.17641006 -0.10882115 0.096478939
-0.18917306 0.1410929 -0.078701019
-0.18317305 -0.0096760988 0.074023724
-0.18467005 -0.28967607 0.03591013
-0.18320404 -0.22871006 0.073219776
-0.18257307 -0.050807118 0.089280128
-0.19243805 0.099342883 -0.0097770691
-0.19053005 -0.28937411 0.03772974
-0.18849204 -0.050969124 0.088477135
-0.19504707 -0.010021091 0.072200775
-0.19407906 -0.10905313 0.095778942
-0.20098706 -0.010194063 0.071289062
-0.20006706 -0.16459715 0.093232155
-0.20795806 0.030400872 0.046358109
-0.20906304 0.064278901 0.020539761
-0.20809405 -0.28847611 0.043183804
-0.20594107 -0.16459513 0.093494892
-0.20586304 -0.10921109 0.095315933
-0.21287505 -0.010544062 0.06946516
-0.21396007 0.030112863 0.044604778
-0.21514104 0.063830912 0.017549992
-0.21250905 -0.22808814 0.07784605
-0.21220304 -0.051690102 0.084852695
-0.21996506 0.029823899 0.042851925
-0.21978904 -0.28788316 0.046812057
-0.21836604 -0.2279681 0.078767776
-0.21764906 -0.10937214 0.094851017
-0.22476904 -0.010896087 0.067639828
-0.22924004 0.096356869 -0.030815125
-0.22422205 -0.2278471 0.079690933
-0.22354405 -0.10945415 0.094617844
-0.22407006 -0.052056074 0.083039761
-0.23198704 0.029242873 0.039341927
-0.23147304 -0.2872951 0.050433159
-0.22944306 -0.1095531 0.094295025
-0.24173306 0.094870865 -0.041487217
-0.23731305 -0.28700316 0.052242756
-0.23593207 -0.22761011 0.081534863
-0.23534806 -0.1096611 0.093913078
-0.23594604 -0.0524261 0.081225872
-0.24268804 -0.011621118 0.063640118
-0.24314906 -0.28671205 0.054050922
-0.24178405 -0.22749317 0.082455158
-0.25004703 0.028363883 0.034070015
-0.25173503 0.061119914 -0.00043582916
-0.25462908 -0.3802731 -0.059606075
-0.24898206 -0.28642309 0.05585289
-0.24763606 -0.22737706 0.083376884
-0.24783005 -0.052798152 0.079411983
-0.25348604 -0.22726214 0.08429575
-0.25306505 -0.10999215 0.092765808
-0.26210606 0.02777487 0.030552864
-0.26398104 0.060207903 -0.0064501762
-0.26064205 -0.28584814 0.059460163
-0.25973105 -0.053199053 0.077439785
-0.26815903 0.027426898 0.0284338
-0.26468003 -0.16465116 0.095937729
-0.26568907 -0.05341208 0.076375961
-0.27271706 -0.013152122 0.054925919
-0.27945703 0.09037292 -0.073681831
-0.27708906 -0.37426615 -0.028502941
-0.27229005 -0.28527808 0.063059807
-0.27103305 -0.22692311 0.087052822
-0.27055508 -0.16466212 0.096180916
-0.27164805 -0.053627133 0.075313091
-0.27873904 -0.013477087 0.053071976
-0.28239202 0.058831871 -0.015485287
-0.27811104 -0.28499508 0.064856052
-0.27761006 -0.053842068 0.074249744
-0.28476804 -0.013813138 0.051150799
-0.28854007 0.058370888 -0.018503189
-0.28824705 -0.37129307 -0.013081074
-0.28393805 -0.2847451 0.066483974
-0.28273904 -0.22675109 0.088623047
-0.29080307 -0.014151096 0.049229145
-0.29479605 0.057659864 -0.023326874
-0.28980303 -0.28463113 0.067404747
-0.28862208 -0.22676516 0.088868141
-0.30609107 0.084314883 -0.11814213
-0.29980707 -0.36995113 -0.005751133
-0.29450303 -0.22678113 0.089108944
-0.29444903 -0.11079407 0.090090752
-0.29551303 -0.05449307 0.07105875
-0.31288505 0.082597911 -0.13077116
-0.30003303 -0.16505015 0.095551014
-0.30148405 -0.054712057 0.069994926
-0.30738705 -0.28429413 0.070168018
-0.30628908 -0.11105013 0.089211941
-0.31718206 0.0235219 0.0038619041
-0.31705403 -0.3677851 0.0060429573
-0.31324703 -0.2841841 0.07108593
-0.31343508 -0.055152059 0.067865849
-0.32103205 -0.015850067 0.039609909
-0.32334703 0.023008883 0.00064611435
-0.32637608 0.05369091 -0.050345898
-0.32277107 -0.36699307 0.010331154
-0.31944007 -0.055437088 0.066393852
-0.32496506 -0.28396809 0.072924137
-0.32391608 -0.22687006 0.090323925
-0.33315104 -0.016536117 0.035756111
-0.33082104 -0.28386116 0.073841095
-0.32979804 -0.22689116 0.090568066
-0.32961005 -0.16568112 0.093646049
-0.33151007 -0.056147099 0.06257391
-0.34187406 0.021464884 -0.0090150833
-0.33568108 -0.22691309 0.090809822
-0.34806508 0.020947874 -0.012239933
-0.35202408 0.050058901 -0.075167179
-0.34249407 -0.28353107 0.076303005
-0.34208107 -0.11245215 0.082867146
-0.34831303 -0.28332412 0.077758789
-0.36062908 0.019537866 -0.021294117
-0.35333306 -0.22698414 0.091536999
-0.35994506 -0.28291512 0.080667973
-0.37970906 0.042552888 -0.12792015
-0.36507004 -0.22695315 0.092477798
-0.36514503 -0.1664691 0.091359138
-0.36781907 -0.058300138 0.051093102
-0.37425506 -0.36096108 0.043701172
-0.37092406 -0.22689211 0.09320116
-0.37107307 -0.16660416 0.090976715
-0.37388605 -0.058662057 0.04917717
-0.38230604 -0.020448089 0.012787819
-0.37677503 -0.22683311 0.093924046
-0.37796104 -0.11388612 0.076518059
-0.38580203 -0.36013114 0.048632145
-0.38293105 -0.16687512 0.090214729
-0.39469707 -0.021534085 0.0063867569
-0.38899505 -0.28191006 0.087925911
-0.40090406 -0.02207911 0.0031819344
-0.40193307 -0.11486006 0.072281837
-0.41333503 -0.02317214 -0.0032362938
-0.40867603 -0.35798407 0.060974121
-0.40655404 -0.16716409 0.090219021
-0.40793306 -0.11510611 0.071220875
-0.42596006 0.0085479021 -0.093594074
-0.41433007 -0.35730708 0.064767838
-0.41393006 -0.11534512 0.070211887
-0.41646206 -0.06122613 0.035739899
-0.42579204 -0.024270058 -0.0096650124
-0.41835707 -0.16728413 0.090389729
-0.42256105 -0.061596155 0.033816814
-0.42395204 -0.28112912 0.094575882
-0.42429805 -0.16743314 0.089972973
-0.42587006 -0.1156801 0.069065094
-0.43254709 -0.45165515 -0.019731998
-0.43126208 -0.35528708 0.076120853
-0.42951006 -0.22657406 0.099149704
-0.43540609 -0.22664106 0.099236012
-0.44248909 -0.44612515 0.0071840286
-0.44255805 -0.35404706 0.083187103
-0.44392806 -0.11648011 0.065587044
-0.45791507 -0.028684139 -0.036727905
-0.44710904 -0.28032815 0.10057878
-0.44720107 -0.22677612 0.09940815
-0.44812208 -0.16814208 0.087701797
-0.46438706 -0.029602051 -0.0423522
-0.45399308 -0.35321307 0.088255882
-0.45309508 -0.22683811 0.099536896
-0.4708221 -0.030431151 -0.047384262
-0.45864505 -0.27986014 0.10396194
-0.46587408 -0.065192103 0.014112949
-0.46407509 -0.4402951 0.036468029
-0.46541309 -0.35238409 0.093318939
-0.46441007 -0.27962816 0.10565186
-0.46600807 -0.16868412 0.085997105
-0.46810907 -0.11769009 0.060165882
-0.47205907 -0.065660119 0.011610985
-0.46941406 -0.4387691 0.044122696
-0.48365408 -0.031970143 -0.056642056
-0.47056109 -0.22653413 0.10261917
-0.47824907 -0.066129088 0.0091071129
-0.49041808 -0.033342123 -0.065265179
-0.47638208 -0.22643507 0.10364485
-0.48169404 -0.27893806 0.11071873
-0.49064708 -0.067070127 0.0040969849
-0.50437707 -0.036778092 -0.087080002
-0.48801905 -0.22624016 0.10570002
-0.48976105 -0.16916907 0.085167885
-0.51139104 -0.038504124 -0.09803915
-0.49320507 -0.27848315 0.11409378
-0.49895906 -0.27825809 0.11577988
-0.50448006 -0.11953211 0.052027702
-0.50928408 -0.068491101 -0.0034298897
-0.50470906 -0.27803314 0.11746693
-0.50742608 -0.16921616 0.086416721
-0.51051205 -0.11976409 0.051140785
-0.51128304 -0.22585917 0.10980892
-0.51682806 -0.48906207 0.047068119
-0.51920205 -0.16925108 0.087253094
-0.52849305 -0.070846081 -0.016858101
-0.51844209 -0.42874408 0.09576273
-0.52392709 -0.42783415 0.10056686
-0.52755409 -0.27685213 0.1257329
-0.52872306 -0.22558308 0.11289072
-0.53098005 -0.16929007 0.088090897
-0.53443009 -0.12027407 0.050179005
-0.54130608 -0.072354078 -0.025382996
-0.53328204 -0.27661014 0.12753201
-0.53453308 -0.22549307 0.11391783
-0.54756606 -0.072837114 -0.027915955
-0.53788304 -0.48283613 0.07746315
-0.53487909 -0.42602015 0.11015606
-0.53862107 -0.34562111 0.13350487
-0.53901106 -0.27637506 0.12930393
-0.54639608 -0.12053406 0.04969883
-0.54428107 -0.34523606 0.13595486
-0.54473805 -0.27614009 0.13107777
-0.54864508 -0.16935408 0.0893507
-0.56010109 -0.07380712 -0.032981873
-0.54840004 -0.47988117 0.09196806
-0.55396408 -0.47915411 0.095820904
-0.55760705 -0.22483015 0.11973286
-0.55962509 -0.47866917 0.098577976
-0.57894808 -0.07527113 -0.04059124
-0.57235104 -0.16971517 0.089519978
-0.58524108 -0.075760126 -0.04312706
-0.5679521 -0.42147911 0.13479805
-0.58802706 -0.5689131 -0.0098462105
-0.58276808 -0.12207615 0.043791771
-0.59170908 -0.076523066 -0.047397137
-0.57658708 -0.47722709 0.10682487
-0.58408904 -0.16968715 0.09083271
-0.59840506 -0.077634096 -0.053874969
-0.57926905 -0.42070913 0.13955307
-0.58381009 -0.34258008 0.15306997
-0.58476806 -0.27452517 0.14347506
-0.58653808 -0.2242521 0.12574196
-0.60511404 -0.078748107 -0.060363293
-0.5849911 -0.4204731 0.14124203
-0.58944505 -0.34220612 0.155509
-0.59582508 -0.16966212 0.092147827
-0.60286605 -0.56194413 0.022215843
-0.59618604 -0.27407205 0.14701414
-0.6069271 -0.12288606 0.041272163
-0.61857206 -0.080982089 -0.073369026
-0.59915406 -0.47532511 0.11778879
-0.59642905 -0.42000413 0.14461708
-0.60189307 -0.27384806 0.14878273
-0.61268908 -0.55734313 0.043411732
-0.62532306 -0.082104087 -0.079889297
-0.60478908 -0.47485411 0.12052393
-0.61342806 -0.16963112 0.094126701
-0.61888206 -0.12307513 0.041347027
-0.63206309 -0.083193064 -0.086196899
-0.61041808 -0.47438407 0.12325382
-0.61929506 -0.16962206 0.094788074
-0.61604309 -0.47391605 0.12598515
-0.61789405 -0.34097707 0.16459179
-0.61899906 -0.27318013 0.15408611
-0.62516207 -0.16961312 0.095449924
-0.64490807 -0.084370136 -0.092422962
-0.61928505 -0.41908109 0.15135813
-0.62367004 -0.34091008 0.16553593
-0.63970906 -0.55182815 0.070456028
-0.64280206 -0.12346113 0.041512012
-0.63522106 -0.34077907 0.16742611
-0.63608706 -0.27252007 0.15938902
-0.64276308 -0.16959405 0.097437859
-0.64878404 -0.12355912 0.041555882
-0.63851309 -0.47206008 0.13687611
-0.65062106 -0.54997611 0.079764843
-0.6547671 -0.12365806 0.041602135
-0.64211309 -0.41817713 0.15808392
-0.65009105 -0.22305715 0.13898277
-0.65449506 -0.16958416 0.098766804
-0.65606707 -0.54905415 0.084412098
-0.65586305 -0.22295308 0.14018774
-0.65831506 -0.34053016 0.17120409
-0.66163307 -0.22285116 0.14139414
-0.66114306 -0.47065616 0.14579201
-0.65921509 -0.41751313 0.16311789
-0.66408706 -0.34047008 0.1721468
-0.66529709 -0.27275407 0.16136694
-0.66754204 -0.22297812 0.14135075
-0.67237008 -0.54630411 0.098301888
-0.67870909 -0.12406015 0.041797161
-0.66491205 -0.41729414 0.16479397
-0.67114806 -0.27281809 0.16168594
-0.67796004 -0.1695751 0.1014328
-0.68469608 -0.12416315 0.041846752
-0.67060709 -0.41707611 0.16647005
-0.67702204 -0.27292013 0.16181374
-0.67942506 -0.22333515 0.14072275
-0.68320709 -0.54448509 0.10752583
-0.69068509 -0.12426615 0.041898727
-0.67630106 -0.41685915 0.1681447
-0.68969309 -0.1695751 0.10276985
-0.68874705 -0.54383814 0.11100292
-0.69667608 -0.12436914 0.041952133
-0.69131708 -0.22369611 0.14009571
-0.70266604 -0.12447417 0.042006016
-0.69327509 -0.34076715 0.17399693
-0.70175004 -0.17006707 0.10130787
-0.69538808 -0.46930814 0.15587902
-0.69912004 -0.3408401 0.17431593
-0.70782208 -0.17037213 0.10024595
-0.71465009 -0.12468505 0.042117119
-0.71389806 -0.17067909 0.099182129
-0.70679009 -0.46886909 0.15923405
-0.70516407 -0.41654706 0.17297697
-0.71260107 -0.27405512 0.15995979
-0.71511906 -0.22442913 0.13884401
-0.72717905 -0.12565112 0.037709713
-0.71248806 -0.46865106 0.16091013
-0.71853709 -0.27424705 0.15965176
-0.72115809 -0.22474313 0.13783503
-0.73367006 -0.12643909 0.033679962
-0.71670908 -0.41644013 0.17486477
-0.72250807 -0.34114206 0.1755929
-0.72447407 -0.27444005 0.15934515
-0.74016905 -0.12723017 0.02964592
-0.72453809 -0.46942306 0.15881586
-0.73041308 -0.27463508 0.15903711
-0.73325205 -0.2253871 0.13574314
-0.74667805 -0.12802112 0.025606155
-0.73122704 -0.47100616 0.1523571
-0.72825307 -0.41633713 0.17675114
-0.73635507 -0.2748301 0.15873098
-0.75095308 -0.17330015 0.088436127
-0.75972307 -0.12961113 0.01751709
-0.73979807 -0.41623807 0.17863703
-0.74590605 -0.34145916 0.17687273
-0.74824208 -0.27522409 0.15811682
-0.76625907 -0.13040817 0.013464928
-0.75138509 -0.47578716 0.13287973
-0.75748104 -0.22668612 0.1315589
-0.76341707 -0.17429006 0.084233761
-0.75813305 -0.47739005 0.12635899
-0.75760806 -0.34162414 0.17751312
-0.76608706 -0.27582109 0.15719891
-0.76961505 -0.22734213 0.12946796
-0.77590406 -0.1752851 0.080028057
-0.7859211 -0.13280916 0.0012869835
-0.76622009 -0.42166507 0.15615082
-0.77568507 -0.22767115 0.12842274
-0.77799106 -0.27622414 0.15658903
-0.78841007 -0.17628312 0.075820923
-0.77967709 -0.42468309 0.14352417
-0.78394705 -0.27642715 0.15628386
-0.78858709 -0.34469712 0.16605997
-0.78990507 -0.27663112 0.15597916
-0.81331307 -0.13737214 -0.023026943
-0.79537809 -0.3462081 0.15936279
-0.82068807 -0.13914406 -0.032882214
-0.80218506 -0.34772205 0.15265274
-0.80182505 -0.2770431 0.1553688
-0.80608904 -0.22933316 0.12319613
-0.81348509 -0.17829609 0.067392826
-0.81217909 -0.22966814 0.12215185
-0.83550507 -0.14270616 -0.052670956
-0.81462705 -0.27870905 0.14824581
-0.82605308 -0.17930913 0.063176155
-0.84294808 -0.14449608 -0.062607288
-0.82161307 -0.28035605 0.14045382
-0.83047009 -0.23068011 0.11901712
-0.83612007 -0.28434408 0.1212821
-0.83699405 -0.23158514 0.11489916
-0.84340709 -0.2863481 0.11165285
-0.85821807 -0.18267906 0.047944069
-0.86785704 -0.24134517 0.065145016
-0.88287908 -0.19125307 0.0014619827
-0.89724505 -0.20160508 -0.056808949
