# .PCD v0.7 - Point Cloud Data file format
VERSION 0.7
FIELDS x y z
SIZE 4 4 4
TYPE F F F
COUNT 1 1 1
WIDTH 1
HEIGHT 1024
VIEWPOINT 0 0 0 1 0 0 0
POINTS 1024
DATA ascii
1.0959549 0.056081772 -0.55414152
1.09267 -0.031358182 -0.53031254
1.0863899 -0.072797179 -0.53104258
1.0859299 -0.030892193 -0.52768278
1.0758499 0.057201803 -0.54744291
1.0793979 -0.16634822 -0.57368755
1.0745549 -0.11351418 -0.53786373
1.0728589 -0.071764231 -0.52531958
1.069163 0.057570815 -0.54523277
1.059032 -0.029039204 -0.51717091
1.055805 0.0583058 -0.54081583
1.0470719 0.023615777 -0.5229516
1.047375 -0.11120617 -0.52525473
1.0456209 -0.028119206 -0.5119319
1.0403929 0.024022818 -0.52053452
1.044969 -0.16296816 -0.55552769
1.0405989 -0.11063325 -0.52211285
1.0358089 0.059402764 -0.53419971
1.0483719 -0.22151423 -0.63092947
1.0291549 0.059766769 -0.53199768
1.0255549 -0.026749194 -0.50409079
1.0203929 0.025239766 -0.5132966
1.024416 -0.16096222 -0.54469681
1.0203179 -0.10892224 -0.51270962
1.0342759 -0.21979523 -0.62166882
1.0281949 0.14316678 -0.62454176
1.0149219 0.14366877 -0.6214819
0.98934489 0.061929822 -0.51881266
0.99333388 0.10102278 -0.55107164
0.98558593 -0.065173209 -0.48842382
0.99922091 -0.2155422 -0.59867048
0.9827289 0.062286794 -0.51661873
0.97996891 -0.10555923 -0.49413872
0.97611892 0.062643766 -0.51442766
1.002757 0.1654368 -0.73295259
0.96997488 -0.15569019 -0.51604748
0.9783169 -0.21301925 -0.58498049
0.95631891 0.063707769 -0.50786066
0.9685899 0.14540577 -0.61076689
0.96443188 -0.2113502 -0.57589579
0.9505899 -0.20969021 -0.56684589
0.93656892 0.064763784 -0.50130463
0.93132287 0.026918769 -0.51060152
0.92959088 -0.024098217 -0.49562788
0.92664188 0.062090814 -0.52493382
0.93561792 0.14662778 -0.60311174
0.9202019 -0.10094726 -0.46885061
0.91948891 -0.01961422 -0.46263552
0.91461092 0.031573772 -0.47497368
0.9135949 -0.10044122 -0.46605778
0.91414487 -0.21155226 -0.58301544
0.89462692 -0.019559205 -0.46503162
0.89066792 0.067196786 -0.48605871
0.89040989 -0.10258818 -0.48371983
0.88985592 -0.062307179 -0.47869968
0.88434291 0.030648768 -0.48581362
0.87866491 0.03001982 -0.49150753
0.87413788 0.064802766 -0.50797558
0.85901088 0.031165779 -0.48437786
0.86110789 -0.15207922 -0.50417089
0.86342788 0.14926082 -0.58625555
0.84468889 -0.099599242 -0.46766472
0.83940488 0.03230381 -0.47726154
0.8466019 0.10337681 -0.54690647
0.85028189 -0.21040416 -0.58251572
0.8163209 -0.07715416 -0.31326151
0.82894588 0.066559792 -0.49795055
0.80933291 0.002684772 -0.30485964
0.83315492 0.14788878 -0.60227776
0.80010587 -0.032947183 -0.2740736
0.80123591 0.0053657889 -0.28529167
0.79706591 0.054261804 -0.30472851
0.82059592 0.10440379 -0.54046965
0.82805091 0.14657378 -0.61516476
0.82293189 0.14525378 -0.62809086
0.78536391 -0.11276019 -0.24835491
0.78585988 0.0097668171 -0.25336361
0.7770139 -0.064017236 -0.22513962
0.81264192 0.14259881 -0.65407467
0.76944089 -0.22193623 -0.2721858
0.76488191 -0.1534152 -0.22484159
0.76187891 0.09607482 -0.2567935
0.75607592 -0.05956322 -0.19596577
0.75727087 0.016034782 -0.20849657
0.75776291 -0.15156615 -0.21364689
0.75855488 0.13391179 -0.28591681
0.7498529 -0.021264195 -0.19385672
0.75122088 0.13548082 -0.27275753
0.7408849 0.099863768 -0.22697783
0.73616791 -0.10127521 -0.17612982
0.73691589 0.019484818 -0.18419075
0.73725289 -0.14724422 -0.18782473
0.73412889 0.10085481 -0.21928549
0.72950488 -0.10011315 -0.16896391
0.73019189 0.020586789 -0.17643785
0.73836291 -0.27707517 -0.26536083
0.72290391 -0.099029183 -0.16230774
0.74083889 0.20628881 -0.35937977
0.72314388 -0.016954184 -0.1649437
0.71631593 -0.097948194 -0.15566683
0.71651793 0.14125681 -0.22495365
0.7209549 0.18386179 -0.27467251
0.70317292 -0.051207185 -0.14231157
0.7249909 -0.36176622 -0.3892107
0.6967839 -0.050443232 -0.13752556
0.69772291 -0.14052725 -0.14826488
0.70053393 0.18671179 -0.24968147
0.69040787 -0.094185233 -0.13276052
0.70457292 -0.34456515 -0.29630947
0.68655491 0.073856771 -0.15731955
0.69663388 0.21529979 -0.27488661
0.68654388 -0.20177817 -0.15719652
0.68488491 -0.13873124 -0.13784647
0.68018287 0.074499786 -0.1526885
0.69697392 0.25350481 -0.35057163
0.67513591 0.10809481 -0.16374969
0.68971092 0.25482881 -0.33731747
0.66502392 -0.091067195 -0.11405277
0.68274993 0.25583178 -0.32738686
0.67623991 -0.33553815 -0.24903584
0.65952587 0.028904796 -0.11941767
0.66380489 -0.25973618 -0.17146063
0.66084087 -0.19783616 -0.13540554
0.65488791 0.076904774 -0.13545179
0.65786791 0.14781779 -0.17208385
0.65249091 -0.089708209 -0.10598373
0.65295488 -0.0088052154 -0.11167765
0.64981192 0.11041677 -0.14637566
0.65150291 0.14840782 -0.16739559
0.65106392 -0.25791323 -0.16194582
0.64240891 0.077917814 -0.12831783
0.64049292 -0.007646203 -0.10424471
0.64081091 0.030575812 -0.1082468
0.64193588 0.19274276 -0.1978817
0.63432592 -0.0071592331 -0.10119247
0.63837492 -0.25612926 -0.15263367
0.62791288 -0.043536186 -0.094891548
0.62944287 -0.1939882 -0.11454964
0.6284439 -0.13237822 -0.1017108
0.62645388 0.15028381 -0.15282679
0.62928993 0.19372082 -0.18968058
0.62228489 -0.13182616 -0.098642826
0.6186859 0.1127618 -0.12915564
0.61564988 -0.042593181 -0.089245796
0.61957592 -0.25384426 -0.1408639
0.61613089 -0.13127422 -0.095578671
0.61152691 0.080118775 -0.11301947
0.60785991 0.15150481 -0.14346457
0.60342592 -0.041683197 -0.083798885
0.60366893 -0.0048952103 -0.087068558
0.59709293 -0.084877253 -0.077958584
0.61022687 -0.39118326 -0.2568059
0.59776592 -0.12974226 -0.087126732
0.60351092 -0.38936019 -0.24769163
0.59820592 -0.32089925 -0.17458963
0.58800793 0.11462879 -0.11578846
0.58492792 -0.08397615 -0.072820663
0.58543789 -0.0037311912 -0.079937458
0.58648193 -0.19015622 -0.094495773
0.5819189 0.11494881 -0.11353683
0.58248091 -0.25002122 -0.1214776
0.57493293 0.082270801 -0.098391533
0.57281291 -0.083139181 -0.068079472
0.58114493 0.22515976 -0.18722153
0.57634693 -0.24944925 -0.11860466
0.57343793 0.19706482 -0.16236973
0.56821692 -0.1886692 -0.086754799
0.5672949 0.19738281 -0.15981054
0.5612039 -0.0021942258 -0.070459843
0.56154591 0.035667777 -0.075474739
0.5579769 -0.24774516 -0.11000872
0.56409794 0.31128281 -0.29130459
0.56885189 0.33652377 -0.36289167
0.55889094 -0.38216925 -0.21292162
0.5546779 -0.31578326 -0.14949083
0.55186594 -0.24717915 -0.10714865
0.54683691 0.15457177 -0.12070751
0.54286593 -0.037690222 -0.060123444
0.55039394 0.22662282 -0.17498159
0.55354893 0.2667098 -0.22311449
0.54344094 0.036694765 -0.068895817
0.5485059 -0.31510425 -0.1461668
0.53658992 -0.080656171 -0.053926468
0.54428291 0.22687578 -0.17289972
0.5473699 0.26698482 -0.22064066
0.55144894 0.3120268 -0.28370857
0.5378809 -0.18621516 -0.073896885
0.54951793 0.33782279 -0.34863853
0.52455294 -0.079838157 -0.0492239
0.53207189 0.2273798 -0.1687398
0.52261591 0.15567577 -0.11252975
0.5367409 0.33859682 -0.34020662
0.52779591 -0.37858021 -0.1960206
0.51974291 -0.18475926 -0.0662117
0.51526892 0.11838377 -0.089179516
0.52280992 0.26791382 -0.21246767
0.52159792 -0.37786722 -0.19265366
0.51532292 -0.24382019 -0.090063572
0.51294893 -0.12325323 -0.051251888
0.50653791 -0.078618169 -0.042182446
0.51160991 -0.31106925 -0.12632084
0.50925291 -0.24326515 -0.087227821
0.50320989 0.1189968 -0.084770679
0.50770491 0.2283808 -0.16042948
0.50135791 0.039060771 -0.053592682
0.50165194 -0.1833142 -0.058547497
0.49718794 0.11930281 -0.082568645
0.49536392 0.039394796 -0.051410675
0.49494192 -0.12198317 -0.044189453
0.49117094 0.11960781 -0.080366611
0.48916394 0.0018557906 -0.045560837
0.48523092 -0.24167621 -0.0794487
0.47825193 -0.081031203 -0.059945583
0.47828692 -0.037193179 -0.060573578
0.49291992 0.34031379 -0.32230186
0.50132793 0.37284678 -0.47268867
0.47316492 0.086081803 -0.074156761
0.49475393 0.37335879 -0.46644545
0.46762392 0.085338771 -0.080418587
0.47128394 0.2298618 -0.14799881
0.47738093 0.31445581 -0.26058769
0.48055193 0.34063578 -0.31913185
0.46986294 -0.30980718 -0.12177467
0.46787292 0.26983178 -0.19555569
0.47437292 0.34079677 -0.31754589
0.47857794 -0.48964226 -0.39646769
0.45631891 0.08430481 -0.089315891
0.45806593 0.20204681 -0.12264967
0.45573893 0.036142766 -0.0782547
0.45096293 0.11755282 -0.099752903
0.45901093 0.3149538 -0.2559185
0.44522792 0.11719579 -0.10303688
0.44364893 -0.038546205 -0.071868896
0.44708893 0.2308318 -0.13977671
0.44578892 -0.24730825 -0.11410284
0.44387892 -0.12657726 -0.076395512
0.44968793 0.34143478 -0.31120253
0.44177592 -0.31509519 -0.15227461
0.43454993 0.15468878 -0.12610579
0.43543494 0.19987178 -0.14418364
0.43163392 -0.081644177 -0.066484451
0.43258291 -0.18720424 -0.085873604
0.42873192 0.1544708 -0.12830591
0.43456292 0.31561077 -0.24969149
0.42186993 0.11668879 -0.10841751
0.41981092 -0.037361205 -0.06475687
0.42536092 0.27129078 -0.18243647
0.42845893 0.3157748 -0.24813557
0.43755993 0.37554681 -0.44112873
0.42055693 -0.18623316 -0.080563545
0.41995192 -0.12504315 -0.067745686
0.41350493 -0.07983923 -0.055294514
0.41979393 0.27048081 -0.19116688
0.41384694 -0.12420619 -0.062673569
0.41890693 0.34222281 -0.30327463
0.40640092 0.19844878 -0.15887451
0.41887292 0.37578481 -0.43892288
0.40918493 -0.38220119 -0.22139168
0.40378392 -0.24454224 -0.10013056
0.39921293 0.15437078 -0.13053751
0.39474192 -0.17738926 -0.028141499
0.38812494 -0.072858214 -0.0098247528
0.39574194 0.22616178 -0.18786478
0.39709792 0.2678628 -0.21953869
0.38965994 0.040853798 -0.045714855
0.40642092 0.3759408 -0.43744659
0.39737391 -0.38297915 -0.22600365
0.39403394 -0.31390321 -0.14793968
0.38479292 0.087239802 -0.069147587
0.38250193 0.0068668127 -0.014487743
0.38286394 -0.17647624 -0.023117542
0.37658593 0.0072197914 -0.012172699
0.39397794 0.37609679 -0.43596458
0.38998294 -0.47720516 -0.33862877
0.37182093 0.0911358 -0.038438797
0.37054494 -0.0287292 -0.0066666603
0.37952992 0.2668938 -0.23038673
0.38775691 0.37617379 -0.43521976
0.36463994 -0.028365195 -0.0043568611
0.36518294 0.044624805 -0.018164635
0.37607393 0.3430388 -0.29535484
0.38153994 0.3762508 -0.4344759
0.37882394 -0.48247516 -0.36534691
0.36731592 -0.29994917 -0.072452545
0.35997194 0.091734767 -0.03410387
0.35874093 -0.028001189 -0.0020494461
0.36586794 0.2263158 -0.18757153
0.36981592 0.31226677 -0.29034662
0.36767194 -0.48827326 -0.39467573
0.35279593 -0.11376524 0.0015821457
0.34813991 0.0923298 -0.029774666
0.35077992 0.20478481 -0.10177565
0.35816693 0.31116682 -0.30322886
0.34812492 -0.23189318 -0.029366493
0.34689891 -0.11334217 0.004070282
0.34554493 -0.36248219 -0.12026358
0.33677194 0.1254918 -0.038302898
0.34769791 0.33844578 -0.35117674
0.33626792 -0.23086524 -0.023855686
0.33554292 -0.17287219 -0.0031056404
0.32452491 0.093510807 -0.021130562
0.32392693 0.046810806 -0.0031094551
0.32558092 -0.29611826 -0.052943707
0.32443291 -0.22984219 -0.0183568
0.31993893 0.16279382 -0.059466839
0.32190293 0.23335481 -0.12029266
0.32473591 0.26922882 -0.20798254
0.32148492 -0.35986722 -0.10733747
0.31548491 -0.35921824 -0.10411549
0.31261793 -0.22882521 -0.012867451
0.30727392 0.1268028 -0.028315544
0.30612391 -0.17066026 0.0093312263
0.30314294 0.2066918 -0.085493565
0.30046993 -0.17142117 0.0045514107
0.29805493 0.23418081 -0.11294174
0.30668592 0.33340579 -0.41256285
0.30205092 -0.45913625 -0.25163984
0.29752392 -0.35728216 -0.094480515
0.29490292 -0.17272723 -0.0035228729
0.29348391 0.2738508 -0.16064167
0.28320691 -0.070906222 -0.00046348572
0.28966591 0.31702179 -0.2391715
0.27792493 0.093777776 -0.020371914
0.27961391 -0.35536218 -0.084882736
0.27781993 -0.17477024 -0.01636076
0.27268693 0.1647768 -0.043385506
0.27175492 -0.028250217 -0.0065546036
0.27551392 0.27443278 -0.1550498
0.27200893 0.045231819 -0.016580582
0.27204493 -0.17502022 -0.018028736
0.26598492 -0.028460205 -0.00816679
0.26599291 -0.11492121 -0.0084996223
0.26044592 -0.17524123 -0.019643784
0.25580391 0.20832181 -0.071471691
0.25943193 0.31777877 -0.23135376
0.25586393 -0.29962718 -0.074137688
0.25462893 -0.17522717 -0.019695759
0.25436291 -0.11480021 -0.007999897
0.24948591 0.12431079 -0.050656796
0.25017092 0.20720577 -0.0820508
0.24846691 -0.071308196 -0.0039935112
0.24853992 -0.028284192 -0.0073375702
0.25091091 -0.36115026 -0.11598587
0.24877691 -0.17495322 -0.018164635
0.24851993 -0.11453319 -0.006421566
0.24270192 -0.028056204 -0.0058765411
0.24461493 0.23592782 -0.097196579
0.24421391 -0.30029416 -0.07804966
0.24342993 -0.23332226 -0.04062748
0.24266693 -0.11416316 -0.0041847229
0.23753092 0.091743767 -0.03760767
0.23683792 -0.02763921 -0.0030846596
0.23692593 0.0084587932 -0.0074505806
0.23087391 -0.069861233 0.0052962303
0.23672393 0.3430438 -0.29936647
0.22617492 0.12390178 -0.05453968
0.22517893 0.0094878078 -0.00021076202
0.22927192 0.31852478 -0.22353268
0.22575492 -0.23170424 -0.031642914
0.22523391 -0.17240322 -0.0032029152
0.22497992 -0.11179018 0.010643482
0.21993992 0.092434764 -0.032403469
0.21958792 0.04595381 -0.012233734
0.21926892 -0.17085516 0.006067276
0.21835692 -0.10432315 0.058280468
0.21618691 0.27430177 -0.15765476
0.21038592 0.27347481 -0.1663847
0.20693493 0.016912818 0.053331375
0.21242893 0.3433308 -0.29637861
0.20221391 0.094480813 -0.016290665
0.20456092 0.27270782 -0.17448568
0.20190293 -0.28506517 0.0047163963
0.20139892 -0.21944118 0.038697243
0.19606891 -0.2845552 0.0074305534
0.19559492 -0.21896124 0.041383266
0.19124892 0.1622768 -0.06692791
0.18948492 -0.060377181 0.067883492
0.19224992 0.23129278 -0.1433897
0.19402392 -0.46415126 -0.27888775
0.19182892 -0.36004317 -0.11120367
0.18945092 -0.10234916 0.07046032
0.18375993 -0.017545223 0.066449165
0.18632892 0.23125982 -0.14378786
0.18381692 0.018121779 0.0617733
0.18398492 0.053989768 0.048042297
0.18813092 -0.46662426 -0.29127979
0.18499193 -0.34539819 -0.034338474
0.18400092 -0.21800518 0.046746254
0.18368192 -0.10195816 0.072890282
0.18000093 0.20453382 -0.10822868
0.17799291 -0.017211199 0.068707466
0.18100193 0.2706328 -0.19645882
0.17820391 0.054278791 0.050160408
0.18149891 0.31710577 -0.24029875
0.18224992 -0.46966124 -0.30647755
0.17805293 -0.16128421 0.063419342
0.17279193 0.13259679 0.017342091
0.17445591 0.23150277 -0.14155483
0.17242593 0.054566801 0.052275181
0.16698892 0.13284081 0.019318104
0.16652092 0.019018769 0.068092346
0.16996892 0.3438198 -0.29108667
0.16651893 -0.16046023 0.068286419
0.16071692 -0.016216218 0.075473309
0.16087392 -0.21610916 0.057442188
0.16065492 -0.10040319 0.082589149
0.15539192 0.13332582 0.023267269
0.15718292 0.26985878 -0.20476866
0.15511392 0.055425823 0.058614254
0.15499991 -0.15964127 0.07314539
0.14924791 -0.15923321 0.075574398
0.14916691 -0.099657178 0.08727026
0.14397392 0.1700058 0.00054931641
0.14417392 0.21269077 -0.032179832
0.14437592 0.23932481 -0.065354824
0.14405392 -0.34118223 -0.01255846
0.14342992 -0.099300265 0.089515209
0.13771692 -0.057267189 0.088148117
0.13996792 0.33957881 -0.34184456
0.13880393 -0.43204021 -0.11943579
0.13216192 0.1027658 0.049417496
0.13198392 -0.056926191 0.090391159
0.13285992 0.27890182 -0.11049747
0.13208492 0.056558788 0.067049503
0.13240592 -0.33999324 -0.0063724518
0.13206892 -0.2137692 0.070750237
0.12646392 0.13452482 0.033123493
0.12625591 -0.056587219 0.092633247
0.12628992 0.021082819 0.082797527
0.12059392 0.0571208 0.071261406
0.12163292 0.30959678 -0.32563353
0.12066992 -0.27805316 0.042461395
0.12058192 -0.21284318 0.076055527
0.12052292 -0.097882152 0.098478317
0.11497692 -0.33822227 0.0028772354
0.11490292 -0.27756321 0.045136452
0.10913292 0.1038298 0.057880402
0.10338292 0.10409379 0.059992313
0.10338292 0.24064279 -0.052594662
0.10338292 0.057957768 0.077570438
0.097191922 0.3305338 -0.44969988
0.097659923 -0.21105826 0.086332321
0.091812924 -0.33588517 0.015155315
0.091977924 -0.096133232 0.10964918
0.085736923 0.28032279 -0.095711708
0.084713921 0.32743579 -0.48659468
0.085769922 -0.42477524 -0.083319664
0.086225919 -0.21022415 0.091160297
0.08628092 -0.095787168 0.11187935
0.080487922 0.059061766 0.08596611
0.080400921 -0.27465117 0.061133385
0.073590919 0.32222182 -0.1828227
0.068865925 0.13687181 0.05277729
0.067134917 0.34494179 -0.2779398
0.063247919 0.10592079 0.074752331
0.062963918 0.17316282 0.028298378
0.062249921 0.28099477 -0.088587761
0.063212916 -0.27321422 0.069094181
0.063528925 -0.094409227 0.12078428
0.057387922 0.1373328 0.05670023
0.05765092 0.060153782 0.094342232
0.05506292 0.3450678 -0.27636385
0.051811922 0.10643578 0.078961372
0.05211892 -0.010108232 0.11801815
0.04902792 0.3451308 -0.27557373
0.051775921 -0.27226317 0.074390411
0.04647392 -0.051933229 0.12387514
0.04299492 0.34519279 -0.27478361
0.04490792 -0.41926324 -0.055628777
0.045737922 -0.33129323 0.039525509
0.039596923 0.21613681 0.00026941299
0.039280921 0.24265981 -0.03258276
0.03909792 -0.41848516 -0.051701546
0.04000292 -0.33072627 0.042555332
0.03381592 0.21632379 0.0020685196
0.031994924 0.32316482 -0.17184782
0.030933924 0.34531581 -0.2731967
0.034975924 -0.20653224 0.11279345
0.03517592 -0.092710257 0.13188314
0.028747924 0.13847381 0.066493511
0.028448924 0.17447579 0.040145397
0.029300921 -0.20612824 0.11518717
0.023030922 0.13869977 0.068448544
0.022708923 0.17469281 0.042116165
0.023771919 -0.0085552335 0.12912846
0.023664922 0.026201785 0.12036514
0.022824921 -0.32903719 0.051618099
0.023264922 -0.26991022 0.087581158
0.01759392 0.10796279 0.091556549
0.018161923 -0.050317228 0.13496542
0.016063921 0.24337578 -0.025317669
0.017997921 0.026477814 0.12244225
0.012849919 0.3454988 -0.27080488
0.015922919 -0.41539824 -0.036059856
0.018208921 -0.091703176 0.13852549
0.012459919 -0.0079402328 0.13356352
0.012333922 0.026753783 0.12451839
0.010145918 -0.4146322 -0.032165527
0.012303919 -0.2049222 0.12235832
0.012455918 -0.14978719 0.13323021
0.0068099201 -0.0076352358 0.13577747
0.00080192089 0.34561878 -0.26920366
0.001161918 -0.14902925 0.13798809
-0.0065630823 0.21760881 0.014653206
-0.0071050823 0.24408382 -0.018058777
-0.0079710782 0.28267479 -0.070252895
-0.011665076 0.17597878 0.053930283
-0.012319081 0.21779078 0.016450405
-0.010288082 0.02784878 0.13281345
-0.015387081 0.32421577 -0.15929461
-0.017263077 0.34579778 -0.26678991
-0.012897082 -0.41159225 -0.016659737
-0.016901076 0.14026278 0.082122326
-0.017382078 0.17619079 0.055896282
-0.018072076 0.2179718 0.018246174
-0.01867108 0.24443382 -0.014431477
-0.023281075 0.34585577 -0.26598167
-0.022170074 0.10971081 0.10620117
-0.022594072 0.1404838 0.084073544
-0.023824073 0.21815181 0.020043373
-0.024451084 0.24460781 -0.012618542
-0.021377079 -0.14752722 0.14747715
-0.028283082 0.1407038 0.086022377
-0.027018078 -0.0058181882 0.14903831
-0.027778082 -0.26576018 0.11116648
-0.033499084 0.11020279 0.11037445
-0.033968084 0.14092278 0.08797121
-0.034102075 -0.32351315 0.081589222
-0.043800078 -0.046843231 0.15924025
-0.047268085 -0.40710318 0.0063972473
-0.051006086 0.14157677 0.093815327
-0.052533083 0.2190448 0.029017448
-0.050061084 0.065165818 0.13391209
-0.049717076 -0.20059121 0.1485095
-0.055368073 0.029998779 0.1493535
-0.055695079 0.065420806 0.13598347
-0.055331074 -0.20020425 0.15087748
-0.055068083 -0.14530623 0.16165733
-0.063995086 0.21939778 0.032604218
-0.060988076 0.030263782 0.1514163
-0.061326079 0.065676808 0.13805532
-0.068515085 0.32529581 -0.14594555
-0.060942076 -0.19981825 0.1532402
-0.068014078 0.14222479 0.09965229
-0.066223077 -0.045608222 0.16802931
-0.067235075 -0.26260817 0.12936926
-0.076328076 0.24615282 0.0036830902
-0.083727084 0.3454228 -0.26976967
-0.072857074 -0.26216221 0.13196135
-0.083637081 0.28441882 -0.050352573
-0.090259083 0.34392577 -0.28744268
-0.077752076 -0.19866824 0.16032314
-0.084353082 0.11221582 0.12777233
-0.08300408 -0.044691205 0.17460537
-0.083434083 0.031315804 0.15965939
-0.087121077 -0.40223515 0.031680107
-0.083347075 -0.19828725 0.16268253
-0.090649076 0.14307982 0.10742617
-0.095240079 0.28468078 -0.04728651
-0.09805008 0.32557678 -0.1419487
-0.090557076 -0.31828022 0.11052227
-0.088939078 -0.19790721 0.16503716
-0.094172083 -0.044085205 0.17898226
-0.094199084 -0.14276624 0.17811918
-0.10065307 0.067440808 0.15252733
-0.10687508 0.11309278 0.13548851
-0.10759308 0.14371377 0.11325026
-0.10843208 0.17949677 0.087265491
-0.10742908 -0.31689525 0.11832428
-0.10569208 -0.1967752 0.17209435
-0.10521508 -0.08458221 0.18686438
-0.11543908 0.22095978 0.048732281
-0.11090108 -0.043182194 0.18553925
-0.11141808 0.032613814 0.16993952
-0.11304408 -0.31643617 0.12092018
-0.11091407 -0.14169323 0.18514824
-0.11865608 -0.31597924 0.12351322
-0.11635008 -0.083958149 0.19122648
-0.12451007 0.14434081 0.11906815
-0.12684107 0.22130078 0.052314281
-0.12259007 0.033127785 0.17404747
-0.12934807 0.11395878 0.14319324
-0.13248107 -0.39771521 0.055671215
-0.12747309 -0.083338261 0.19558334
-0.13495907 0.11417282 0.14511728
-0.13941607 0.24798179 0.023570538
-0.13423407 0.068923771 0.16489315
-0.13354006 -0.19490921 0.18381929
-0.14056608 0.1143868 0.14704132
-0.14801607 0.18089181 0.10093212
-0.14540109 0.069411814 0.1690073
-0.15656307 0.24846882 0.028989315
-0.16097808 0.22230977 0.06305027
-0.16227308 0.24862981 0.03079319
-0.16090009 -0.040523231 0.20514011
-0.16798007 0.2487908 0.032598495
-0.16948706 0.1459868 0.13455439
-0.16714507 0.035149813 0.1904335
-0.16629207 -0.081196189 0.21079636
-0.17620206 0.18186879 0.11067533
-0.17326707 0.070618808 0.17927837
-0.18368208 0.2229718 0.070203304
-0.18508708 0.2492708 0.038011551
-0.19237506 0.32642478 -0.12889957
-0.18011507 -0.31103718 0.15188217
-0.18630606 0.1465928 0.14035034
-0.18745407 0.1822558 0.11456728
-0.18935108 0.22313577 0.07199049
-0.18323907 0.0020868182 0.20922613
-0.19078308 0.24942881 0.039815426
-0.18296206 -0.1371572 0.21542931
-0.18934807 0.036141813 0.19860554
-0.18994707 0.071333766 0.18542814
-0.19960108 -0.038505197 0.22031546
-0.21591306 0.3266238 -0.1255765
-0.20555007 -0.39060223 0.09416151
-0.20511606 -0.038220227 0.22247934
-0.20536208 0.0031048059 0.21735716
-0.21354306 0.25005877 0.047027111
-0.20789206 -0.30884624 0.16468239
-0.20494908 -0.079101205 0.22594833
-0.21553606 0.18321079 0.12429047
-0.21214506 0.072276771 0.19361734
-0.21203107 -0.2514652 0.19594955
-0.21897507 -0.30797923 0.1697855
-0.21601108 -0.13512325 0.22931147
-0.21596408 -0.078510165 0.23026609
-0.22204307 -0.18912923 0.22105932
-0.23460907 0.22442877 0.0862813
-0.22743607 0.0041097999 0.22547436
-0.24025407 0.2245878 0.088066101
-0.24525407 0.28791481 -0.0073375702
-0.23360708 0.038088799 0.21490622
-0.23901507 -0.38741422 0.11172533
-0.24217907 0.14857179 0.1596365
-0.23814008 -0.03653121 0.23543119
-0.25153708 0.22490478 0.091636181
-0.24363306 -0.036253214 0.23758411
-0.24661607 -0.30583417 0.18250513
-0.24345708 -0.13345826 0.24083233
-0.25211406 0.11852682 0.1854043
-0.25717607 0.22506177 0.093421459
-0.24912408 -0.035975218 0.23974037
-0.25015506 0.038805783 0.22100544
-0.25087509 0.073897779 0.20791435
-0.26031706 0.18470782 0.13981152
-0.25496206 0.0053488016 0.23560333
-0.25500008 -0.18703425 0.2349143
-0.27348608 -0.50527823 -0.095724583
-0.26590207 0.18489277 0.14174938
-0.26153606 -0.24781024 0.21863222
-0.27148306 0.18507582 0.14368534
-0.27591509 0.25174582 0.066837311
-0.27965808 0.2886188 0.0019083023
-0.28642607 0.32719082 -0.11546087
-0.27706206 0.18525881 0.1456213
-0.29229507 0.32723582 -0.11460686
-0.27785608 -0.38377118 0.13205719
-0.28532708 0.22584081 0.10234022
-0.29111007 0.28884882 0.0049934387
-0.27966207 -0.30330515 0.19769239
-0.28316808 0.040219784 0.23317909
-0.28395507 0.075258791 0.2201333
-0.28344107 -0.24621916 0.22865629
-0.28783408 -0.1849792 0.24871349
-0.29641607 0.12010777 0.20068741
-0.30827007 0.28919178 0.0096211433
-0.29414907 0.040684819 0.2372303
-0.29329509 -0.18464017 0.25100613
-0.29264507 -0.13052523 0.26147413
-0.30194306 0.1203028 0.20259523
-0.30331507 0.15067482 0.18078423
-0.30491906 0.18616581 0.15529633
-0.30547407 -0.38121724 0.14648008
-0.30161807 -0.30164516 0.20777225
-0.32749408 0.32750082 -0.10945749
-0.30528808 -0.24464822 0.23864555
-0.31604108 0.1865238 0.15916109
-0.30930406 -0.032980204 0.26335049
-0.32108107 0.2529338 0.081228256
-0.31060007 0.041377783 0.2433033
-0.30898207 -0.12956619 0.26832724
-0.32744908 -0.48935819 -0.017238617
-0.31993106 0.15123481 0.18653917
-0.31525907 0.0080037713 0.25781012
-0.31607807 0.041606784 0.24532509
-0.31442007 -0.12924922 0.27060747
-0.31453106 -0.073363185 0.26891518
-0.33278206 -0.48780322 -0.0095396042
-0.32546306 0.15142077 0.18845749
-0.32241508 0.076812804 0.23435354
-0.32351306 -0.30000615 0.21781731
-0.31985608 -0.12893224 0.27288723
-0.31997806 -0.073086202 0.27105236
-0.32953107 0.12126577 0.21212721
-0.32565308 -0.032181203 0.26976538
-0.34253606 0.28986579 0.018890381
-0.35094008 0.32767081 -0.1059947
-0.32898006 -0.29959917 0.22032547
-0.32599106 -0.18263018 0.26473808
-0.32542208 -0.072809219 0.27318716
-0.34144008 0.22735977 0.12016439
-0.33847407 -0.37820518 0.16367817
-0.33444107 -0.29919422 0.22282743
-0.33086306 -0.072534204 0.27532053
-0.34054708 0.12164682 0.21593618
-0.34204808 0.15197277 0.19420624
-0.34380108 0.1874088 0.16881418
-0.33653608 -0.031653225 0.27403736
-0.33710006 0.0089458227 0.26586246
-0.35394007 0.29008681 0.021979332
-0.33885607 0.077467799 0.24043322
-0.33686206 -0.18196917 0.26930428
-0.34255308 0.0091788173 0.26787233
-0.36851308 0.32779479 -0.10337973
-0.34944007 -0.37721419 0.16938353
-0.35309106 0.15233779 0.1980381
-0.34740809 -0.031129181 0.27830315
-0.34800509 0.0094118118 0.26988316
-0.37437108 0.3278358 -0.10250568
-0.35080507 -0.29798615 0.23032618
-0.35345206 0.0096437931 0.2718935
-0.38022608 0.32787579 -0.10162973
-0.35826808 -0.030608177 0.28256512
-0.35802007 -0.071170211 0.28597546
-0.37149507 0.18827981 0.17845535
-0.38241708 0.29063278 0.029716492
-0.36525008 0.043634772 0.26348734
-0.36620006 0.078544796 0.25055313
-0.38081908 -0.47560418 0.05147934
-0.36977708 0.01033479 0.27791643
-0.38292506 0.25451279 0.10098934
-0.37048408 -0.24005222 0.26840734
-0.38633406 -0.47492015 0.055120468
-0.37902507 0.12295878 0.22925425
-0.38615608 0.22853577 0.13440847
-0.37521508 0.010563791 0.27992344
-0.40363905 0.32803482 -0.098110676
-0.39173508 0.22868079 0.13618755
-0.38257408 0.079182804 0.25661516
-0.39734909 -0.47356021 0.062384129
-0.3997421 0.25493181 0.10637331
-0.40516308 0.29106081 0.03591013
-0.38563007 -0.1790452 0.28977156
-0.38483307 -0.12521219 0.30012321
-0.39150706 0.011244774 0.28593636
-0.40534207 0.25507081 0.10816813
-0.40834108 -0.47220826 0.069625378
-0.40095505 0.12369478 0.23685455
-0.39618608 -0.028811216 0.29744911
-0.39693406 0.011470795 0.28794146
-0.41094109 0.25520879 0.10996246
-0.39892307 0.079813778 0.26267147
-0.40947208 -0.37187517 0.2005372
-0.40512308 -0.29404426 0.25517941
-0.40289506 -0.23782015 0.28317451
-0.41572008 0.18956882 0.19322348
-0.41959307 0.22939581 0.14508343
-0.43873206 0.32826281 -0.092786789
-0.41053608 -0.29365718 0.25765228
-0.41912904 0.15447682 0.22097826
-0.41239205 -0.028054178 0.30381155
-0.43355206 0.2915858 0.043660164
-0.41211608 -0.068509221 0.30720043
-0.43331006 0.25575781 0.11713743
-0.42831007 0.12459981 0.24634218
-0.42402205 0.012587786 0.29794645
-0.42611608 0.080851793 0.27274609
-0.42443505 -0.23635721 0.29297924
-0.43377408 0.12477881 0.24823952
-0.42943206 0.0128088 0.2999444
-0.44448105 0.25602877 0.12072611
-0.43215409 -0.29212117 0.2675271
-0.42981109 -0.23599422 0.29542542
-0.44666007 -0.46754718 0.094781399
-0.44106105 0.15516979 0.22861147
-0.43396106 -0.027056217 0.31228018
-0.43697408 0.081261814 0.27677155
-0.44201508 -0.36904323 0.21736813
-0.43518409 -0.23563218 0.29786825
-0.44653705 0.1553418 0.23051739
-0.44239905 0.081465781 0.27878332
-0.47379306 0.32848078 -0.087405682
-0.45434305 0.19059581 0.20551348
-0.44671306 0.046880782 0.29361916
-0.47963509 0.32851577 -0.086503506
-0.44833305 -0.2909832 0.2749114
-0.44489309 -0.17558825 0.31462431
-0.45985207 0.19074076 0.20726728
-0.46679607 0.2565648 0.12789822
-0.45212206 0.047091782 0.2956233
-0.46535805 0.19088477 0.20902348
-0.46363404 -0.36718619 0.22852755
-0.47086206 0.19102877 0.21077728
-0.4751381 0.2307868 0.16286516
-0.48452905 0.29250479 0.057632446
-0.46014908 -0.12119126 0.33080816
-0.47636309 0.19117177 0.21253347
-0.48067906 0.23092282 0.16464233
-0.4694871 0.082474768 0.28882933
-0.48473409 -0.46299517 0.11965227
-0.48186406 0.1913138 0.21428823
-0.47261605 0.014550805 0.31591034
-0.47171006 -0.17405915 0.32586432
-0.47129408 -0.065684199 0.33042812
-0.47623608 -0.1203922 0.33711815
-0.49026307 0.1566928 0.24575424
-0.49729308 0.23132879 0.16997433
-0.50713807 0.29290181 0.06385231
-0.49571809 0.1568588 0.24765635
-0.50282609 0.23146278 0.17175245
-0.48876604 0.01519078 0.32188654
-0.48991504 0.048543811 0.30962229
-0.49132904 -0.28800118 0.29451323
-0.48882106 -0.23224616 0.32130146
-0.48694608 -0.11986423 0.34132147
-0.5063861 -0.46044016 0.13374043
-0.50384212 0.19187778 0.22130728
-0.50835812 0.23159677 0.17352915
-0.53326911 0.32778078 -0.089995861
-0.50132412 -0.36399424 0.24793816
-0.51178813 -0.45980716 0.13724852
-0.50669312 -0.36354423 0.25070047
-0.49845305 -0.17255521 0.33706951
-0.51206809 0.15735382 0.25336123
-0.5224331 0.25786078 0.14572334
-0.52971709 0.29329181 0.070076466
-0.50607413 0.049155772 0.31561136
-0.51205909 -0.36309624 0.2534585
-0.50379312 -0.17225718 0.3393054
-0.5175131 0.15751779 0.25526333
-0.51145512 0.049357772 0.31760645
-0.55551809 0.32355678 -0.13585281
-0.52086109 0.12755781 0.27852345
-0.56300008 0.32213777 -0.15123653
-0.5234701 0.084439814 0.30886936
-0.53383511 0.15800482 0.26096344
-0.5367431 0.19270778 0.2318325
-0.52885407 0.084632814 0.31086731
-0.52512407 -0.17107725 0.34823847
-0.53927112 0.15816677 0.26286125
-0.5422191 0.19284379 0.23358631
-0.53172612 0.016864777 0.33779049
-0.55789912 0.29376978 0.077868462
-0.53014112 -0.062965214 0.35353327
-0.54946309 -0.45543516 0.16164732
-0.56353009 0.29386377 0.079426289
-0.53832412 0.050358772 0.32757139
-0.54417813 -0.36043715 0.26994228
-0.53945708 -0.28474224 0.31641531
-0.5369131 -0.22943723 0.34146929
-0.5501371 0.15848678 0.26665926
-0.55316609 0.19311577 0.23709536
-0.5580411 0.23277581 0.18951416
-0.54114908 -0.022269189 0.35438108
-0.5475691 -0.22882521 0.34593725
-0.54641008 -0.16991222 0.35715055
-0.54613513 -0.06224221 0.35981512
-0.55544508 -0.28367817 0.32368135
-0.55289209 -0.22852015 0.34816933
-0.56418008 0.12888682 0.29362535
-0.56956911 0.1935178 0.24235535
-0.56076711 -0.28332615 0.32609844
-0.57183808 0.15912181 0.27424955
-0.56384212 0.018089771 0.34969234
-0.57084709 -0.35826325 0.28359842
-0.56234509 -0.16905022 0.36381817
-0.56210411 -0.061526179 0.36608744
-0.58157808 -0.45177019 0.18234634
-0.56778008 -0.021124184 0.36484528
-0.5714041 -0.2826252 0.33092928
-0.57273912 -0.061053216 0.3702631
-0.58809108 0.15959078 0.27993631
-0.5780521 -0.060818195 0.37235117
-0.61413211 0.29469377 0.093476295
-0.59212011 -0.35655022 0.29447317
-0.58286607 -0.11527824 0.37897015
-0.59657508 0.12985778 0.30493736
-0.58903909 -0.0202232 0.37319756
-0.59054112 0.019088805 0.35959148
-0.59009111 -0.22643423 0.36366844
-0.6082201 -0.44877326 0.19945049
-0.60432512 0.1600548 0.28562117
-0.5986281 0.087073803 0.33680725
-0.59419411 -0.16743422 0.37665844
-0.59400308 -0.060155213 0.37837029
-0.61853307 0.23415977 0.20904016
-0.6225431 0.25960481 0.17329311
-0.60397911 0.087256789 0.33879709
-0.60804009 -0.35528326 0.30258846
-0.61884612 -0.44758821 0.20625448
-0.61274111 0.13033479 0.31058741
-0.61513507 0.16036081 0.28940821
-0.60792512 0.052846789 0.35318518
-0.61340111 -0.35497224 0.30474854
-0.61048508 -0.019640207 0.37951946
-0.6147151 0.087570786 0.34240055
-0.61167312 -0.22588921 0.36909628
-0.61017311 -0.059833229 0.38225937
-0.61873412 0.05305481 0.35593748
-0.62426108 -0.3546102 0.30779934
-0.61715508 -0.22589624 0.36968136
-0.62893611 0.13075382 0.31581831
-0.64044112 0.19520777 0.26515055
-0.62843609 0.019691765 0.36812115
-0.65899712 0.29540181 0.10599232
-0.62669009 -0.059999228 0.38310051
-0.63988709 0.13085479 0.31790829
-0.64589512 0.1953178 0.26676035
-0.64102811 -0.3549192 0.30819845
-0.65329909 0.16101581 0.29934835
-0.65692508 0.19541579 0.26893616
-0.66686308 0.26033378 0.18559313
-0.64786309 0.087395787 0.34493446
-0.66250312 0.19540179 0.26948214
-0.66789412 0.2352038 0.22460938
-0.66810209 -0.44529319 0.22287512
-0.6671561 -0.022125185 0.36953735
-0.6891731 0.2605288 0.19021845
-0.6667431 -0.11787319 0.37290049
-0.6853981 0.19480377 0.26698112
-0.6731711 -0.022784233 0.36585236
-0.68034208 0.016639769 0.35294342
-0.70070308 0.26030982 0.18948221
-0.68278313 0.085317791 0.33335209
-0.69151509 0.12889081 0.30833244
-0.71503508 0.2961688 0.1208353
-0.6902191 -0.28755426 0.31866121
-0.69190311 -0.025532186 0.34972525
-0.71120512 -0.45186818 0.19693422
-0.7092281 0.19338882 0.25742912
-0.7038151 -0.2914052 0.29998016
-0.69985509 -0.069455206 0.33110714
-0.7153371 0.19290876 0.25395727
-0.71988612 0.23386681 0.21845341
-0.70832008 -0.073094189 0.30873346
-0.73073411 0.25881279 0.17854214
-0.73880512 0.29541981 0.11597252
-0.71422809 0.044694781 0.3065052
-0.72190613 -0.36910319 0.24698019
-0.71998912 -0.24768615 0.26184654
-0.72786409 0.1916948 0.24481726
-0.72659808 -0.13850617 0.25456333
-0.73318511 -0.041514218 0.24757338
-0.75168711 0.29432082 0.10607815
-0.74968809 0.25722378 0.16535425
-0.75829309 0.29366082 0.099993229
-0.73911208 0.072878778 0.24568319
-0.7449711 -0.20078623 0.20118237
-0.76493812 0.29297978 0.093702316
-0.74875611 0.031673789 0.21578932
-0.75471407 -0.26496315 0.17084026
-0.76189011 -0.47011721 0.11669922
-0.75873411 0.22965777 0.18379641
-0.77170712 0.29221779 0.086573124
-0.76527208 -0.39256525 0.13480043
-0.7656371 0.22864282 0.17513227
-0.7740981 -0.39730918 0.11213827
-0.77315909 -0.32724822 0.11913013
-0.77239013 -0.27370119 0.12485647
-0.77147508 -0.21333826 0.13166809
-0.77054411 -0.15844727 0.1385994
-0.77298808 0.10962582 0.16329145
-0.7710011 0.18351281 0.17799139
-0.78299111 -0.40209019 0.089308262
-0.78802812 -0.48443615 0.052051544
-0.78095412 0.14100081 0.14708424
-0.7799511 0.22624981 0.15445709
-0.78526509 -0.019086182 0.11540651
-0.7842741 0.018298805 0.1226902
-0.79098707 -0.33633423 0.073363304
-0.78939611 -0.22176325 0.08505249
-0.78989512 0.13811576 0.12398148
-0.79925209 -0.28686118 0.055671215
-0.79760611 -0.17065525 0.067686558
-0.79652011 -0.11105025 0.075614452
-0.79890108 0.1352098 0.10070944
-0.81037211 0.047295809 0.059999466
-0.81494713 -0.11897123 0.027028084
-0.81804508 0.094479799 0.046996117
-0.82301509 -0.078414202 0.011408329
-0.82646412 -0.29999924 -0.013292789
-0.82488811 -0.1826762 -0.0020036697
-0.82619911 0.12646478 0.030751228
-0.83089107 -0.036752224 -0.0026388168
-0.82274908 0.24505681 0.055300236
-0.83230913 0.28200579 -0.012726784
-0.8298021 0.001377821 0.005115509
-0.83399308 -0.18659925 -0.024706841
-0.84122711 -0.085520148 -0.033886909
-0.83191609 0.24255979 0.03194809
-0.83787411 0.037605822 -0.010181904
-0.84341908 0.16147578 -0.0075125694
-0.84925312 -0.043634236 -0.048504829
-0.85053313 0.27751577 -0.057498455
-0.84822112 -0.0053082108 -0.041251659
-0.85588712 -0.4407742 -0.095116615
-0.8531701 -0.25094616 -0.076024532
-0.85128009 -0.13366616 -0.062746525
-0.8512941 0.20661879 -0.021131516
-0.85848308 -0.047061205 -0.071329594
-0.85638309 0.031178772 -0.056661606
-0.86154109 -0.1983552 -0.09267664
-0.8620311 0.15588981 -0.054438591
-0.86774808 -0.05048418 -0.094109535
-0.86676711 -0.011957228 -0.087302685
-0.88300908 -0.38237226 -0.1579628
-0.88213611 -0.32646024 -0.15194082
-0.87905508 -0.14480221 -0.13069153
-0.8820321 0.10887378 -0.10970879
-0.88959908 -0.21028221 -0.16158056
-0.89694512 -0.10695624 -0.17028284
-0.90115309 -0.33544517 -0.19895363
-0.90008414 -0.27195215 -0.19167089
-0.90965116 -0.27622521 -0.21517849
-0.92128313 0.060750782 -0.21113062
-0.91911507 0.13894081 -0.19662952
-0.92665315 -0.16389215 -0.24706268
-0.93099105 0.05762279 -0.23501778
-0.9299891 0.093983769 -0.22835255
-0.92881107 0.1360898 -0.22051668
-0.93763316 -0.23066521 -0.2791996
-0.94409609 -0.078607202 -0.28105783
-0.94617212 -0.17172623 -0.29478359
