# .PCD v0.7 - Point Cloud Data file format
VERSION 0.7
FIELDS x y z
SIZE 4 4 4
TYPE F F F
COUNT 1 1 1
WIDTH 1
HEIGHT 1024
VIEWPOINT 0 0 0 1 0 0 0
POINTS 1024
DATA ascii
1.1209705 -0.087908745 -0.53107262
1.1204934 -0.0054177642 -0.52750063
1.1126044 -0.045488834 -0.51639652
1.1074684 -0.086941838 -0.52606678
1.1014833 0.042207241 -0.57873964
1.0949104 0.042423189 -0.57784843
1.0858744 -0.043833733 -0.50778961
1.0678585 -0.084923744 -0.51698542
1.0658834 -0.042603731 -0.5013485
1.0604155 -0.08360374 -0.50864553
1.0407994 -0.0011227727 -0.50495338
1.0365494 -0.13273776 -0.5224328
1.0265644 -0.080750823 -0.49277067
1.0256574 -0.039723814 -0.48527861
1.0272864 -9.1791153e-05 -0.49873543
1.0205405 0.00042319298 -0.49563074
1.0138004 0.00093621016 -0.49252558
1.0160165 0.045220196 -0.56502676
1.0054123 -0.038043797 -0.47543144
1.0003444 0.0019592047 -0.48632765
0.98836142 0.047726214 -0.54803276
0.97898144 -0.076186776 -0.46633959
0.98147142 0.048350215 -0.54378843
0.97815144 -0.13055277 -0.51465082
0.97087741 -0.12924683 -0.50670862
0.9582544 -0.033945799 -0.45094967
0.96059942 0.050500214 -0.52880669
0.95640844 -0.12668574 -0.49114656
0.94947845 -0.12579083 -0.48590851
0.94657242 0.0062752366 -0.45958471
0.9467234 0.051943183 -0.51870155
0.93147242 -0.031626761 -0.43698645
0.92479545 -0.031049788 -0.43350554
0.9263714 0.053648233 -0.50716639
0.91839343 -0.070408821 -0.43251657
0.91986245 0.0084081888 -0.44625664
0.91151345 -0.069514751 -0.42698479
0.90420145 -0.028519809 -0.41724253
0.90631241 0.0097692013 -0.43733263
0.8972494 -0.066990733 -0.41078281
0.89214242 0.011971235 -0.42206144
0.88305444 -0.064480782 -0.39465952
0.88508141 0.013067186 -0.41445065
0.87726343 0.059965193 -0.46138239
0.87101042 0.015250206 -0.39927864
0.86402541 -0.11044681 -0.39200068
0.86399645 0.016337216 -0.39171553
0.85682243 -0.10890079 -0.38236046
0.85545045 0.063882232 -0.43201065
0.84831041 0.065065205 -0.42318439
0.83423942 -0.05630374 -0.34220839
0.83451241 -0.017650783 -0.34503937
0.8360154 0.093553185 -0.49220753
0.82047343 -0.054056764 -0.3277874
0.81361443 -0.052939773 -0.32060337
0.81548142 0.02368623 -0.34054756
0.80708343 -0.013420761 -0.31681967
0.81076545 -0.15003479 -0.35650253
0.80585843 0.072084188 -0.3707056
0.79884845 0.073241234 -0.36203766
0.79390442 -0.09686482 -0.30770874
0.79312444 -0.04960382 -0.29914045
0.79661244 -0.14686775 -0.33746576
0.78703541 -0.095604777 -0.29989481
0.78136539 0.0287292 -0.30535364
0.78254241 -0.14372277 -0.31854343
0.77277142 -0.046297789 -0.27782059
0.77458644 0.029729187 -0.29835939
0.77553743 -0.14215875 -0.30912447
0.77550644 0.10767722 -0.37922955
0.76782042 0.030726194 -0.29138041
0.75971943 -0.090602756 -0.26881838
0.76107043 0.031721234 -0.28441668
0.76157039 0.10989219 -0.36186457
0.7543354 0.032712221 -0.27746773
0.76338941 -0.21600175 -0.38308573
0.7477144 -0.13595474 -0.27171946
0.73940241 -0.086890817 -0.24570656
0.7409054 0.034687221 -0.2636137
0.73421341 0.035670221 -0.25670862
0.73392445 0.14745623 -0.40342855
0.71284944 -0.082576752 -0.21902943
0.71315044 0.0006172061 -0.22277737
0.71431142 0.038453221 -0.23720551
0.71824342 -0.19941378 -0.28607082
0.7139554 -0.1294508 -0.2327795
0.70636642 -0.081737757 -0.21393538
0.70384741 0.0870502 -0.25906658
0.71236044 0.15175623 -0.36723471
0.69988942 -0.035559773 -0.20877457
0.69980043 0.1195972 -0.28557062
0.69450045 -0.12682283 -0.21746254
0.68853343 0.041142225 -0.21882772
0.68673944 0.12096721 -0.2750988
0.6910224 0.15600818 -0.33140469
0.68419445 0.15705919 -0.32265949
0.67422342 -0.03260076 -0.19005156
0.6869694 -0.26900184 -0.3595705
0.67801142 -0.19138181 -0.24042749
0.6672284 0.1230092 -0.25944471
0.67094344 0.15860522 -0.31002045
0.66144842 -0.031131804 -0.18073368
0.66290444 0.043805242 -0.20055342
0.66228342 -0.12248778 -0.19210768
0.65869641 0.091592193 -0.22598553
0.65845543 -0.18821681 -0.22266054
0.65228242 0.092235208 -0.22128582
0.64912438 0.0075502396 -0.17722273
0.65195847 -0.18716681 -0.21675968
0.64588046 0.092876196 -0.21659374
0.66149944 0.19397819 -0.43718672
0.64277339 0.0082342029 -0.17270136
0.63601041 -0.028216779 -0.16217661
0.64396346 -0.25399578 -0.27590656
0.6349194 0.12638122 -0.23350954
0.62954938 -0.072181821 -0.15573883
0.62377346 0.010276198 -0.15917683
0.63066244 -0.25112474 -0.26022768
0.6239624 -0.11736083 -0.1619544
0.62403345 -0.24969578 -0.25241566
0.61897445 0.16378719 -0.2679925
0.61060041 -0.069921732 -0.14191866
0.60932642 0.12892222 -0.21395254
0.60430342 -0.06917274 -0.13732672
0.60577738 0.049701214 -0.15980864
0.6068244 -0.17990279 -0.17577648
0.60132539 0.097320199 -0.18392277
0.59813243 -0.023897767 -0.13454342
0.60424745 -0.24543881 -0.22910976
0.59861541 -0.11398673 -0.14201641
0.59499645 0.097949207 -0.1792798
0.5918504 -0.023183763 -0.12996054
0.59318143 0.050993204 -0.15082169
0.59768242 -0.24402881 -0.22138357
0.59026843 0.13074523 -0.19992065
0.57975143 0.01498419 -0.12782955
0.57129538 0.13255423 -0.18594456
0.56681943 -0.020347774 -0.11169958
0.57158142 -0.23843777 -0.19068766
0.5685904 -0.17378581 -0.14107561
0.56498742 0.13315421 -0.18129778
0.57249939 0.20839423 -0.30774355
0.56047642 -0.063978791 -0.10536051
0.56225646 -0.17277479 -0.13532877
0.55722141 0.10169023 -0.15155983
0.55869043 0.13375324 -0.17665958
0.56130338 0.16949922 -0.22129774
0.55425143 -0.063243747 -0.1008215
0.55947441 0.20987022 -0.29466343
0.54803538 -0.062510729 -0.096287727
0.54857445 0.018298209 -0.10562372
0.54612446 0.13494623 -0.16739845
0.54193044 -0.017539799 -0.093540668
0.54574239 -0.23298085 -0.16067171
0.54649842 0.21133822 -0.28163338
0.55239844 0.2319662 -0.38717556
0.53593642 -0.1057018 -0.09272337
0.53221846 0.10415423 -0.13320446
0.52953839 -0.016145766 -0.08450079
0.52599043 0.1047672 -0.12863159
0.52734041 0.13672519 -0.15355682
0.52378845 0.020920217 -0.087964535
0.52678943 -0.22980678 -0.14338255
0.52646142 -0.31078374 -0.2496047
0.51828039 -0.16589284 -0.096078396
0.51741946 -0.10354376 -0.079917431
0.51356143 0.10598719 -0.1195035
0.51161242 0.021788239 -0.082305431
0.51428044 0.21497619 -0.24926281
0.50444943 0.17508823 -0.17520475
0.49962643 -0.16307974 -0.079996586
0.49883041 -0.10095179 -0.064290524
0.49270943 -0.012388766 -0.060198784
0.49947843 -0.30079985 -0.19617367
0.49526042 -0.22399282 -0.1114397
0.49281341 -0.10059178 -0.062286377
0.48871443 0.10864824 -0.099416733
0.49027342 0.13961524 -0.13129044
0.48670343 -0.012073815 -0.058292389
0.48916641 -0.22345674 -0.10864639
0.48582742 0.1765632 -0.16314268
0.48063242 -0.055795789 -0.055001736
0.48312941 -0.22311878 -0.10698557
0.48153943 -0.16192377 -0.07388258
0.48078743 -0.099865794 -0.058226585
0.47765541 0.14137924 -0.11714458
0.47463542 -0.055467844 -0.053100586
0.48545641 0.24300921 -0.2825675
0.47560242 0.062044203 -0.073606491
0.46870643 -0.011132777 -0.052581787
0.47904941 0.24370521 -0.27605963
0.47390443 -0.29487979 -0.16490173
0.47101843 -0.22224879 -0.10253668
0.46877941 -0.099144816 -0.054174423
0.46703342 0.17863619 -0.14577436
0.46305442 0.025443196 -0.058148384
0.45258942 0.11013621 -0.089149475
0.45074341 -0.010200799 -0.046883583
0.45107841 0.026011229 -0.054552555
0.45561141 -0.29354274 -0.15838337
0.45079741 -0.098070741 -0.048109531
0.44748342 0.14257121 -0.10853672
0.45091641 0.22174823 -0.1887784
0.44684741 -0.22052574 -0.0936656
0.44483441 0.22192919 -0.18734074
0.43873143 -0.053521752 -0.041711807
0.43961442 0.063685238 -0.06278038
0.43281743 -0.0092768073 -0.041196823
0.44082943 0.24792522 -0.23644257
0.43285242 -0.097005844 -0.042057514
0.42942142 0.14327723 -0.10337877
0.43470642 0.24810022 -0.23498058
0.42764643 0.06422621 -0.059178829
0.43122444 -0.2915138 -0.14826536
0.42876443 -0.21924782 -0.087035656
0.42258042 0.1113562 -0.080610752
0.42088342 -0.0086658001 -0.037408829
0.42858842 0.24827522 -0.2335186
0.42120442 0.027418196 -0.045579433
0.42166841 0.064495206 -0.057379723
0.42274642 -0.21882474 -0.084830761
0.42090741 -0.096301794 -0.038031578
0.41524041 0.027697206 -0.043788433
0.41569343 0.064763188 -0.055580616
0.41673243 -0.21840179 -0.082625389
0.41060242 0.11183923 -0.077199459
0.40928042 0.027975202 -0.041997433
0.40840241 0.22300422 -0.17870569
0.40301341 -0.007755816 -0.031739712
0.40691742 -0.28950977 -0.13820171
0.39701343 -0.05129683 -0.028478622
0.39706242 -0.0074548125 -0.029851437
0.39736941 0.028529227 -0.038416386
0.39779043 0.065563202 -0.050189495
0.39339143 0.1446712 -0.093079567
0.39628041 0.22335821 -0.1758256
0.40220344 0.28304321 -0.34542656
0.39479142 -0.28851676 -0.13318777
0.39111841 -0.094559789 -0.027989388
0.39611742 0.28286821 -0.34747076
0.38873744 -0.28802276 -0.13068581
0.38417143 0.22370923 -0.17294455
0.37651044 0.18177819 -0.12166166
0.37974542 0.24965024 -0.22181654
0.38393542 0.28251719 -0.35153961
0.38192743 -0.37264979 -0.28937244
0.37664044 -0.2870388 -0.12568951
0.37379044 -0.15519881 -0.037462711
0.37329042 -0.09352684 -0.021983624
0.36737043 -0.0059607625 -0.020430565
0.37558544 -0.37117481 -0.28181982
0.3706004 -0.28654981 -0.12319851
0.3687734 -0.21507084 -0.06507349
0.36449543 0.18218523 -0.11845255
0.36140144 -0.04942584 -0.017179489
0.36756444 0.2499882 -0.21889162
0.3717404 0.2821672 -0.35558367
0.36279842 -0.21465981 -0.062889576
0.36189842 -0.15447378 -0.033447742
0.35686141 0.11397624 -0.061873436
0.36563843 0.2819922 -0.3575964
0.35579443 0.030439198 -0.025914669
0.35249341 0.1825912 -0.11524153
0.35539544 0.2503252 -0.21596336
0.35250741 -0.2850908 -0.11573982
0.34649542 0.1827932 -0.1136384
0.34364444 -0.048503757 -0.011546612
0.34427243 0.067919195 -0.034063816
0.34648544 -0.28460681 -0.11325741
0.33957243 0.14671421 -0.077669621
0.33893642 -0.21303082 -0.054171562
0.33451241 0.18319422 -0.11043072
0.33716041 0.25082523 -0.21156836
0.33211243 0.031513214 -0.018788815
0.32712144 0.11513823 -0.053380489
0.32764941 0.14716023 -0.074252605
0.3259204 -0.047589779 -0.005923748
0.32620043 0.03177923 -0.017009735
0.33158541 -0.36102879 -0.22974157
0.32844943 -0.28316677 -0.10583639
0.32118243 0.11536819 -0.051683426
0.32253942 0.18359423 -0.10722351
0.32039443 -0.15197277 -0.019440651
0.31895143 0.2513212 -0.20717478
0.31913841 -0.35818684 -0.21510553
0.30931544 0.11582619 -0.048291683
0.30978841 0.14782423 -0.069130421
0.3082574 -0.0030428171 -0.0016703606
0.31288844 0.25148618 -0.20570946
0.31045443 -0.28173983 -0.098441601
0.30920342 -0.21102178 -0.043321609
0.30857041 -0.15126777 -0.015451431
0.3082214 -0.089822769 -7.7724457e-05
0.30233642 -0.046384811 0.0015602112
0.30284142 0.069706202 -0.021568775
0.29645044 -0.046085835 0.0034284592
0.29647842 -0.0024697781 0.0020675659
0.30071342 -0.35525084 -0.20008659
0.29676241 -0.15056777 -0.011471748
0.29195642 0.14848322 -0.064012527
0.29266343 0.18458122 -0.099208355
0.29103342 0.070209205 -0.018003464
0.29086244 -0.15021884 -0.0094795227
0.2905544 -0.088833809 0.0058655739
0.28468543 -0.045490742 0.0071616173
0.28491142 0.033620238 -0.0045757294
0.28513443 0.0704602 -0.016224384
0.28854442 -0.35400879 -0.1938076
0.28008541 0.14891821 -0.060604572
0.28169543 0.22661018 -0.14842081
0.27902642 0.033880234 -0.002802372
0.27957141 -0.20904481 -0.032524586
0.27907643 -0.14952576 -0.0055084229
0.2729364 -0.044899821 0.01088953
0.27296042 -0.0013347864 0.009531498
0.27656442 0.25246024 -0.19691372
0.27458841 -0.27892673 -0.083733559
0.26969042 0.22694123 -0.14553165
0.26862544 -0.27846384 -0.081292629
0.26730341 -0.14883673 -0.0015406609
0.26369342 0.22710621 -0.14408541
0.26447743 0.25278121 -0.19397974
0.26754043 0.2791962 -0.38901472
0.26157242 0.071454227 -0.0091114044
0.26183942 -0.20787382 -0.026068687
0.26118243 -0.087207794 0.015742302
0.25691143 0.18574524 -0.089601517
0.25533742 -0.044019818 0.016473293
0.25535741 -0.0004928112 0.015118599
0.25531942 -0.08688581 0.017713547
0.25240242 0.2530992 -0.19104576
0.24965042 0.035166204 0.0060534477
0.24981242 0.071947217 -0.0055584908
0.25003842 -0.20709884 -0.021775723
0.24967343 -0.14781082 0.0043992996
0.24571642 0.22759724 -0.13974857
0.24364042 6.4194202e-05 0.018838406
0.24393743 0.072192192 -0.0037837029
0.24380341 -0.14747083 0.0063781738
0.23838043 0.11851621 -0.02797842
0.23863342 0.15042019 -0.048687458
0.23907442 0.18631822 -0.08480072
0.24033743 0.25341624 -0.18811178
0.23792142 0.035675228 0.0095891953
0.23888342 -0.27616775 -0.069132805
0.23407242 -0.34852481 -0.1658206
0.22660242 0.11895424 -0.02460146
0.22607541 -0.042571783 0.025760174
0.22828442 0.25373024 -0.18517447
0.22632843 0.07292223 0.0015354156
0.22035542 0.036432207 0.014887333
0.22022042 -0.085061789 0.028944492
0.21440843 0.0013921857 0.027776241
0.21517041 -0.27435875 -0.059458733
0.21472943 -0.20480478 -0.0089416504
0.20855743 -0.041714787 0.031318188
0.20857142 0.0016512275 0.029536247
0.20874941 0.073646188 0.0068483353
0.20925142 -0.27390981 -0.057047367
0.20854643 -0.084466815 0.032649517
0.20322542 0.15168023 -0.038497448
0.20273842 0.0019091964 0.031294346
0.20333841 -0.27346277 -0.054638386
0.20298943 -0.20404983 -0.0046806335
0.20271543 -0.084170818 0.034499645
0.19789343 0.22888219 -0.1281724
0.19689642 -0.041146815 0.035019398
0.19801041 -0.34496081 -0.14740753
0.19742942 -0.27301681 -0.052233696
0.19712542 -0.20367479 -0.0025515556
0.19144742 0.1520952 -0.035105705
0.19113742 -0.14446282 0.024109364
0.18572243 0.18800622 -0.070407391
0.18525642 0.0026792288 0.036561489
0.18617842 0.25481421 -0.17489052
0.18562242 -0.27212977 -0.047429562
0.17968042 0.15250719 -0.031712532
0.18000142 0.22935623 -0.12382746
0.17942742 -0.040303767 0.04056263
0.17943542 0.0029342175 0.038315296
0.18017443 0.25496721 -0.17342043
0.17947142 -0.14380574 0.028035641
0.17942342 -0.082995772 0.041889191
0.17374742 0.12089121 -0.0094237328
0.17389943 0.18837523 -0.067212582
0.17361242 -0.040023804 0.04240942
0.17361842 0.0031881928 0.040068626
0.17370743 -0.2021848 0.005941391
0.17364442 -0.14347875 0.029996395
0.16782342 0.038659215 0.030744553
0.16208643 0.18874121 -0.064016819
0.16199042 -0.039467812 0.046097279
0.16199242 0.003693223 0.043574333
0.16206342 -0.27037382 -0.037858486
0.15618242 0.18892324 -0.062418461
0.15618242 0.0039452314 0.045326233
0.15618242 0.25557321 -0.1675396
0.15618242 -0.081835747 0.049264431
0.15033442 0.1217342 -0.0026907921
0.15028343 0.1891042 -0.060821533
0.15038042 -0.0389148 0.04978323
0.15037742 0.0041962266 0.047077179
0.15035842 0.076007187 0.024508476
0.14448842 0.12194324 -0.0010085106
0.14428942 0.23028821 -0.11512947
0.14458042 -0.038639784 0.051622391
0.13874742 0.039869189 0.039527416
0.13871743 0.076470196 0.028032303
0.13875341 -0.14154077 0.041730404
0.13260043 0.18964523 -0.05603075
0.13240442 0.23059523 -0.11222744
0.13298942 -0.038092792 0.05530262
0.13223243 0.25617123 -0.16165257
0.13290042 0.076700211 0.029793262
0.13270542 -0.26821077 -0.025958538
0.13286842 -0.19962382 0.020731449
0.12687843 0.15432823 -0.016475677
0.12646642 0.23074722 -0.11077547
0.12718642 0.0051901937 0.054073334
0.12708741 0.076930225 0.031552315
0.12646542 -0.33804679 -0.11114454
0.12704942 -0.19926274 0.022836208
0.12720542 -0.080407739 0.058459282
0.12102643 0.15452719 -0.01478672
0.12133843 0.04058522 0.044789314
0.12127842 0.077158213 0.033311367
0.11459842 0.23105121 -0.10787249
0.11461443 -0.33692181 -0.10517263
0.10966742 0.077614188 0.036827564
0.10961442 -0.19818676 0.029140472
0.10977042 -0.13995481 0.05147028
0.10348642 0.15512019 -0.0097165108
0.10318542 0.19053423 -0.048050404
0.10404243 0.0061722398 0.061059475
0.10235042 0.25690722 -0.15429068
0.10380842 -0.1978308 0.031237602
0.10407943 -0.079281807 0.065799236
0.097646423 0.15531719 -0.0080275536
0.097613424 -0.26566184 -0.011770725
0.090889424 0.23165119 -0.10206366
0.092383422 0.041762233 0.053544521
0.090973422 -0.33469474 -0.093287468
0.085973419 0.15570724 -0.0046525002
0.084969424 0.2318002 -0.10061073
0.086755425 -0.035940766 0.069978237
0.086642422 -0.13870478 0.059238434
0.080372423 0.12419623 0.017464638
0.079701424 0.19123423 -0.041666508
0.08069142 0.078739226 0.045607567
0.080623418 -0.19641674 0.039613247
0.07431142 0.15609521 -0.0012774467
0.073837422 0.19140822 -0.040071487
0.075226419 -0.035411775 0.073639393
0.072532423 0.25763118 -0.14692163
0.075242423 -0.077895761 0.074952602
0.067413419 -0.33249974 -0.081483364
0.068479419 -0.26357782 -2.3365021e-05
0.069331422 -0.13777781 0.065052509
0.06130942 0.23239124 -0.09479475
0.06371142 -0.034885764 0.077296257
0.060622424 0.25791621 -0.14397383
0.061535418 -0.33195484 -0.078544617
0.063273422 -0.19537079 0.045872211
0.063568421 -0.1374718 0.066986561
0.054671422 0.2580592 -0.14249754
0.056854419 -0.2627548 0.0046563148
0.057496421 -0.19502378 0.047956467
0.057978421 -0.077075839 0.080431461
0.051969424 0.043378234 0.065774441
0.049794421 -0.33087277 -0.072682381
0.052049421 -0.13686085 0.070854187
0.043931425 -0.33033383 -0.069757462
0.045242421 -0.26193583 0.009326458
0.045952424 -0.19433379 0.052116394
0.046482421 -0.076532841 0.084080219
0.037687421 0.23297322 -0.088972569
0.040739425 -0.076262832 0.085904598
0.034976423 -0.033587813 0.086418629
0.034484424 0.080500185 0.059615612
0.027763426 0.1575402 0.0115242
0.024915427 0.25859022 -0.13679552
0.026370421 -0.32872975 -0.061015606
0.022380427 0.1261732 0.034212589
0.019995421 0.23340422 -0.084605694
0.023408428 0.009504199 0.085424423
0.020527422 -0.32819974 -0.058111668
0.023528427 -0.075459838 0.091367245
0.016596422 0.12636721 0.035883427
0.016152427 0.15788919 0.014675617
0.01744242 0.044733226 0.076230526
0.01720342 0.081148207 0.064858437
0.014688417 -0.32767081 -0.055211544
0.017154425 -0.19262981 0.062490463
0.017571419 -0.13505483 0.082420349
0.0059564263 0.045178235 0.079710484
-0.0035605729 0.23397219 -0.078775406
0.00047342479 0.01042819 0.092363358
0.00037442148 -0.13416576 0.088187218
-0.0094425827 0.2341122 -0.077317715
-0.0086205751 -0.3255738 -0.043661594
-0.0068145841 -0.25832379 0.030206203
-0.0058235824 -0.1912868 0.070755482
-0.013812572 0.19394124 -0.016160488
-0.015323579 0.23425221 -0.075858593
-0.016667575 0.25929624 -0.12896967
-0.01125358 0.045840204 0.084926605
-0.014435574 -0.32505381 -0.040787697
-0.011559576 -0.1909548 0.072817326
-0.018621579 0.15892321 0.024131298
-0.016698584 0.0111112 0.097560406
-0.016983584 0.046059191 0.086663246
-0.020245582 -0.32453585 -0.037915707
-0.018341571 -0.25753677 0.034817219
-0.016793579 -0.13328576 0.093943596
-0.016527578 -0.073615789 0.10408258
-0.027078584 0.23453122 -0.072942734
-0.028534576 0.25949419 -0.12672281
-0.022713572 0.046277225 0.08839941
-0.023034573 0.082561195 0.07652235
-0.024100572 -0.25714481 0.037119389
-0.022239581 -0.073355794 0.10589647
-0.030193582 0.15926224 0.027283192
-0.031273574 0.19443119 -0.01138258
-0.027983576 -0.030808806 0.1064086
-0.028437585 0.046495199 0.090136528
-0.029854581 -0.25675476 0.039418221
-0.035975575 0.15943122 0.028858185
-0.037651584 -0.32299376 -0.029332638
-0.042901576 0.1947552 -0.0081977844
-0.040191576 -0.18930876 0.083101273
-0.039353579 -0.072582841 0.11132956
-0.05055958 0.23508221 -0.067102432
-0.052605584 0.12864119 0.055924416
-0.050791577 -0.029824793 0.11365032
-0.051697582 0.083544195 0.084796429
-0.051049575 -0.13155377 0.10542154
-0.060325578 0.19523722 -0.0034184456
-0.056485578 -0.029580772 0.11545849
-0.058571577 -0.2548238 0.050875187
-0.057332575 -0.18833482 0.089252472
-0.056443572 -0.071816802 0.11675644
-0.062732577 0.047784209 0.10053921
-0.06314458 0.083932221 0.088103294
-0.066568583 -0.3204608 -0.015119553
-0.064303577 -0.25444174 0.053158283
-0.063038573 -0.18801284 0.091297626
-0.070615575 0.16043222 0.038309574
-0.068136573 -0.13070083 0.11114264
-0.075589582 0.1293782 0.06259346
-0.073765576 0.013336241 0.11482334
-0.078105584 -0.3194598 -0.0094666481
-0.082144573 0.16076022 0.041458607
-0.079246581 -0.0286538 0.12242317
-0.079462573 0.013530195 0.11637545
-0.080297574 0.084509194 0.093062401
-0.07952258 -0.13017881 0.11470222
-0.089315578 0.19602919 0.0045404434
-0.084933579 -0.028440773 0.12405252
-0.093672574 0.26055622 -0.11426449
-0.087199584 -0.25292778 0.062267303
-0.092802584 0.12991023 0.06748724
-0.093661577 0.16108721 0.044608593
-0.090618581 -0.028227806 0.12568045
-0.095375568 -0.31797373 -0.0010256767
-0.092926577 -0.25261283 0.064207554
-0.090902582 -0.12968481 0.11811638
-0.098541588 0.13006818 0.068966389
-0.10549358 0.26074421 -0.11198378
-0.10112259 -0.31748176 0.0017805099
-0.10428059 0.13022423 0.070445538
-0.10265258 0.049146235 0.11186218
-0.10316059 0.085172236 0.09894228
-0.10687357 -0.31701779 0.0044436455
-0.11247057 0.19663519 0.010764599
-0.11730957 0.26093119 -0.10969448
-0.10834858 0.049329221 0.11341763
-0.11574659 0.1305362 0.073401451
-0.11670157 0.16164124 0.05014658
-0.12079257 0.23668718 -0.049554825
-0.11328259 -0.069532752 0.13345528
-0.11973158 0.049693227 0.11652851
-0.12028459 0.085661232 0.10334158
-0.11930758 -0.12846482 0.12663651
-0.12725958 -0.25087476 0.075122356
-0.12569657 -0.18489683 0.11166239
-0.12498257 -0.12822282 0.12833834
-0.13396457 0.16203922 0.054206371
-0.13562158 0.19714719 0.016236305
-0.13832659 0.23701924 -0.045704365
-0.13110757 0.050054193 0.11963749
-0.13065359 -0.12798274 0.13003922
-0.13971359 0.16217119 0.055562496
-0.14140457 0.19727319 0.017603397
-0.14417258 0.2371152 -0.044544697
-0.13739058 0.086144209 0.1077404
-0.13595557 -0.068669796 0.13994932
-0.14437759 0.13130224 0.080787182
-0.14167559 -0.026353776 0.14030647
-0.14198759 -0.12750578 0.13343525
-0.14161757 -0.068455815 0.14157248
-0.14815158 0.050590217 0.12429762
-0.14840558 -0.18383384 0.11881638
-0.16170159 0.23740119 -0.041060448
-0.15447757 0.086622238 0.11213827
-0.15293658 -0.068031788 0.14481354
-0.16451657 0.19777423 0.023077488
-0.16754156 0.2374962 -0.039898396
-0.16149658 -0.2491858 0.085950375
-0.16465658 0.01634419 0.13962746
-0.17921558 0.23768324 -0.03757143
-0.16995758 -0.025341809 0.14840841
-0.17591959 -0.31299984 0.028650284
-0.17560759 -0.025141776 0.15002823
-0.17593357 -0.12609684 0.14360523
-0.18125457 -0.024942815 0.15164518
-0.18118957 -0.066984773 0.15290642
-0.19007859 0.13249624 0.092597485
-0.18784857 0.051817238 0.13515854
-0.18859357 0.08755821 0.12092733
-0.19312558 -0.31206274 0.034460545
-0.19578159 0.13264221 0.094071388
-0.20254758 0.23805219 -0.032911777
-0.19427258 0.087711215 0.12239218
-0.19885457 -0.3117528 0.036391258
-0.19287157 -0.12540483 0.1486783
-0.20148256 0.13278824 0.095547199
-0.20284057 0.16358024 0.070463181
-0.20488858 0.1986292 0.032661438
-0.19994959 0.08786422 0.12385654
-0.20458159 -0.31144381 0.038322449
-0.19935459 -0.18150377 0.13482952
-0.19851357 -0.12517679 0.15036631
-0.19811359 -0.066367745 0.15775251
-0.21420559 0.23823321 -0.030579567
-0.21782759 0.26180023 -0.096402645
-0.20700157 -0.24699783 0.10030842
-0.20415458 -0.12494874 0.15205622
-0.20375156 -0.066163778 0.15936947
-0.21429557 0.16382921 0.07317543
-0.21640757 0.19886822 0.035400391
-0.20988858 0.017776191 0.15199327
-0.21602857 -0.31083179 0.042176247
-0.20938659 -0.065960765 0.16098356
-0.22174758 -0.31052673 0.044099331
-0.22263756 0.088470221 0.12971354
-0.22105756 -0.12427175 0.15711451
-0.23366958 0.19922221 0.039508343
-0.24147457 0.26192623 -0.093825817
-0.23564857 0.13364923 0.10439634
-0.23245358 0.018474221 0.15816641
-0.23397058 0.088769197 0.13264132
-0.23320958 -0.17999876 0.1454463
-0.23190358 -0.065155745 0.16743326
-0.23760259 -0.022997797 0.16778946
-0.23808959 0.01864624 0.15970945
-0.24102458 -0.24540579 0.11101961
-0.25091758 0.19957221 0.043619633
-0.25495559 0.23885322 -0.022395611
-0.24322459 -0.022807777 0.16939926
-0.25030157 -0.30902576 0.053688526
-0.24668658 -0.24514377 0.11279964
-0.24314457 -0.064750791 0.17070723
-0.25666258 0.19968718 0.04499054
-0.24931458 0.019082189 0.16344023
-0.25095257 0.089212239 0.13703156
-0.25234559 -0.24488378 0.1145792
-0.24868357 -0.064350843 0.17361259
-0.25658658 0.089411199 0.13889027
-0.25983956 -0.021674812 0.17800522
-0.26215157 0.089743197 0.14176464
-0.26110858 -0.17810476 0.15811062
-0.27388957 0.20003021 0.049101353
-0.27309957 -0.30784774 0.061322212
-0.26910457 -0.24352574 0.12310219
-0.29464859 0.26218718 -0.087947369
-0.27631357 -0.062366843 0.18809938
-0.28637958 0.13561022 0.12335539
-0.28317058 -0.17611873 0.17103958
-0.30144158 0.23953319 -0.013012409
-0.28882459 0.056057215 0.17205429
-0.28772259 -0.11983275 0.18823147
-0.31236356 0.26226819 -0.085961819
-0.29435259 0.056395233 0.17488718
-0.29673657 -0.24072182 0.1403594
-0.31282759 0.24003619 -0.0075097084
-0.29909357 0.022256196 0.18890429
-0.31826657 0.26229423 -0.085296631
-0.29987559 0.056731224 0.17771864
-0.30224758 -0.24016583 0.1437993
-0.29969758 -0.17471874 0.18026543
-0.29871258 -0.11894977 0.19435263
-0.31054658 0.16723621 0.10779428
-0.30393857 -0.018657804 0.20113564
-0.31182259 -0.3029418 0.089780331
-0.30775458 -0.23961079 0.14723635
-0.31899059 0.20212823 0.070660591
-0.31731957 -0.30222082 0.093968391
-0.30933058 -0.060020804 0.20541525
-0.32458159 0.2024312 0.073732376
-0.33560356 0.26289523 -0.078165531
-0.31642157 0.057736218 0.18619919
-0.31756857 0.093020201 0.17039347
-0.32281059 -0.30150175 0.098150253
-0.31875059 -0.23850584 0.15409756
-0.31618458 -0.17333078 0.18946457
-0.31516558 -0.11763275 0.20351648
-0.32722357 0.16818023 0.11690855
-0.33532459 0.24136722 0.0065941811
-0.32110959 0.023642182 0.20017338
-0.34119058 0.26335222 -0.073280811
-0.32829458 -0.30078578 0.10232735
-0.32063958 -0.11719584 0.20656538
-0.33080658 0.13808924 0.14641619
-0.33832157 0.1688062 0.1229763
-0.34133157 0.20333523 0.082936287
-0.33125758 -0.058477759 0.21691656
-0.34187257 0.1387012 0.15216541
-0.35214359 0.24235719 0.017145634
-0.35790861 0.26471823 -0.058648586
-0.33842558 0.059062183 0.19748163
-0.34391558 0.059392214 0.2002964
-0.35292059 0.13931024 0.15790462
-0.36332858 0.2430132 0.024169445
-0.3506186 0.094945192 0.18748331
-0.36046058 0.17004919 0.13509035
-0.3689146 0.24334019 0.02767849
-0.36107659 -0.29652584 0.12726641
-0.35449958 -0.17013776 0.21083641
-0.36598456 0.17035824 0.13811541
-0.36915755 0.20482624 0.098237514
-0.3800956 0.26652521 -0.039203644
-0.36036456 0.060375214 0.2087326
-0.36160356 0.09558022 0.19316864
-0.3625406 -0.23414874 0.18139458
-0.35857356 -0.056572795 0.23124456
-0.36583859 0.060700238 0.21154118
-0.37701857 0.17097324 0.14415741
-0.36972058 -0.11332178 0.23388624
-0.39120156 0.24464118 0.041687489
-0.37502658 -0.01389581 0.23842525
-0.37491256 -0.05544281 0.23981428
-0.38596857 0.1411162 0.1750803
-0.38223958 0.061673224 0.2199564
-0.38822758 -0.29302883 0.14789534
-0.38173556 -0.16789484 0.22602129
-0.39146155 0.14141423 0.17793751
-0.38899261 0.097153187 0.20734835
-0.38578659 -0.054694772 0.24551964
-0.39695156 0.14171124 0.18079138
-0.40240258 0.2065922 0.11654329
-0.40786457 0.24560922 0.052168369
-0.41315556 0.26920819 -0.010180473
-0.39445758 0.097465217 0.21017742
-0.40452957 0.17249721 0.15923357
-0.39860356 0.06263721 0.22835445
-0.40059859 -0.23041475 0.20508146
-0.39690858 -0.11135185 0.24812651
-0.40791959 0.14230424 0.1864953
-0.4023366 -0.012367785 0.25095654
-0.40357858 -0.16638482 0.23661423
-0.40222758 -0.053869843 0.25221539
-0.40873259 0.028707206 0.24265432
-0.40965259 0.063025236 0.23213959
-0.4115876 -0.22969079 0.21002245
-0.40792859 -0.11089778 0.25183964
-0.4244796 0.20775521 0.12871552
-0.43418455 -0.38815975 0.018891335
-0.42075056 -0.2891928 0.17091131
-0.41343457 -0.11067176 0.25369453
-0.42998755 0.20804423 0.13175249
-0.42204356 0.098542213 0.22075939
-0.4377616 -0.38307381 0.044643402
-0.41893858 -0.11044776 0.25554943
-0.44105357 0.2475242 0.07307148
-0.42625159 0.063533187 0.23730755
-0.42759258 0.098696232 0.22242451
-0.42817557 -0.22888076 0.21595335
-0.42443955 -0.11022377 0.25740337
-0.44656855 0.24784124 0.076548576
-0.42988658 -0.011404812 0.25985146
-0.43082559 0.029407203 0.24952841
-0.42994058 -0.11000073 0.25925541
-0.42977256 -0.052865744 0.26110744
-0.44125056 0.14334524 0.19784451
-0.44337457 0.17393422 0.17473364
-0.45211756 0.24810922 0.079580307
-0.43538958 -0.011214793 0.2616272
-0.43634355 0.029581189 0.2512455
-0.44681758 0.14348924 0.1995182
-0.4442296 0.099152207 0.22741318
-0.45940161 -0.37962377 0.063866615
-0.44216859 -0.16473377 0.24963331
-0.45238155 0.14363319 0.20119333
-0.44737256 0.029925227 0.2546773
-0.46790659 0.27335721 0.035411358
-0.45026058 -0.22781575 0.22384644
-0.44767159 -0.16450179 0.25148964
-0.44627255 -0.05227375 0.26643324
-0.46916759 0.24842721 0.08415556
-0.45953357 -0.28699183 0.18606949
-0.46084857 0.099603236 0.23240232
-0.47617561 -0.37836373 0.071750641
-0.4586736 -0.16404176 0.25520039
-0.4805246 0.2486372 0.087208271
-0.48176056 -0.37794673 0.074369431
-0.4667986 -0.2270298 0.2297492
-0.46416956 -0.16381276 0.25705338
-0.4769066 0.17470521 0.18437243
-0.48052859 0.20924819 0.14709663
-0.48619956 0.24874121 0.088736534
-0.47191656 0.099900186 0.2357254
-0.47611457 -0.28606975 0.19252729
-0.47230655 -0.2267698 0.23171234
-0.46837258 -0.10846674 0.27219629
-0.4682436 -0.05149579 0.27352762
-0.47744858 0.10004818 0.23738861
-0.48041457 0.030939221 0.2649684
-0.50228256 0.27388823 0.043933392
-0.48297858 0.10019422 0.23905039
-0.4833166 -0.22625279 0.23564053
-0.47933459 -0.10803783 0.27588463
-0.49364859 0.17508221 0.18919325
-0.50801957 0.27396119 0.045219421
-0.48850656 0.1003412 0.24071121
-0.49267256 -0.28515875 0.19896841
-0.49922556 0.1752072 0.19079828
-0.5029726 0.20973223 0.15358639
-0.50888658 0.24915218 0.094847202
-0.49818659 -0.28485775 0.20111036
-0.49018157 -0.050730824 0.28060961
-0.50237757 0.14489824 0.21625519
-0.51455456 0.24925321 0.096376419
-0.49690759 0.031437218 0.27010632
-0.4979676 0.065658212 0.25966549
-0.5012666 -0.0089957714 0.28289843
-0.5207656 -0.37508082 0.092592239
-0.50920856 -0.2842598 0.2053895
-0.5134666 0.14517224 0.2196002
-0.5159446 0.17557824 0.19562149
-0.51978558 0.21008921 0.15845442
-0.5067426 -0.0088157654 0.28466845
-0.50897157 0.065974236 0.26309919
-0.5105986 0.10091919 0.24735641
-0.52632457 -0.37467873 0.095178604
-0.51446956 0.066132188 0.26481533
-0.51611656 0.10106224 0.24901628
-0.51628655 -0.22472978 0.24738264
-0.51354557 -0.16179681 0.27368927
-0.51216561 -0.10677075 0.28692722
-0.51208657 -0.049979806 0.28768158
-0.52708155 0.1758222 0.19883347
-0.53098458 0.21032423 0.16169834
-0.51902056 -0.16157782 0.27553129
-0.53008455 0.14557922 0.22461653
-0.53264755 0.17594421 0.20044041
-0.53658158 0.21044123 0.16332245
-0.5254606 0.066444218 0.26824617
-0.52725857 -0.22423077 0.25128651
-0.52449358 -0.16135979 0.27737522
-0.5356226 0.14571321 0.22628736
-0.5382126 0.17606521 0.20204735
-0.54852456 0.24985319 0.10555935
-0.5309546 0.06659919 0.26996136
-0.5437746 0.17618519 0.20365524
-0.5540756 -0.37269378 0.10805035
-0.5354346 -0.16092682 0.28105736
-0.55983257 0.25004923 0.10862541
-0.56531757 0.27466822 0.058143616
-0.5419336 0.066906214 0.27338934
-0.5477016 -0.28220677 0.22029448
-0.55489355 0.17642421 0.20687056
-0.57103956 0.27473724 0.059443474
-0.54742056 0.067059219 0.27510357
-0.54918659 0.10190719 0.25897646
-0.55319059 -0.28191876 0.2224164
-0.5577476 0.14624423 0.23297262
-0.56045157 0.17654222 0.20847845
-0.56454057 0.21101624 0.17143536
-0.57113659 0.25024319 0.11169338
-0.5504806 -0.0074067712 0.29879141
-0.55290657 0.067212224 0.27681637
-0.55469358 0.10204619 0.26063728
-0.55867857 -0.28163278 0.22453451
-0.57012659 0.2111302 0.17306042
-0.57678556 0.25034022 0.11322737
-0.5583896 0.067363203 0.27852964
-0.56416255 -0.2813468 0.22665119
-0.5601216 -0.22276175 0.26296329
-0.5572896 -0.16007173 0.28841257
-0.58243257 0.25043619 0.11476135
-0.56387055 0.067514241 0.28024149
-0.57432055 0.14663619 0.23798227
-0.58129358 0.21135521 0.17630529
-0.5880776 0.2505312 0.11629629
-0.56684858 -0.0068907738 0.30407858
-0.56817657 0.033516228 0.29233551
-0.56820458 -0.15964973 0.29208422
-0.5868746 0.21146721 0.17792845
-0.59963161 0.2750752 0.065959454
-0.59280157 -0.36998677 0.12590742
-0.58060157 -0.28049874 0.23298836
-0.5736596 -0.15944076 0.29391718
-0.60534757 0.27514124 0.067266464
-0.59375656 0.17724222 0.2181263
-0.58457857 0.033978224 0.29745626
-0.58305758 -0.047630787 0.31059742
-0.61064458 0.2509082 0.12244225
-0.60935456 -0.36885178 0.1335063
-0.59701955 -0.27966082 0.23930836
-0.60190856 0.14727724 0.2463336
-0.59409159 -0.0060477853 0.31287622
-0.6224826 0.27533823 0.07119751
-0.59866959 0.10313022 0.27390718
-0.59545755 -0.15861285 0.3012476
-0.61038756 0.17758423 0.22295046
-0.61475557 0.21201819 0.18604231
-0.62191957 0.25109422 0.12551737
-0.59953558 -0.0058817863 0.31463432
-0.60415959 0.1032632 0.27556658
-0.60381758 -0.22086275 0.2784586
-0.6339016 0.27546823 0.073822498
-0.62588257 -0.36773276 0.14107132
-0.62146556 0.17781019 0.2261672
-0.61198956 -0.0075308084 0.3050456
-0.63960755 0.27553219 0.075137615
-0.63138556 -0.36736274 0.14358425
-0.61269361 -0.15932083 0.29918337
-0.62394756 0.14777923 0.25301123
-0.6215446 0.10263622 0.27287054
-0.62598658 -0.28090584 0.23616552
-0.6303916 0.14693421 0.24697351
-0.62813359 0.10156423 0.26549864
-0.62883955 -0.22480273 0.2597065
-0.62507856 -0.16106176 0.29056644
-0.62363756 -0.10630178 0.30238533
-0.64259356 0.21255618 0.19415951
-0.65672261 0.27572221 0.079089642
-0.63128656 -0.16193581 0.2862463
-0.6487096 0.21214819 0.1913023
-0.66242355 0.27578521 0.08041048
-0.65032756 0.14385921 0.22461033
-0.6613276 0.25172919 0.13629532
-0.64621657 0.027251184 0.25761843
-0.66812456 0.2758472 0.081730366
-0.66375959 -0.37349474 0.11677361
-0.65177256 -0.28587782 0.21301222
-0.64920557 -0.22997785 0.23361921
-0.65794855 0.17531019 0.20960617
-0.65465957 0.097241223 0.23582458
-0.65865356 -0.28774583 0.20398235
-0.67431158 0.25042522 0.12561464
-0.6641556 0.055712223 0.2060113
-0.6655556 -0.2896198 0.19492722
-0.66642356 0.023451209 0.23345661
-0.67248058 -0.29150081 0.18584061
-0.66090858 -0.11125684 0.27680159
-0.66190261 -0.055576801 0.26899147
-0.67219961 -0.019344807 0.23313046
-0.68358058 0.17251921 0.18936634
-0.69454658 0.24789822 0.10435534
-0.70323259 0.2708562 0.037011623
-0.67342359 -0.11294377 0.26810837
-0.68577957 -0.022017777 0.21691036
-0.68819457 0.091762185 0.19831228
-0.7167536 -0.40238976 -0.021578789
-0.70023757 0.20678723 0.15035343
-0.70811558 0.24620223 0.090102196
-0.69495457 0.090656221 0.19075346
-0.68759155 -0.1699028 0.24705839
-0.68739259 -0.059252739 0.24858046
-0.6940366 -0.17098582 0.24160719
-0.71324956 0.20541519 0.13990831
-0.7312656 0.23675823 0.0039825439
-0.71245557 0.046637237 0.14590263
-0.7345016 -0.4026258 -0.020432472
-0.70053959 -0.17213082 0.23580122
-0.70049959 -0.061454773 0.23610353
-0.71508056 0.13604718 0.1698494
-0.72671556 0.00088721514 0.082647324
-0.75857955 0.25052023 -0.15616035
-0.71943456 0.045322239 0.13721323
-0.72163457 0.13524419 0.16423559
-0.72633958 0.20401222 0.12920856
-0.72643459 0.044003189 0.1284976
-0.71072459 -0.11745775 0.24545717
-0.73297757 0.20324421 0.12329531
-0.75623161 0.23082721 -0.048693657
-0.74622357 -0.05168879 0.025324345
-0.73550856 -0.30839777 0.10457563
-0.73467261 -0.25420475 0.1107564
-0.71984059 -0.064281821 0.22045755
-0.75486857 -0.054825783 0.0053844452
-0.74049759 0.041350186 0.11098433
-0.72950757 -0.12666678 0.19173956
-0.74137557 0.1328212 0.14732647
-0.74629158 0.20170319 0.11143732
-0.77310258 0.22681624 -0.084288597
-0.76424056 -0.058726788 -0.019590378
-0.74755859 0.040017188 0.10218954
-0.7489956 0.16495121 0.13431263
-0.76226956 -0.0061377883 0.038036346
-0.75966156 0.20015419 0.099534512
-0.77873957 -0.061751842 -0.037953377
-0.76174557 0.03733623 0.084517479
-0.76333356 -0.14684677 0.073074341
-0.76862258 0.07450521 0.077408314
-0.79332358 -0.064797759 -0.056425571
-0.78385657 -0.010413766 0.010938644
-0.78893459 0.15039724 0.017118454
-0.78861856 0.19066221 0.019352436
-0.80158955 0.015151203 -0.072355747
-0.78959858 0.065614223 0.012423515
-0.79984856 0.11140424 -0.017765522
-0.80340058 -0.33794379 -0.042724609
-0.80876058 -0.22899079 -0.080387592
-0.81245559 -0.11689973 -0.10634947
-0.82511157 0.1707322 -0.15239573
-0.81536758 -0.069408774 -0.084355354
-0.81694555 -0.23176384 -0.095375538
-0.83242255 0.098365188 -0.11862755
-0.84392554 0.042580187 -0.15583181
-0.84631056 -0.2456708 -0.1721797
-0.84765762 -0.12930477 -0.18141556
-0.85707253 -0.19430673 -0.20376253
