# .PCD v0.7 - Point Cloud Data file format
VERSION 0.7
FIELDS x y z
SIZE 4 4 4
TYPE F F F
COUNT 1 1 1
WIDTH 1
HEIGHT 1024
VIEWPOINT 0 0 0 1 0 0 0
POINTS 1024
DATA ascii
0.45388812 -0.8670693 -0.63972807
0.44628811 -0.86236924 -0.62106133
0.44628912 -0.7355203 -0.62107706
0.43872511 -0.85769325 -0.60248232
0.43809512 -0.77386028 -0.59189034
0.44018313 -0.66576821 -0.62703896
0.43106812 -0.65572625 -0.58171606
0.42311314 -0.7650283 -0.55513716
0.40488812 -0.93690127 -0.57275105
0.40060812 -0.70609325 -0.49497604
0.39612612 -0.8391313 -0.5293622
0.39449412 -0.75152725 -0.49921942
0.39359313 -0.70317131 -0.48258018
0.38463211 -0.48877126 -0.43325996
0.39097512 -0.93143731 -0.55229712
0.38518211 -0.57187122 -0.44356728
0.36975613 -0.40511829 -0.38865232
0.37750113 -0.92782027 -0.53896332
0.37537211 -0.83106631 -0.49764729
0.37298313 -0.6957652 -0.45127821
0.37078512 -0.92602021 -0.53231907
0.36298713 -0.3461712 -0.37837505
0.36485714 -0.61848229 -0.41529417
0.35517612 -0.34034926 -0.34679842
0.34812412 -0.3371523 -0.329597
0.35131213 -0.61384326 -0.39479399
0.35036513 -0.55706424 -0.37541342
0.34144413 -0.39171129 -0.31953621
0.34861511 -0.82365829 -0.46884298
0.34110513 -0.33397228 -0.31247711
0.33555812 -0.46675223 -0.32590628
0.33445314 -0.38840526 -0.30247641
0.34404513 -0.91886622 -0.50586605
0.33906212 -0.68370229 -0.40020132
0.33693713 -0.55263621 -0.35514498
0.32766312 -0.3857972 -0.28907919
0.32717311 -0.32766324 -0.27850008
0.33251113 -0.68217129 -0.39381504
0.33025414 -0.55043429 -0.34505939
0.32227013 -0.4626233 -0.30592918
0.31990314 -0.26001531 -0.25380325
0.32697013 -0.72965425 -0.40942907
0.32446012 -0.60466224 -0.35416031
0.31565511 -0.46056825 -0.29598331
0.32412511 -0.91355425 -0.48616695
0.31356514 -0.32218629 -0.24905396
0.31303012 -0.25706226 -0.23705816
0.31562114 -0.81531125 -0.43641233
0.30701414 -0.3203513 -0.23927021
0.31292811 -0.67760521 -0.37473297
0.30746412 -0.14026123 -0.24957705
0.31144112 -0.60158128 -0.34068108
0.30272311 -0.099912226 -0.28187227
0.30642614 -0.67609221 -0.36839819
0.30069211 -0.13784426 -0.23440027
0.30497113 -0.60014623 -0.33441019
0.30386713 -0.54246229 -0.30859327
0.30646813 -0.99593121 -0.5179472
0.29397112 -0.31670123 -0.21979141
0.29302713 -0.25002021 -0.19726515
0.29309213 -0.19339424 -0.19881296
0.29417214 -0.13626724 -0.2245822
0.28941312 -0.45257121 -0.2572341
0.28747812 -0.31488425 -0.21009111
0.28180411 -0.37235922 -0.22039318
0.28010213 -0.24659425 -0.17802
0.28126812 -0.1334433 -0.2070384
0.28459913 -0.53835124 -0.28998232
0.27834013 -0.054495275 -0.2873621
0.28138614 -0.71873921 -0.36488724
0.27920812 -0.59444028 -0.30943537
0.26946712 -0.089921296 -0.21653938
0.27874613 -0.90583128 -0.45808697
0.26734912 -0.24363226 -0.16141939
0.26845711 -0.1307413 -0.19025707
0.27181414 -0.53562921 -0.27763605
0.26299211 -0.088350236 -0.2062993
0.26475313 -0.049525201 -0.25320721
0.26398712 -0.44747323 -0.23281717
0.26265511 -0.36783427 -0.19734526
0.26105613 -0.24243325 -0.15473938
0.26129612 -0.18696624 -0.16112995
0.26543912 -0.53427428 -0.27148008
0.25660414 -0.087061226 -0.19794035
0.25806412 -0.047275245 -0.23775911
0.26109812 -0.020082235 -0.32050133
0.26749912 -0.98938721 -0.49506235
0.26586711 -0.90376931 -0.45057631
0.25478011 -0.24126226 -0.14821196
0.26134214 -0.66624826 -0.32716322
0.25907513 -0.53292221 -0.26533699
0.25019312 -0.085622251 -0.18856716
0.25136912 -0.044901311 -0.22143126
0.25383613 -0.015889227 -0.29033518
0.25134212 -0.4449442 -0.22067738
0.25007713 -0.36546129 -0.18532801
0.26102811 -0.9883073 -0.4912653
0.24911812 -0.30522221 -0.1585393
0.25502414 -0.66536826 -0.32354403
0.24879113 -0.1849522 -0.14939117
0.25272113 -0.53157431 -0.259202
0.24612013 -0.0096892715 -0.24561501
0.24380612 -0.36428028 -0.17933941
0.25461814 -0.98762721 -0.48895597
0.24961112 -0.71392924 -0.34559631
0.24487312 -0.80287224 -0.38858318
0.23663612 -0.30297822 -0.14666319
0.23608312 -0.2380622 -0.13040638
0.24241312 -0.66361421 -0.31632328
0.23683913 -0.12467724 -0.1526022
0.24005212 -0.52888924 -0.24697304
0.24186613 -0.98672026 -0.48600817
0.23041213 -0.30186123 -0.14074326
0.23379812 -0.52796322 -0.24281502
0.22466512 -0.079607308 -0.14929914
0.22505613 -0.036172271 -0.16142702
0.22548813 0.00016772747 -0.17479038
0.22653912 0.03553772 -0.20733738
0.22379613 -0.2366032 -0.12239122
0.23065312 -0.71122128 -0.33470535
0.22438712 -0.12275022 -0.14069033
0.22757113 -0.52717322 -0.23928928
0.21443012 0.26304173 -0.015496254
0.21876812 0.0031277537 -0.15352535
0.21993113 -0.43868321 -0.19052601
0.22912413 -0.98582226 -0.48306704
0.22580913 -0.80000621 -0.37755919
0.22434813 -0.71032327 -0.33108425
0.21775812 -0.18015522 -0.12137413
0.21817312 -0.12176424 -0.13457727
0.21248212 0.094591737 -0.14521742
0.20768513 0.23551977 0.011765957
0.21229412 0.0051457286 -0.1390872
0.21946812 -0.79905623 -0.37389421
0.21180412 -0.2985273 -0.12304401
0.21159013 -0.17924124 -0.11603117
0.21605912 -0.58362526 -0.26230621
0.21514112 -0.5255993 -0.23225117
0.20296313 0.14397877 -0.027515411
0.20085813 0.31302077 0.043421745
0.20557413 0.047755718 -0.11549902
0.20758912 -0.43716925 -0.1833601
0.21639712 -0.98493129 -0.48013306
0.20577313 -0.11977023 -0.12220001
0.20893513 -0.52481526 -0.22873735
0.19628513 0.14714473 -0.0012512207
0.19959912 -0.074550211 -0.11632538
0.19472612 0.27009273 0.052845955
0.19937313 0.0094207525 -0.10845423
0.20858613 -0.89753824 -0.42828512
0.20692712 -0.79818124 -0.37070799
0.19932713 -0.2337833 -0.10686302
0.19938612 -0.17800921 -0.10893297
0.18857013 0.24112374 0.063687801
0.19338812 -0.073392212 -0.10878038
0.18941112 0.39180976 0.033579826
0.19329712 -0.17742127 -0.10554218
0.19737913 -0.58117729 -0.2516861
0.19654313 -0.52325326 -0.22172499
0.18719113 -0.072234213 -0.10122633
0.18696812 -0.026197255 -0.092972279
0.18217713 0.27332175 0.084066868
0.18218012 0.31695276 0.083963871
0.18913312 -0.43498331 -0.17298698
0.18801212 -0.3548612 -0.13156128
0.19732513 -0.98360926 -0.47574329
0.19440612 -0.79739922 -0.3678813
0.18723013 -0.29468125 -0.10265636
0.17594813 0.27492374 0.099565029
0.18034312 0.015030742 -0.068276405
0.17756212 0.43476772 0.037893772
0.18815112 -0.79701024 -0.366467
0.18677013 -0.70599431 -0.31374836
0.18601212 -0.65601021 -0.28479433
0.18417813 -0.5217002 -0.21473026
0.17194912 0.11634374 0.027997017
0.17014812 0.24496275 0.099146843
0.17483713 -0.069916308 -0.086086273
0.17021513 0.39713174 0.096500874
0.17686212 -0.43353528 -0.1660924
0.18462612 -0.9827382 -0.472826
0.17513612 -0.29375428 -0.097884178
0.17498413 -0.2310732 -0.091883183
0.18056512 -0.7056312 -0.31236029
0.17507613 -0.1756863 -0.095524311
0.16454013 0.19776976 0.090817928
0.16866513 -0.0686782 -0.077981949
0.16837113 -0.022252262 -0.065935135
0.16389713 0.27675372 0.11714172
0.16376412 0.32069576 0.12258387
0.16790712 0.018012762 -0.046963215
0.16707613 0.061445773 -0.012931347
0.16482413 0.43799675 0.079210758
0.17564712 -0.79623729 -0.36364317
0.16901413 -0.17511731 -0.092224121
0.15851112 0.19880772 0.099802017
0.16083112 0.063356757 0.0013890266
0.15979412 0.47790176 0.045387745
0.16364312 -0.35215622 -0.11795712
0.16815913 -0.70490831 -0.309587
0.16567713 -0.51938528 -0.20426941
0.15347312 0.12112272 0.065856934
0.15297413 0.15793675 0.087820053
0.15552013 0.021169722 -0.02435112
0.15334812 0.47976273 0.071370602
0.15756713 -0.35148424 -0.11456537
0.16315512 -0.7954722 -0.36082697
0.16130513 -0.65461427 -0.27929735
0.15688512 -0.17379326 -0.08449316
0.14741412 0.12239772 0.075936794
0.14692712 0.15920275 0.098263741
0.14650312 0.20087373 0.11769199
0.14612912 0.24883473 0.13484001
0.15040213 -0.066064298 -0.060965061
0.14600612 0.27918172 0.14046764
0.14934212 0.022837758 -0.012387276
0.14585513 0.37173772 0.14742374
0.14601313 0.40084475 0.14018297
0.14632612 0.44164473 0.12581205
0.15939212 -0.98262626 -0.47300529
0.15691413 -0.79509228 -0.35942125
0.15083812 -0.22908622 -0.080988407
0.15067713 -0.11194521 -0.073572159
0.14145112 0.12321073 0.082324982
0.14096113 0.16010773 0.10570383
0.14052412 0.20190173 0.12660074
0.14018813 0.24967873 0.14261389
0.14434013 -0.065239251 -0.055589199
0.14007112 0.27998674 0.14820766
0.14001213 0.40176374 0.15101385
0.14629513 -0.42994827 -0.14893103
0.14498313 -0.29150921 -0.086271286
0.14957413 -0.70383531 -0.30543613
0.14478213 -0.17246026 -0.076687336
0.13549812 0.12402177 0.088701725
0.13503012 0.16088074 0.11203861
0.13828513 -0.064401209 -0.050124168
0.13782212 -0.016581237 -0.027066231
0.13637613 0.06918776 0.044980049
0.13398412 0.37323576 0.16411591
0.13405612 0.40257275 0.16052389
0.14443712 -0.79433626 -0.35661221
0.12911113 0.16165072 0.1183548
0.12834813 0.25135475 0.1580658
0.13224113 -0.063565314 -0.044669151
0.13178213 -0.015663266 -0.020777225
0.13119112 0.025979757 0.010026932
0.12810212 0.37384576 0.17090464
0.12876812 0.48442075 0.1362319
0.12946612 0.51583374 0.099833965
0.13414912 -0.42892224 -0.14406109
0.13820413 -0.79396123 -0.35521126
0.13252212 -0.10965925 -0.059322357
0.13578212 -0.57590121 -0.22908306
0.12363012 0.12563676 0.10141373
0.12320413 0.16241872 0.12465858
0.12249213 0.25194472 0.1634798
0.12620711 -0.062732279 -0.039223194
0.12234812 0.28238672 0.17132092
0.12515712 0.027104735 0.018070698
0.12223212 0.37445474 0.17768002
0.12249612 0.44458574 0.16323996
0.12279912 0.48517674 0.14673567
0.12341613 0.51671672 0.11307383
0.12727912 -0.34815127 -0.097673416
0.13199812 -0.79392821 -0.35519123
0.12694512 -0.29021031 -0.079498291
0.13101013 -0.70277625 -0.30129623
0.12966213 -0.57558125 -0.227736
0.11771312 0.12644076 0.10775185
0.11731112 0.16316277 0.13077402
0.12018313 -0.061900198 -0.033785343
0.11972512 -0.013729274 -0.0075163841
0.11913812 0.028224766 0.026089668
0.11637412 0.37506175 0.18443871
0.11641613 0.40440476 0.18202782
0.12792212 -0.98357326 -0.4771533
0.12580812 -0.79409927 -0.35599899
0.12094212 -0.28978521 -0.07727623
0.12083812 -0.22730428 -0.071299076
0.12482912 -0.70242625 -0.29991913
0.12295412 -0.51671225 -0.19253397
0.11112013 0.20524073 0.15540171
0.11082512 0.25300276 0.17318773
0.11416212 -0.061024249 -0.028041363
0.11313213 0.029341757 0.034088612
0.11245912 0.073167741 0.074661732
0.11068312 0.44604075 0.18178988
0.11138612 0.51847172 0.13940096
0.11602113 -0.42806727 -0.14012527
0.12162312 -0.98376828 -0.47798729
0.11961412 -0.79427224 -0.35680532
0.11494213 -0.28936225 -0.075056076
0.11484812 -0.22695822 -0.069403172
0.11864813 -0.70207828 -0.29854202
0.11817013 -0.6522283 -0.26972437
0.11476313 -0.17031723 -0.064277172
0.11447912 -0.10770327 -0.047139168
0.11686812 -0.51640826 -0.19120216
0.10500612 0.25353074 0.17803001
0.10770813 -0.011761248 0.006008625
0.10511612 0.48693076 0.17104769
0.10540713 0.51934373 0.1524868
0.10622812 0.55805278 0.10025072
0.11532512 -0.98396426 -0.47882318
0.11443512 -0.89542824 -0.4221983
0.11342113 -0.79444629 -0.35761404
0.10886312 -0.22661227 -0.067506313
0.11249212 -0.70205027 -0.29852104
0.10877512 -0.16991228 -0.061920166
0.11131712 -0.57462722 -0.223701
0.10002913 0.12883872 0.12668562
0.099723123 0.16517574 0.14730883
0.09944012 0.20650673 0.16635084
0.10219412 -0.059681237 -0.019276142
0.098902121 0.37669772 0.20266581
0.098998122 0.44716775 0.196136
0.099498123 0.52000874 0.16244698
0.10325612 -0.34677631 -0.090847969
0.10634913 -0.70221525 -0.29932022
0.10252112 -0.10675925 -0.041292191
0.10520712 -0.57431227 -0.22235727
0.093263127 0.28506577 0.19703674
0.093148127 0.32874376 0.20526075
0.093101121 0.37723273 0.20862865
0.093633123 0.5205487 0.1705327
0.094166122 0.55998278 0.13234186
0.097916126 -0.42722327 -0.136199
0.10272412 -0.98436326 -0.48049498
0.10103013 -0.79480022 -0.35923719
0.099752121 -0.6517002 -0.26769733
0.09681312 -0.16910523 -0.057212353
0.09910012 -0.57399827 -0.22101498
0.098628126 -0.5155043 -0.18721819
0.088299125 0.13041377 0.13913584
0.087377124 0.32916176 0.20954466
0.095680125 -0.89599723 -0.42467403
0.091045126 -0.2884993 -0.070679188
0.094059125 -0.70255023 -0.30091715
0.090838127 -0.16870326 -0.054859161
0.092554122 -0.5152052 -0.18588924
0.082224123 0.16717273 0.1637578
0.081996121 0.20836073 0.18240499
0.083910123 -0.0088792443 0.02577877
0.081944123 0.52162474 0.18664598
0.082337126 0.56131876 0.15452766
0.085857123 -0.42666727 -0.13358927
0.085287124 -0.34599525 -0.086985111
0.08942312 -0.89618927 -0.42550039
0.088634126 -0.79516131 -0.36086321
0.086901121 -0.57353622 -0.21906519
0.086480126 -0.51490825 -0.18456316
0.076670125 0.13133675 0.14639282
0.076435126 0.16757977 0.16708565
0.075857125 0.32999372 0.21809483
0.077095121 0.077760756 0.10891676
0.075865127 0.44883972 0.21738291
0.083168127 -0.8963843 -0.42632818
0.078900121 -0.16790324 -0.050162315
0.070866123 0.13179672 0.15001297
0.070109122 0.33040875 0.22236061
0.070194125 0.49004173 0.21425676
0.073321126 -0.34548026 -0.084414959
0.076914124 -0.89667529 -0.42752504
0.075614125 -0.70306522 -0.30332327
0.072938122 -0.16749829 -0.047772408
0.064682126 0.20969677 0.19396162
0.066529125 -0.056494296 0.0015459061
0.064447127 0.28729177 0.21845198
0.064368121 0.33082277 0.22662258
0.06577412 0.035779774 0.080160618
0.065420121 0.07884872 0.11702871
0.064305127 0.40875977 0.23321867
0.06435512 0.44966972 0.22795296
0.064436123 0.49042276 0.21955299
0.064545125 0.52306676 0.20826101
0.071299121 -0.9882372 -0.49531031
0.068669125 -0.57400829 -0.22141933
0.068304121 -0.51462227 -0.18341303
0.05991412 0.036374748 0.084419727
0.05936012 0.60414475 0.14788103
0.058615118 0.45008272 0.23322773
0.058987118 0.56348974 0.19059372
0.06136512 -0.34497029 -0.081850052
0.06105312 -0.16720527 -0.046113968
0.06083012 -0.10344726 -0.020602226
0.062589124 -0.57416922 -0.22220612
0.062258121 -0.51477629 -0.18419218
0.053189121 0.21033674 0.19948769
0.052909121 0.33164674 0.23512697
0.052864119 0.40940273 0.24077892
0.05288212 0.45049572 0.23849583
0.052948121 0.49118274 0.23012161
0.053027119 0.52385676 0.22010374
0.055219121 -0.2250393 -0.059062958
0.056902122 -0.65286821 -0.27326632
0.056208119 -0.51493031 -0.18497229
0.047586121 0.16949576 0.18282986
0.047317121 0.25822675 0.22134066
0.047257122 0.28848076 0.22993279
0.047193121 0.33202273 0.23901463
0.04722112 0.49153474 0.23501587
0.047434121 0.56433177 0.20457363
0.05239312 -0.99101025 -0.50580835
0.05194312 -0.90016431 -0.44126701
0.051002119 -0.70377129 -0.30654001
0.050775118 -0.65304023 -0.27406406
0.049172118 -0.16691631 -0.044460297
0.048983119 -0.10290927 -0.01725626
0.050159119 -0.51508623 -0.18575239
0.041950122 0.13391972 0.16678667
0.04171712 0.21097374 0.20500278
0.04160212 0.25848973 0.22376776
0.042882118 -0.054574311 0.014161587
0.04154912 0.28873277 0.23235464
0.041486122 0.33239073 0.24281263
0.042375121 0.038148761 0.097160816
0.042165119 0.080799758 0.13161087
0.041465119 0.45109475 0.24613905
0.041505121 0.49187073 0.23969889
0.041677121 0.56475073 0.2115407
0.045236118 -0.7976082 -0.37120295
0.043325119 -0.22488421 -0.058253288
0.043235119 -0.16677326 -0.043634415
0.044341121 -0.57465822 -0.22457123
0.036760122 -0.0038742423 0.060269833
0.035846122 0.28898376 0.23477268
0.03654512 0.038737774 0.10139561
0.03576212 0.41026676 0.25096464
0.03593212 0.56516874 0.21849203
0.03903712 -0.79843122 -0.37458324
0.03741812 -0.28743631 -0.065339088
0.037300121 -0.16663128 -0.042807102
0.037154119 -0.10253125 -0.014910221
0.030342121 0.17063272 0.19223499
0.03014612 0.28923374 0.23719072
0.03072512 0.039169729 0.10450172
0.030094121 0.49254075 0.24904299
0.031751122 -0.42600721 -0.13075018
0.033434119 -0.99380928 -0.51634932
0.031464122 -0.28732926 -0.064780235
0.03216812 -0.57499129 -0.22615337
0.032002121 -0.51556128 -0.18809605
0.02454412 0.21192175 0.21325588
0.02448112 0.25927472 0.23103762
0.02506212 -0.003247261 0.064589024
0.02441412 0.33312476 0.25039864
0.02491712 0.03942275 0.10631275
0.02438812 0.41083974 0.25773668
0.024393121 0.45188975 0.25630665
0.02443812 0.52541876 0.24355602
0.025570121 -0.34475023 -0.080914021
0.02661912 -0.8000862 -0.38136005
0.025486119 -0.22460824 -0.056746006
0.025432119 -0.16635031 -0.041157246
0.025332119 -0.10215729 -0.012568951
0.02594712 -0.51572222 -0.18887901
0.01887512 0.17138577 0.1984868
0.01882912 0.21223575 0.21600199
0.019019119 0.082379758 0.1434598
0.01871112 0.41112477 0.26111794
0.01974112 -0.42630929 -0.13229322
0.02077312 -0.99648231 -0.52635813
0.019568119 -0.2875852 -0.066226006
0.01954212 -0.2244963 -0.056117058
0.020226119 -0.70628828 -0.31739616
0.01950112 -0.16621131 -0.040333271
0.01942512 -0.10197121 -0.011400223
0.01999112 -0.57532924 -0.22773695
0.013381121 -0.0025992393 0.069072723
0.013075121 0.28997976 0.24442863
0.013249121 0.082576752 0.1449399
0.013180121 0.63832474 0.18429565
0.013043121 0.38210875 0.26314163
0.013086121 0.56637073 0.23851061
0.013601121 -0.22459322 -0.056689262
0.013997121 -0.65523726 -0.28382111
0.013520121 -0.1017862 -0.010230064
0.0074811205 0.082772732 0.14641762
0.0073771207 0.38229674 0.2652626
0.0073761204 0.45267874 0.26644087
0.0073841205 0.5263257 0.2572298
0.0080811204 -1.0003612 -0.5408473
0.0080151204 -0.90637022 -0.4654932
0.0076591205 -0.22475523 -0.057631016
0.0078101205 -0.5758242 -0.23001528
0.0017141206 0.13608772 0.18403387
0.0017141206 0.17224574 0.2056489
0.0017141206 0.21317375 0.224226
0.0017141206 -0.001956284 0.073544979
0.0017141206 0.33394372 0.25890684
0.0017141206 0.60833871 0.22637463
0.0017141206 0.63919073 0.202209
0.0017141206 0.49366376 0.26473093
0.0017141206 0.52652574 0.2602458
0.0017141206 0.56686574 0.24679089
0.0017141206 -1.0023112 -0.54811716
0.0017141206 -0.8034243 -0.39496708
0.0017141206 -0.22491831 -0.0585742
0.0017141206 -0.10141629 -0.0078721046
-0.004016879 0.13623774 0.18523979
-0.0039658798 0.26056874 0.24311495
-0.003950879 0.33414674 0.26102877
-0.0039438792 0.38264275 0.26917887
-0.0039418796 0.41198075 0.27129364
-0.0039398791 0.45320177 0.27318192
-0.0039448794 0.49387774 0.26773977
-0.0045968797 -0.90990025 -0.479177
-0.0044348789 -0.65750831 -0.29374838
-0.0043468792 -0.51665729 -0.19332933
-0.0096748788 0.21349972 0.22709274
-0.010021879 -0.052409232 0.028485775
-0.0099348789 -0.0013182759 0.078008652
-0.0098078791 0.083357751 0.150846
-0.0095978789 0.38280773 0.27104378
-0.0095948791 0.41213673 0.27315998
-0.010308879 -0.42708427 -0.1361661
-0.010195879 -0.28846723 -0.071076393
-0.010082879 -0.1012072 -0.0065259933
-0.010489879 -0.57797128 -0.23979521
-0.010414879 -0.51734227 -0.19655228
-0.015417879 0.17262775 0.20885658
-0.01533088 0.60917473 0.24207783
-0.01523788 0.45353973 0.27755404
-0.015247879 0.49430475 0.27374887
-0.015285878 0.56760478 0.25916672
-0.016322881 -0.42724222 -0.13694334
-0.01619288 -0.34597021 -0.087342262
-0.01612488 -0.22541326 -0.061406136
-0.01648788 -0.51802927 -0.19977903
-0.02105988 0.21371973 0.22906399
-0.020992881 0.26108676 0.2479949
-0.021753879 -0.052187264 0.029994011
-0.02143788 0.041415751 0.12076569
-0.02132188 0.083741724 0.15378571
-0.020899881 0.38313472 0.2747736
-0.023874881 -1.0101643 -0.577353
-0.023302879 -0.80804831 -0.41370726
-0.02291888 -0.65980023 -0.30371618
-0.02271888 -0.57941324 -0.24633503
-0.022567879 -0.5187183 -0.20301199
-0.026747881 0.21382976 0.23004675
-0.027623881 -0.052282274 0.029386997
-0.027384881 -0.00045627356 0.08407402
-0.02661988 0.29151577 0.25948858
-0.02666088 0.60959274 0.24996567
-0.02909188 -0.6605683 -0.30704737
-0.032643881 0.13697976 0.19127083
-0.032337882 0.26125175 0.24959087
-0.032222882 0.33514875 0.27157974
-0.032408882 0.64082778 0.23614168
-0.032192878 0.52764976 0.27733803
-0.036774881 -1.0156503 -0.59775114
-0.033981878 -0.22591728 -0.064243317
-0.035269879 -0.66133827 -0.31038237
-0.03369388 -0.10167021 -0.0094032288
-0.034968879 -0.5808633 -0.2528944
-0.038120881 0.21404672 0.23201466
-0.03936588 -0.052473247 0.02817297
-0.039024878 -0.00047826767 0.083974838
-0.037943881 0.29167175 0.26107979
-0.038571879 0.084312737 0.15818882
-0.037966881 0.60997474 0.25720167
-0.037802879 0.45403677 0.28405285
-0.037827879 0.52782375 0.27999163
-0.04000188 -0.28937429 -0.075931072
-0.043938879 0.17320377 0.21380472
-0.043979879 0.68361074 0.2078619
-0.043436881 0.45415974 0.28567505
-0.043444879 0.49506673 0.28458881
-0.04648288 -0.43000823 -0.15057325
-0.049128879 -0.92294031 -0.52954817
-0.045971882 -0.28964525 -0.077382088
-0.045753881 -0.16721231 -0.04624939
-0.04724288 -0.5823223 -0.25946808
-0.049346879 0.26149577 0.25198269
-0.050674882 -0.00064027309 0.082932949
-0.05034088 0.042049766 0.12552977
-0.049078882 0.41321373 0.28618097
-0.049078882 0.49517974 0.28621197
-0.049098879 0.52805972 0.28364277
-0.05253388 -0.43065721 -0.15376425
-0.052089881 -0.34788126 -0.097192287
-0.054852881 -0.81677324 -0.44898033
-0.053882878 -0.66482025 -0.32546616
-0.055508882 0.13756073 0.19608688
-0.055336881 0.17342973 0.21578074
-0.05501388 0.26157475 0.25277805
-0.056128882 0.041971743 0.12501192
-0.054895882 0.61045176 0.2662816
-0.054706879 0.41335273 0.28789282
-0.055348881 0.71462274 0.21438074
-0.054731879 0.52814972 0.28504086
-0.058092881 -0.34842521 -0.10000515
-0.062073883 -0.92985028 -0.55623007
-0.061199877 -0.8185342 -0.45607996
-0.05794188 -0.2906422 -0.082756042
-0.057835881 -0.22704726 -0.070593357
-0.060119879 -0.66640228 -0.33232498
-0.057326879 -0.10214728 -0.012288094
-0.059541881 -0.58378822 -0.26605797
-0.060577881 0.29196376 0.26410675
-0.060656879 0.6417737 0.25590277
-0.060384881 0.38394374 0.28418398
-0.060344879 0.41338873 0.2883749
-0.060796883 0.68499476 0.24125099
-0.060769878 0.71571773 0.24410295
-0.06033488 0.49540374 0.28945398
-0.060268879 0.79288173 0.29629803
-0.060363881 0.52823776 0.28643703
-0.060414881 0.56890178 0.28113079
-0.068587877 -0.93348521 -0.57026005
-0.06672588 0.17365175 0.21775293
-0.066342875 0.26173377 0.25436974
-0.068154879 -0.00088727474 0.081365585
-0.066233873 0.29202276 0.26473999
-0.06770888 0.041813731 0.1239748
-0.067341879 0.084389746 0.15900803
-0.066288874 0.64194572 0.25952005
-0.06598188 0.41342473 0.2888546
-0.066306874 0.71622074 0.25779104
-0.065946877 0.45464677 0.2921586
-0.065796874 0.76150978 0.30653191
-0.070717879 -0.43261725 -0.16336107
-0.069929875 -0.29164523 -0.088136196
-0.069802873 -0.22801024 -0.076035976
-0.073104873 0.084299743 0.15839005
-0.071919873 0.64210474 0.2628808
-0.071305878 0.76182276 0.31696081
-0.071620874 0.52841473 0.28922892
-0.071677878 0.56907874 0.28420782
-0.075932875 -0.29214829 -0.090833187
-0.079405874 -0.72509426 -0.3969512
-0.077557877 -0.52540022 -0.23412228
-0.078147873 0.17351675 0.21675205
-0.077415876 0.33559376 0.27662373
-0.079293877 0.041651726 0.12293482
-0.077428877 0.61093473 0.27558565
-0.07755588 0.64221478 0.26521158
-0.077305876 0.38405472 0.28562593
-0.077199876 0.49573675 0.294312
-0.082154877 -0.35061926 -0.11127806
-0.088281877 -0.94448823 -0.61269712
-0.081938878 -0.29265326 -0.093529224
-0.081791878 -0.22897929 -0.081489086
-0.085730873 -0.72675723 -0.40395308
-0.085192874 -0.67277628 -0.35990334
-0.081040874 -0.10340124 -0.020060062
-0.084362879 -0.58952922 -0.29197025
-0.08373788 -0.52683324 -0.24080706
-0.084144875 0.13731074 0.19439602
-0.083328873 0.26196676 0.25675488
-0.086410873 -0.053571284 0.021300793
-0.085644878 -0.0011432767 0.079788685
-0.083059877 0.33564776 0.27725458
-0.084632874 0.08411777 0.15715599
-0.083051875 0.61105478 0.2779088
-0.082889877 0.41352874 0.29029799
-0.083813876 0.84303176 0.21970892
-0.09508688 -0.95192331 -0.64143229
-0.093413875 -0.8327933 -0.51366329
-0.087949879 -0.29315931 -0.096229076
-0.092073873 -0.7284953 -0.41126633
-0.091491878 -0.6743812 -0.36683416
-0.086992875 -0.10389322 -0.023127079
-0.090600878 -0.59103829 -0.298769
-0.089578874 0.17331672 0.21522665
-0.090397879 0.084025741 0.15653658
-0.088815875 0.64243275 0.26986694
-0.088483877 0.45474076 0.29363585
-0.088458873 0.49580476 0.29541683
-0.088403873 0.79295075 0.29933405
-0.089542873 0.84299773 0.2177906
-0.095057875 -0.43545121 -0.17717934
-0.099949874 -0.83623022 -0.52754116
-0.093964875 -0.2936663 -0.098931313
-0.098514877 -0.73168725 -0.42475414
-0.096850879 -0.59255022 -0.30558109
-0.095614873 0.13711673 0.19300175
-0.094317876 0.61117971 0.28040886
-0.094439879 0.64254075 0.272192
-0.093334876 0.76270974 0.34663296
-0.09411788 0.52870274 0.29387379
-0.10120387 -0.43679029 -0.18376017
-0.10025488 -0.3522802 -0.11976433
-0.10651088 -0.83968323 -0.5414753
-0.10067388 0.21436977 0.23553991
-0.10317688 -0.0016922355 0.076210976
-0.10248087 0.041268766 0.12047577
-0.10193387 0.083839774 0.1552968
-0.10002988 0.64274675 0.2765398
-0.099732876 0.68722975 0.29545784
-0.099144876 0.71897578 0.33286476
-0.099729873 0.79285175 0.29558802
-0.10101288 0.84292775 0.21395063
-0.10601287 -0.29469031 -0.10436535
-0.10582588 -0.23093325 -0.092422962
-0.11147287 -0.7381112 -0.45189238
-0.11058888 -0.68103224 -0.39561129
-0.10549088 -0.17143029 -0.071110249
-0.10488188 -0.1053763 -0.032354355
-0.10673787 0.17301077 0.21293402
-0.11013388 -0.055602252 0.0081086159
-0.10557988 0.61129475 0.28275871
-0.10563488 0.64288175 0.27941895
-0.10542288 0.41366273 0.29221964
-0.10466687 0.71915376 0.33776999
-0.10538188 0.45479977 0.29465675
-0.10538888 0.52871776 0.29428196
-0.10675288 0.84289277 0.21202898
-0.11149488 -0.17191523 -0.073945999
-0.11085588 -0.10587329 -0.035437107
-0.11567587 -0.59711629 -0.32610941
-0.11173788 0.26157373 0.25350285
-0.11607788 -0.056101263 0.0048780441
-0.11347388 0.083649755 0.15405464
-0.11113488 0.38422674 0.28806877
-0.11084188 0.68761277 0.30484104
-0.11101387 0.45481873 0.29499769
-0.11099187 0.49584174 0.29627895
-0.11020888 0.76253474 0.34112597
-0.11106887 0.79275173 0.29184103
-0.11971688 -0.44082922 -0.20358324
-0.12712088 -0.8610093 -0.62779713
-0.11811288 -0.2960692 -0.11172819
-0.11790887 -0.23228425 -0.10001707
-0.12452787 -0.7445913 -0.47924232
-0.11857188 0.13672072 0.19020462
-0.11818288 0.17280376 0.21140194
-0.11778288 0.21407777 0.23326397
-0.12084287 -0.0031612515 0.066271782
-0.11924588 0.083553731 0.15343189
-0.11683188 0.61140978 0.28511
-0.11679488 0.38413674 0.28715467
-0.11669288 0.41368675 0.29270172
-0.11641788 0.68772674 0.30769777
-0.11664487 0.45483774 0.29533768
-0.11671188 0.56948471 0.29165602
-0.12461688 -0.35613424 -0.13960934
-0.12397487 -0.23309523 -0.10459042
-0.13109387 -0.74785227 -0.49299717
-0.12358588 -0.17350429 -0.083358288
-0.12431587 0.13661975 0.18950367
-0.12348987 0.21397972 0.23250484
-0.12290587 0.29175073 0.26292276
-0.12235188 0.41360074 0.29178572
-0.12399387 0.84278774 0.20625591
-0.13005088 -0.23390931 -0.10916901
-0.13658887 -0.69351131 -0.44966602
-0.12885487 -0.10771126 -0.046869278
-0.13005988 0.13651776 0.18880177
-0.12801087 0.41351372 0.29086876
-0.12810488 0.79260176 0.28620291
-0.13613288 -0.23472422 -0.11375618
-0.14504588 -0.7631312 -0.55773115
-0.13450387 0.26117772 0.2502346
-0.13994187 -0.058312237 -0.0094051361
-0.13856588 -0.0046412349 0.056294918
-0.13400488 0.33525777 0.27405262
-0.13363688 0.64344478 0.29158592
-0.13378787 0.38386375 0.2844038
-0.13275488 0.76229876 0.3337307
-0.13363187 0.56947672 0.29186296
-0.13550587 0.84271777 0.20239973
-0.14456688 -0.44626826 -0.23020601
-0.14307988 -0.35992926 -0.15919018
-0.15014988 -0.70434529 -0.49671841
-0.14098188 -0.10965127 -0.059030056
-0.13967988 0.33516377 0.27318478
-0.14252087 0.082110763 0.14297962
-0.13925488 0.64349174 0.29267979
-0.13933387 0.41334075 0.2890358
-0.14862087 -0.30070931 -0.13657999
-0.14706187 -0.11062425 -0.06512928
-0.15441288 -0.61392921 -0.40202618
-0.15296188 -0.54715723 -0.33551216
-0.14633387 0.21355575 0.22926092
-0.15041088 -0.0056352615 0.049617767
-0.14535688 0.33506876 0.27231884
-0.14928187 0.038233757 0.099365711
-0.14836188 0.081687748 0.13990593
-0.14486988 0.64353871 0.2937746
-0.14428888 0.68819076 0.31939983
-0.14491588 0.45451373 0.29175282
-0.14404687 0.76217973 0.33002996
-0.14516987 0.79244971 0.28055763
-0.15718988 -0.45011526 -0.24909735
-0.15404087 -0.17806524 -0.11034918
-0.15315288 -0.11160129 -0.071239948
-0.15264387 0.17174572 0.20328999
-0.15159488 0.26087475 0.2477808
-0.15103687 0.33497274 0.27145004
-0.15420988 0.081263721 0.1368289
-0.15066588 0.41316473 0.28719902
-0.14897688 0.71989977 0.35888195
-0.15058188 0.45442873 0.29078388
-0.14969988 0.76211977 0.32817888
-0.15086688 0.79239875 0.27867603
-0.15054087 0.52854174 0.2925148
-0.16360888 -0.45273429 -0.26199913
-0.16805787 -0.62469524 -0.45080996
-0.16596587 -0.55283529 -0.36200714
-0.15638688 0.61131173 0.28410482
-0.15646988 0.38349372 0.28072596
-0.15633388 0.41307575 0.28627777
-0.15619187 0.49547476 0.29208374
-0.15620688 0.52846473 0.2914958
-0.15626287 0.5692867 0.28918886
-0.17004988 -0.45536429 -0.27494717
-0.16703987 -0.30355328 -0.15175104
-0.16629888 -0.17994624 -0.12145138
-0.17516987 -0.63210624 -0.48443413
-0.16483587 0.13450676 0.17347383
-0.16304788 0.26045477 0.24412489
-0.17035988 -0.063715279 -0.044742107
-0.16841288 -0.0081992745 0.032168865
-0.16176388 0.64357078 0.29484892
-0.16200387 0.41298676 0.28536081
-0.16008888 0.71996975 0.36103201
-0.17319788 -0.30451328 -0.15686607
-0.17065787 0.13412476 0.17056084
-0.17001988 0.17069572 0.19494104
-0.17647287 -0.064750254 -0.051492214
-0.16810387 0.33461076 0.26809168
-0.17286788 0.036334753 0.086167812
-0.17178388 0.079982758 0.12757587
-0.16782087 0.38330573 0.27888393
-0.16754487 0.52831078 0.28945684
-0.16760787 0.56914073 0.28704405
-0.17907988 -0.24136227 -0.1510601
-0.17515388 0.21206975 0.21690893
-0.18260787 -0.065838277 -0.058584213
-0.17422988 0.29041272 0.25103474
-0.17765488 0.079553723 0.12448168
-0.17342287 0.61111575 0.28087759
-0.17307988 0.64349276 0.29352474
-0.17352888 0.38312072 0.27694178
-0.17119588 0.72003776 0.36318398
-0.17325987 0.45408374 0.28690481
-0.17321788 0.52823377 0.28843784
-0.18163088 0.16998976 0.18936062
-0.18093887 0.21173674 0.21413994
-0.17998087 0.29013276 0.24845076
-0.17907988 0.41255772 0.28069878
-0.17889388 0.49509674 0.28736496
-0.17939888 0.79214275 0.26925564
-0.18169887 0.84243077 0.18692303
-0.19130388 -0.18591124 -0.15692329
-0.18609288 0.25924975 0.23346567
-0.19290687 -0.013350248 -0.003098011
-0.19091788 0.033483744 0.065979004
-0.18941088 0.078691721 0.11828661
-0.18498488 0.38264972 0.2719388
-0.18480387 0.41233677 0.27822685
-0.18468487 0.45370376 0.28233004
-0.18511587 0.79209077 0.26736784
-0.18468788 0.56882572 0.28223372
-0.18748988 0.84239376 0.18497896
-0.19996688 -0.3771283 -0.24816418
-0.19783787 -0.24547023 -0.17425203
-0.19665088 -0.1214413 -0.13305712
-0.19186588 0.25894672 0.23079491
-0.20163187 -0.071863234 -0.098237991
-0.19905087 -0.014549255 -0.011281013
-0.19106488 0.33356375 0.25780392
-0.19539988 0.077804744 0.11174583
-0.19071987 0.38241374 0.26943493
-0.18920888 0.68818074 0.32034492
-0.19040887 0.45350176 0.27988958
-0.19034088 0.52778876 0.28219366
-0.20296387 -0.12304622 -0.14314032
-0.19764487 0.25864273 0.22811985
-0.19726087 0.28928673 0.2406888
-0.20306188 0.031342745 0.050801754
-0.19629288 0.61062777 0.27237177
-0.19626687 0.41188872 0.27322578
-0.19613788 0.45329875 0.27744579
-0.19605388 0.49455073 0.28020191
-0.19613488 0.56852472 0.27754259
-0.19908188 0.84232074 0.18108988
-0.21321487 -0.38354725 -0.28151226
-0.20575388 0.13162076 0.15149975
-0.21188387 -0.019235253 -0.043577194
-0.20257488 0.33303577 0.25264263
-0.20220488 0.38193876 0.26441574
-0.19919288 0.71989977 0.36025858
-0.20187187 0.45309573 0.275002
-0.20178388 0.49436775 0.27780962
-0.20179687 0.52744973 0.27741003
-0.20186588 0.56837374 0.27519369
-0.20488487 0.84228373 0.17914963
-0.22131787 -0.079990208 -0.15185404
-0.21837588 -0.021725237 -0.060744286
-0.21526487 0.029186726 0.035547733
-0.21345288 0.075076759 0.091660023
-0.20779587 0.61031175 0.26679373
-0.20795387 0.38170075 0.26190567
-0.20751788 0.49418375 0.27541685
-0.20753087 0.52727878 0.27501488
-0.20760088 0.56822276 0.27284479
-0.21068987 0.84224772 0.17720604
-0.22758888 -0.39589626 -0.34597731
-0.22319187 -0.25177222 -0.20984507
-0.22816287 -0.083694279 -0.17634106
-0.22489987 -0.024228275 -0.077990055
-0.22138788 0.028104722 0.02789259
-0.21359088 0.61009574 0.262918
-0.21370788 0.38146275 0.25939274
-0.21201088 0.68774271 0.31053591
-0.21047787 0.71975774 0.35676003
-0.21335188 0.45268673 0.2701087
-0.21335788 0.56803775 0.2699399
-0.22935387 -0.13397723 -0.21223831
-0.21987487 0.33223873 0.24488497
-0.21903688 0.64226276 0.26948881
-0.23633088 -0.25680226 -0.23843622
-0.23620987 -0.19901425 -0.23488998
-0.23636387 -0.13826329 -0.23942327
-0.22966787 0.12850577 0.12732363
-0.22669287 0.25687575 0.21252203
-0.23936787 -0.034683228 -0.15044212
-0.22565287 0.33197176 0.24229383
-0.22183987 0.71954876 0.35149479
-0.22523987 0.79172373 0.25411177
-0.22484487 0.52660674 0.26543283
-0.22495788 0.56755078 0.26218796
-0.22812988 0.84213674 0.17137384
-0.24276288 -0.20116323 -0.24768019
-0.24370188 -0.14379722 -0.27457523
-0.23206687 0.28725976 0.22202396
-0.24073288 0.021399736 -0.020089149
-0.23769888 0.071403742 0.064675808
-0.23085488 0.64158571 0.25588894
-0.23106287 0.38058573 0.250072
-0.22940388 0.68713075 0.29642773
-0.23795088 0.28674573 0.21720266
-0.23691088 0.38016772 0.24554968
-0.23524387 0.68689775 0.29101372
-0.23321988 0.71933877 0.34621286
-0.23652288 0.45154077 0.2561307
-0.23673588 0.79161775 0.25032187
-0.25678489 -0.20929629 -0.29644632
-0.24650088 0.16401875 0.141572
-0.24542788 0.20649475 0.17015791
-0.24441588 0.25516272 0.19711685
-0.25025788 0.068283737 0.041514874
-0.24121788 0.6865257 0.28231001
-0.25249487 0.16331774 0.13594198
-0.25666487 0.066385746 0.027387619
-0.24927789 0.63980377 0.21968794
-0.24838987 0.40918672 0.24281263
-0.24726388 0.68609178 0.27210379
-0.24820788 0.45084077 0.24754763
-0.24808988 0.49231476 0.25060177
-0.24814688 0.52547276 0.24912071
-0.25988188 0.12435573 0.095168591
-0.25737187 0.20517874 0.15903759
-0.25628188 0.25401276 0.18679905
-0.26318887 0.064187765 0.010996819
-0.25065088 0.71872073 0.33010769
-0.25393587 0.49200773 0.24651289
-0.26617688 0.12284672 0.083320618
-0.26222786 0.25343472 0.1816268
-0.26159689 0.28462172 0.19734383
-0.26978788 0.061828732 -0.0066013336
-0.26077187 0.60760677 0.2178936
-0.25992587 0.45013773 0.23894167
-0.25979087 0.49169174 0.24231482
-0.25995088 0.52472878 0.23833704
-0.26753888 0.28406972 0.19218779
-0.27789187 0.054719746 -0.060099125
-0.26601988 0.40798575 0.22919273
-0.26574287 0.49122074 0.23593998
-0.26613888 0.56531179 0.22630262
-0.27885589 0.11974877 0.058997631
-0.27415088 0.25227576 0.17125702
-0.27348986 0.28351676 0.18702364
-0.26853988 0.71777272 0.30514193
-0.27211687 0.56490874 0.21979475
-0.28531188 0.11796075 0.044932842
-0.27872187 0.32762575 0.19894695
-0.27919188 0.60597277 0.18796301
-0.27812788 0.37713176 0.2128377
-0.27790886 0.40700173 0.21794701
-0.27494687 0.76075876 0.28717184
-0.27709287 0.79124177 0.23701382
-0.29179287 0.11616474 0.030810833
-0.28791589 0.20055175 0.11960602
-0.28636688 0.25049472 0.15509272
-0.28560588 0.28197974 0.1725049
-0.28417286 0.37644577 0.20532703
-0.28068188 0.76069474 0.28530073
-0.28287289 0.79118675 0.2351079
-0.28384888 0.5229727 0.21276379
-0.28441289 0.56368375 0.19983101
-0.29091388 0.32600373 0.18252373
-0.29023388 0.37575674 0.19779778
-0.29000488 0.40569776 0.20293093
-0.28641987 0.76063073 0.28342676
-0.30247387 0.15332276 0.054460049
-0.30045688 0.19813377 0.098882675
-0.29794389 0.28005475 0.15422583
-0.30239686 0.37437272 0.1826849
-0.30187386 0.44651276 0.1939888
-0.31661588 0.14709675 0.0030488968
-0.31308088 0.19569576 0.078021049
-0.31118488 0.24644077 0.11822176
-0.30932489 0.32354373 0.15765905
-0.30796286 0.44591373 0.1865468
-0.31658489 0.27714276 0.12660885
-0.31460488 0.48621875 0.16784
-0.31659487 0.55920875 0.12640095
-0.32720587 0.18992972 0.027960777
-0.32174188 0.51802778 0.13968277
-0.33097789 0.24123073 0.0703578
-0.33797488 0.23877376 0.047679901
-0.33630487 0.27234477 0.080631733
-0.33426288 0.48281273 0.12095881
-0.34009188 0.39858073 0.12043381
-0.34033889 0.44029474 0.11563969
-0.34140986 0.48092973 0.094864845
-0.34683987 0.39704072 0.10241365
-0.35471389 0.36364776 0.063852787
-0.35501188 0.43578976 0.058272839
