# .PCD v0.7 - Point Cloud Data file format
VERSION 0.7
FIELDS x y z
SIZE 4 4 4
TYPE F F F
COUNT 1 1 1
WIDTH 1
HEIGHT 1024
VIEWPOINT 0 0 0 1 0 0 0
POINTS 1024
DATA ascii
0.98978144 -0.040994287 -0.019263744
0.97915244 -0.036176324 0.01315403
0.98388243 -0.12959433 -0.020081997
0.96051246 -0.073156357 0.060631275
0.95015645 -0.068246245 0.092242241
0.95028645 0.012530684 0.091316223
0.95592445 -0.17731631 0.05094099
0.92036748 -0.060913324 0.13749599
0.92741543 0.012195706 0.085706234
0.91494846 -0.10421336 0.13418818
0.96277547 0.055964708 -0.26555395
0.90930146 -0.1043483 0.13256216
0.91038048 0.011800706 0.080520153
0.94882745 0.093639731 -0.25415707
0.95283443 0.13197172 -0.28438902
0.90566647 -0.17283332 0.071493149
0.94692147 0.18101573 -0.28682804
0.89255548 -0.062050283 0.12612295
0.89407843 -0.020113289 0.11454821
0.89234948 -0.10475528 0.12768316
0.89586145 -0.17516434 0.055968285
0.91756344 0.10568571 -0.15676785
0.88120544 -0.062268317 0.12317228
0.93317848 0.26031172 -0.27699995
0.89233446 0.044903696 0.037484169
0.90112245 0.080335677 -0.07672596
0.91109943 0.14728868 -0.15407181
0.87551248 -0.062359333 0.12182236
0.91844845 0.22093773 -0.21104383
0.88645446 0.044938684 0.036990166
0.88460243 -0.17568231 0.051347256
0.89721245 0.11352372 -0.093372822
0.90528744 0.19540471 -0.1564126
0.88057548 0.044973731 0.036496162
0.89512247 0.19891572 -0.12457085
0.86559844 -0.020590305 0.10751295
0.89793146 0.22774071 -0.14664507
0.87469447 0.045007706 0.03600502
0.88781846 0.23109269 -0.11490583
0.85852844 -0.10574234 0.11695623
0.86187947 0.095834672 0.043467045
0.85534048 0.014835715 0.095591068
0.86046344 0.047701716 0.054756165
0.85763544 0.12875873 0.029919147
0.86520445 0.20924872 -0.030848026
0.84473044 -0.060038269 0.13352537
0.86787844 0.23770171 -0.052316666
0.84796643 0.13247973 0.060039997
0.84073246 -0.018578291 0.11853218
0.83336544 0.1070897 0.13079023
0.83838844 0.13616472 0.089879036
0.84571546 0.21597672 0.030208111
0.82403046 0.11077273 0.15937805
0.83220047 0.17622471 0.092357159
0.81595546 -0.0029022694 0.22561836
0.83865345 0.24738371 0.039415359
0.81893146 0.029905677 0.20120811
0.80331844 -0.037122309 0.28240633
0.83276343 0.29154968 0.039093018
0.79658347 -0.035735309 0.29091406
0.81961644 0.25368869 0.099179268
0.82322848 0.2945137 0.069106102
0.80353844 0.072004676 0.23302031
0.80093843 0.15056568 0.20653439
0.80408043 0.18652868 0.18018532
0.79440546 0.075862706 0.26132822
0.79853445 0.23225772 0.17802906
0.78637743 0.0054537058 0.28074408
0.78452444 -0.13347828 0.29640102
0.78447044 0.15576971 0.24835825
0.78025645 0.23855871 0.23527718
0.77602345 0.040242732 0.27158737
0.77462846 0.23851568 0.23421907
0.77118546 0.076568723 0.26397705
0.76833647 -0.077397346 0.28859901
0.76786447 0.15536869 0.24305916
0.76499647 0.039931715 0.26803493
0.76566648 0.076418698 0.26219797
0.76216847 -0.13366425 0.29266214
0.76353443 0.23827469 0.23067713
0.75808245 -0.036908269 0.27852917
0.76539844 0.35727668 0.21432018
0.75396347 0.039616704 0.26448298
0.75098848 -0.13376129 0.29079723
0.74957645 0.12340969 0.25260401
0.75124246 0.15496171 0.23775625
0.75179046 0.19316667 0.23286915
0.74539745 -0.13381135 0.28986311
0.74403745 0.12327468 0.25089693
0.74687946 0.23790967 0.22535706
0.74357146 0.075811684 0.25508022
0.74082547 -0.078285336 0.27975798
0.74015045 0.1546877 0.23421717
0.73677546 0.0039867163 0.26477909
0.73739743 0.039139688 0.25915003
0.73460144 0.15454972 0.23244619
0.73576647 0.23766267 0.22180939
0.73187244 0.038978696 0.25737095
0.73213446 -0.081989288 0.25497532
0.72741145 0.12286568 0.24577522
0.72905147 0.15441167 0.23067617
0.72500843 -0.037945271 0.26789331
0.72634447 0.038817704 0.25559139
0.72349745 0.15427172 0.2289052
0.72464448 0.2374137 0.21825695
0.72655845 0.30806673 0.20049715
0.72144443 0.075193703 0.24795294
0.71794343 0.15413171 0.22713327
0.71467948 0.0033156872 0.25767231
0.71947944 0.26639169 0.2127533
0.71528244 0.03849268 0.25203037
0.71290648 0.19224268 0.22045994
0.70682847 0.15385067 0.22358894
0.70794946 0.23703671 0.21292734
0.71032345 0.26420969 0.19033718
0.70421344 0.038165689 0.24846697
0.70237947 0.23690969 0.21114922
0.69808745 0.0028046966 0.25233507
0.70367748 0.30812567 0.19869518
0.69855744 -0.0825423 0.24782705
0.69410545 0.12203068 0.23551512
0.69255048 0.0026326776 0.25055504
0.69028044 -0.1356833 0.27252436
0.69013947 0.15342271 0.21826696
0.68753344 0.23454273 0.18734503
0.67742747 0.12160373 0.23037815
0.67709547 0.07392472 0.2336731
0.67392343 0.19128972 0.20802307
0.67530447 0.30797172 0.19418716
0.67154145 0.073762715 0.23188639
0.66073143 0.12117171 0.22523594
0.66228545 0.15269768 0.2093873
0.66467345 0.18878973 0.18503094
0.66486245 0.23433173 0.18310213
0.66054845 -0.043035269 0.22710419
0.66042948 0.073436677 0.22831011
0.65933347 -0.083223343 0.23948812
0.65900546 0.18873268 0.18397093
0.65429848 0.036654711 0.23240995
0.65171248 -0.13726735 0.25902128
0.65352243 0.23422372 0.18097925
0.64622945 -0.13755834 0.25672436
0.64766544 0.18861568 0.18184805
0.64368945 -0.043327272 0.22352028
0.64736944 0.3073507 0.18494701
0.64374447 0.072942674 0.22293901
0.64177644 0.3072257 0.18309832
0.63286543 0.12043673 0.21665239
0.63610744 0.26411468 0.18202925
0.63626844 0.30700868 0.1803093
0.63261145 0.072609723 0.21935606
0.62728643 0.12028772 0.2149334
0.62799543 -0.0026392937 0.20728922
0.63038045 0.26412272 0.18157721
0.62426245 -0.13872933 0.24752522
0.62333244 0.03198868 0.19549227
0.62146848 0.072273731 0.21577215
0.61876243 -0.13902426 0.24522114
0.61915147 0.14946568 0.17819118
0.61947745 0.23388469 0.17460823
0.61589444 0.072104692 0.21397924
0.61108345 -0.0029323101 0.20369339
0.61193746 0.031955719 0.19421721
0.60795045 0.18818969 0.17441797
0.60544443 -0.0030313134 0.20249414
0.60473943 0.071764708 0.21039009
0.60298944 -0.083878279 0.23000431
0.59935945 0.11953372 0.20633316
0.59868443 -0.044137299 0.21396017
0.60190547 0.26397169 0.17751598
0.59484243 0.031901717 0.19230413
0.59091443 0.1879977 0.17123222
0.58742046 -0.044347286 0.21157122
0.59232044 0.30497169 0.1549964
0.58344543 0.031861722 0.19102907
0.57903647 0.11588073 0.17519522
0.57615244 -0.0445593 0.20918036
0.57720447 -0.0034962893 0.19678307
0.57946843 0.26341468 0.17010403
0.58128947 0.3044557 0.1486454
0.57477945 -0.084219337 0.2253623
0.57332247 0.1158607 0.1745553
0.57373047 0.14892668 0.16969538
0.57386947 0.18780172 0.16804314
0.57385248 0.26327372 0.16825008
0.57260448 0.068539679 0.18311405
0.56689948 0.068518698 0.18247604
0.56360745 -0.14203632 0.22209406
0.56236649 0.14878571 0.16756916
0.56250244 0.18766773 0.16591835
0.55699348 0.26284772 0.16268396
0.55917048 0.30341673 0.13591909
0.55239648 -0.084888339 0.21920919
0.55113143 0.1875307 0.16378927
0.55136943 0.26270473 0.16082621
0.54924744 0.031726718 0.18720722
0.54475546 0.11575371 0.1713624
0.54231644 -0.045215309 0.2020092
0.54354548 0.031702697 0.18657017
0.53951043 0.14867067 0.16476297
0.53975445 0.18739271 0.16166306
0.53784448 0.03167671 0.18593311
0.53591347 -0.14358234 0.21046734
0.53565347 -0.085527301 0.21376514
0.53408444 0.23313469 0.16034937
0.52845544 0.2329827 0.15849018
0.52536744 -0.045523286 0.19862413
0.52884746 0.2621277 0.15338993
0.52644145 0.031623721 0.18465996
0.53698844 -0.22527134 0.047589302
0.52189547 0.11565769 0.16880894
0.52234846 0.1486007 0.16284513
0.52268147 0.18717968 0.1584692
0.52655846 0.30094868 0.10750914
0.52124345 0.068325698 0.17737627
0.51617944 0.1156317 0.16816998
0.5145545 -0.0037792921 0.18978739
0.51770842 0.2616477 0.14784431
0.51503545 0.031568706 0.18338823
0.51329845 -0.086393356 0.20649719
0.51129544 0.18703568 0.15634012
0.51216245 0.26136672 0.14467096
0.51569146 0.30004168 0.09718895
0.50560147 0.18696272 0.15527534
0.51024646 0.2995857 0.092020988
0.50411844 0.068242729 0.17546511
0.5063895 -0.20811224 0.14454317
0.50246245 -0.14521325 0.19801807
0.49903145 0.11555171 0.16625595
0.49746245 -0.0038713217 0.18788195
0.49792644 0.031479716 0.18147898
0.50067246 -0.20819628 0.14363813
0.49683344 -0.14538932 0.19653797
0.49135846 -0.046003282 0.19288397
0.49269846 0.06818372 0.174191
0.49120244 -0.14556634 0.19505835
0.49089846 -0.087259293 0.19929504
0.48801747 0.1484437 0.15901327
0.48850846 0.18673968 0.15207911
0.49386147 0.29821372 0.07647419
0.48663545 0.031185687 0.17853117
0.48234245 0.14833272 0.15768719
0.48436445 0.25994873 0.12877607
0.48831347 0.29785168 0.072299957
0.48142946 0.067834675 0.17074823
0.47993645 -0.14592326 0.19209337
0.47669944 0.14816272 0.15587139
0.47713044 0.18655372 0.14964104
0.47451645 -0.046634316 0.18748522
0.46889845 -0.046846271 0.1856842
0.46845844 -0.088131309 0.19213629
0.46452546 0.067271709 0.16531706
0.46635145 -0.20872426 0.13818502
0.46069646 0.23113072 0.13625431
0.45848846 0.030207694 0.16949606
0.45738146 -0.14664829 0.18615723
0.45490545 -0.20890927 0.13635635
0.44683945 -0.00569731 0.17164707
0.44609347 -0.14701629 0.18318415
0.44597846 -0.089017272 0.18496799
0.44278845 0.1471287 0.14496231
0.44156945 0.02961272 0.16406727
0.43513244 -0.048133314 0.17486429
0.43592647 0.029412687 0.16225529
0.43113247 0.11368573 0.14670229
0.43146646 0.1467787 0.14132023
0.43185547 0.18523169 0.13503504
0.43065247 0.066125691 0.15443993
0.43200245 -0.20929325 0.13267994
0.42547145 0.11350268 0.14488316
0.42667246 0.23018873 0.12524223
0.42427745 -0.0065292716 0.16441298
0.43186346 0.29515469 0.040383339
0.42499846 0.065931678 0.15262318
0.42627445 -0.20939136 0.13175821
0.42349344 -0.14776433 0.17722607
0.41980845 0.11331868 0.14306211
0.41897947 0.0288077 0.15681839
0.41934144 0.065737724 0.15080738
0.41414145 0.11313373 0.14124203
0.42051345 0.29460871 0.03398037
0.41332346 0.028604686 0.15500307
0.41481444 -0.20959234 0.12990618
0.41218045 -0.14814425 0.17424011
0.41218346 -0.090371251 0.17419624
0.40847346 0.11294872 0.13942003
0.40878844 0.14607072 0.13402605
0.40915945 0.1845547 0.12769794
0.40652245 -0.14833534 0.17274714
0.40347946 0.18438268 0.12586117
0.40127847 -0.049451292 0.16402102
0.40335247 -0.20979726 0.12805033
0.39519945 -0.14872026 0.16975832
0.39145145 0.11238873 0.13395119
0.39255545 0.22922373 0.11420012
0.38997245 -0.049897313 0.16040134
0.39035645 -0.0078023076 0.15353918
0.39377445 0.25681669 0.092412949
0.39068046 0.027784705 0.14774036
0.39188546 -0.21000731 0.12618828
0.38607046 0.14535272 0.12672329
0.38501444 0.027577698 0.14592314
0.38615146 -0.21011329 0.12525415
0.38395345 -0.091524243 0.16520023
0.38116345 0.22889769 0.11051512
0.37865844 -0.050346315 0.15677738
0.37829944 -0.091757298 0.16339827
0.37503746 0.18351769 0.11666918
0.37546346 0.22873372 0.10867119
0.37252846 -0.14950228 0.1637702
0.36872247 0.11163169 0.12665033
0.36900544 0.14480668 0.12123823
0.36733344 -0.05079931 0.15315294
0.36769345 -0.0086662769 0.14627695
0.36303145 0.11144072 0.12482119
0.36320245 -0.21055031 0.12150717
0.35599646 -0.051255286 0.14952421
0.35956946 0.25563073 0.0789814
0.35565844 -0.092698336 0.1561861
0.35385746 0.2554307 0.076739311
0.35095745 0.026319683 0.13500309
0.35125846 0.063348711 0.12895632
0.35172245 -0.21077633 0.11962318
0.34999245 -0.092936277 0.15438128
0.34814245 0.25523072 0.074496269
0.34556845 0.063144684 0.12712908
0.34414345 -0.15050125 0.15626335
0.34432346 -0.093174338 0.1525774
0.34050846 0.14388269 0.11207914
0.33958244 0.025893688 0.13135719
0.33454546 0.11047572 0.11567402
0.33480245 0.14369571 0.11024427
0.33329245 -0.05217731 0.14225721
0.33297646 -0.093653321 0.14896202
0.32909244 0.14350772 0.10841131
0.32847947 0.062528729 0.12164927
0.32338047 0.14331973 0.10657406
0.32417145 0.22692168 0.08915329
0.32524446 0.25442272 0.065514088
0.32250345 0.02524972 0.1258831
0.32300246 -0.21135926 0.11488914
0.31795546 0.18173969 0.09822607
0.31654444 -0.01065731 0.12989521
0.31680447 0.025033712 0.12405729
0.31707546 0.062113702 0.11799002
0.31593746 -0.094379306 0.143538
0.31170845 0.10969073 0.10834122
0.31274146 0.22649872 0.084686279
0.31084746 -0.010883272 0.12807035
0.31110245 0.024816692 0.1222291
0.31025046 -0.094622254 0.14172697
0.30650544 0.18137568 0.094528198
0.30702245 0.22628671 0.082452297
0.30575645 -0.21172225 0.11203003
0.30456346 -0.094867349 0.13991737
0.30027446 0.1092937 0.104671
0.30050245 0.14256072 0.099225044
0.30077645 0.18119371 0.09267807
0.30000547 -0.21184528 0.1110754
0.29887247 -0.095112324 0.13810635
0.29423144 0.061275721 0.11066532
0.29425445 -0.21197033 0.11011696
0.28931046 0.18082571 0.088974953
0.28984144 0.22564667 0.075743198
0.28310046 0.10869372 0.099159241
0.28357345 0.18064171 0.087123394
0.28150845 -0.15278435 0.13966799
0.27758047 0.14178967 0.091863155
0.27634445 -0.05454129 0.12403917
0.27683544 0.023497701 0.11125135
0.27706945 0.060638726 0.1051631
0.27089545 -0.012483299 0.11528111
0.26634645 0.18008369 0.081561089
0.26688844 0.22478473 0.066787243
0.26776046 0.25236171 0.04299736
0.26016346 0.10788268 0.091798306
0.25920546 -0.055267274 0.11856031
0.25945446 -0.012948275 0.111619
0.26199144 0.25215268 0.040742397
0.25971445 -0.21274126 0.10434008
0.25896144 -0.096858263 0.12538004
0.25442344 0.10767871 0.089957237
0.25538844 0.22434968 0.062301159
0.25348747 -0.055510283 0.11673212
0.25622046 0.25194269 0.038484097
0.25395447 -0.21287429 0.10337114
0.24724345 -0.15412533 0.13028812
0.24753445 -0.097367287 0.12173128
0.24227446 -0.013650298 0.10612297
0.24242945 -0.21314228 0.10142899
0.23811346 0.22369373 0.055568218
0.23888445 0.25130868 0.031702042
0.23692745 0.059126675 0.092296124
0.23058645 -0.056494296 0.10941219
0.23118246 0.058907688 0.090456009
0.23089845 -0.21341527 0.099482059
0.23010145 -0.15493226 0.12484217
0.22604646 0.17875868 0.068554401
0.22524646 0.021465719 0.094730377
0.22027846 0.17856669 0.066692352
0.21950045 0.021236718 0.092891216
0.21936345 -0.21369231 0.097527027
0.21392846 0.058245718 0.084928036
0.20873146 0.17818069 0.0629673
0.20925246 0.22258568 0.044326305
0.20816946 0.058023691 0.083082199
0.20720646 -0.15602028 0.1175704
0.20346946 0.2223627 0.042076111
0.20204845 -0.21411729 0.094583988
0.20170945 -0.099435329 0.1070981
0.19648646 0.020309687 0.085523129
0.19122046 0.13880271 0.064139366
0.19039945 -0.058248281 0.096570969
0.19263646 0.24903971 0.0081810951
0.18530345 0.1051687 0.067786217
0.18683846 0.24872869 0.0050020218
0.18426545 -0.15712428 0.11028528
0.18447746 -0.10022533 0.10159922
0.17952545 0.10495472 0.065934181
0.17919445 0.019605696 0.079988956
0.17872846 -0.10049129 0.099765301
0.17374346 0.10473973 0.064081192
0.16869445 0.22100872 0.028548241
0.16752346 -0.016783297 0.082214355
0.16941646 0.24779367 -0.0045428276
0.16217145 0.10430872 0.060372353
0.16228746 0.13777173 0.054854393
0.16288546 0.22078073 0.026288986
0.16359846 0.24748069 -0.0077300072
0.15707245 0.22055173 0.024029255
0.15622045 0.055989683 0.066444397
0.15082346 0.1762107 0.044288158
0.15010646 -0.21615434 0.081634045
0.14993446 -0.10183132 0.090578079
0.14442246 -0.01777631 0.074830055
0.14453146 0.018176675 0.068899155
0.14464445 0.055529714 0.062737942
0.14416745 -0.10210228 0.088739395
0.13899046 0.10343671 0.052940369
0.13908646 0.13693368 0.047412395
0.13961345 0.2198627 0.0172472
0.13864046 -0.018026292 0.072982311
0.13885146 0.055298686 0.060883999
0.13854346 -0.21665335 0.078540325
0.13442546 0.24590468 -0.023681641
0.13305447 0.055065691 0.059028149
0.13275646 -0.21690536 0.076989174
0.12738046 0.10299671 0.049220085
0.12757546 0.17540473 0.036791325
0.12696846 -0.21715724 0.07543993
0.12670746 -0.15995026 0.092017174
0.12116946 -0.06135428 0.074463367
0.12136146 0.017208695 0.061488152
0.12106646 -0.10319436 0.081370354
0.11575945 0.10255373 0.045495033
0.11547846 -0.01903528 0.065582275
0.11556146 0.016964674 0.059635162
0.11528446 -0.10346925 0.079525948
0.10994446 0.10233068 0.043633938
0.11010746 0.17479271 0.031160355
0.10968146 -0.019289315 0.06373024
0.10984046 0.05412972 0.051597118
0.10419246 0.13565671 0.036221981
0.10395145 0.016473711 0.055922031
0.098075457 -0.019801319 0.060022354
0.097988456 -0.21843624 0.067673206
0.09781646 -0.16140032 0.082849979
0.097916454 -0.10430133 0.073990345
0.09247946 0.10165769 0.0380373
0.092194453 -0.062685251 0.065216064
0.09202946 -0.16169333 0.081014156
0.087029457 0.21775872 -0.0031599998
0.086390458 -0.062954307 0.063363075
0.086238459 -0.16198635 0.079178333
0.086324453 -0.10486031 0.07029438
0.080820456 0.10120571 0.034302235
0.080869451 0.13479072 0.028744221
0.080583453 -0.063224316 0.06151104
0.080751456 0.05294168 0.042289257
0.074985459 0.10097867 0.032433033
0.074771456 -0.063495278 0.059658051
0.074757457 -0.2194773 0.061440945
0.069148451 0.10075068 0.030563354
0.069187455 0.13435268 0.024994373
0.069236457 0.17334068 0.017988205
0.068958461 -0.063766241 0.057803154
0.069773458 0.24237573 -0.05892992
0.069049455 0.014980674 0.044764042
0.063863456 0.24205071 -0.062143803
0.057359457 -0.021617293 0.047019005
0.057947457 0.24172473 -0.065361023
0.057390455 0.014476717 0.041038036
0.057308458 -0.22027028 0.056755066
0.051641457 0.13368869 0.019347191
0.051554456 0.014223695 0.039175034
0.051581457 0.051733673 0.032957077
0.051484458 -0.22053635 0.05519104
0.045786455 0.13346571 0.017460346
0.045616455 -0.16407025 0.066298008
0.039928459 0.13324273 0.015576363
0.040166456 0.2407437 -0.075022697
0.039824456 -0.10713327 0.055476189
0.034057457 0.099367678 0.019327164
0.034132458 0.21560168 -0.0236516
0.034022458 -0.022674322 0.039569378
0.028198456 0.099134684 0.017450333
0.028209455 0.17185467 0.0047702789
0.028174456 -0.065693259 0.044794083
0.028180456 -0.022940278 0.037703991
0.028284457 0.24008572 -0.081472874
0.028191457 0.050752699 0.025476933
0.022333456 -0.023207307 0.035837173
0.022333456 -0.10800028 0.049904346
0.016467456 0.098665714 0.01369524
0.016485456 -0.023475289 0.033970356
0.016474456 0.050257683 0.021731377
0.016497456 -0.10829234 0.048045158
0.010520456 0.21462572 -0.032786846
0.010646457 -0.066532254 0.039205074
0.010633457 -0.023744285 0.032104015
0.0047254562 0.098193705 0.0099372864
0.0047104564 0.13188571 0.0042443275
0.0047464557 0.049759686 0.017981052
-0.0011715442 0.13165671 0.0023522377
-0.0010555442 -0.067096353 0.035475254
-0.0010805428 -0.024285316 0.028365135
-0.0010365434 -0.22298133 0.04106617
-0.0010315441 -0.10917127 0.042463303
-0.0070315432 0.097718716 0.0061731339
-0.0069425441 -0.024556279 0.02649498
-0.012943543 0.13119769 -0.0014338493
-0.012685545 -0.16713035 0.047821999
-0.019084543 0.21339071 -0.044230938
-0.018712543 0.011119723 0.016728401
-0.018589545 -0.11005831 0.036874294
-0.024449542 -0.2240963 0.034758091
-0.030583542 0.09676069 -0.0013628006
-0.030240543 -0.16806829 0.042262077
-0.036301542 -0.025927305 0.017127991
-0.036175545 -0.22466028 0.031598091
-0.036098544 -0.16838229 0.040407181
-0.042434543 0.13003671 -0.010920048
-0.042502545 0.16922969 -0.017998695
-0.042842545 0.21239072 -0.053407669
-0.042182542 -0.026204288 0.015252113
-0.042047545 -0.11125529 0.029407024
-0.04813154 0.0097917318 0.007335186
-0.048196547 0.047476709 0.001060009
-0.05418954 0.095789731 -0.0089168549
-0.054746546 0.2118867 -0.058002949
-0.053876542 -0.06967926 0.018644333
-0.054097541 0.047219694 -0.00082588196
-0.05369354 -0.16933227 0.034835339
-0.053797543 -0.11185932 0.025668144
-0.059762545 -0.069971323 0.016767025
-0.059658542 -0.22580135 0.025263309
-0.059564546 -0.16965032 0.032976151
-0.065824546 0.0089837313 0.0016880035
-0.065906547 0.046701729 -0.0045967102
-0.065536544 -0.22608829 0.023677349
-0.065438546 -0.16997027 0.031115055
-0.071928546 0.095053673 -0.014589787
-0.071643546 -0.027601302 0.0058569908
-0.071727544 0.008712709 -0.00019598007
-0.071416542 -0.22637725 0.022089005
-0.077439547 -0.070851326 0.011137962
-0.077545546 -0.027883291 0.0039753914
-0.077728547 0.046180725 -0.0083756447
-0.083981544 0.16762269 -0.0315938
-0.083339542 -0.07114625 0.0092592239
-0.083188541 -0.22695935 0.018909931
-0.089701541 0.094310701 -0.020273685
-0.090624541 0.20991671 -0.075947762
-0.088972546 -0.17125833 0.023666382
-0.094864547 -0.17158329 0.021800995
-0.10118955 -0.029020309 -0.0035629272
-0.10130154 0.0073466897 -0.0096330643
-0.10141654 0.045128703 -0.015940666
-0.10075954 -0.17190826 0.019936085
-0.10778855 0.1665377 -0.040715694
-0.10676554 -0.22813535 0.012537956
-0.10665955 -0.17223525 0.018070221
-0.11374955 0.16626471 -0.042998791
-0.11303355 -0.029594302 -0.0073366165
-0.11315554 0.0067936778 -0.013415813
-0.11971554 0.16599172 -0.045283794
-0.11896054 -0.029882312 -0.0092258453
-0.11846654 -0.17289126 0.014332294
-0.12672454 0.20778972 -0.095164776
-0.12502354 0.0062366724 -0.017200947
-0.12457855 -0.11556327 0.0031523705
-0.13166055 0.16544169 -0.049856663
-0.13276154 0.20743269 -0.098374844
-0.13082354 -0.030461311 -0.013006687
-0.13096154 0.0059577227 -0.019094944
-0.13110554 0.043795705 -0.025420666
-0.13764055 0.16516572 -0.052145004
-0.13642554 -0.11619425 -0.00061368942
-0.14335254 0.12594873 -0.043354988
-0.14916855 0.091781676 -0.039288044
-0.15666655 -0.35227132 -0.33548403
-0.15529254 0.12545371 -0.047190666
-0.15560155 0.1643337 -0.059014797
-0.15696955 0.20599669 -0.11123085
-0.15492155 0.042714715 -0.033023834
-0.15422054 -0.11714828 -0.0062727928
-0.16159955 0.16405469 -0.061309814
-0.15990755 -0.17522025 0.0012249947
-0.16707954 0.091008723 -0.045011997
-0.16724855 0.12495571 -0.051030636
-0.16910954 0.20527369 -0.11767197
-0.16630155 -0.075376272 -0.017148972
-0.16650355 -0.032221317 -0.024374008
-0.17177655 -0.33004725 -0.21316767
-0.17305654 0.090748727 -0.04692173
-0.17323054 0.12470472 -0.052951813
-0.17225355 -0.075686336 -0.019042015
-0.17842454 -0.032814324 -0.028172016
-0.18562554 0.16293073 -0.070491791
-0.18439054 -0.033112288 -0.030071735
-0.18372555 -0.23207927 -0.0083036423
-0.18366355 -0.17657328 -0.0062880516
-0.19164455 0.16264868 -0.072790623
-0.19075455 0.041067719 -0.044458866
-0.18966854 -0.23239028 -0.0099158287
-0.19700354 0.089703679 -0.054573059
-0.19766654 0.16236472 -0.075090885
-0.19610155 -0.076932311 -0.026629925
-0.19633554 -0.033711314 -0.033874989
-0.19653355 0.002827704 -0.040001869
-0.19561355 -0.23270226 -0.011529922
-0.19587155 -0.1194073 -0.019507885
-0.20299955 0.08943969 -0.056488991
-0.20251554 0.0025377274 -0.041909695
-0.20156154 -0.23301625 -0.013144016
-0.20183554 -0.11973429 -0.021400928
-0.20829254 -0.034314275 -0.037682056
-0.20871854 0.040231705 -0.050191879
-0.20751254 -0.23333025 -0.014759064
-0.21500355 0.088910699 -0.060322762
-0.21790755 0.20235169 -0.143507
-0.21449354 0.001955688 -0.045725822
-0.21471654 0.039952695 -0.05210495
-0.21547054 -0.30487633 -0.07369566
-0.22048755 0.0016627312 -0.047636986
-0.22071554 0.039671719 -0.054018021
-0.21975154 -0.12072027 -0.027093887
-0.23016754 0.20161372 -0.14998484
-0.22625954 -0.035225272 -0.043402672
-0.22648454 0.0013697147 -0.049547672
-0.22538655 -0.2342813 -0.019612789
-0.23326555 0.12216067 -0.072227955
-0.23272553 0.03910768 -0.05784893
-0.23171353 -0.12138236 -0.030891895
-0.23825455 -0.035837293 -0.047220707
-0.23849055 0.00078070164 -0.05337286
-0.23733354 -0.17967927 -0.023251057
-0.24531853 0.12164271 -0.076097012
-0.24600354 0.16007173 -0.093533993
-0.24425954 -0.036144316 -0.04913187
-0.24450153 0.00048369169 -0.055287838
-0.24475256 0.038539708 -0.061684608
-0.24544853 -0.30611932 -0.079404831
-0.24997354 -0.079791307 -0.043758869
-0.25051355 0.00018769503 -0.057202816
-0.24968654 -0.12238431 -0.036599636
-0.25813153 0.1594907 -0.098157883
-0.25597754 -0.080114245 -0.045665741
-0.25627655 -0.036761284 -0.052955627
-0.25524154 -0.23588824 -0.027729034
-0.25529054 -0.18073428 -0.028926849
-0.26316455 0.086761713 -0.075705051
-0.26198554 -0.080437303 -0.047577858
-0.26255053 -0.0004093051 -0.061037064
-0.26346454 -0.30688035 -0.082851887
-0.26122254 -0.23621225 -0.029355049
-0.26920354 0.086488724 -0.077632904
-0.27027956 0.1589067 -0.10278702
-0.26857555 -0.00070828199 -0.06295681
-0.26720753 -0.23653829 -0.030983925
-0.26728153 -0.18144226 -0.032712936
-0.27524453 0.086215675 -0.079560757
-0.27551654 0.12033373 -0.085788727
-0.27401555 -0.081087351 -0.051399708
-0.27460355 -0.0010082722 -0.064875603
-0.27319455 -0.23686528 -0.032612801
-0.27370155 -0.12373233 -0.044223785
-0.28156754 0.12006968 -0.087728977
-0.28003454 -0.081414342 -0.053312778
-0.28092155 0.036816716 -0.073218822
-0.27928653 -0.1821543 -0.036503792
-0.27971455 -0.12407231 -0.046130657
-0.28762254 0.11980468 -0.089671612
-0.29183754 0.19787371 -0.18249369
-0.28605855 -0.081741333 -0.055226803
-0.28752255 -0.30791426 -0.08747673
-0.28517956 -0.23752332 -0.035875797
-0.28529453 -0.18251228 -0.038403034
-0.28573155 -0.1244123 -0.048040867
-0.29300755 0.03623569 -0.077069759
-0.29130656 -0.18287027 -0.040300846
-0.29945055 0.085113704 -0.087305069
-0.30551153 0.084835708 -0.089247704
-0.31157655 0.084556699 -0.091189861
-0.31188256 0.1187377 -0.097454071
-0.31055054 -0.039585292 -0.070222855
-0.31085354 -0.0028303266 -0.07641983
-0.31162253 -0.30897033 -0.092133999
-0.31795755 0.1184687 -0.099401951
-0.31904954 0.15654069 -0.12134886
-0.32403755 0.11819869 -0.10135174
-0.32296956 -0.003444314 -0.080276966
-0.32329655 0.034766674 -0.086724758
-0.32142654 -0.18468034 -0.04981184
-0.33011955 0.11792868 -0.103302
-0.32903254 -0.0037533045 -0.08220768
-0.33438954 -0.084394336 -0.070580006
-0.33509955 -0.004062295 -0.08413887
-0.33325756 -0.24019933 -0.048980713
-0.33350053 -0.18541229 -0.053622723
-0.34354654 0.1553387 -0.13066196
-0.34180653 -0.3103193 -0.09800005
-0.34006253 -0.12752426 -0.065279007
-0.34805155 0.082865715 -0.10287571
-0.34651053 -0.085068345 -0.074429989
-0.34559053 -0.18614829 -0.05743885
-0.35414556 0.082580686 -0.10482788
-0.35389954 -0.31086826 -0.10035896
-0.35164255 -0.18651724 -0.05934763
-0.36059454 0.11656469 -0.11307383
-0.35940954 -0.0053082705 -0.09187603
-0.35737956 -0.24156535 -0.055563927
-0.36375654 -0.18725932 -0.06317091
-0.36431354 -0.12893331 -0.072969913
-0.38043255 0.15351272 -0.14466906
-0.37811753 -0.31198227 -0.10510492
-0.37550753 -0.24260235 -0.060516834
-0.37646154 -0.12964427 -0.07682085
-0.38504854 0.11545968 -0.1209116
-0.38341355 -0.043467283 -0.093389034
-0.38254353 -0.13000131 -0.078749657
-0.39117154 0.11518168 -0.12287378
-0.38906553 -0.087455273 -0.087939739
-0.38862753 -0.13035929 -0.080679893
-0.39729956 0.11490268 -0.12483883
-0.39516056 -0.087800264 -0.089872837
-0.39411354 -0.18913424 -0.072747707
-0.40512055 0.15228069 -0.15403605
-0.40956753 0.11434168 -0.12877083
-0.40783054 -0.044791281 -0.1011467
-0.40822354 -0.0078462958 -0.10740566
-0.40628454 -0.18989134 -0.076586723
-0.41530454 0.079688728 -0.12440968
-0.41186255 -0.24470735 -0.070458889
-0.41237655 -0.19027233 -0.078508854
-0.42144254 0.079394698 -0.12637472
-0.42185253 0.1137777 -0.13270664
-0.42088854 0.029922724 -0.11781168
-0.42618555 -0.045795321 -0.10697985
-0.42669055 -0.31427526 -0.11469078
-0.43608755 0.15072173 -0.16577387
-0.43181854 -0.089890242 -0.10150385
-0.43272853 -0.0091363192 -0.11519861
-0.43133456 -0.13289428 -0.094213963
-0.43988454 0.078507721 -0.13227701
-0.44031155 0.11292672 -0.1386199
-0.43794453 -0.090242267 -0.10344887
-0.43844455 -0.046469271 -0.11087275
-0.43886355 -0.31486225 -0.11710882
-0.43621555 -0.24624634 -0.077758789
-0.43678555 -0.19180632 -0.086220741
-0.44603956 0.078210711 -0.13424683
-0.44545254 0.028675675 -0.12563086
-0.44357455 -0.13362825 -0.098091602
-0.45263755 0.1123547 -0.14256907
-0.45104754 -0.31545532 -0.11953402
-0.45836353 0.077613711 -0.13818979
-0.45686156 -0.047486305 -0.11672401
-0.45714355 -0.31575334 -0.1207509
-0.46453255 0.077313721 -0.1401639
-0.46248454 -0.091660261 -0.1112318
-0.46345654 -0.010770321 -0.12496996
-0.47070456 0.077013731 -0.142138
-0.46739054 -0.19375229 -0.095900059
-0.47477853 -0.092375278 -0.11513186
-0.47545153 -0.31665635 -0.12440968
-0.48306257 0.076409698 -0.14609098
-0.48589253 0.14818668 -0.18462563
-0.48516756 -0.24951029 -0.093165874
-0.49429053 -0.012428284 -0.13476992
-0.49195153 -0.19532835 -0.10366488
-0.50163352 0.075497687 -0.1520319
-0.50046957 -0.012762308 -0.13673401
-0.50665355 -0.013097286 -0.13869905
-0.51403457 0.074884713 -0.15599871
-0.51456153 0.10939968 -0.16276979
-0.51234853 -0.050592303 -0.13433981
-0.51335257 0.025174677 -0.14723873
-0.51119453 -0.13773835 -0.11950588
-0.52024353 0.074577689 -0.15798283
-0.52080452 0.10906172 -0.16511583
-0.51903552 -0.013771296 -0.14263391
-0.51827955 -0.3188113 -0.13302374
-0.51590252 -0.25158727 -0.10283375
-0.51736957 -0.13811827 -0.12146187
-0.52705157 0.10872269 -0.16746283
-0.52523255 -0.014109313 -0.14460278
-0.52274853 -0.19732428 -0.1133976
-0.53267157 0.073959708 -0.16195774
-0.53143352 -0.014448285 -0.14657307
-0.52822554 -0.25242734 -0.10671091
-0.52972752 -0.13888133 -0.12537384
-0.53955954 0.1080417 -0.17215776
-0.53712255 -0.051998317 -0.1422019
-0.53817457 0.023873687 -0.15513277
-0.54439056 0.023546696 -0.15710974
-0.54127854 -0.19853425 -0.11925173
-0.54210353 -0.13964927 -0.12928867
-0.55365455 -0.19934726 -0.12316084
-0.56381953 0.072401702 -0.17191601
-0.56125957 -0.32103527 -0.1417408
-0.56070256 -0.14080834 -0.13517475
-0.57092154 0.10632569 -0.18392467
-0.56754452 -0.097868323 -0.14453363
-0.56873554 -0.016502321 -0.15842104
-0.56930155 0.022227705 -0.16503096
-0.56530154 -0.25497329 -0.11836767
-0.57496953 -0.016847312 -0.16039991
-0.57554156 0.021895707 -0.16701603
-0.57225257 -0.20057535 -0.129035
-0.58350354 0.10563368 -0.18864298
-0.58882052 0.07113868 -0.17990494
-0.58621752 -0.098995328 -0.1504488
-0.58744752 -0.017542303 -0.16436291
-0.58467156 -0.20139933 -0.13295698
-0.58556253 -0.14236927 -0.14303875
-0.59508157 0.070820689 -0.1819067
-0.59312356 -0.055219293 -0.15996695
-0.59369355 -0.017890275 -0.16634798
-0.59205854 -0.32266533 -0.14803267
-0.60607857 0.14120167 -0.23639774
-0.59868854 -0.099751353 -0.15439987
-0.59631956 -0.25712824 -0.12811804
-0.61251056 0.14076668 -0.23965597
-0.60561955 -0.05594629 -0.16393089
-0.60253757 -0.25756228 -0.13007164
-0.60333657 -0.20264435 -0.13884878
-0.60425556 -0.14355135 -0.14895201
-0.60956657 -0.20306134 -0.14081573
-0.62539256 0.13989371 -0.24617386
-0.61498457 -0.25843525 -0.13398266
-0.62770057 0.10318267 -0.20519686
-0.62439352 -0.057044327 -0.16988182
-0.62299556 -0.32443428 -0.15494967
-0.62204057 -0.20389926 -0.14475298
-0.63403755 0.10282969 -0.20756769
-0.63830352 0.13901669 -0.25270367
-0.62745154 -0.25931334 -0.13789988
-0.62924355 -0.14514232 -0.15685177
-0.64534152 0.068245709 -0.19796276
-0.64169854 -0.32569826 -0.16013479
-0.64078754 -0.20516527 -0.15066862
-0.64176357 -0.14594531 -0.1608119
-0.64794153 -0.32612228 -0.16186762
-0.64803052 -0.14634728 -0.16279173
-0.65795153 0.06759268 -0.2019906
-0.65577954 -0.058894277 -0.17983198
-0.65418756 -0.32654727 -0.16359997
-0.65243757 -0.26108229 -0.14574766
-0.66426557 0.067265689 -0.20400667
-0.66131955 -0.10359526 -0.17422676
-0.67058355 0.066936731 -0.20602369
-0.67720252 0.13636571 -0.27233982
-0.66669554 -0.32740235 -0.16707182
-0.66584754 -0.20686924 -0.15857506
-0.67690557 0.066607714 -0.20804405
-0.67292255 -0.32777333 -0.16849279
-0.68491054 0.099968731 -0.22658873
-0.69022453 0.13547468 -0.27890205
-0.68019855 -0.10476935 -0.18020105
-0.67749852 -0.26287127 -0.15361691
-0.69590157 0.065613687 -0.21410799
-0.69280952 -0.10555732 -0.18419266
-0.69098157 -0.20859134 -0.16650391
-0.70407856 0.098881721 -0.23374605
-0.70945352 0.13452369 -0.2853179
-0.69912153 -0.10595226 -0.1861887
-0.70543855 -0.10634935 -0.1881876
-0.70624053 -0.061906278 -0.19582272
-0.72211355 0.1340847 -0.28787184
-0.71396554 0.014355719 -0.21099663
-0.71096456 -0.15043736 -0.18267965
-0.71890455 -0.06267035 -0.19983482
-0.71521056 -0.26555824 -0.16526794
-0.71619254 -0.21033227 -0.17445183
-0.72933555 0.097839713 -0.23982286
-0.72441953 -0.10754526 -0.19419193
-0.72151154 -0.26600933 -0.16720676
-0.73400557 0.0636217 -0.22612
-0.74113053 0.13342071 -0.29169989
-0.73228955 -0.025807321 -0.21032286
-0.72993755 -0.15168536 -0.18867302
-0.73709553 -0.10834825 -0.19819975
-0.73938155 0.012934685 -0.21906805
-0.74826354 0.097112715 -0.24387407
-0.75382555 0.13297468 -0.29425001
-0.74344355 -0.10875225 -0.20020866
-0.74428952 -0.064209342 -0.20787382
-0.74500555 -0.026551306 -0.21435595
-0.74574852 0.012577713 -0.22108889
-0.74261153 -0.15252328 -0.19267464
-0.75458056 0.096867681 -0.24522495
-0.74979353 -0.10915625 -0.20221567
-0.75136954 -0.026924312 -0.21637297
-0.75614953 -0.10956132 -0.20422506
-0.75849456 0.011859715 -0.22513485
-0.75308752 -0.26828229 -0.17692804
-0.76337755 -0.065375328 -0.21391678
-0.76487553 0.011499703 -0.22715998
-0.76049453 -0.21342528 -0.18841505
-0.77354956 0.096131682 -0.24927902
-0.76574153 -0.33180225 -0.18075085
-0.76684254 -0.21387231 -0.19041586
-0.77524656 -0.11078429 -0.21026373
-0.77195257 -0.33208025 -0.18157482
-0.77437955 -0.15463829 -0.20270586
-0.79198956 0.1316247 -0.30188084
-0.77816457 -0.33235931 -0.18239784
-0.78074652 -0.15506434 -0.20471478
-0.79147756 0.060587704 -0.24410772
-0.78437954 -0.33263934 -0.18322182
-0.78591853 -0.21521831 -0.19642591
-0.79889554 0.095139682 -0.25468874
-0.80473757 0.13116968 -0.30442095
-0.79438752 -0.11201632 -0.21631384
-0.79605854 -0.029565275 -0.23053694
-0.79349756 -0.15592027 -0.20873976
-0.81111854 0.13094169 -0.30568886
-0.80077952 -0.11242926 -0.21833372
-0.80246353 -0.029946327 -0.23256779
-0.80887252 -0.030328274 -0.23459864
-0.81794453 0.09438771 -0.25875282
-0.81357455 -0.11325824 -0.22237682
-0.81528652 -0.030712306 -0.23663092
-0.81027156 -0.27251732 -0.19487906
-0.82438153 0.094055712 -0.26076984
-0.82303357 -0.27347326 -0.19888973
-0.83375752 -0.069729328 -0.2361927
-0.83187354 -0.15851724 -0.22084999
-0.84099555 -0.032255292 -0.24477482
-0.83581752 -0.27443528 -0.20290899
-0.84565353 -0.11535132 -0.23251295
-0.84661853 -0.070535302 -0.24026299
-0.84341455 -0.2193253 -0.21453285
-0.85583556 0.05710268 -0.26444769
-0.85473454 0.0063517094 -0.25566864
-0.84732354 -0.3364383 -0.19659281
-0.85112852 -0.15983033 -0.22692299
-0.86877257 0.056390703 -0.26855898
-0.86958253 0.091707706 -0.27492571
-0.86011654 -0.33744133 -0.20051861
-0.86144555 -0.27637327 -0.21096182
-0.87524754 0.056034684 -0.27061367
-0.87140954 -0.11704636 -0.24064779
-0.86652052 -0.33794427 -0.2024827
-0.86909956 -0.22118235 -0.22261763
-0.87971157 -0.034602284 -0.25703669
-0.88059354 0.0048447251 -0.26386881
-0.87292856 -0.33844924 -0.2044487
-0.88431752 -0.1178993 -0.2447238
-0.89470756 0.054957688 -0.27679586
-0.89179957 -0.073388338 -0.25455284
-0.89355457 0.0040857196 -0.26797867
-0.89724755 -0.11875832 -0.24880791
-0.90004253 0.0037047267 -0.27003574
-0.89486754 -0.2230593 -0.23072767
-0.89863354 -0.34050834 -0.21247482
-0.90003955 -0.27931929 -0.22308493
-0.90132254 -0.22353125 -0.23275805
-0.91503555 0.089315712 -0.28915262
-0.91211957 -0.036587298 -0.26729965
-0.91668051 -0.12005424 -0.25494289
-0.91861653 -0.036986291 -0.26935482
-0.91151851 -0.34154832 -0.21651173
-0.91565055 -0.1642853 -0.24726868
-0.92724556 0.05314368 -0.28712702
-0.92604852 0.0021697283 -0.27827883
-0.91797155 -0.34207129 -0.21853495
-0.92071956 -0.22495532 -0.2388587
-0.93460655 0.08826673 -0.2953577
-0.92861855 -0.16519129 -0.25135803
-0.94029653 0.052411675 -0.29126978
-0.93616354 -0.1213603 -0.26109171
-0.93367654 -0.22591126 -0.24293661
-0.94683057 0.05204469 -0.29334402
-0.94266754 -0.12179828 -0.26314592
-0.93735355 -0.34364629 -0.22460461
-0.93882257 -0.28231227 -0.23526192
-0.94016254 -0.22639024 -0.24497604
-0.94160652 -0.16610134 -0.25544882
-0.95026654 -0.077136278 -0.27303696
-0.94382757 -0.34417427 -0.22663403
-0.94530654 -0.28281534 -0.23729706
-0.94810957 -0.16655731 -0.25749874
-0.96077955 0.086852729 -0.30367661
-0.95867753 0.00022870302 -0.28862
-0.95461655 -0.16701531 -0.25954676
-0.96733654 0.086496711 -0.30576086
-0.96331757 -0.07798028 -0.27716303
-0.96112955 -0.16747534 -0.26160192
-0.97302252 0.050564706 -0.30165672
-0.96327353 -0.34576631 -0.23272562
-0.96764857 -0.16793525 -0.26365471
-0.98046553 0.085782707 -0.30993176
-0.97527057 -0.12400532 -0.27343369
-0.98293555 -0.079256296 -0.28336096
-0.98070252 -0.16885924 -0.26776791
-0.99272549 0.049444675 -0.30791187
-0.9894855 -0.079683304 -0.28543091
-0.99144053 -0.0017383099 -0.29899979
-1.0002025 0.084703684 -0.31620169
-0.99604154 -0.080112338 -0.28750277
-1.0058856 0.048692703 -0.31208563
-1.0067916 0.084341705 -0.31829596
