# .PCD v0.7 - Point Cloud Data file format
VERSION 0.7
FIELDS x y z
SIZE 4 4 4
TYPE F F F
COUNT 1 1 1
WIDTH 1
HEIGHT 1024
VIEWPOINT 0 0 0 1 0 0 0
POINTS 1024
DATA ascii
0.89429855 0.20847833 -0.94474125
0.87453055 0.26510936 -0.83565426
0.88340759 0.17270333 -0.9651742
0.8758806 0.21221936 -0.90205336
0.86675358 0.21407336 -0.88089848
0.8298316 0.27342933 -0.73296738
0.81153858 0.32753235 -0.62998009
0.83141857 0.12177336 -0.91861534
0.81109858 0.18825036 -0.79654741
0.78585559 0.33187932 -0.57149839
0.83077055 0.026430368 -1.0319152
0.82362759 0.067491353 -0.96773148
0.77738756 0.33331132 -0.55221939
0.7401216 0.51133633 -0.2717514
0.79353958 0.19202036 -0.75560427
0.75512058 0.42422736 -0.40760708
0.73841059 0.47541735 -0.31139612
0.78689361 0.13223034 -0.81371737
0.76977956 0.23373133 -0.65618229
0.76092857 0.28622836 -0.57470512
0.7945286 0.036061347 -0.94518518
0.74569255 0.33782536 -0.49195623
0.73892856 0.37836236 -0.42918634
0.69476157 0.59771538 -0.073810101
0.68693858 0.64509034 -0.00061750412
0.73076761 0.37963334 -0.41073322
0.76079059 0.13835233 -0.75223112
0.70062459 0.51573336 -0.18455744
0.69260955 0.56480038 -0.10893011
0.67941058 0.64560133 0.015608788
0.7781316 -0.020161629 -0.97879124
0.69871455 0.48031536 -0.22319031
0.7692166 -0.017617643 -0.95724726
0.73513359 0.14436537 -0.69180012
0.66972655 0.5669713 -0.058867455
0.72667956 0.14634532 -0.67188931
0.65379757 0.64639634 0.039445877
0.67525357 0.43537834 -0.22857523
0.66005856 0.48507634 -0.13730145
0.72541159 -0.0051316619 -0.85140228
0.6922906 0.21371233 -0.51957941
0.6933316 0.15414935 -0.59335804
0.69335055 0.10039735 -0.65803003
0.63209456 0.52334833 -0.033287048
0.6760686 0.21718132 -0.48177147
0.69900459 -0.048847675 -0.84921217
0.69127458 0.0045853257 -0.76893425
0.61729455 0.52498937 -0.00062322617
0.68286055 0.006978333 -0.7486105
0.61498159 0.49062034 -0.037157059
0.60994959 0.52580333 0.015587807
0.64117861 0.30747133 -0.31172848
0.62858456 0.39551535 -0.17973518
0.68859959 -0.09040463 -0.87760735
0.6659016 0.070147336 -0.63748837
0.66045356 0.10868335 -0.57985544
0.60094059 0.60259938 0.049725533
0.59537458 0.52741838 0.047752857
0.68103158 -0.15334666 -0.93759823
0.5915606 0.64620137 0.026864529
0.62908459 0.16894633 -0.44430542
0.67245758 -0.15044367 -0.91632938
0.58400357 0.60253233 0.046308517
0.5921486 0.44694436 -0.042331219
0.5770576 0.57224435 0.059444904
0.65411055 -0.19553667 -0.93250942
0.56578457 0.57219231 0.057175636
0.5764026 0.40360034 -0.061802387
0.6456266 -0.1925177 -0.91128731
0.63866556 -0.13900864 -0.83251143
0.5866766 0.26965034 -0.24418926
0.55575556 0.60241532 0.040611744
0.60783857 -0.021383643 -0.6271534
0.57165855 0.27266735 -0.2094183
0.5654676 0.32143337 -0.13793612
0.54621756 0.64604735 0.017703533
0.54166758 0.45394933 0.070776939
0.59743559 -0.061580658 -0.65391827
0.58552659 0.034606338 -0.51356316
0.61860657 -0.23257965 -0.90343237
0.57497156 0.12889832 -0.38917017
0.54942656 0.27713037 -0.15794849
0.53486955 0.64600736 0.015412807
0.52756757 0.45590335 0.10236454
0.60196155 -0.22638267 -0.86146832
0.5233646 0.49750435 0.084420681
0.54629856 0.24377233 -0.19157648
0.57353956 -0.054042637 -0.5953064
0.58551055 -0.22026163 -0.81999445
0.51333356 0.52871037 0.067387581
0.5316146 0.24689335 -0.15737343
0.51616061 0.60224533 0.03263092
0.51200658 0.41355234 0.083705902
0.54684055 0.04555732 -0.42018127
0.57735455 -0.21722871 -0.79943848
0.50933456 0.37756833 0.045973778
0.50503057 0.41462836 0.099464893
0.51708156 0.24998033 -0.12352419
0.51313555 0.28440535 -0.073942184
0.50648159 0.64590538 0.009680748
0.50768358 0.67786837 -0.0054321289
0.50965059 0.73012233 -0.030141354
0.53731757 -0.0002066493 -0.45546246
0.51893359 0.10756034 -0.29862833
0.50907356 0.19591534 -0.17193317
0.51782656 0.052331328 -0.36274147
0.48674059 0.57180536 0.04126358
0.49372858 0.76380032 -0.049564362
0.55868459 -0.32785171 -0.89374113
0.54386657 -0.26315171 -0.78521729
0.50023955 0.14761335 -0.21170044
0.4847666 0.29008436 -0.0082831383
0.55052656 -0.32448465 -0.87277651
0.52937859 -0.19940764 -0.67852736
0.49298155 0.14942735 -0.19446611
0.52401859 -0.14936262 -0.60723829
0.5041846 -0.032205641 -0.42523718
0.4895606 0.11527437 -0.22844219
0.51627058 -0.14662063 -0.58787632
0.47437257 0.25903833 -0.024064064
0.47237659 0.64577734 0.0027956963
0.47324559 0.20422435 -0.087642193
0.46779957 0.67774236 -0.013493061
0.47220558 0.80445433 -0.073481083
0.52633756 -0.31450969 -0.81062651
0.50090361 -0.14118463 -0.54947615
0.46645159 0.80444932 -0.074650288
0.48819858 -0.088278651 -0.45951319
0.45350158 0.26345837 0.024532795
0.45010358 0.29701233 0.071928501
0.44749159 0.41550434 0.10836887
0.46079558 0.12281936 -0.15972137
0.45218459 0.20910233 -0.038103104
0.44189358 0.41545635 0.10725069
0.5109666 -0.38898665 -0.86830616
0.50255656 -0.30471271 -0.74953413
0.46396959 0.020237327 -0.28965425
0.47325957 -0.083259642 -0.42250347
0.44392058 0.64566636 -0.0029444695
0.44783258 0.76372737 -0.058876038
0.50297856 -0.38546771 -0.84751225
0.48114458 -0.23860568 -0.62564707
0.48692757 -0.29827863 -0.70939016
0.42772457 0.49687034 0.065252781
0.47917756 -0.29509062 -0.68948841
0.41629758 0.30375832 0.15014696
0.42543557 0.60182035 0.014357567
0.41948459 0.41526335 0.10278082
0.47146958 -0.29191965 -0.66969109
0.43913558 -0.013374627 -0.27857542
0.44548559 -0.16833061 -0.46720743
0.44108358 -0.12005764 -0.40003347
0.43038458 -0.070575655 -0.32920837
0.40168157 0.38300535 0.11465454
0.40973157 0.64552736 -0.0098404884
0.45599359 -0.36479169 -0.72522831
0.39369357 0.30395436 0.15100956
0.40760258 0.76366132 -0.067037106
0.40294558 0.084698319 -0.085597038
0.40306759 0.80439734 -0.087535381
0.39607659 0.086628318 -0.069033146
0.38701257 0.45500636 0.077077866
0.39510357 0.72986233 -0.053341389
0.39321858 0.041347325 -0.11755943
0.38350058 0.52789938 0.041336536
0.38784158 0.67747033 -0.02964735
0.38138258 0.45496035 0.07595396
0.39152557 0.80438834 -0.08988142
0.37796658 0.14448434 0.038095951
0.37105957 0.22784436 0.15266562
0.39479858 -0.058658659 -0.24108839
0.37255359 0.34310234 0.12789488
0.38361958 0.72983432 -0.0556674
0.39465159 -0.14955765 -0.3392272
0.36849856 0.18044734 0.1009798
0.39171258 -0.10445666 -0.28976011
0.38779059 -0.056313634 -0.22373819
0.36696559 0.34304237 0.12678671
0.38844457 -0.14914566 -0.33671713
0.36137757 0.34298134 0.12567568
0.37420157 0.80437332 -0.093402386
0.36592257 0.049472332 -0.051184177
0.38135758 -0.14653367 -0.31888247
0.35999057 0.49637634 0.051696777
0.35687459 0.38256633 0.10574484
0.35885158 0.45477134 0.071455956
0.36842456 0.80436838 -0.094575405
0.38944459 -0.25825268 -0.45912838
0.35918558 0.051476359 -0.034803391
0.36698958 -0.049359679 -0.17224407
0.35635358 0.57107937 0.015060902
0.35213459 0.41465434 0.089364529
0.35321558 0.45472336 0.07033062
0.37073058 -0.19556171 -0.34494448
0.36374158 -0.094622672 -0.21993446
0.35316357 0.88389337 -0.13590336
0.34235558 0.10169637 0.060490608
0.35201257 0.83989835 -0.11498928
0.37951156 -0.40474266 -0.61467934
0.37383458 -0.32874268 -0.51152134
0.34997359 -0.089786649 -0.18556929
0.33443758 0.38233835 0.10128975
0.34647757 -0.13368767 -0.23110723
0.32882559 0.38228035 0.10017395
0.37666059 -0.5617606 -0.79757023
0.32791358 0.57090634 0.0093517303
0.33056358 0.67726034 -0.041211128
0.33372957 0.80433732 -0.10162544
0.35759357 -0.39454967 -0.55697346
0.31497458 0.27518034 0.14880371
0.31936657 0.45443034 0.063578606
0.32881159 0.83989537 -0.11971331
0.32285658 -0.080272675 -0.11790133
0.31102359 0.34242135 0.11569691
0.32215157 0.80432636 -0.10397911
0.35421357 -0.55000561 -0.73689318
0.29626459 0.18954837 0.18613768
0.29981858 0.34229237 0.11347771
0.30961958 0.76348633 -0.08690834
0.30113357 0.64505231 -0.031727314
0.28973457 0.033281326 0.087337494
0.30076659 0.88394034 -0.14658833
0.28949758 0.38186535 0.092363834
0.28707758 0.52721739 0.022028923
0.29037958 0.67710638 -0.049319267
0.29153657 0.72959733 -0.074305058
0.32395858 -0.63371569 -0.77481222
0.31762758 -0.5308736 -0.63802433
0.28591856 -0.11144167 -0.078786373
0.27738959 0.34203035 0.10904074
0.28393957 0.64497232 -0.035190105
0.28650057 0.76344335 -0.091593266
0.31660858 -0.62959868 -0.75462341
0.28409657 0.92274034 -0.16863346
0.28256458 -0.16334063 -0.13423443
0.27820459 0.64494538 -0.036345482
0.27330458 0.41388133 0.073681831
0.28071758 0.76343232 -0.092767239
0.30929959 -0.6255067 -0.73454523
0.28961957 -0.29193968 -0.29264641
0.27824458 0.92275137 -0.16982222
0.27092057 0.57054532 -0.0020804405
0.26699257 0.38162035 0.087897778
0.27313459 0.67703831 -0.052798271
0.27652156 0.83988935 -0.13035917
0.30202857 -0.62143761 -0.7145772
0.28704157 -0.3618136 -0.3713212
0.25801757 0.043137372 0.16496372
0.25743759 0.18895137 0.17851782
0.26381859 -0.059605658 0.029379845
0.26432759 0.52704632 0.017478943
0.26521358 0.57050735 -0.0032253265
0.26738459 0.67701536 -0.053958416
0.25414857 0.30225933 0.12341452
0.25717658 0.45386335 0.051185608
0.26335758 0.76339835 -0.096286297
0.28761157 -0.61337262 -0.67498636
0.27790257 -0.4374637 -0.4433341
0.24711558 0.22888136 0.1572299
0.25009859 0.38143235 0.08454895
0.25524959 0.64483535 -0.040968418
0.24024957 0.16125035 0.18832684
0.24154258 0.22879833 0.15613461
0.24294558 0.30211335 0.12120485
0.24808058 0.57039434 -0.0066595078
0.27335057 -0.60540169 -0.63583136
0.25667357 -0.27981967 -0.22060347
0.24068758 -0.09487164 0.034935951
0.23521757 0.18859935 0.17416191
0.23841757 -0.050734639 0.092721939
0.24155259 0.52687132 0.012924671
0.23681957 0.27413332 0.13339663
0.24293756 0.60082638 -0.02232933
0.23882657 0.38130534 0.082313538
0.25732359 -0.4273116 -0.38845539
0.25005257 -0.27693766 -0.20340919
0.27204758 -0.71359068 -0.76321936
0.23173758 0.30196434 0.11899471
0.24018759 0.76335233 -0.10098219
0.25924757 -0.59752363 -0.59711409
0.25053659 -0.42396563 -0.37035942
0.22563158 0.27397633 0.13119555
0.22812758 0.41341135 0.064706802
0.23576158 0.83988434 -0.13865709
0.22445658 0.52673835 0.0095076561
0.22521758 0.57024038 -0.011241436
0.22485358 0.88401133 -0.16208124
0.21144357 0.0023973584 0.21255159
0.21491158 0.30173832 0.11567688
0.22076757 0.64466631 -0.04790926
0.22131658 0.67682636 -0.063249111
0.21750258 0.45348334 0.043288708
0.22720158 -0.33651668 -0.22766304
0.21699157 0.76330537 -0.10568237
0.21767358 0.80422533 -0.12520742
0.22065058 -0.3334927 -0.21044207
0.21410158 -0.18883163 -0.022922039
0.23648259 -0.69225162 -0.6638155
0.20071158 0.11837137 0.20087671
0.20184357 0.18805635 0.1676259
0.21243358 0.83988136 -0.14340734
0.21102658 -0.25997669 -0.10209227
0.20777957 -0.1862666 -0.006729126
0.19460557 0.082460344 0.21688795
0.20163658 0.52655637 0.0049467087
0.19763158 0.27357733 0.12568855
0.20047759 0.45331636 0.039903641
0.20859759 0.96615636 -0.20487213
0.20603257 0.80421335 -0.12757111
0.20203857 0.92289734 -0.18541241
0.19070558 0.18787134 0.16544676
0.19202557 0.27349633 0.12458563
0.19245657 0.30143136 0.11124992
0.19706857 0.60054731 -0.031536102
0.19306658 0.34099132 0.092365742
0.19905359 0.72933733 -0.09301424
0.20020857 0.80420732 -0.12875319
0.19827858 -0.25444371 -0.069003105
0.21560659 -0.67974561 -0.60549116
0.19558159 0.88404036 -0.16805649
0.18513457 0.18777835 0.16435671
0.18641958 0.27341437 0.1234827
0.18743257 0.34091938 0.091252804
0.19247058 0.67670333 -0.069065094
0.19325958 0.72931933 -0.094185352
0.21169658 -0.74916166 -0.68085241
0.18121958 0.30127537 0.10903692
0.18669657 0.67667937 -0.070229053
0.18907757 0.83987832 -0.14816046
0.18565857 -0.24897164 -0.036257267
0.18280157 -0.17613965 0.057245731
0.17205659 0.051297367 0.2272687
0.17269458 -0.070047677 0.20578766
0.17455758 0.22776532 0.1429987
0.17520258 0.27324933 0.12127781
0.18092057 0.67665434 -0.07139349
0.18166658 0.72928536 -0.096531391
0.16959158 0.27316636 0.12017584
0.16997658 0.30111736 0.10682297
0.17514358 0.67662835 -0.072557449
0.17738958 0.83987737 -0.15054035
0.16254658 -0.11704963 0.17030954
0.16735658 0.52627534 -0.0018982887
0.16435058 0.30103832 0.10571575
0.16637857 0.45297334 0.033124924
0.17051858 0.76320833 -0.11510134
0.17154157 0.83987635 -0.15173149
0.16696158 -0.24087161 0.012252808
0.18414658 -0.73190862 -0.60297918
0.15589058 0.081700325 0.20936966
0.15690058 0.15981132 0.1720438
0.15725558 0.18730432 0.15891171
0.16316558 0.64437133 -0.059497356
0.15409158 0.38030836 0.065536499
0.16464858 -0.54484063 -0.33761406
0.17382158 -0.82033962 -0.6879034
0.16819657 -0.65139669 -0.47309732
0.14842957 0.38023934 0.064416885
0.15815558 -0.54123467 -0.31981516
0.15073858 -0.30129868 -0.026765347
0.14865358 0.88408834 -0.17763615
0.14050758 0.18701434 0.15564394
0.14457057 -0.29846567 -0.010567188
0.14025058 -0.15892464 0.16618776
0.13413657 0.11711532 0.18792295
0.13250558 -0.027615666 0.25712967
0.13665058 0.34025037 0.081231594
0.13709958 0.38009936 0.062176704
0.14413458 1.0043284 -0.2363472
0.14187858 0.80414534 -0.14060307
0.13843457 -0.29564768 0.0055437088
0.13026658 0.27257335 0.11245155
0.13382158 0.60014331 -0.044221401
0.13522159 0.72914433 -0.10592127
0.13652457 -0.43938369 -0.16332722
0.14392258 -0.70676571 -0.48934317
0.12374657 0.18671936 0.15237379
0.12493458 0.30047035 0.097960949
0.12774257 0.56954736 -0.030758381
0.12976357 0.76312035 -0.12335825
0.13251658 -0.52701169 -0.24954939
0.11600558 -0.028002679 0.25395584
0.11634757 0.0060703754 0.23765373
0.12359358 0.72910833 -0.10827208
0.12221356 -0.36348969 -0.042395115
0.13079958 -0.69857568 -0.45228434
0.12894058 -0.6279816 -0.36354446
0.11926457 0.88411933 -0.18363523
0.11338656 0.27231234 0.10913992
0.11653557 0.60002935 -0.047687054
0.11473057 0.41214034 0.042225838
0.11373957 0.92307937 -0.20348024
0.10469557 -0.060962677 0.26748991
0.10801457 0.30022037 0.094635963
0.10076057 0.11645836 0.18144369
0.099203572 -0.061099648 0.26643562
0.099490568 -0.028395653 0.25078154
0.10538957 0.64406037 -0.071114063
0.11493557 -0.84207267 -0.59193611
0.099111572 -0.14232665 0.27145958
0.093708567 -0.06123668 0.26538372
0.096727572 0.30005133 0.092417717
0.097999573 0.45225435 0.019543648
0.10094057 0.80410033 -0.1489172
0.10123957 0.83986735 -0.16604328
0.10833957 -0.83755261 -0.57282448
0.10700157 -0.77611762 -0.49617815
0.089957573 0.15857637 0.15901566
0.093461573 0.59987438 -0.05231142
0.091394573 0.33962935 0.072314739
0.092288569 0.45219234 0.018409729
0.09527757 -0.50925761 -0.16181612
0.084049568 0.11612236 0.17820263
0.082713574 -0.061512649 0.26327658
0.08295957 -0.028794646 0.24760675
0.085730568 0.33954936 0.07119894
0.082138568 -0.13784468 0.29983568
0.078220569 0.080094337 0.19432259
0.081386574 0.52553535 -0.019050121
0.079782568 0.29979533 0.089090824
0.081914574 0.59979534 -0.054625034
0.083620571 0.83986437 -0.16963005
0.083006568 -0.50247461 -0.12821436
0.088761568 -0.82414669 -0.51610804
0.077479571 -0.20223767 0.24426985
0.071931571 -0.029063642 0.24548864
0.075429574 0.49389634 -0.0050611496
0.074396573 0.33938932 0.068968773
0.07120157 -0.13814467 0.2977519
0.067589574 0.15814734 0.15467072
0.068477571 0.29962236 0.08687067
0.070839569 0.67615336 -0.093570232
0.069179572 0.41159436 0.033210754
0.069432572 0.45194134 0.013876915
0.068291567 -0.33716363 0.10107088
0.066244572 0.88417733 -0.19446135
0.062656574 0.27150536 0.099195957
0.063286573 0.37915435 0.047597885
0.071175568 -0.92261666 -0.59804726
0.05879657 0.59963536 -0.059256077
0.057379574 0.33914638 0.065618515
0.057772569 0.41145435 0.030955791
0.059499569 0.72890234 -0.1212244
0.059684567 0.76296133 -0.13755226
0.064691573 -0.91788965 -0.57891941
0.052639574 0.5252763 -0.024780273
0.053396568 0.67606938 -0.097082138
0.05206757 0.41138434 0.029827595
0.044831574 0.079372346 0.18787575
0.046738572 0.49361035 -0.01076746
0.04584457 0.29927135 0.08243084
0.047085568 0.56892836 -0.046887398
0.046026573 0.33898234 0.063386917
0.047429569 0.64373434 -0.082760334
0.047821574 0.72886336 -0.12358427
0.044208571 -0.25251561 0.2528038
0.050527573 -0.79801267 -0.40540409
0.043591574 -0.19013768 0.31710958
0.042630576 0.88420433 -0.19928217
0.040347576 0.33890033 0.062269688
0.040048569 -0.38964063 0.096534729
0.045448571 -0.90387362 -0.52216339
0.038132571 -0.19029969 0.31607771
0.033006571 -0.10140663 0.2723217
0.035647571 0.59947234 -0.063892365
0.035814576 0.64366633 -0.085093498
0.035123572 -0.47605771 0.0028386116
0.028112574 0.079002321 0.1846509
0.028375572 0.15737534 0.14705563
0.027507572 -0.10155767 0.27127457
0.029500572 0.49343535 -0.014194489
0.028755574 0.27094734 0.092559814
0.029753571 0.56879032 -0.050349236
0.030541571 0.80401933 -0.16321611
0.028511574 -0.38371366 0.12758589
0.027327573 -0.24481767 0.29706669
0.030646572 -0.6381827 -0.1783452
0.022446571 0.048026323 0.1983757
0.022847572 0.18485337 0.13272572
0.022965571 0.22518736 0.11336851
0.022216571 -0.030308664 0.23596287
0.023181574 0.29891336 0.077987671
0.023972573 0.56874436 -0.051504135
0.023628572 0.45142436 0.004796505
0.024767572 0.83985633 -0.18161249
0.023445571 -0.46962768 0.034785748
0.026506571 -0.89009362 -0.46631908
0.017155571 0.15715033 0.14487886
0.016601572 -0.063225627 0.25063562
0.017224574 0.18474436 0.1316328
0.017793572 0.41095334 0.0230546
0.017648572 -0.46643871 0.050638676
0.016409574 -0.13969165 0.28733778
0.011683572 0.22498232 0.11116982
0.012157572 0.45129234 0.0025258064
0.012971573 0.83985436 -0.18401337
0.010713574 -0.23846263 0.3336339
0.013160573 -0.71431869 -0.22728729
0.012401573 -0.56189066 -0.05325222
0.0064205732 0.45122534 0.0013875961
0.0069425721 0.76283634 -0.14823341
0.0070115719 0.80399036 -0.1679945
0.0054895729 -0.30662268 0.26802874
0.0052645728 -0.23863667 0.33260775
0.0054295734 -0.14000964 0.28525352
0.00039657205 0.22477537 0.10897064
0.00053857267 0.33831036 0.054445744
0.0006295722 0.41073436 0.019665718
0.0010295734 0.72870433 -0.13303709
0.0013705734 -0.76450866 -0.26318932
0.00094557181 -0.62112468 -0.10072136
-0.005343427 0.11424333 0.16091394
-0.0054644272 -0.031022668 0.23067093
-0.0041554272 -0.98742169 -0.5197711
-0.0044074273 -0.86764163 -0.3752203
-0.0055814274 -0.30125362 0.29744291
-0.011020428 -0.063968658 0.24536896
-0.010915427 0.18419433 0.12616682
-0.010821427 0.41058534 0.017403603
-0.010494428 -0.86322671 -0.35729122
-0.011093427 -0.2391637 0.32953072
-0.010815427 -0.54817563 0.011380672
-0.016551428 0.077991366 0.17604971
-0.016551428 0.27017832 0.083701611
-0.016551428 0.5684123 -0.059598446
-0.016551428 0.33805132 0.051089764
-0.016551428 0.64335537 -0.095608234
-0.016551428 -0.97780365 -0.48250246
-0.016551428 -0.19196767 0.30574369
-0.022157427 0.11387533 0.15766668
-0.022082428 -0.064271629 0.24326181
-0.022222428 0.27008033 0.082595825
-0.022414427 0.72862333 -0.13777304
-0.022429427 0.76276433 -0.15418005
-0.022575427 -0.85446864 -0.32170916
-0.027708426 0.04683733 0.18874073
-0.027583428 -0.10310668 0.26079893
-0.028083427 0.49283436 -0.025631428
-0.028146427 0.56831539 -0.06191206
-0.028209427 0.64328432 -0.097947121
-0.028569426 -0.85012668 -0.30406046
-0.027425427 -0.2914297 0.35131693
-0.028347427 -0.7443077 -0.17727947
-0.027508426 -0.19231063 0.30367661
-0.033428427 0.15611035 0.13507652
-0.03419143 0.76273537 -0.15656233
-0.033014428 -0.35218865 0.29307985
-0.038875427 0.046566367 0.18660069
-0.038744427 -0.031903625 0.22431564
-0.039554425 0.45068136 -0.0077133179
-0.03845343 -0.34940964 0.30769968
-0.044227429 -0.064884663 0.23904467
-0.044833429 0.22392833 0.1001668
-0.045224428 0.41013235 0.010616779
-0.048017427 -1.1543198 -0.62950611
-0.049851425 -0.032201648 0.22219753
-0.050682425 0.29770237 0.063527584
-0.050883427 0.37758034 0.025104523
-0.053618424 -1.0539916 -0.49725533
-0.05224143 -0.83299464 -0.23437309
-0.04919643 -0.2921856 0.34724665
-0.050779425 -0.58918864 0.044933796
-0.055508427 0.0018803477 0.20467854
-0.054935426 -0.19318265 0.29850864
-0.06145443 0.11299533 0.15008593
-0.063086428 0.59874535 -0.083649158
-0.063235424 0.64306831 -0.10497618
-0.065715425 -1.0440907 -0.46026611
-0.068512425 0.49239635 -0.033654213
-0.068632424 0.52411634 -0.048920155
-0.06537243 -0.33832067 0.36611795
-0.07259243 -1.1331947 -0.55314827
-0.068319425 -0.66440064 -0.0091304779
-0.065919429 -0.1935367 0.29644156
-0.072549425 0.076673329 0.16527987
-0.072879426 0.15527135 0.12744474
-0.071789429 -0.10439765 0.25241852
-0.072089426 -0.032807648 0.21796465
-0.072233424 0.0014423728 0.20148563
-0.074742429 0.59865534 -0.085980415
-0.074928425 0.64299434 -0.10732126
-0.073948428 0.40974534 0.0049529076
-0.071629427 -0.14232165 0.2706728
-0.078326426 0.11260933 0.14683485
-0.07765343 -0.032960653 0.21690655
-0.080927432 0.67538834 -0.12410927
-0.081168428 -0.81210071 -0.1492691
-0.076451428 -0.29314965 0.34215975
-0.076910429 -0.19389361 0.2943759
-0.083054431 -0.065983653 0.23166656
-0.084307432 0.18270236 0.11193657
-0.08662843 0.64292037 -0.10966921
-0.086792432 0.67535734 -0.12528849
-0.089537427 -1.0246186 -0.38745546
-0.086867429 -0.80798966 -0.13250923
-0.084029429 -0.56872469 0.13848782
-0.098047428 -1.2170787 -0.60123205
-0.096653432 -1.1125467 -0.47842741
-0.091344431 -0.70517665 -0.010416508
-0.093937427 -0.10506165 0.24822664
-0.094165429 -0.06630367 0.22956181
-0.094359428 -0.033423662 0.21372986
-0.092668429 -0.40599865 0.35207653
-0.10259043 -1.1074576 -0.45999908
-0.096901432 -0.70142168 0.0056228638
-0.10042643 0.045030355 0.17480659
-0.10129243 0.18234533 0.10864973
-0.10344643 0.52376437 -0.055839062
-0.10201443 0.29682034 0.053496838
-0.10226643 0.33670437 0.034281731
-0.10399143 -0.79942864 -0.097521305
-0.10243243 -0.69768566 0.021582603
-0.098915428 -0.19461769 0.29024172
-0.10603343 0.044887364 0.17373371
-0.10648543 0.11195534 0.14141464
-0.10528343 -0.066626668 0.22745371
-0.10772843 0.29672033 0.052380562
-0.11005643 0.64277035 -0.11436939
-0.10848543 0.40926933 -0.0018510818
-0.10314443 -0.40028661 0.38066959
-0.11437243 -1.0973656 -0.42343426
-0.10959143 -0.79539567 -0.08106041
-0.10410143 -0.2422927 0.31209278
-0.10793643 -0.69396967 0.037462711
-0.10442143 -0.19480067 0.28920889
-0.11212243 0.11182237 0.14032984
-0.11262543 0.18210435 0.10645771
-0.11560143 0.59833634 -0.094147205
-0.11863443 -1.0008826 -0.29858351
-0.10992943 -0.19498366 0.28817558
-0.11829543 0.18198335 0.10536051
-0.12001543 0.40910834 -0.0041232109
-0.12286843 0.044453323 0.17051458
-0.12251443 9.137392e-05 0.19190168
-0.12669842 0.52352333 -0.060459137
-0.12578343 0.40902734 -0.0052580833
-0.12610742 0.44960535 -0.024823189
-0.13379343 -1.1848156 -0.48831844
-0.13182043 -1.0824356 -0.36930323
-0.13006842 -0.9915697 -0.26367426
-0.12622942 -0.78342468 -0.032167435
-0.12429243 -0.68293864 0.084643841
-0.13155343 0.40894535 -0.0063943863
-0.12524442 -0.34057862 0.35501051
-0.13964243 -1.1795456 -0.46985245
-0.12689842 -0.14406466 0.26025486
-0.13410142 0.044160366 0.16836786
-0.13437542 0.075153351 0.15341854
-0.13531643 0.18161732 0.10207176
-0.13567443 0.22214037 0.082526684
-0.13805643 0.49161434 -0.047440052
-0.13632943 0.29621333 0.046800613
-0.13872543 0.56735134 -0.083968163
-0.13899842 0.59814936 -0.098821163
-0.13927743 -0.88304466 -0.1140852
-0.13832842 -0.10642266 0.23984385
-0.14205642 0.29611033 0.045683861
-0.14242642 0.33604437 0.026420593
-0.14310043 0.40878135 -0.008667469
-0.13615642 -0.34100062 0.35299063
-0.15303943 -1.2495856 -0.52629328
-0.14564343 0.074869335 0.1512599
-0.14426242 -0.06777966 0.22007751
-0.14458042 -0.034849644 0.20419359
-0.14803942 -0.76775759 0.031895638
-0.14205642 -0.29555362 0.32995272
-0.14259543 -0.53281468 0.30310774
-0.15164542 0.11087835 0.13273478
-0.15235642 0.18124634 0.098777771
-0.15351543 0.29590434 0.043449879
-0.16274142 -1.1587536 -0.39695644
-0.15729941 0.11074036 0.13164854
-0.15500742 -0.10694563 0.23670197
-0.16086341 0.44915536 -0.031683445
-0.16368742 -0.96423465 -0.1610961
-0.15406442 -0.19648367 0.2799077
-0.15292542 -0.52649766 0.33212566
-0.16829441 0.59791136 -0.10467434
-0.15799943 -0.3418557 0.34895372
-0.17411242 -1.1485317 -0.36108541
-0.16412342 -0.75622267 0.079117775
-0.15906942 -0.24424464 0.30183697
-0.17330942 0.52303135 -0.0697155
-0.17072242 0.29559034 0.040095806
-0.17163442 0.37576634 0.0013856888
-0.17975742 -1.1434627 -0.34328747
-0.16316243 -0.52024466 0.36087465
-0.17216443 -0.068624675 0.2148056
-0.17510742 0.18074435 0.094386578
-0.17295842 -0.0013136268 0.18230486
-0.17198542 -0.6508556 0.22211552
-0.17993842 0.11018634 0.12730551
-0.17775042 -0.068795681 0.21375179
-0.18407942 0.44884935 -0.036265373
-0.17998043 -0.74486464 0.12565565
-0.17290542 -0.46511871 0.40514278
-0.18794642 0.29527336 0.036741734
-0.18988842 0.44877136 -0.037410259
-0.19651443 -1.1284237 -0.2904563
-0.19095042 -0.94212264 -0.07797718
-0.18844843 -0.84937364 0.017552853
-0.19127142 0.10990536 0.12513256
-0.18842243 -0.10801065 0.23041391
-0.18936242 -0.036164641 0.19571066
-0.19496842 -0.036332667 0.1946497
-0.19998242 0.33506632 0.015169621
-0.19254743 -0.63706464 0.28133488
-0.20057742 -0.036500633 0.19358778
-0.20479943 0.26669735 0.047039509
-0.20519242 0.29495132 0.033382893
-0.20676441 0.40785235 -0.021185398
-0.20741442 -0.93306965 -0.043758392
-0.19904742 -0.14644265 0.24671078
-0.20732042 0.04219836 0.15439796
-0.20828542 0.10947937 0.1218729
-0.21209642 0.37512434 -0.0065464973
-0.20318742 -0.2458666 0.29363155
-0.20387143 -0.19823164 0.27060461
-0.21560243 0.22047132 0.067051888
-0.21669942 0.29473537 0.031143665
-0.20726742 -0.34383363 0.33987093
-0.23004141 -1.2145858 -0.40553045
-0.21471342 -0.82929462 0.096156597
-0.20871142 -0.24607366 0.29260588
-0.21861742 0.041887343 0.15224552
-0.21691643 -0.070013642 0.20636368
-0.22071242 0.17971432 0.085592747
-0.21273442 -0.62354964 0.33944368
-0.21496242 -0.1986286 0.26853657
-0.22357342 -0.0027726293 0.17269659
-0.23061942 0.44822034 -0.045440197
-0.21584842 -0.5686987 0.4118619
-0.23100242 0.10890335 0.11752367
-0.22920743 -0.0029376745 0.17162895
-0.23017742 -0.81749469 0.14241076
-0.22446142 -0.29873365 0.3147006
-0.23887943 -0.90765065 0.052050591
-0.22567542 -0.56236762 0.43985271
-0.24176241 0.07235533 0.13289356
-0.24686942 0.37455934 -0.013356209
-0.23370743 -0.40435964 0.36356878
-0.24736942 -0.98858064 -0.027655125
-0.23255742 -0.61030263 0.39648151
-0.24743642 0.072201371 0.13181067
-0.24806443 0.10846537 0.11425877
-0.24495642 -0.070905626 0.20108271
-0.25394544 0.44789836 -0.05003643
-0.25256842 -0.98417765 -0.011579037
-0.24542442 -0.80587667 0.18799877
-0.24122842 -0.70114666 0.3052268
-0.24099842 -0.29939359 0.31164885
-0.23745742 -0.60703164 0.41057587
-0.25115743 -0.038046658 0.18402863
-0.25176844 -0.0036066771 0.16735554
-0.24570142 -0.34542269 0.33280849
-0.25618744 -0.071267664 0.19896889
-0.26282442 0.29385138 0.022174835
-0.26355344 0.33394235 0.0027637482
-0.24724641 -0.56317061 0.43711472
-0.26180542 -0.071449637 0.19791174
-0.25601944 -0.69062668 0.3485446
-0.27437943 0.29362535 0.01993084
-0.27591041 0.37407833 -0.0190382
-0.27671841 -1.0572097 -0.039588451
-0.26946244 -0.88301271 0.14509058
-0.26542744 -0.79065961 0.24777269
-0.25986543 -0.4690637 0.38933086
-0.27523243 0.040291369 0.14148378
-0.27305141 -0.07181567 0.19579792
-0.27960843 0.26518637 0.032530785
-0.28172544 0.37398034 -0.020176411
-0.28931642 -1.1059875 -0.20916939
-0.27447543 -0.8789807 0.16033459
-0.27037042 -0.78690368 0.26253796
-0.26961643 -0.2484017 0.28132153
-0.27054441 -0.20066267 0.25820589
-0.27203542 -0.4060536 0.35657692
-0.28325242 -0.95824164 0.08323288
-0.27516541 -0.24861866 0.2802968
-0.26888943 -0.5642547 0.43322754
-0.27077243 -0.4695757 0.38735485
-0.28497642 -0.039108634 0.17765188
-0.29254341 0.33341533 -0.002887249
-0.27872741 -0.34682065 0.32675362
-0.28018942 -0.77944869 0.29186296
-0.27543142 -0.67684168 0.40537357
-0.27965841 -0.30096465 0.30453157
-0.29366142 0.10727137 0.10554695
-0.28083241 -0.51134366 0.40537357
-0.29556742 -0.072557628 0.19156885
-0.28849441 -0.40679461 0.35358095
-0.28500941 -0.67005068 0.43339968
-0.29072443 -0.3014217 0.30249786
-0.29182842 -0.24927264 0.27722168
-0.29393342 -0.14974964 0.22899151
-0.30362543 0.039470375 0.13609695
-0.30508342 0.10696733 0.10336685
-0.31083843 0.37348735 -0.025868416
-0.29841742 -0.20171064 0.2530365
-0.29261142 -0.47060961 0.38340378
-0.31079742 0.10681432 0.10227776
-0.30683842 -0.072932661 0.18945169
-0.30832744 -0.005325675 0.15666294
-0.31499842 0.03913635 0.13393974
-0.31569842 0.070312321 0.11881876
-0.30497143 -0.4075436 0.35058594
-0.30850843 -0.24993569 0.27414656
-0.30958143 -0.20213562 0.25096989
-0.31966841 -0.0056766272 0.1545229
-0.32833642 0.37318733 -0.029285431
-0.31516841 -0.20234865 0.24993467
-0.30901441 -0.47139663 0.38044167
-0.33055642 0.21791536 0.0448699
-0.32534143 -0.005853653 0.15345287
-0.33229443 0.29247135 0.0086927414
-0.33323142 0.33265936 -0.010809422
-0.31857443 -0.84360069 0.29431963
-0.33281744 0.069826365 0.11556578
-0.33809942 0.29235333 0.0075669289
-0.32336342 -0.83976763 0.30885983
-0.32757542 -0.15097165 0.22272873
-0.33940643 0.10603935 0.096822739
-0.33505842 -0.073882639 0.18416166
-0.33585942 -0.040748656 0.16807556
-0.34322041 0.26384634 0.02022171
-0.34507743 -0.95524162 0.096898556
-0.33287743 -0.83215863 0.33773661
-0.33635843 -0.25105768 0.2690177
-0.33091441 -0.47245961 0.37649155
-0.35264042 0.17656332 0.060241699
-0.35653543 0.33221734 -0.015344143
-0.33165243 -0.66220969 0.4675107
-0.33536041 -0.5140546 0.39557266
-0.35840443 0.17641932 0.059135914
-0.34873042 -0.20364863 0.24372959
-0.35005042 -0.15180165 0.21855068
-0.34082443 -0.51433164 0.39459276
-0.34187642 -0.47299665 0.37451887
-0.35767642 -0.074656665 0.17992687
-0.36417142 0.17627537 0.058030605
-0.36716041 0.29175633 0.0019345284
-0.34900942 -0.4095847 0.34259892
-0.34402543 -0.6021437 0.43613386
-0.34736043 -0.47326761 0.37353182
-0.36807543 0.10524935 0.091364861
-0.35284743 -0.4735387 0.37254477
-0.36988842 -0.041873634 0.1616888
-0.37081242 -0.0072946548 0.14488459
-0.36163643 -0.35046262 0.31161976
-0.36286643 -0.30447668 0.28928185
-0.37360343 -0.11435366 0.19575882
-0.37556744 -0.042063653 0.16062164
-0.36032543 -0.60303169 0.43323851
-0.38430142 0.068333328 0.10579777
-0.38220441 -0.0076616406 0.14274073
-0.37399843 -0.30496067 0.28724861
-0.37544143 -0.25266367 0.26183653
-0.38693342 -0.04244566 0.15849161
-0.39548841 0.26270735 0.01012373
-0.36768943 -0.72893864 0.49223471
-0.36950043 -0.66435868 0.46083689
-0.39576942 0.067994356 0.10362577
-0.39261943 -0.042638659 0.15742588
-0.37491542 -0.66466969 0.45988274
-0.38513944 -0.30544764 0.28521585
-0.40957841 0.14712632 0.062790871
-0.40501744 -0.0084036589 0.13845062
-0.39319143 -0.41168863 0.33461094
-0.38853341 -0.57052368 0.41187572
-0.39923242 -0.20565468 0.23441172
-0.40640143 -0.15393364 0.20809889
-0.42777741 0.17465436 0.045857906
-0.42215341 -0.008967638 0.13523293
-0.40493241 -0.57141966 0.40896559
-0.42454541 -0.11622864 0.18628454
-0.43357441 0.17450333 0.044748783
-0.41533843 -0.41276461 0.33061886
-0.41719341 -0.35300571 0.30153561
-0.44419742 -0.95691568 -0.12178946
-0.43249843 -0.044003665 0.14996052
-0.41887042 -0.47687465 0.36070251
-0.44428241 0.14618832 0.056174755
-0.42833242 -0.3535257 0.29951763
-0.43147543 -0.25503367 0.25157166
-0.44750041 0.066439331 0.093838692
-0.44156942 -0.11686766 0.18312454
-0.44283843 -0.077661633 0.16402769
-0.44503543 -0.0097286701 0.13093853
-0.42677844 -0.57246262 0.40581274
-0.42851642 -0.51874465 0.37964869
-0.45326144 0.066263318 0.092749596
-0.45587143 0.14587134 0.053965569
-0.43896043 -0.35256964 0.30525684
-0.44099343 -0.30793768 0.27504683
-0.45902443 0.066086352 0.0916605
-0.45534143 -0.044799626 0.14569092
-0.44659242 -0.3081916 0.27402973
-0.46373543 0.034567356 0.10584688
-0.45219243 -0.30844671 0.27301264
-0.44207743 -0.60745162 0.41950893
-0.46564242 -0.078491628 0.15978289
-0.45779541 -0.30870265 0.27199459
-0.47524843 0.03419733 0.10367966
-0.45302242 -0.60808367 0.41758156
-0.47706041 -0.078911662 0.15765858
-0.47943842 -0.010891676 0.12449169
-0.45849842 -0.60840064 0.41661978
-0.46182042 -0.66963464 0.44536591
-0.49253443 0.033637345 0.10042953
-0.49092543 -0.011285663 0.12234163
-0.47260541 -0.52113265 0.37181759
-0.49278143 -0.11882567 0.17363596
-0.47963241 -0.47990865 0.35057974
-0.50115043 -0.046427667 0.13714457
-0.51237142 0.10107434 0.063985825
-0.50817746 -0.011880636 0.11911392
-0.51680142 0.064285338 0.080760956
-0.51262742 -0.046841681 0.13500595
-0.52140039 0.032690346 0.095004559
-0.52259344 0.064101338 0.079669952
-0.51837045 -0.047049642 0.13393784
-0.51033545 -0.25850064 0.2371769
-0.49819243 -0.57651561 0.39321661
-0.50023842 -0.52266067 0.36692381
-0.58131343 -0.9918986 -0.51470137
-0.50921541 -0.57715565 0.3912797
-0.52554345 -0.15867263 0.1861105
-0.53430444 -0.081053674 0.14703178
-0.51098943 -0.67265862 0.43680477
-0.5312444 -0.15890664 0.18506193
-0.52611542 -0.4170596 0.31720257
-0.51646441 -0.67300063 0.43585491
-0.53086841 -0.31211466 0.25875759
-0.51888943 -0.61196464 0.40603495
-0.52238941 -0.52390164 0.36300993
-0.52906841 -0.4812246 0.34822273
-0.55152941 -0.08171165 0.14383888
-0.54214942 -0.3126536 0.25671959
-0.53129041 -0.57844967 0.38740587
-0.55727643 -0.081931651 0.14277554
-0.53541243 -0.61296171 0.40314865
-0.55407745 -0.15985364 0.18086672
-0.5485034 -0.41830164 0.31285667
-0.56712639 -0.12176663 0.15990973
-0.5701794 -0.048955679 0.12430286
-0.54956043 -0.52400666 0.36480284
-0.57453442 -0.082598627 0.13958073
-0.55195642 -0.6139676 0.40026379
-0.5534054 -0.57976061 0.38353252
-0.57123142 -0.16057163 0.17771959
-0.5851444 0.030548334 0.083052635
-0.55486041 -0.67542762 0.42920065
-0.57180941 -0.52536267 0.36054277
-0.59905744 -0.050040662 0.11894274
-0.59413844 -0.16154164 0.17351961
-0.60335141 -0.083725631 0.1342535
-0.58295143 -0.52604669 0.3584137
-0.58485544 -0.48451167 0.3374896
-0.60734743 -0.12340564 0.15250683
-0.59608042 -0.36065871 0.27513075
-0.60325545 -0.21436661 0.19704676
-0.60560942 -0.16203064 0.17141962
-0.61489743 -0.084181666 0.13212061
-0.60173041 -0.36096162 0.27405167
-0.5906474 -0.61635667 0.39353085
-0.6113494 -0.16227764 0.17036867
-0.6188634 -0.12388164 0.15038872
-0.61468941 -0.21488267 0.19496584
-0.60526544 -0.52742964 0.35415268
-0.62613541 -0.21540362 0.19288492
-0.61216342 -0.61615568 0.39642286
-0.64381242 -0.085334659 0.12678766
-0.64540941 -0.051815629 0.11035585
-0.6352874 -0.2643016 0.21451664
-0.62202942 -0.52847868 0.35095787
-0.63845944 -0.31738764 0.23937893
-0.6288234 -0.61727065 0.39328384
-0.64415044 -0.42376262 0.29436874
-0.6524294 -0.26512665 0.21142197
-0.64091843 -0.48790771 0.32674789
-0.64653945 -0.48825365 0.32567358
-0.6708284 -0.12606168 0.14085484
-0.66628343 -0.2172516 0.18559694
-0.66677541 -0.42509168 0.29001284
-0.67532343 -0.2662397 0.20729589
-0.6777814 -0.21778768 0.18351173
-0.67243844 -0.42542666 0.28892374
-0.66686141 -0.53132468 0.3424325
-0.6939984 -0.12705165 0.13661051
-0.6837734 -0.4260996 0.28674459
-0.69504642 -0.21859771 0.18038559
-0.70560241 -0.12755167 0.13448858
-0.70080841 -0.21886963 0.1793437
-0.68597442 -0.49070364 0.31814766
-0.70657241 -0.21914262 0.17830181
-0.73778141 -0.72519761 -0.05694437
-0.71264541 -0.32119268 0.22609854
-0.69761044 -0.58757371 0.36338949
-0.71444643 -0.58871871 0.36022472
-0.73688841 -0.49393266 0.30846596
-0.75013644 -0.36997563 0.24190474
-0.75858241 -0.22163862 0.16890764
-0.74010944 -0.53610367 0.32856894
-0.76732343 -0.37093061 0.23886395
-0.76917744 -0.43128163 0.2703867
-0.7730574 -0.37125164 0.23784971
-0.7684164 -0.53799361 0.32323074
-0.78453439 -0.37189466 0.23582172
-0.78732145 -0.32516164 0.21279764
-0.81366545 -0.27322966 0.18247986
-0.79679942 -0.53991169 0.3178916
-0.81617641 -0.32673162 0.20767689
-0.81499141 -0.43411666 0.26178455
-0.81904042 -0.37385064 0.22973394
-0.82073343 -0.43447465 0.26071262
-0.8264764 -0.43483466 0.25964069
-0.83797342 -0.43555671 0.25749683
-0.8509174 -0.50143462 0.28691292
-0.87100744 -0.3768546 0.22059393
-0.87679845 -0.37719268 0.21957874
-0.87849742 -0.4383927 0.24863672
-0.90158641 -0.43982369 0.24462271
-0.90736639 -0.44018465 0.24361992
-0.91893542 -0.44090861 0.24161053
