# .PCD v0.7 - Point Cloud Data file format
VERSION 0.7
FIELDS x y z
SIZE 4 4 4
TYPE F F F
COUNT 1 1 1
WIDTH 1
HEIGHT 1024
VIEWPOINT 0 0 0 1 0 0 0
POINTS 1024
DATA ascii
0.92852807 0.40809494 -0.41729116
0.91887903 0.40687296 -0.437253
0.87079406 0.14519596 -0.21450806
0.89612508 0.37339896 -0.40562582
0.84467608 0.28012198 -0.10634279
0.83468705 0.31295097 -0.074767113
0.83038104 0.23291093 -0.086812019
0.82280207 0.23427194 -0.073455811
0.85867906 0.37742594 -0.3535161
0.87522805 0.40426895 -0.48270702
0.81222707 0.31638795 -0.036364079
0.81144303 0.074922979 -0.076233864
0.87364107 0.49077395 -0.56858587
0.80682904 0.28639197 -0.03971386
0.79517108 0.36533695 0.052569866
0.80025607 0.23831898 -0.033725739
0.78877705 0.36579996 0.057775974
0.79280305 0.23965597 -0.020587921
0.79368305 0.041373968 -0.074636936
0.77929705 0.16862196 -0.0051121712
0.77876407 0.19867295 -0.00077390671
0.77273905 0.12367594 0.0012168884
0.77192307 0.17009795 0.0079040527
0.77144408 0.20004493 0.01184082
0.83490604 0.44475695 -0.56027317
0.75750303 0.32263094 0.031826019
0.75235903 0.088017941 0.026726246
0.74504006 0.12842697 0.03994894
0.74492908 0.17393994 0.040889263
0.73803204 0.29506797 0.050740242
0.73166305 0.20503592 0.056214809
0.72508907 0.20585895 0.063549042
0.72254503 0.36855298 0.085534096
0.71988606 0.092314959 0.059074879
0.71825004 0.32647496 0.073327065
0.80148607 0.57105494 -0.65160084
0.73364103 -0.049792051 -0.11184978
0.70463204 0.36927396 0.092832088
0.69902706 0.17993593 0.09209919
0.73857504 -0.10793906 -0.26047802
0.69896007 0.20912498 0.09269619
0.71034408 0.0023439527 -0.0087900162
0.74827206 0.45803094 -0.34693098
0.77733904 0.57070792 -0.66272783
0.68776703 0.096551955 0.09107399
0.68599004 0.21074295 0.10716486
0.68589407 0.25308692 0.1080308
0.68633103 0.30027193 0.10408211
0.68660504 0.32912993 0.10159397
0.69728005 -0.040444076 -0.047703743
0.68016005 0.30072993 0.10861397
0.67314905 0.18330497 0.12097025
0.73605102 0.49747595 -0.45805216
0.75163203 0.52497792 -0.60147476
0.67420405 0.37095493 0.11125898
0.66741103 0.25458097 0.12170601
0.67738408 0.0078039765 0.029151917
0.71975708 0.49952996 -0.42102718
0.65476805 0.21384597 0.13429022
0.66890508 -0.033361018 0.00090503693
0.70364302 0.50156093 -0.38440275
0.64945406 0.30300295 0.13117504
0.64858305 0.41405296 0.13946009
0.64292306 0.25654095 0.1396842
0.65624905 -0.031681061 0.011825085
0.64359903 0.33215296 0.13320398
0.64809406 -0.072375059 -0.020784855
0.63966304 0.012577951 0.06150198
0.63175207 0.37341896 0.13871288
0.63094306 0.41468894 0.14660406
0.62404907 0.18790197 0.15908003
0.66490203 0.50611699 -0.30239201
0.61958402 0.37420496 0.14766216
0.61316907 0.33427894 0.15556622
0.60932404 0.49108395 0.19408607
0.64462203 -0.17939401 -0.159554
0.60612905 0.21798497 0.16996384
0.60647804 0.25944197 0.16643
0.63743407 -0.17724609 -0.14647007
0.60194904 0.41552195 0.15545225
0.60972804 -0.066348076 0.017617226
0.60608804 -0.025054038 0.055076122
0.66495603 0.57582796 -0.55075216
0.62314606 -0.17298102 -0.12047005
0.59618008 0.018046975 0.098762035
0.62431705 0.51210392 -0.19345093
0.67402405 0.65245092 -0.70968294
0.60149807 -0.11409104 -0.016348839
0.59722406 -0.064629018 0.028453827
0.58203703 0.22002298 0.18763208
0.58237207 0.26135194 0.18411922
0.58455002 0.41605595 0.16129494
0.58067805 0.071256936 0.14294815
0.57581007 0.19216394 0.1944418
0.58385706 0.019589961 0.10931492
0.62165105 0.54057497 -0.29050589
0.57686007 0.30822998 0.18333292
0.57876003 0.41623294 0.16323805
0.58476704 -0.062920034 0.039248943
0.58128405 -0.021795034 0.07644701
0.57101703 0.30851996 0.18607712
0.63097304 0.57721895 -0.52040482
0.56707805 0.44931695 0.16835499
0.60259807 0.54120791 -0.27913618
0.55327803 0.14846897 0.19698191
0.55279708 0.49189195 0.20226097
0.54620904 0.19449294 0.21360302
0.54619205 0.22302794 0.21379519
0.54819506 0.33780295 0.19157219
0.54382104 0.10863197 0.17812395
0.57628906 0.54582494 -0.18567181
0.53802204 0.10898095 0.18053627
0.58498305 0.58441699 -0.35088873
0.55547106 -0.15587699 -0.016913891
0.54538208 -0.10601604 0.03259325
0.52881706 0.22401392 0.22192717
0.53210008 0.41803697 0.1844101
0.61113906 0.68803692 -0.71900988
0.52643907 0.10967696 0.18535805
0.52561903 0.37852895 0.19482994
0.51726407 0.22466695 0.22733498
0.52047503 0.41849697 0.18988609
0.51169604 0.19631296 0.22768688
0.51337206 0.33942598 0.20793581
0.51467103 0.41872597 0.1926198
0.59173608 0.68816495 -0.71560574
0.54573405 -0.29425907 -0.17346716
0.50601006 0.19655097 0.22944117
0.50822908 0.37927696 0.2030139
0.50012803 0.22545493 0.23361397
0.50228107 0.53396797 0.20770025
0.50136107 0.31194293 0.21877623
0.57898307 0.74614799 -0.71537399
0.49586901 0.15143096 0.21814489
0.49626604 0.56537998 0.21332026
0.49182102 0.11174095 0.19975519
0.49027303 0.34049493 0.21879196
0.49089202 0.38001797 0.21117401
0.48738602 0.49124396 0.1857872
0.55992806 0.74616694 -0.71582317
0.484292 0.026701927 0.15465593
0.47832802 0.31306094 0.22959185
0.50328207 0.59270895 -0.15775585
0.51470006 0.61887193 -0.30282974
0.55089808 0.65117896 -0.76277781
0.54722703 0.74617898 -0.7161231
0.46613902 0.22680193 0.24409199
0.46726602 0.34155297 0.22960901
0.49060205 -0.27564907 -0.070252895
0.486056 -0.21185207 -0.011844158
0.46097901 0.19800198 0.23944712
0.46044102 0.26830298 0.24644709
0.46111503 0.31389296 0.23767805
0.52793503 0.69043195 -0.63071585
0.46292603 -0.011509061 0.14126682
0.45828903 0.45215395 0.20222092
0.47374403 -0.20990205 -0.0009560585
0.44983101 0.19824398 0.24087286
0.45713702 -0.011113048 0.14370298
0.45007002 0.34233898 0.23769426
0.47579202 0.595011 -0.10440207
0.44753903 0.079435945 0.1974721
0.44696301 0.45240796 0.20522118
0.48930505 -0.44378507 -0.3645668
0.44388402 0.029340982 0.17159414
0.44109502 0.60814798 0.20957518
0.50832605 0.74640596 -0.70593786
0.43233302 0.22806597 0.25393105
0.46261904 0.62414598 -0.16346598
0.43655002 0.49207395 0.19580793
0.46727002 -0.41747403 -0.22757196
0.45919502 -0.34312201 -0.11628199
0.44925702 -0.20603704 0.020688057
0.42877501 0.15299398 0.22676182
0.45743203 0.62380797 -0.17301893
0.42079002 0.27001894 0.2614789
0.42611003 0.56433797 0.18634605
0.45361802 0.62274492 -0.20216274
0.48875001 0.74656093 -0.69835997
0.41870502 0.45303696 0.21270609
0.41475001 0.53336895 0.18977404
0.47584602 0.78363794 -0.69502783
0.42494303 -0.20221603 0.042160034
0.40976202 0.56415498 0.1814208
0.46541002 0.74768394 -0.63484478
0.42693403 -0.33437502 -0.070464134
0.41613904 -0.1378361 0.087882042
0.40526703 -0.0076050758 0.16551304
0.40029404 0.38272396 0.23940992
0.39289203 0.27081096 0.26785803
0.39549804 0.42192397 0.22861624
0.39615801 0.45353195 0.21868086
0.41462803 -0.33221102 -0.059401989
0.41050303 -0.26203406 0.0027098656
0.39525202 -0.045196056 0.1481328
0.39379701 -0.00683707 0.17033386
0.39247403 0.53348792 0.19051313
0.38514501 0.11484498 0.21796703
0.38673902 0.63747692 0.1933198
0.38426402 0.42218795 0.23158884
0.38570401 0.49308795 0.20931625
0.39625403 -0.32898903 -0.042891979
0.38943401 -0.19822299 0.064023018
0.39365402 -0.39098501 -0.093070984
0.38361302 -0.197752 0.066514015
0.36647603 0.19998693 0.25150204
0.42353001 0.82822496 -0.66815901
0.38024002 -0.25704002 0.029633045
0.36656001 -0.043205023 0.16022921
0.35996804 0.31718397 0.26800299
0.36603904 0.60666192 0.16874599
0.36243802 0.45426494 0.22762299
0.41499501 0.78445596 -0.63167715
0.35913602 0.032628953 0.19085979
0.35950902 0.63722098 0.18466806
0.35623303 0.42283994 0.23900795
0.36400703 -0.13385201 0.11005926
0.35171902 0.11560494 0.22225189
0.35519901 -0.042614043 0.16367197
0.35354102 0.032768965 0.19158316
0.35504201 0.63655496 0.16631222
0.35122302 0.45450595 0.23059702
0.34343302 0.31740093 0.26947403
0.36303103 -0.38536406 -0.065341949
0.33945301 0.42322594 0.24345016
0.34117404 0.49350697 0.21360302
0.34672102 -0.13254607 0.11740398
0.33268604 0.27095997 0.26570988
0.33241701 0.31754392 0.27046108
0.33805203 0.67972594 0.17121696
0.35762602 0.70224392 -0.17349195
0.37922803 0.78542697 -0.55391216
0.34096903 -0.1321131 0.11984682
0.37087902 -0.60087001 -0.40688515
0.32802701 0.20017093 0.25096703
0.33376202 -0.08642602 0.14838409
0.32700503 0.34565693 0.26923704
0.32760003 0.38455796 0.25860786
0.33265501 0.67964399 0.16818523
0.34478801 -0.38202906 -0.048832893
0.34171903 -0.319484 0.0060582161
0.33723003 -0.19402707 0.086346149
0.32203004 0.38469595 0.26007795
0.32725501 0.67956197 0.16515207
0.33571401 -0.31844306 0.011442184
0.33145604 -0.19356704 0.088812828
0.31903902 0.082523942 0.21400785
0.32751301 -0.25168109 0.057534218
0.31040001 0.31782597 0.27243614
0.31621704 0.60655296 0.16326189
0.35804403 0.86658496 -0.62174177
0.33787203 -0.56582904 -0.24315882
0.30725703 0.11658198 0.22794104
0.31032002 -0.041421056 0.16948986
0.30886102 0.033857942 0.19734001
0.31144202 0.63597298 0.14807892
0.31126201 0.71050596 0.15152884
0.30555803 -0.085373044 0.15390301
0.29948503 0.31781596 0.27175093
0.29523602 0.19999593 0.24757481
0.29451701 0.27077895 0.26176405
0.29842404 -0.0041060448 0.18463326
0.29770803 0.034122944 0.19877195
0.29770502 0.53422296 0.19882298
0.29403901 0.31779093 0.27119017
0.30041003 0.71036696 0.14543104
0.30859402 -0.37544405 -0.016117096
0.31808802 -0.55722106 -0.20352983
0.28849101 0.34611595 0.272686
0.29121503 0.49392694 0.21796703
0.32131201 0.78749895 -0.38660717
0.33005702 0.82889593 -0.5622592
0.28430203 0.19993293 0.24644279
0.29020402 0.67843294 0.12576294
0.31437701 0.78772396 -0.36847878
0.27926403 0.15516293 0.2369051
0.28169802 0.56474698 0.18622923
0.27857202 0.42401496 0.25131083
0.30082402 0.75514895 -0.21195602
0.28883803 -0.31324208 0.03758812
0.29853901 -0.54873002 -0.16439486
0.27457201 0.083513975 0.2197032
0.27750403 -0.084620059 0.15754318
0.27738503 0.60650098 0.16005802
0.27865201 0.71008497 0.13319921
0.27373803 0.45522594 0.23738098
0.31243801 0.86661494 -0.58325005
0.29695803 -0.61787403 -0.25498676
0.26866603 0.11682796 0.22809505
0.26723903 0.27063596 0.25894308
0.27051201 -0.0034240484 0.18822908
0.26990801 0.53442496 0.2012639
0.27380702 0.76085198 0.11702108
0.28204504 -0.45249701 -0.06096077
0.28571403 -0.54348505 -0.14023113
0.26856801 0.70948493 0.10893917
0.27146801 -0.31172907 0.045082092
0.26977703 -0.24689305 0.082305908
0.25769901 0.11675197 0.22695684
0.26159704 0.63574195 0.13941622
0.28023502 0.78883094 -0.27907705
0.25438103 -0.040001035 0.1767168
0.25378403 -0.0030240417 0.19038105
0.25324503 0.53454196 0.20272923
0.25398901 0.56478196 0.18568182
0.24963804 0.60645795 0.15777302
0.25046301 0.63572598 0.13849783
0.25220102 0.76053798 0.097875118
0.25414002 -0.31022906 0.052552223
0.24151905 0.083561957 0.21861219
0.24030004 0.22855192 0.24770403
0.24678104 0.76045895 0.093073845
0.24457105 -0.12731707 0.14579391
0.25806102 -0.60020006 -0.17606783
0.23575403 0.11659098 0.22467709
0.23649503 0.035529971 0.20662594
0.23415504 0.31736696 0.26364613
0.26699904 0.86664993 -0.53667212
0.24397804 -0.36719704 0.024297237
0.24261405 -0.30923605 0.057518005
0.25166804 -0.59730101 -0.16310596
0.23270704 -0.08345902 0.16333914
0.23205404 -0.039455056 0.17959404
0.22902603 0.27041495 0.25498581
0.23093905 0.035653949 0.2073369
0.22904505 0.42439696 0.2544961
0.22957803 0.45560795 0.24123096
0.23819004 -0.36667609 0.026803017
0.23536904 -0.24408507 0.097051144
0.23335303 -0.12701803 0.14724827
0.22503904 0.083431959 0.21689796
0.22476804 0.49445194 0.22378397
0.24691005 0.83026195 -0.33975077
0.23240905 -0.3661561 0.029305935
0.23110603 -0.308249 0.062474251
0.22262304 0.63568294 0.13620281
0.24743603 0.86666995 -0.50970602
0.21266204 0.42431694 0.25273895
0.21371204 0.49453494 0.2247529
0.21823104 -0.24269807 0.10438919
0.20770004 0.19943494 0.23849916
0.20719904 0.42428994 0.25215387
0.22820903 -0.73955309 -0.32081509
0.20222303 0.19939595 0.23793125
0.20476404 -0.082760036 0.16694403
0.20163704 0.34488493 0.25428104
0.20173503 0.42426196 0.25156689
0.20707104 0.67783797 0.10247898
0.22781204 0.86669493 -0.47695589
0.20686704 -0.24197209 0.10816622
0.22173904 -0.73632109 -0.30729389
0.19616304 0.38466895 0.25406599
0.19627103 0.42423394 0.2509799
0.21529604 -0.73310506 -0.29383373
0.19183704 0.11624193 0.22011089
0.19250403 0.53455096 0.20053625
0.19082904 0.31627893 0.24970913
0.18920104 0.63562596 0.1334548
0.19273303 0.75935197 0.02696085
0.19352503 -0.43893909 0.0031089783
0.19098204 -0.30483603 0.079746246
0.18085104 0.11614895 0.21896696
0.17993504 0.34436095 0.2473011
0.18480504 0.67768192 0.096550941
0.18574403 0.70851898 0.067475796
0.18714504 0.75930595 0.024106026
0.18820104 0.79216492 -0.0086121559
0.18366803 -0.18541801 0.13173485
0.17596103 0.53450799 0.19918394
0.17658503 0.56461495 0.17933702
0.17450404 0.34422898 0.24555397
0.17744903 0.60632294 0.15184116
0.18276803 0.83222395 -0.017433167
0.18743204 -0.66174209 -0.16585112
0.18528503 -0.58239603 -0.097518921
0.17605203 0.75915897 0.015250206
0.17721803 0.79199493 -0.022900105
0.16436803 0.11600494 0.21724987
0.17547604 0.91068196 -0.15702677
0.15976503 -0.038222075 0.18570089
0.15819204 0.34382993 0.24030685
0.15315904 0.15421796 0.22380304
0.15456703 -0.081552029 0.17340612
0.15445204 0.56455994 0.1775279
0.15277804 0.31530094 0.23746681
0.15266204 0.42366496 0.24162388
0.16045004 0.79182798 -0.037188053
0.14899804 -0.081421018 0.1741209
0.15133804 0.67744297 0.087646961
0.14726704 0.45558396 0.23810625
0.16271204 -0.81762302 -0.33270311
0.15002704 -0.18453407 0.13609314
0.14192903 0.26850796 0.23217726
0.14740203 -0.4346391 0.023167133
0.14496504 -0.24024403 0.11621904
0.13788304 -0.081279039 0.17478323
0.13729304 0.034841955 0.19812393
0.14016403 0.67736197 0.084676266
0.14090304 0.70824897 0.055497169
0.14165804 -0.43410802 0.025661945
0.14056104 -0.35803807 0.069010258
0.13934703 -0.24009204 0.11695004
0.14662103 -0.70361507 -0.17040682
0.13234803 -0.081345022 0.17420387
0.13105604 0.22681296 0.2270751
0.13094704 0.34315598 0.23154211
0.13362604 -0.64987004 -0.11545706
0.12763004 -0.18396306 0.13898706
0.12053004 0.082476974 0.20600605
0.12127803 -0.081480026 0.17304325
0.12078704 0.53434795 0.19469023
0.13123304 -0.80092299 -0.26561499
0.12552604 -0.51559901 -0.014146805
0.11570103 0.56445295 0.17436504
0.12501204 -0.797629 -0.25236702
0.10951504 0.08236295 0.20485592
0.10916303 0.26757193 0.22163105
0.10987304 -0.0027470589 0.18774223
0.10940003 0.49385595 0.21034002
0.11515604 0.79150897 -0.064480782
0.11695404 0.83143097 -0.15031099
0.11989704 0.86683297 -0.29077911
0.10377903 0.15340596 0.21548605
0.10419704 0.034483969 0.19466305
0.10425004 0.53422594 0.19204187
0.10360204 0.38255695 0.224298
0.10483705 -0.12398207 0.16279602
0.098679036 0.03442198 0.19408607
0.09816204 0.34233093 0.22099781
0.10006203 -0.23905909 0.12203693
0.10409203 -0.64340401 -0.087845802
0.099291041 -0.12405604 0.16221285
0.10308304 -0.568295 -0.035295963
0.093588039 -0.081830025 0.17013788
0.095373034 0.67703295 0.072768211
0.09445703 -0.23891509 0.12276316
0.094080031 -0.18313205 0.14331293
0.087262034 0.26693696 0.21458197
0.08906804 0.63489592 0.11113214
0.087496027 0.49333495 0.20121622
0.08187604 0.11500293 0.20697308
0.081805035 0.22529393 0.21121883
0.082118034 0.034231961 0.19235086
0.083489031 0.63484496 0.10965824
0.081757039 0.38179895 0.21412182
0.081927031 0.45341295 0.20384216
0.077477038 0.60574895 0.13569689
0.077910036 0.63479394 0.10818386
0.080005035 -0.56598604 -0.025171757
0.070931032 0.081945956 0.20081711
0.071919039 0.60569191 0.13423395
0.074247032 -0.565413 -0.022646904
0.065417036 0.081882954 0.20023918
0.065397039 0.11439794 0.20166302
0.065315038 0.26629394 0.20751905
0.065551028 0.034035981 0.19061422
0.066359028 0.60563397 0.13277102
0.067301035 0.67682093 0.065309048
0.072443038 -0.89084601 -0.30293512
0.066448033 -0.23821008 0.12637901
0.06806004 -0.51005507 0.010955811
0.063085034 0.75818497 -0.043552876
0.061763037 -0.42743409 0.057379246
0.054592032 -0.0034200549 0.1819458
0.054513033 0.45241997 0.18842888
0.048854034 0.19567794 0.19950581
0.049015034 0.45221895 0.18533802
0.057246033 -1.024263 -0.54022074
0.049337033 -0.12475902 0.15695715
0.043367032 0.15129793 0.19602823
0.043337036 0.22407997 0.1988349
0.043463033 0.41991395 0.18686914
0.043511037 0.45201895 0.18224382
0.048036035 -0.87706101 -0.24980021
0.043904033 -0.18278205 0.14470816
0.037883036 0.080837965 0.19154215
0.037815034 0.26547694 0.19866705
0.038115036 0.53296894 0.16745186
0.038783032 0.63443094 0.097853184
0.038002033 0.45181796 0.17914724
0.038057033 0.49171194 0.17339802
0.039795037 -0.56201005 -0.0075497627
0.033899035 0.70725596 0.014359951
0.033799034 -0.50680506 0.025897026
0.026977032 -0.039871037 0.17177105
0.027069036 0.53257394 0.15993595
0.027895033 0.67651892 0.05484581
0.026967034 0.45141396 0.17294407
0.031134035 -0.97521901 -0.35760689
0.029404033 -0.76896703 -0.13733101
0.021278035 0.26498097 0.19334602
0.021341033 0.033274949 0.18439484
0.015777033 0.19457096 0.18885422
0.015889034 -0.040027022 0.17060423
0.015761033 0.26481396 0.19156981
0.015948035 0.49097794 0.16095686
0.018698033 0.83059895 -0.2892909
0.016727034 -0.50520301 0.033329964
0.010240033 0.26464695 0.18979406
0.010287035 0.032812953 0.18083191
0.010495033 -0.18332207 0.14117908
0.010433033 -0.12535006 0.15285397
0.0047960337 -0.040186048 0.16943502
0.0047170334 0.26442194 0.18741703
0.0052530337 -0.42585909 0.064732075
0.0051360335 -0.35339808 0.09138298
0.0056800339 -0.630633 -0.033226013
-0.00072096661 -0.083164036 0.16021204
3.7034974e-05 -0.67643809 -0.05691576
-0.00028896518 -0.50451803 0.036478996
-0.0063379668 0.22247696 0.18284512
-0.0061699655 0.56183696 0.11876202
-0.0061019659 -0.35311508 0.092833996
-0.005133966 -0.95357108 -0.27708578
-0.0062549654 -0.12561506 0.15109301
-0.011858966 0.031879961 0.17369318
-0.011754966 0.56159997 0.11384916
-0.011690966 0.63367796 0.077186108
-0.011617966 0.67594898 0.035764217
-0.010866966 -1.0474751 -0.39502716
-0.011621966 -0.50419903 0.037956238
-0.017398966 -0.040514052 0.16709423
-0.017395966 0.33766598 0.16425323
-0.017267965 -0.55647004 0.017404079
-0.022951966 0.14890695 0.17466593
-0.022951966 0.19325095 0.17638397
-0.022951966 0.22193193 0.177495
-0.022951966 0.26294392 0.17192984
-0.022951966 0.60377192 0.087407112
-0.022951966 0.63344896 0.070946217
-0.022951966 0.48925096 0.13196421
-0.022951966 0.75725096 -0.098132133
-0.022951966 -0.42511308 0.068386078
-0.022951966 -0.29781806 0.11468315
-0.022951966 -0.627738 -0.020639896
-0.022951966 -0.55592501 0.019885063
-0.022951966 -0.50388408 0.039428234
-0.028510965 -0.083599031 0.15727615
-0.028561966 0.56088495 0.099064827
-0.028506966 0.30885595 0.16212416
-0.028510965 0.33714294 0.15802288
-0.028588966 0.63333297 0.06782198
-0.028627966 0.67559195 0.023920059
-0.028564965 -0.35255909 0.095731258
-0.028537966 -0.23814404 0.12613487
-0.034312967 0.67543596 0.018754959
-0.034372967 -0.62659109 -0.015625
-0.039644964 0.33661693 0.15178013
-0.039675966 0.41660994 0.14017105
-0.040268965 -0.75644708 -0.08664608
-0.039655969 -0.12616807 0.14755821
-0.045868967 -0.67167902 -0.036671162
-0.051092967 0.55992395 0.079246998
-0.050828964 0.37608796 0.13971424
-0.051007964 -0.3520211 0.098618031
-0.052066967 -0.84969306 -0.1440258
-0.051586963 -0.67109203 -0.034152985
-0.050850965 -0.18439102 0.13468218
-0.058245964 -0.93615305 -0.2120738
-0.057860967 -0.84827006 -0.13848019
-0.061858967 0.07684797 0.15939713
-0.061915968 0.26084393 0.15012407
-0.061981965 0.33555794 0.13925886
-0.062511966 0.60231495 0.052521229
-0.06743297 0.19117397 0.15709019
-0.067995965 0.52812994 0.076468945
-0.067550965 0.30690795 0.14025116
-0.067619964 0.37534896 0.13029194
-0.070140965 0.78949797 -0.23083401
-0.069418967 -0.84543407 -0.12741804
-0.067519963 -0.12665105 0.14460516
-0.068213969 -0.50267303 0.045299053
-0.072982967 0.14705098 0.15855122
-0.073018968 0.19083595 0.15396881
-0.074127965 0.63129497 0.012806892
-0.076277971 -1.010354 -0.26091719
-0.074788965 -0.75272501 -0.071344852
-0.078557968 0.14684093 0.15675497
-0.080186963 0.67396295 -0.029839993
-0.084244967 0.21843398 0.14359903
-0.084876969 0.48598996 0.077733994
-0.084688962 -0.352301 0.097382069
-0.08801797 -1.007205 -0.24945307
-0.085167967 -0.50223804 0.047491074
-0.089811966 -0.085621059 0.1441431
-0.091804966 0.67346495 -0.046212196
-0.09320797 0.75582695 -0.18013906
-0.092526972 -0.84231102 -0.11511183
-0.095530972 0.25901395 0.1313138
-0.095354959 0.028268933 0.14677382
-0.097637966 0.67321497 -0.054430008
-0.096250966 0.48538697 0.067777157
-0.095928967 -0.35255206 0.096180916
-0.097714961 -0.75028205 -0.061197758
-0.09696497 -0.62198901 0.004884243
-0.10090896 0.10800093 0.14808512
-0.10234296 0.55755496 0.030687809
-0.10276197 0.59996396 -0.0036158562
-0.10305697 0.62978792 -0.027740955
-0.10175897 0.44514796 0.078495979
-0.10102096 -0.12759006 0.13892412
-0.10677996 0.25839794 0.12502003
-0.10654196 0.027773976 0.14316797
-0.10686797 0.30492598 0.11822796
-0.10708396 0.37310395 0.10175419
-0.10765997 0.48478195 0.057787895
-0.11246496 -1.09096 -0.30926275
-0.11053097 -0.92272508 -0.16152906
-0.11218096 0.14471292 0.13843012
-0.11217897 -0.044696033 0.1385541
-0.11215997 -0.0092340708 0.13993311
-0.11276196 0.37271497 0.096817017
-0.11297996 0.41236395 0.081194878
-0.11315696 0.44447896 0.068542004
-0.11772397 0.10709393 0.1407361
-0.11805096 0.25777894 0.11871386
-0.11844897 0.37232494 0.091871262
-0.12120697 0.67201293 -0.093997002
-0.12300697 -0.99786508 -0.21533203
-0.12132996 -0.839095 -0.10228205
-0.11808197 -0.23991799 0.11660624
-0.12341796 -0.087312043 0.13330126
-0.12369697 0.25746793 0.11555386
-0.12553596 0.55598092 -0.0015287399
-0.12459196 0.44380796 0.058555126
-0.12426996 -0.42313099 0.079057217
-0.12351796 -0.18578804 0.12695312
-0.12498496 -0.55309999 0.033565044
-0.12898096 0.10632193 0.13445902
-0.12907197 0.14361197 0.129004
-0.12990996 -0.42327106 0.078451157
-0.12967597 -0.35332906 0.092568874
-0.13197397 -0.74667299 -0.04605484
-0.12949696 -0.30005109 0.10332203
-0.13132297 -0.66484702 -0.0067529678
-0.13032697 -0.5011301 0.053310871
-0.13453597 0.073817968 0.13597727
-0.13461697 0.10593396 0.13131809
-0.13456796 0.026523948 0.13413286
-0.13856097 -0.83719003 -0.09461689
-0.13490497 -0.2402761 0.11480904
-0.14025897 0.10554594 0.12817192
-0.14047697 0.18671697 0.1162858
-0.14079797 0.30315697 0.098752975
-0.14100097 0.33114898 0.087682247
-0.14073697 -0.30030608 0.10211897
-0.14613697 0.18636793 0.11312485
-0.14580296 0.026017964 0.13051224
-0.14896296 0.55438793 -0.034070015
-0.15012296 0.62729794 -0.094461918
-0.14702196 0.37035996 0.067029953
-0.14732496 0.41019094 0.051260948
-0.15166897 0.66955292 -0.17501974
-0.15556096 0.59686095 -0.077342033
-0.15307996 0.40982595 0.046246052
-0.15173896 -0.24064302 0.11300993
-0.15408397 -0.664253 -0.0038070679
-0.15376197 -0.62051105 0.012235165
-0.15712196 0.072198927 0.12343693
-0.15733497 0.14175797 0.113235
-0.15755796 0.21412593 0.10262108
-0.15768497 0.25558794 0.096539021
-0.15707996 -0.011339068 0.12544823
-0.16023296 0.52264994 -0.025114059
-0.15851296 0.36956793 0.057040215
-0.15812796 -0.42398608 0.075417042
-0.15783197 -0.35400403 0.089549065
-0.16461696 0.40909195 0.03619194
-0.16489697 0.44142994 0.023360252
-0.16912596 -0.98565805 -0.1704421
-0.16816497 -0.9135741 -0.12639713
-0.17204796 0.52176595 -0.041460991
-0.17039996 0.40872395 0.031154156
-0.17128396 0.48079196 -0.0077967644
-0.16844796 -0.13117707 0.11715889
-0.17401296 -0.047722042 0.118608
-0.17475796 0.25463694 0.086988926
-0.17649697 0.44074294 0.013232231
-0.17682897 -0.663679 -0.00086975098
-0.17969497 -0.09020406 0.11513901
-0.17965396 -0.048002064 0.11678791
-0.18037896 -0.354563 0.087124825
-0.18936396 -1.134632 -0.28048992
-0.18540996 -0.91161609 -0.11869717
-0.18432397 -0.83219504 -0.074293137
-0.18574396 0.13987994 0.097386837
-0.19204496 0.59373891 -0.15154886
-0.18780497 0.40761396 0.015986919
-0.18637696 -0.42472804 0.072376251
-0.18892896 -0.7426331 -0.028443813
-0.18574697 -0.30136609 0.097290039
-0.19828697 0.29864293 0.04899025
-0.19902197 0.36676097 0.021829128
-0.20674597 -1.1298012 -0.26363611
-0.20368496 -0.98036599 -0.15050316
-0.20034195 -0.74234402 -0.026968956
-0.20408596 0.29818493 0.043972015
-0.20439996 0.32641298 0.032707214
-0.21263596 0.62105596 -0.26212692
-0.20944597 -0.97969401 -0.14791918
-0.20796196 -0.091684043 0.10601902
-0.20791396 -0.049417019 0.10767412
-0.20808296 0.02202493 0.10178804
-0.20944296 -0.50123799 0.054595947
-0.21713497 0.40541494 -0.014072895
-0.21373896 -0.19052207 0.10033703
-0.21971296 0.067648947 0.088579178
-0.21934097 -0.014963031 0.10076094
-0.22237296 0.36513495 0.0015339851
-0.22031996 -0.4256531 0.068712234
-0.23381396 -1.054947 -0.18106508
-0.22885597 -0.7416451 -0.023294926
-0.23150496 0.13682693 0.071862221
-0.23061097 -0.050682068 0.099542141
-0.23358697 0.32421696 0.0074062347
-0.23076296 -0.19151604 0.094839096
-0.23791696 0.20837694 0.048593044
-0.24707296 -1.119487 -0.22739506
-0.24025396 -0.74137509 -0.021829128
-0.24265197 0.06596297 0.075806141
-0.24281496 0.098384976 0.071014881
-0.25113198 -1.0528741 -0.17327213
-0.24349996 -0.5022471 0.050906181
-0.24816196 0.018911958 0.079497814
-0.25760996 0.51366895 -0.19106674
-0.25524598 0.47373894 -0.12335491
-0.25274596 -0.82691205 -0.051775932
-0.25063798 -0.66195905 0.0086088181
-0.24774097 -0.135535 0.091566086
-0.25669798 0.29401296 -0.001554966
-0.25358498 -0.24591899 0.085412979
-0.26190698 0.24720496 0.011989117
-0.26765898 0.47242695 -0.14485788
-0.26682898 -0.97309411 -0.12224483
-0.25920597 -0.1931951 0.085652828
-0.26609597 0.13444394 0.052105904
-0.26717296 0.20569694 0.02341795
-0.26779196 0.24669796 0.0069108009
-0.26873398 -0.74072409 -0.018176079
-0.27146098 0.063831925 0.059767246
-0.27849498 0.43150395 -0.1233449
-0.27068797 -0.24698603 0.079886913
-0.27281696 -0.618505 0.024477959
-0.27191997 -0.50311899 0.04781723
-0.27724198 0.063402951 0.056548119
-0.27743196 0.095924973 0.051724911
-0.27781099 0.13325197 0.042070866
-0.28032899 0.29212797 -0.02200079
-0.28464097 0.43093196 -0.13175917
-0.28708598 0.46944594 -0.19399595
-0.28723297 -1.111184 -0.19773579
-0.27622798 -0.13713801 0.082369804
-0.28302798 0.06297195 0.053327084
-0.29304299 -1.1107481 -0.19602108
-0.29140297 -1.048113 -0.15517998
-0.28966999 -0.97051406 -0.11205196
-0.28202596 -0.194556 0.078285217
-0.28956297 0.13205397 0.03200388
-0.28784898 -0.096936047 0.073764801
-0.30945197 0.49964195 -0.452631
-0.29220098 0.29117793 -0.032269955
-0.29703999 0.42968196 -0.15018082
-0.29885098 -1.110316 -0.19431782
-0.28773898 -0.19489908 0.076438904
-0.29545298 0.13145196 0.026959896
-0.29362598 -0.097452044 0.070561886
-0.29432699 0.015286982 0.053825855
-0.29403797 -0.427791 0.060725212
-0.29964998 -0.90043008 -0.073180199
-0.29971999 -0.42796302 0.060107231
-0.30675998 -0.96860003 -0.10443497
-0.30137798 -0.61948502 0.021356106
-0.30037898 -0.50402105 0.044718266
-0.30623499 0.061239958 0.040408134
-0.30519897 -0.098488033 0.064145088
-0.31396797 0.17309397 -0.0058341026
-0.32332599 0.42525995 -0.21596718
-0.31813297 -0.96733606 -0.099370956
-0.31319097 -0.6618371 0.011611938
-0.31281197 -0.61988604 0.020103931
-0.31707597 -0.058042049 0.051545143
-0.32378897 0.31522495 -0.096304893
-0.32714897 0.39399695 -0.17029095
-0.33694199 0.45784897 -0.38595819
-0.32260597 -0.89991009 -0.070238113
-0.31746998 -0.50457501 0.042855263
-0.32252297 -0.42894709 0.056219101
-0.32562998 -0.73952508 -0.010915756
-0.33237699 0.19967997 -0.032677174
-0.33323598 0.24089998 -0.050896168
-0.33616596 0.31377596 -0.11301517
-0.34338799 0.42188296 -0.2661581
-0.33780998 0.17079192 -0.026306152
-0.33836299 0.19912493 -0.037825108
-0.34123597 0.28521097 -0.097632885
-0.34237698 0.31304795 -0.12139988
-0.35014197 0.42074496 -0.28305387
-0.33402497 -0.42980206 0.052495956
-0.33457696 -0.50514007 0.040987015
-0.35026199 0.35193098 -0.16367579
-0.33977997 -0.43023205 0.050632954
-0.33964899 -0.36210608 0.053311825
-0.33943596 -0.25135303 0.057677269
-0.33976698 -0.14249206 0.050907135
-0.34077796 -0.55535805 0.030236244
-0.34978896 0.16963196 -0.036590099
-0.34553999 -0.43066204 0.048768997
-0.34518099 -0.19870508 0.055981159
-0.35346997 0.056441963 0.0041499138
-0.35579497 0.16904998 -0.041747093
-0.36736098 0.38675895 -0.27006197
-0.35409397 -0.739187 -0.0081629753
-0.36088997 0.12473696 -0.029070854
-0.37441197 -1.1399289 -0.29145479
-0.36343497 -0.10374206 0.031859875
-0.36479297 -0.66375709 0.0059380531
-0.37999097 0.30863297 -0.17217207
-0.37053499 -0.66397607 0.0053062439
-0.37549499 -0.063102067 0.019124985
-0.37846497 -0.82421505 -0.035716057
-0.37509698 -0.55657005 0.026473999
-0.38137397 -0.063615024 0.015862942
-0.38003099 -0.36498606 0.040254116
-0.39810497 -1.1393331 -0.28816509
-0.38417196 -0.82411003 -0.034994125
-0.38155597 -0.62239504 0.012554169
-0.38596597 -0.43371403 0.035686016
-0.39708596 0.12099397 -0.060053825
-0.39845297 0.16428494 -0.084124088
-0.41047299 0.27653897 -0.19218016
-0.40015599 -0.74105203 -0.013256073
-0.39739498 -0.25587606 0.034636974
-0.39784297 -0.20397508 0.026860237
-0.39800999 -0.55740201 0.023958206
-0.40494499 -0.065679073 0.0027871132
-0.42888698 0.33280993 -0.40623474
-0.40857899 -0.89817607 -0.059296131
-0.40326998 -0.25649703 0.031392097
-0.40421697 -0.14860606 0.015220165
-0.41730899 0.16150296 -0.10911512
-0.41048297 -0.10804003 0.0057840347
-0.41269097 -0.82360101 -0.03138876
-0.41682497 -0.066846073 -0.0046591759
-0.41767198 -0.032664061 -0.018716812
-0.41504297 -0.257743 0.0248909
-0.42722997 -0.96390808 -0.081223965
-0.42176497 -0.62394309 0.0081191063
-0.43631199 0.15869498 -0.13429785
-0.44508296 0.26898593 -0.27568197
-0.43003297 -0.82431102 -0.033092022
-0.42751598 -0.62416899 0.0074830055
-0.44419897 0.18534195 -0.1668539
-0.43274999 -0.25962305 0.015117168
-0.43380699 -0.66648006 -0.0016851425
-0.44408199 0.046174943 -0.073060989
-0.44670597 0.11450595 -0.11419678
-0.44446298 -0.96360302 -0.079045773
-0.43916497 -0.20815504 0.0040178299
-0.45306897 0.11350697 -0.12258196
-0.44387397 -0.36963511 0.019606113
-0.44563997 -0.15258408 -0.0077118874
-0.45411399 -0.037230074 -0.049600124
-0.47340897 0.26279896 -0.34398699
-0.45437098 -0.89739001 -0.053517818
-0.46832296 0.15395296 -0.17672396
-0.45816398 -0.11291403 -0.02378273
-0.46022299 -0.037998021 -0.054777145
-0.48303097 0.25796193 -0.39817286
-0.48150897 0.21767098 -0.28531694
-0.46263698 -0.66767001 -0.0048789978
-0.46206197 -0.62555206 0.0036640167
-0.48124698 0.15203494 -0.19385004
-0.46840799 -0.66791105 -0.0055198669
-0.46789798 -0.62603009 0.0019650459
-0.47964099 -0.0044240355 -0.085241795
-0.47375098 -0.62655604 6.7234039e-05
-0.48476398 -0.041088045 -0.075568199
-0.47965097 -0.3220861 -0.0024447441
-0.47960797 -0.62708199 -0.0018320084
-0.49198398 -0.0059200525 -0.095722198
-0.49039397 -0.96285999 -0.073267937
-0.48622596 -0.265347 -0.014400959
-0.49485499 -0.11792105 -0.054718018
-0.50678796 0.037356973 -0.13959503
-0.50436795 -0.0074230433 -0.10623598
-0.49732298 -0.66923904 -0.009144783
-0.51325893 0.036245942 -0.14804602
-0.52605695 0.16889995 -0.32232618
-0.50771397 -0.96300399 -0.072538853
-0.50543594 -0.8277961 -0.04152298
-0.50420994 -0.74557102 -0.024833202
-0.50275296 -0.51703 -0.004986763
-0.52179295 0.066083968 -0.1840601
-0.52912796 0.14219695 -0.28276777
-0.53334492 0.16709095 -0.33950901
-0.52092898 -0.37776709 -0.017799854
-0.53746396 -1.0751361 -0.23517704
-0.56008494 0.15540594 -0.45200682
-0.53627098 -0.012519062 -0.14251375
-0.53062892 -0.16311407 -0.069194794
-0.55155092 0.096706927 -0.26360512
-0.55837095 0.13466698 -0.35123396
-0.53505397 -0.21844399 -0.051632881
-0.55884594 0.094724953 -0.28050375
-0.54303592 -0.164891 -0.079621792
-0.55586892 -0.016074061 -0.16796112
-0.55364293 -0.22125006 -0.067200184
-0.58094996 0.088717937 -0.33170319
-0.55620992 -0.448717 -0.027538776
-0.55613697 -0.63406801 -0.026639938
-0.57232696 -0.22407711 -0.082843781
-0.56760293 -0.522542 -0.025990963
-0.58888197 -0.022075057 -0.21081781
-0.57432693 -0.45100701 -0.037486076
-0.57428193 -0.749897 -0.036951065
-0.58050996 -0.17027402 -0.11111116
-0.57368696 -0.57190001 -0.029856205
-0.58679295 -0.17118001 -0.11638975
-0.57945192 -0.52357399 -0.029879093
-0.59697193 -0.091948032 -0.16699505
-0.60221297 -0.024503052 -0.22812605
-0.58590198 -0.67761505 -0.037871838
-0.58576292 -0.63682401 -0.036244869
-0.59308696 -0.17208803 -0.12167788
-0.60359794 -0.093248069 -0.17551899
-0.60426694 -0.99572802 -0.18323898
-0.59148192 -0.57349205 -0.035623074
-0.60570997 -0.17391002 -0.13228178
-0.59742194 -0.57402599 -0.037549973
-0.60399497 -0.75288904 -0.046590805
-0.61203694 -0.17482507 -0.13759708
-0.64239597 0.037703931 -0.41207314
-0.62041694 -0.13603604 -0.16580105
-0.62627298 -0.064059019 -0.23141289
-0.61236292 -0.33729601 -0.07555294
-0.65810293 0.024834931 -0.51860714
-0.62707293 -0.13739705 -0.17431974
-0.61684495 -0.45641601 -0.060832024
-0.61622894 -0.83333302 -0.053992748
-0.62068295 -0.28259909 -0.1034112
-0.62388092 -0.3901391 -0.074429989
-0.62145996 -0.64018309 -0.047820091
-0.63000095 -0.39088309 -0.077795982
-0.62742394 -0.6407491 -0.049755096
-0.64634597 -0.92143202 -0.12815714
-0.65060598 -0.180987 -0.17364788
-0.64026296 -0.53175604 -0.063200951
-0.65338594 -0.92493701 -0.14061594
-0.64577997 -0.75715005 -0.060153961
-0.64534593 -0.6424551 -0.055566788
-0.65251195 -0.53341711 -0.069911957
-0.67766595 -0.10782307 -0.27080107
-0.66346598 -0.685166 -0.063033104
-0.67362893 -0.23952711 -0.16762114
-0.67791092 -0.29176509 -0.15113401
-0.66946393 -0.68575799 -0.064978123
-0.69842196 -0.11212903 -0.29894304
-0.67987692 -0.39816999 -0.11149406
-0.67576092 -0.76024508 -0.069885731
-0.68196094 -0.34883404 -0.13255692
-0.67637694 -0.58405602 -0.076115131
-0.70614296 -0.11467606 -0.31601906
-0.69075394 -0.29383099 -0.16183901
-0.69794792 -0.19108307 -0.23392296
-0.68869692 -0.585796 -0.082853794
-0.70587295 -0.94071102 -0.1945672
-0.69380295 -0.76212204 -0.075743198
-0.69486797 -0.58666909 -0.086229801
-0.73689693 -0.094078064 -0.43949795
-0.71233392 -0.94227302 -0.19976091
-0.69952393 -0.68874502 -0.074730873
-0.73743194 -0.12500107 -0.38520718
-0.71243596 -0.65110409 -0.08686018
-0.72724992 -0.25050306 -0.22900105
-0.74444896 -0.16322505 -0.335917
-0.72476596 -0.40607202 -0.14865017
-0.73925394 -0.19992006 -0.28649092
-0.75233495 -0.16592407 -0.35318184
-0.76132792 -0.13289201 -0.43802881
-0.72396892 -0.76528704 -0.085536957
-0.73625994 -0.30148101 -0.20151186
-0.72418195 -0.692343 -0.087547779
-0.74101794 -0.25359905 -0.24640179
-0.73001695 -0.76592505 -0.087501049
-0.74624497 -0.86999106 -0.18390989
-0.73906893 -0.54526901 -0.11731386
-0.74530792 -0.54613101 -0.12072992
-0.76004994 -0.87494707 -0.20173311
-0.74902892 -0.696136 -0.10109997
-0.75074697 -0.59462202 -0.11678982
-0.76060492 -0.47768807 -0.15290499
-0.75431293 -0.76862705 -0.095905781
-0.76710296 -0.47890007 -0.15825701
-0.77021897 -0.41411901 -0.18625498
-0.78981394 -0.26459706 -0.30805588
-0.80733192 -0.22021008 -0.40957308
-0.78095692 -0.66131902 -0.12426615
-0.78652793 -0.701895 -0.12154484
-0.81101996 -0.26939011 -0.33484983
-0.79976797 -0.48500502 -0.18515682
-0.80556893 -0.79159009 -0.18397999
-0.81424993 -0.79754901 -0.2073369
-0.81950992 -0.48870599 -0.20140791
-0.81798697 -0.7067591 -0.13869381
-0.82248896 -0.55972004 -0.17644787
-0.85102493 -0.43068302 -0.26445103
-0.83985293 -0.60907507 -0.17280579
-0.88467896 -0.29619908 -0.48953199
-0.85552394 -0.5662601 -0.20351076
-0.88519096 -0.39144909 -0.34489393
-0.89647192 -0.344854 -0.43482018
-0.87111193 -0.73020303 -0.23265886
-0.87938195 -0.49998403 -0.25067997
-0.88646096 -0.50183201 -0.25906181
-0.88783193 -0.68665099 -0.22277212
-0.91104794 -0.70697999 -0.30929995
-0.90228093 -0.57555807 -0.24179697
-0.92238092 -0.5115391 -0.30316591
-0.92071992 -0.62699604 -0.24487591
-0.95762694 -0.4169271 -0.47639704
-0.97495598 -0.42387307 -0.51250076
-0.97783697 -0.46732605 -0.44216394
-0.98134995 -0.5280391 -0.37812996
-0.98941594 -0.53099906 -0.39189577
