# .PCD v0.7 - Point Cloud Data file format
VERSION 0.7
FIELDS x y z
SIZE 4 4 4
TYPE F F F
COUNT 1 1 1
WIDTH 1
HEIGHT 1024
VIEWPOINT 0 0 0 1 0 0 0
POINTS 1024
DATA ascii
0.83696228 0.31139731 0.0034365654
0.87150729 0.33336627 -0.25375843
0.84676129 0.27112329 -0.11384439
0.87302232 0.40254828 -0.40374041
0.83773428 0.33928031 -0.18134451
0.84975332 0.3726283 -0.32014322
0.85697728 0.4013783 -0.42366934
0.81300229 0.17604828 -0.12894344
0.79510731 0.28263927 0.010745525
0.79237032 0.18331832 -0.059945583
0.78030628 0.15357929 -0.057706356
0.76028132 0.2870453 0.056580544
0.8183133 0.44412729 -0.4631772
0.75038332 0.23742127 0.04285574
0.73905128 0.36465532 0.13581371
0.77466631 0.3848753 -0.15635538
0.72754127 0.2902053 0.088600636
0.71993828 0.36610729 0.15236139
0.73204529 0.1144293 0.0019545555
0.71844727 0.32208729 0.11684179
0.74246132 0.39012328 -0.086049557
0.77575129 0.45012328 -0.36731529
0.73451829 0.39141628 -0.068707466
0.71457332 0.16603929 0.051856518
0.7131443 0.19689727 0.064110756
0.71070129 0.24188632 0.085069656
0.74077231 0.41878128 -0.17285633
0.77764928 0.52184331 -0.5432725
0.70386028 0.11960429 0.044457436
0.7618193 0.4911063 -0.46032953
0.68979031 0.36750728 0.16700172
0.68771827 0.3239283 0.13536167
0.68378031 0.36778527 0.1699214
0.71678132 0.4224543 -0.11972761
0.67510229 0.1710943 0.094984531
0.74856627 0.56950533 -0.56516552
0.66613227 0.3683753 0.17558861
0.71007532 0.45936731 -0.2192874
0.72009629 0.49642628 -0.36452961
0.66032428 0.36852527 0.1768856
0.66960829 0.080530286 0.040401459
0.72580129 0.52551532 -0.47269249
0.65869731 0.12505531 0.087619781
0.6543833 0.20399827 0.12732935
0.65126127 0.32599431 0.15607071
0.65229732 0.12582529 0.093735695
0.64515531 0.3263793 0.16001463
0.6547873 0.044135273 0.01679039
0.64269531 0.17518228 0.1299448
0.68755031 0.50057232 -0.28977346
0.64839327 0.044917285 0.022406578
0.64412832 0.083504319 0.062647343
0.6470933 0.4331103 0.034672737
0.63318229 0.12812227 0.11199951
0.7061733 0.6028803 -0.5824585
0.63955528 0.43426028 0.051366806
0.62371129 0.20643932 0.14805651
0.62281728 0.2496233 0.15663862
0.70004028 0.6028353 -0.58430719
0.61760229 0.20692432 0.15218353
0.6139673 0.36971629 0.18736362
0.61096227 0.44531628 0.21643877
0.61208332 0.17772228 0.15065145
0.65065527 0.53777128 -0.22581244
0.63312429 -0.059735715 -0.11236858
0.63325727 0.51020133 -0.11367941
0.64278531 0.5386923 -0.20747852
0.60281527 0.32891929 0.18601465
0.67440832 0.60305226 -0.58102751
0.59648329 0.13130331 0.13635063
0.59132332 0.30025828 0.18805265
0.58759928 0.44605929 0.22536278
0.6360783 0.58008528 -0.32134342
0.58187532 0.44617429 0.22654057
0.6040253 -0.051675737 -0.05653429
0.57961327 0.30074626 0.1924386
0.57608527 0.1802423 0.17076445
0.59071732 -0.0031967163 0.020174503
0.58702332 0.47663629 0.058191776
0.57278728 0.13269329 0.14630556
0.59846628 -0.097563684 -0.12038231
0.56741029 0.3712163 0.20214558
0.58888131 0.54499328 -0.081856251
0.60803729 0.5818013 -0.28264141
0.63189727 0.65124428 -0.59905529
0.55318928 0.48727229 0.23359251
0.55100328 0.21217531 0.19719267
0.57551932 0.54588532 -0.064600468
0.55043727 0.3019433 0.20323658
0.60018528 0.61261427 -0.32799149
0.54993427 0.37184328 0.20860577
0.54641229 0.18216628 0.18603659
0.56973028 0.54587626 -0.065317631
0.5446173 0.30218029 0.20539045
0.5458163 0.092828274 0.13119459
0.53918833 0.21291131 0.2033186
0.53896028 0.25509429 0.20580244
0.55709732 -0.042146683 0.0084223747
0.5727523 0.58693826 -0.16195631
0.53793329 0.41312328 0.2169838
0.53768128 0.44600329 0.21971941
0.53299028 0.30265331 0.20969439
0.60605431 0.68687332 -0.59315348
0.5271703 0.30290329 0.21199942
0.55865628 0.58801126 -0.13735533
0.52670228 0.37267229 0.21719456
0.52565831 0.13543028 0.16608667
0.54215032 -0.082296729 -0.018694401
0.52090627 0.3728773 0.21933842
0.52431828 0.058207273 0.11733246
0.53583932 -0.081408739 -0.013041496
0.52787632 0.52084732 0.077073574
0.51386333 0.48760828 0.23564768
0.51840729 0.058583319 0.11983347
0.51137829 0.18400627 0.20017481
0.5367173 -0.13618571 -0.089449406
0.50973529 0.30365229 0.21895552
0.50960028 0.33253628 0.22049665
0.54479831 0.61817229 -0.18181038
0.51250327 0.058957279 0.12233257
0.50569731 0.1841383 0.20092249
0.5232513 -0.079640687 -0.0017642975
0.51946831 -0.037085712 0.041914463
0.50381631 0.33275729 0.2226367
0.50355631 0.3734833 0.22564268
0.50001729 0.18426931 0.20166874
0.5225963 -0.13185769 -0.061698437
0.51590627 0.55004132 0.016334534
0.49827528 0.4463833 0.22199678
0.51558131 -0.12970871 -0.047913551
0.49221832 0.3736963 0.22742558
0.49237227 0.48712128 0.22560644
0.48866427 0.18453127 0.20316076
0.50445932 -0.077006698 0.015064716
0.49771631 0.0078082681 0.095358372
0.48701727 0.44649729 0.22276545
0.50255227 -0.12709272 -0.031503201
0.49180228 0.0082042813 0.097873688
0.47995728 0.52973425 0.24042034
0.4807803 0.30488729 0.2305088
0.47516727 0.5605433 0.23084164
0.4999963 0.59096527 -0.071159363
0.47548032 0.4142223 0.22702837
0.46927327 0.33400428 0.23463869
0.47956729 -0.07352972 0.037342548
0.48903728 0.62207627 -0.08036232
0.46436131 0.44685528 0.22633457
0.46546531 0.061917305 0.14222145
0.46188527 0.13843429 0.18720675
0.47749132 -0.12340969 -0.0088973045
0.46819627 0.0097802877 0.10791254
0.45770729 0.30586427 0.23971653
0.47835129 0.59317231 -0.019695282
0.4835273 0.62193131 -0.084746361
0.45870131 0.4469443 0.22722769
0.46442628 -0.030744731 0.083500385
0.45202228 0.30602729 0.24111652
0.45304531 0.4470323 0.22811747
0.51619232 0.74482131 -0.57424641
0.45052829 0.13870627 0.18870449
0.46503228 -0.1215837 0.0023345947
0.4610163 -0.070947707 0.053938389
0.44801229 0.21550632 0.2210288
0.4471373 0.56072032 0.23227835
0.44636631 0.30616027 0.24217653
0.44696128 0.3745313 0.23453951
0.48744428 0.69486529 -0.28565454
0.44113231 0.2589373 0.2378087
0.4407143 0.3062923 0.2432375
0.44096729 0.33463627 0.23995256
0.50230128 0.78175926 -0.55715466
0.47301227 -0.25176769 -0.1765213
0.45261627 -0.11976773 0.013525486
0.43672028 0.21574527 0.22250366
0.43686131 0.5288673 0.22065258
0.45821828 0.62291026 -0.060117245
0.43202931 0.18580228 0.21059275
0.43295029 0.012111306 0.12288857
0.42479929 0.44746828 0.23256159
0.42532229 0.4874343 0.22552681
0.41836831 0.33513331 0.24419546
0.45073131 0.69718128 -0.19649744
0.41915831 0.44755429 0.23344851
0.41416329 0.21621728 0.22544956
0.41272628 0.33525628 0.24525738
0.41333929 0.4152573 0.23680162
0.41204628 0.099609315 0.17709351
0.40852728 0.21633327 0.22618437
0.41731429 -0.027493715 0.10360479
0.40919229 0.52877629 0.21690559
0.4079273 0.44768128 0.23455858
0.40177429 0.37542629 0.2427516
0.4348703 0.6965003 -0.22467422
0.3961353 0.3755393 0.24381256
0.3950243 0.1000213 0.17933846
0.4015263 -0.065855682 0.085172653
0.3916373 0.21667928 0.2283864
0.39284229 0.55988431 0.21094036
0.39049831 0.3756513 0.24487448
0.42875031 0.74950427 -0.30909252
0.44395828 0.78214931 -0.52933264
0.3903473 0.065508306 0.16552067
0.39565331 -0.065437734 0.087685585
0.38730231 0.55986631 0.21018839
0.43637431 0.7823953 -0.50962543
0.3918663 -0.11227673 0.059252739
0.38141829 0.52875125 0.21450377
0.38011929 0.4477593 0.23380566
0.3839213 -0.064606726 0.09270668
0.3749153 0.21678627 0.22830439
0.38220328 -0.025101721 0.11856651
0.37584129 0.52876329 0.21435356
0.37339929 0.33597732 0.25112677
0.37651229 0.63285828 0.20425463
0.37455928 0.44777328 0.23365641
0.41258928 0.7490083 -0.33890724
0.3723543 0.10055929 0.18232536
0.3780643 -0.064192712 0.095211506
0.37637028 -0.024706721 0.12105179
0.37067631 0.55981028 0.20793343
0.37098229 0.6027503 0.20326471
0.37106928 0.63278627 0.20193768
0.38502228 0.66952527 -0.010951519
0.3689993 0.4477883 0.23350763
0.38237929 -0.15900069 0.029370785
0.3666923 0.10069329 0.18307257
0.3631933 0.2594043 0.23717165
0.36248928 0.30720729 0.24806976
0.36228529 0.33604628 0.25122261
0.3658883 0.60244131 0.19549656
0.36289328 0.4158603 0.24181271
0.3595953 0.55976725 0.20632172
0.3569513 0.30721229 0.2477684
0.36044729 0.60235131 0.19296455
0.3601703 0.63264132 0.19730043
0.3573283 0.41588828 0.24185276
0.35787928 0.4478153 0.23321056
0.3584843 0.48760229 0.22372437
0.35431629 0.14090931 0.20134449
0.37158829 0.70042527 -0.073185444
0.3506183 0.066484272 0.17076874
0.35468531 -0.062548697 0.10520744
0.37530228 -0.3762427 -0.22711134
0.34495029 0.066621304 0.17151642
0.3440623 0.10121828 0.18604755
0.35073531 -0.1092357 0.076931477
0.3488543 -0.062140703 0.10769749
0.34106329 0.25933629 0.23507357
0.34006429 0.3361783 0.25140953
0.33928528 0.066756308 0.17226362
0.3384093 0.10134828 0.18679142
0.3365413 0.1872583 0.2177887
0.33612829 0.21666229 0.22462845
0.33553028 0.25931829 0.23455048
0.34154528 -0.022517681 0.13476944
0.34055328 0.01666832 0.15122652
0.33485928 0.30714828 0.24567461
0.33847931 0.60210228 0.18562746
0.3389633 0.63196528 0.1776104
0.3344233 0.37655428 0.25291157
0.33892131 0.67531133 0.17830563
0.36163029 -0.37086076 -0.19838238
0.33275729 0.10147727 0.18753242
0.3300423 0.44793028 0.2332325
0.3279593 0.067026317 0.1737566
0.3261283 0.14152229 0.20503569
0.32567829 0.52884328 0.21272659
0.3264553 0.5595333 0.1994524
0.32802328 0.63180625 0.17265558
0.32395929 0.41605029 0.24208975
0.33497131 -0.15470272 0.053957462
0.3235113 0.017098308 0.15348339
0.3182863 0.30709529 0.24410343
0.32348529 0.70622528 0.15393543
0.3189083 0.44797829 0.23331356
0.31434628 0.18717229 0.2156806
0.3197723 -0.060115695 0.12012577
0.31339329 0.25924128 0.23244858
0.31876829 -0.021917701 0.13779449
0.31464329 0.52875626 0.2104435
0.33449331 0.75253928 -0.13912344
0.3257153 -0.21850175 0.015451431
0.3087953 0.18714929 0.21515274
0.30841228 0.21655828 0.22199535
0.3121593 0.01738131 0.15498447
0.30912229 0.52871132 0.20930052
0.3098653 0.55941331 0.19601345
0.31148028 0.63163728 0.16712856
0.3072823 0.41612628 0.24220467
0.30382928 0.1415503 0.20401764
0.3082673 -0.059557736 0.12338257
0.3059603 0.63158029 0.16528559
0.32131329 -0.35501677 -0.1136775
0.2973243 0.21651226 0.2209425
0.29807928 0.52862227 0.20701551
0.31107229 -0.28056473 -0.032905579
0.29608628 0.6742183 0.13960981
0.2876263 0.10247427 0.19335461
0.2894803 0.01793927 0.15798044
0.2870293 0.52853227 0.20473242
0.28936529 0.63142526 0.16017056
0.3147243 0.82719231 -0.32370949
0.29619929 -0.21587473 0.029767513
0.2820563 0.10244632 0.19282436
0.28547829 -0.058949709 0.12641239
0.28313529 0.60166025 0.1718936
0.28512031 0.67404729 0.13336039
0.2999863 0.78680432 -0.15511322
0.27597329 0.52844131 0.20244837
0.27439329 0.44815928 0.2336297
0.3007513 0.82742029 -0.2866745
0.26993829 0.18697429 0.21145678
0.2750183 0.70516729 0.1094017
0.2864323 0.78724128 -0.11987543
0.26580429 0.068461299 0.18192577
0.26438528 0.18694729 0.21092749
0.2630823 0.3756673 0.23756742
0.25802431 0.25901628 0.22718954
0.26195729 -0.020470738 0.14532042
0.26116928 0.018619299 0.16171265
0.25771728 0.33506131 0.23358679
0.26878229 -0.27393574 0.0032186508
0.25209129 0.41581929 0.2350378
0.25761628 0.6736213 0.11786079
0.25206429 0.67356026 0.11557436
0.2532863 -0.14853674 0.089157581
0.24740231 0.70480132 0.093581676
0.24116328 0.4480893 0.23097849
0.24989229 0.78919131 0.038738728
0.2511563 -0.27246267 0.010903358
0.2385563 0.019150317 0.16468859
0.24186429 0.70472831 0.090419769
0.24379829 0.75583231 0.046996593
0.24443129 0.78912228 0.032779694
0.24692529 0.82902628 -0.023226261
0.23152229 0.1411733 0.19713068
0.2351383 -0.10273373 0.11429358
0.23075831 0.21619827 0.21460867
0.23290628 0.019281268 0.16543055
0.23008931 0.41552728 0.22994566
0.2445913 -0.40562969 -0.10220861
0.23595628 -0.14741367 0.09556675
0.22944629 -0.10258371 0.11504936
0.23079631 0.70456529 0.083494663
0.23582831 0.82896328 -0.034101486
0.21948931 0.25826329 0.21759462
0.22229931 -0.019504726 0.15055561
0.21911031 0.4153243 0.22662449
0.21927831 0.44760031 0.22262859
0.22608829 -0.21031672 0.060145378
0.2148253 0.14107227 0.19553661
0.21361831 0.41522229 0.22496367
0.22343731 0.78856027 -0.014307499
0.22510728 0.82884032 -0.054994583
0.2092573 0.14103729 0.19500351
0.21237731 -0.10213768 0.11731434
0.21161929 -0.057062685 0.13619947
0.2081393 0.41508728 0.2228446
0.20369029 0.1410023 0.19447279
0.20307329 0.21586227 0.21017838
0.20280629 0.33386928 0.21696854
0.20271531 0.37445828 0.21930456
0.20751131 0.6730653 0.09723568
0.2146723 0.82866126 -0.085039616
0.20100829 -0.10184473 0.11882257
0.20028329 -0.056783736 0.13769674
0.19967529 -0.018968701 0.15353251
0.19723228 0.41471028 0.21711445
0.20818529 -0.39883775 -0.067988396
0.20437229 -0.26859468 0.031274796
0.1925543 0.14093029 0.19340849
0.1921553 0.18654531 0.20404053
0.19461828 -0.056645691 0.13844442
0.1936183 0.019447267 0.16509056
0.1952163 0.63019329 0.12252569
0.19224429 0.4867883 0.20167971
0.1869863 0.14089328 0.19287539
0.18719029 0.52784133 0.1873064
0.18772528 0.55856133 0.1727128
0.18634728 0.30466032 0.21030855
0.18964928 0.63011628 0.12024641
0.18107527 0.18635327 0.20183039
0.1907073 0.78793132 -0.067245483
0.18555328 -0.20731872 0.076734543
0.18463528 -0.14602774 0.10239744
0.17555428 0.18619531 0.2001586
0.17714429 -0.018705726 0.15461636
0.17683429 0.019315302 0.16348171
0.17961028 0.67269826 0.084015369
0.17058527 0.10174227 0.18217564
0.17197227 -0.056102693 0.14142752
0.17154127 -0.018753707 0.15407753
0.16970327 0.37368229 0.20808554
0.17523929 0.7036593 0.04547739
0.17732328 0.75479329 -0.01574564
0.16454428 0.44594628 0.19555378
0.16472229 0.48616028 0.19019556
0.17092228 -0.33249468 0.0033063889
0.1798023 -0.58457071 -0.2643714
0.16004628 0.019176304 0.16187048
0.16830429 0.78761727 -0.093788624
0.1689283 -0.47705775 -0.11310148
0.16508529 -0.33199471 0.005859375
0.16186929 -0.14543372 0.10541964
0.15500528 -0.055702686 0.14365864
0.15613428 0.62969631 0.10771847
0.15372428 0.48583528 0.18440962
0.1499283 -0.10056871 0.1255765
0.14895129 0.5578903 0.1575408
0.15053529 0.6296283 0.10569859
0.1528433 0.7032913 0.030156612
0.14805529 0.44540828 0.18688774
0.15343028 -0.33099967 0.01095438
0.1487543 -0.39029068 -0.025082588
0.14633328 -0.26388067 0.056502342
0.13690329 0.14027929 0.18583775
0.13682827 0.18507427 0.18842363
0.13671029 0.25614429 0.19252539
0.13791129 -0.019053698 0.15084457
0.13932729 0.62949127 0.10165644
0.13173628 0.067685306 0.17055464
0.13254228 -0.055884719 0.14172459
0.13230228 -0.019105732 0.15030479
0.1337173 0.62942231 0.099633694
0.14505029 -0.64394075 -0.30608225
0.1255953 0.33185428 0.19038153
0.1260033 0.4446843 0.17529774
0.13500029 0.78685832 -0.15717936
0.12055529 0.067589283 0.1694808
0.12025929 0.13975728 0.18079042
0.12019128 0.18458432 0.18338156
0.12469529 0.70283729 0.011401653
0.12695327 0.75379831 -0.074833393
0.11525229 0.018778265 0.15756464
0.11904029 0.70275331 0.0079226494
0.12095029 -0.4676407 -0.067556381
0.11007529 -0.05611068 0.13955879
0.10986529 -0.019322693 0.14814472
0.11077829 0.59939229 0.11081362
0.10917728 0.3713553 0.17632151
0.11074429 -0.14414972 0.11218166
0.11725128 -0.56081372 -0.15406942
0.10349128 0.21309727 0.18000937
0.098903291 0.52523029 0.13565159
0.10426228 0.75336426 -0.10050058
0.10052528 -0.26234668 0.064153671
0.092516296 0.1005643 0.1701498
0.093219288 -0.056288719 0.13793135
0.092374288 0.21277827 0.17663956
0.092838295 0.018562317 0.15540457
0.093367286 0.52499831 0.13116455
0.087823294 0.52476525 0.12667274
0.088458292 0.5988133 0.096385479
0.087027289 0.37049329 0.1646986
0.087232284 0.4433983 0.15492058
0.091529287 -0.46402568 -0.050225258
0.087104283 0.75305831 -0.11858845
0.083390288 -0.26188868 0.066432476
0.07576029 0.13833731 0.16729879
0.076551288 -0.10021871 0.12608767
0.075678289 0.21229529 0.17157936
0.07611829 0.44299829 0.14864159
0.076745287 -0.14343768 0.11599541
0.070226289 0.099809289 0.16338778
0.070107289 0.21213329 0.16989136
0.072195292 0.62786329 0.055952549
0.073072292 -0.38362366 0.0081396103
0.064608291 0.13797629 0.16391659
0.064527288 0.25401032 0.16856956
0.06503129 0.4424203 0.13970137
0.070418291 -0.61349076 -0.16892719
0.059064291 0.099427283 0.16000175
0.058956288 0.21180731 0.16651249
0.061634287 0.67040628 0.0049834251
0.066453286 -0.70511872 -0.28560257
0.063414291 -0.54962069 -0.10236263
0.055719286 -0.38212067 0.015744686
0.04810629 -0.019977689 0.1421814
0.053057291 0.75180829 -0.19150734
0.050693288 -0.46025974 -0.032196522
0.04276529 0.4412553 0.12174559
0.04417529 -0.38112575 0.020799637
0.043464288 -0.26085275 0.07172966
0.036980286 -0.056927681 0.13249159
0.037761286 0.55391526 0.072899342
0.038113289 -0.32415277 0.045992374
0.037453286 -0.20347768 0.096373558
0.031135291 0.06532228 0.14959955
0.031112291 0.098460317 0.15152168
0.03105329 0.18188131 0.15636158
0.031968288 0.52240431 0.081411362
0.031194292 0.29920131 0.14477253
0.034021288 0.70040727 -0.086555481
0.035585292 -0.68875569 -0.21457434
0.034604289 -0.60577267 -0.13426924
0.025625288 -0.020236731 0.14000654
0.026545286 0.55324328 0.058853626
0.026921287 0.5959143 0.02572155
0.027185291 0.62591231 0.002430439
0.027710289 0.66894931 -0.043787479
0.028310291 0.70015228 -0.096725464
0.026674286 -0.32384974 0.047512531
0.026110291 -0.20331377 0.097227573
0.019889288 0.13650429 0.15035439
0.02020029 -0.10091174 0.1206255
0.019942291 0.25183427 0.14523363
0.020003289 -0.020303726 0.13946247
0.022600286 0.69985425 -0.10858059
0.02451729 -0.74856871 -0.2916503
0.015828289 0.62538731 -0.011916637
0.01546929 -0.38018769 0.025390625
0.014790289 -0.20347673 0.096123695
0.014658287 -0.14424068 0.10996866
0.0086812899 0.13612932 0.14695549
0.0095292889 -0.32340366 0.049786568
0.0039722882 0.55188632 0.030585766
0.0044192895 0.62485927 -0.026328564
0.0032862872 0.36695331 0.11786461
0.0047362894 -0.54190868 -0.066700459
-0.0014727116 -0.45552975 -0.0092024803
-0.0020797104 -0.25972766 0.077740669
-0.0010897107 -0.54135174 -0.064115524
-0.0071817115 0.59414029 -0.017201424
-0.0078607127 -0.20381171 0.093914509
-0.01215671 -0.67797476 -0.16790247
-0.019286711 0.3256703 0.11442375
-0.018457711 0.62305027 -0.075471401
-0.019222712 0.36556131 0.099797726
-0.019020712 -0.32268065 0.053563595
-0.018079711 -0.67664367 -0.16211748
-0.024942711 -0.1015237 0.11623573
-0.024980711 0.20788932 0.1273818
-0.024981711 -0.021894693 0.12761164
-0.024603711 0.5191173 0.019265652
-0.024922712 0.32535529 0.11064148
-0.024643712 -0.37912267 0.030721664
-0.024221711 -0.59598666 -0.090119362
-0.030611712 0.20759028 0.12443876
-0.029689712 0.66341126 -0.22776651
-0.030286713 -0.45358068 0.00036859512
-0.036263712 0.09607029 0.13108158
-0.036237713 0.24905127 0.11583376
-0.035835713 0.6216163 -0.11437941
-0.036136713 0.43708929 0.058131695
-0.03621871 -0.14497072 0.10501146
-0.04189571 0.062615275 0.12743473
-0.041882712 0.24876928 0.11287975
-0.041782711 0.51797831 -0.0021624565
-0.041855711 0.36415732 0.08163166
-0.041499712 -0.8329497 -0.32627344
-0.041712712 -0.59427077 -0.082331657
-0.04753571 0.59110528 -0.09025526
-0.04753571 0.47637931 0.023135662
-0.04753571 -0.6700477 -0.13337421
-0.04753571 -0.59370071 -0.079739571
-0.053176712 0.062188268 0.12401152
-0.053174712 0.095457315 0.12595272
-0.053186711 0.2063843 0.11263561
-0.05319171 0.24820226 0.10696363
-0.053178713 0.014246285 0.12121677
-0.05320771 0.3234573 0.08799839
-0.053245712 0.43617728 0.044339657
-0.053351711 -0.59313375 -0.077150345
-0.058816712 0.095251262 0.12423849
-0.058942713 0.40330428 0.052353382
-0.058964711 0.43587229 0.039730549
-0.05952771 -0.82222372 -0.28268862
-0.05910071 -0.5358687 -0.038405418
-0.064477712 0.13270628 0.11664152
-0.070158713 0.17672628 0.10766268
-0.070128709 0.013561308 0.11606979
-0.070667714 0.51605725 -0.038189411
-0.070274711 0.32230729 0.074335575
-0.070443712 0.43496129 0.025995731
-0.070552714 0.47466829 -0.0054316521
-0.070942715 -0.66633576 -0.11712265
-0.070776716 -0.59144169 -0.069398403
-0.075868711 0.24705929 0.095092773
-0.076046713 0.36202329 0.054191589
-0.076254711 -0.45236272 0.006477356
-0.077367708 -0.81382567 -0.24851322
-0.081428707 0.061107278 0.11543751
-0.081468716 0.13168931 0.10777569
-0.081691712 0.3215363 0.06519556
-0.081855714 0.40198529 0.033923626
-0.083302706 -0.81237966 -0.2426095
-0.081578717 -0.20499772 0.086704731
-0.087237716 0.24648428 0.089142799
-0.087344714 0.2927683 0.071656704
-0.087411717 0.32114929 0.060614586
-0.087335713 -0.26051265 0.073176384
-0.087939709 -0.53322273 -0.025809288
-0.092820711 0.13100827 0.10185051
-0.09281671 -0.10361373 0.10241079
-0.092937708 0.24609232 0.085089684
-0.093249708 0.36094427 0.04038763
-0.093470708 -0.45192474 0.0087575912
-0.096880712 -0.95455271 -0.47967434
-0.09312471 -0.32183772 0.058286667
-0.093024716 -0.26061577 0.072616577
-0.092837706 -0.14585871 0.099479675
-0.098455712 -0.024994731 0.10528851
-0.09843871 0.012403309 0.10747337
-0.098791711 0.29195231 0.062508583
-0.099001713 0.36058331 0.03577137
-0.10104971 -0.80806571 -0.22496653
-0.10010071 -0.66338867 -0.10408449
-0.098614708 -0.20529169 0.085032463
-0.10419571 0.13032228 0.09591341
-0.10424871 0.17480129 0.089855671
-0.10694471 -0.80663568 -0.21910858
-0.10429572 -0.20539171 0.084475517
-0.10419071 -0.14633971 0.096495628
-0.10998671 0.20331532 0.082941532
-0.11101371 0.43163028 -0.024106503
-0.11282972 -0.80521065 -0.21326351
-0.11202571 -0.7104407 -0.12953949
-0.11548971 0.059095263 0.099586487
-0.11558971 0.12963331 0.089968681
-0.11546071 0.011700273 0.10230446
-0.11704371 -0.58700567 -0.04885149
-0.12123871 0.091362298 0.09216547
-0.12129671 0.1292873 0.086990356
-0.12119171 -0.062101722 0.096275806
-0.12116771 -0.025975704 0.098389626
-0.12114272 0.011463284 0.10058069
-0.12178271 0.2903083 0.044138432
-0.12272171 0.43066528 -0.038562298
-0.12165471 -0.32239872 0.05547142
-0.12685272 -0.026222706 0.096662521
-0.12859371 0.43018129 -0.045812607
-0.13308871 0.24299031 0.053105354
-0.13360071 -0.4509427 0.01404953
-0.13271472 -0.20590466 0.081682682
-0.13837272 0.090267301 0.083231449
-0.14210671 -0.79814368 -0.18420458
-0.13840172 -0.20600969 0.081122398
-0.15041971 0.24164426 0.039298534
-0.15078071 -0.45053869 0.016309738
-0.15020971 -0.32298368 0.052649498
-0.14979172 -0.20634574 0.079259396
-0.15564272 0.12719429 0.069066525
-0.15916671 0.4663623 -0.14342451
-0.16387972 -1.0130596 -0.42766142
-0.16309172 0.35529029 -0.03164053
-0.16410372 0.42724729 -0.089650631
-0.16527271 0.4655683 -0.15660143
-0.16439071 -0.70509273 -0.10608149
-0.16695672 0.055657268 0.07277441
-0.16732271 0.17074829 0.052758694
-0.16752672 0.1990093 0.041659355
-0.16674671 -0.02802068 0.084233761
-0.16794971 -0.45014471 0.018562794
-0.17558172 -1.0051126 -0.39782238
-0.1712037 -0.79204565 -0.15895557
-0.16687071 -0.14945465 0.07742548
-0.16897471 -0.58465272 -0.037376404
-0.1727027 0.055270314 0.06978178
-0.17257872 0.0081433058 0.076238632
-0.17431772 0.31476927 -0.014304638
-0.17332071 -0.37803668 0.03759861
-0.17704472 -0.79142469 -0.15632343
-0.17820972 -0.064715683 0.078947544
-0.17939171 -0.44988769 0.020062447
-0.18468571 -0.89397866 -0.24367666
-0.18398172 -0.10796171 0.074686527
-0.1874927 0.3928473 -0.092945576
-0.19295171 -0.99333471 -0.35355854
-0.19052771 -0.89249569 -0.23780966
-0.1845147 -0.32371765 0.049251556
-0.18410471 -0.20817477 0.06881237
-0.1862807 -0.58422571 -0.035089493
-0.19054872 0.16873127 0.034344673
-0.1911487 0.2384643 0.006860733
-0.1927807 0.35242629 -0.06797123
-0.19651473 0.46060029 -0.23907661
-0.18992171 -0.26251465 0.06306076
-0.18976071 -0.15061575 0.070459366
-0.1966297 0.19658327 0.018539429
-0.19559172 0.0064972639 0.064263344
-0.19959372 0.39146629 -0.11206341
-0.20357272 0.4576993 -0.28742647
-0.20221272 0.16771531 0.025096416
-0.20345873 0.2838223 -0.027795315
-0.21073371 0.45475629 -0.33648157
-0.20617872 -0.78835076 -0.14321041
-0.2016837 -0.32409769 0.04754734
-0.2042667 -0.65413874 -0.06204319
-0.20729172 0.052927315 0.051762581
-0.2069017 -0.10908473 0.067716599
-0.2070457 -0.20941466 0.061826706
-0.2069627 -0.15149575 0.065225601
-0.21318972 0.085423291 0.044222355
-0.2141937 0.1951133 0.0045895576
-0.22550672 -1.0806026 -0.44234657
-0.21584171 -0.65385276 -0.06051445
-0.2127887 -0.20972675 0.060077667
-0.21844572 -0.15208775 0.061732769
-0.22735471 0.2812053 -0.056788445
-0.22797272 0.3091833 -0.07963562
-0.23103473 0.1213333 0.019218445
-0.2298747 -0.1102227 0.060730457
-0.2300027 -0.068161726 0.056148529
-0.23520672 -0.78532475 -0.13016558
-0.2323817 -0.58314365 -0.029027462
-0.23562771 -0.11051971 0.0589118
-0.23830971 0.23442131 -0.034165382
-0.24710372 0.41060129 -0.33945227
-0.24517071 -0.97191066 -0.27235842
-0.23605371 -0.32488471 0.044131756
-0.24208072 0.050548315 0.033638477
-0.24330172 0.16412032 -0.0074791908
-0.2436367 0.19263828 -0.018794537
-0.24188671 0.0031542778 0.040177345
-0.2478987 0.050148308 0.0306077
-0.24822071 0.082415283 0.020068645
-0.24739471 -0.069529712 0.04711771
-0.25216672 0.30665427 -0.10908651
-0.24842671 -0.45159072 0.013327599
-0.24752373 -0.32517272 0.042889595
-0.2474167 -0.26566476 0.046386719
-0.25372371 0.049747288 0.027572632
-0.26251072 0.38137528 -0.25203753
-0.26523972 -1.0522418 -0.33887148
-0.26259372 -0.96731466 -0.25469065
-0.25958571 0.049218297 0.023515701
-0.26047671 0.11858529 -0.004052639
-0.26238671 0.2315703 -0.063211441
-0.2591767 -0.034966707 0.036184788
-0.27005371 0.3779023 -0.30056047
-0.26589772 0.080681264 0.0061306953
-0.26516971 0.001457274 0.028060436
-0.27279472 0.34187627 -0.20178556
-0.26788172 -0.65263468 -0.053670406
-0.26451772 -0.15449268 0.04771471
-0.27066371 -0.071369708 0.035033703
-0.2791827 0.34082031 -0.2151885
-0.27629372 -0.11387569 0.037811756
-0.28190872 0.27520728 -0.12296343
-0.28569171 -0.96124774 -0.2312932
-0.27630171 -0.26735467 0.037583351
-0.28008971 -0.69753677 -0.07090044
-0.27943572 -0.65237874 -0.052157402
-0.2778877 -0.53023976 -0.0078406334
-0.28319371 0.046801269 0.0049414635
-0.28221372 -0.32731074 0.03231144
-0.2858817 -0.69740671 -0.070141315
-0.28958771 0.078347266 -0.012546539
-0.2879627 -0.11484569 0.031758785
-0.28945771 -0.53057474 -0.0090074539
-0.30051771 0.27275628 -0.15003157
-0.29392472 -0.38097674 0.025566578
-0.29367271 -0.2683807 0.032290459
-0.29746071 -0.69714969 -0.06862545
-0.3009907 0.044972301 -0.0090594292
-0.30673972 -0.87298769 -0.1587162
-0.29946971 -0.26872474 0.030523777
-0.30252969 -0.65188175 -0.049140453
-0.30103371 -0.53091365 -0.010176659
-0.31119871 0.22576827 -0.12207651
-0.31037369 -0.77879268 -0.10108232
-0.3090387 -0.69689876 -0.067110538
-0.30682471 -0.53108567 -0.010760307
-0.31290069 0.043745279 -0.018426418
-0.31160671 -0.074634731 0.013769627
-0.31600872 0.18450332 -0.095816612
-0.32177469 0.29551929 -0.23938036
-0.31188071 -0.45331866 0.0069556236
-0.3204197 -0.95472068 -0.20563745
-0.31094772 -0.21519166 0.03018856
-0.31261569 -0.53125769 -0.011344433
-0.31886771 0.043130279 -0.023121357
-0.3193987 0.075398266 -0.036048412
-0.32001671 0.11298728 -0.051107407
-0.31723872 -0.11729169 0.016573429
-0.3184087 -0.53143173 -0.011931419
-0.33207572 -0.95343274 -0.20035124
-0.3313857 0.074208319 -0.045497417
-0.32879671 -0.3832497 0.015016556
-0.3313807 -0.65129071 -0.0453825
-0.32874471 -0.15979367 0.016238689
-0.33051571 -0.58305269 -0.025145531
-0.33811271 0.11112428 -0.066728592
-0.33462369 -0.16030866 0.013193607
-0.3442567 0.11026329 -0.074035645
-0.3468757 0.18058431 -0.1328454
-0.34077969 -0.45414871 0.0040435791
-0.34015271 -0.27116472 0.018126488
-0.34291372 -0.65106267 -0.043883324
-0.3488417 0.040028274 -0.046699524
-0.35041469 0.10939932 -0.081358433
-0.3529827 -0.86812276 -0.13790321
-0.34639871 -0.16134375 0.0070924759
-0.35824171 0.15116829 -0.12444019
-0.35932171 0.17900032 -0.14777231
-0.3618547 0.21786529 -0.20249653
-0.3521167 -0.38480073 0.0078964233
-0.3544867 -0.65105075 -0.043305397
-0.35319769 -0.53249973 -0.015452385
-0.36277571 0.10766429 -0.096055508
-0.37448871 0.25530428 -0.34443331
-0.35780871 -0.33208269 0.0092554092
-0.36109069 -0.69583565 -0.060332298
-0.35782769 -0.21904975 0.0088596344
-0.3689757 0.10679328 -0.10342741
-0.37854069 -0.94836372 -0.1793232
-0.36931869 -0.27293974 0.0092387199
-0.3726477 -0.69561368 -0.058833599
-0.3882997 0.2125833 -0.25642538
-0.3773807 -0.04573369 -0.037106514
-0.3754957 -0.38637072 0.00076246262
-0.3751837 -0.27337271 0.0070266724
-0.37642071 -0.53323466 -0.017808437
-0.3834177 -0.0464257 -0.041827202
-0.3811917 -0.33358973 0.0021247864
-0.38284269 -0.58475369 -0.030464649
-0.3872087 -0.38716274 -0.0028114319
-0.3959007 -0.94649774 -0.17148638
-0.39306971 -0.38756067 -0.0046005249
-0.3933267 -0.22237176 -0.0095052719
-0.40344271 0.03417027 -0.091000557
-0.41126171 0.16954029 -0.2377553
-0.40157869 -0.048511684 -0.056028366
-0.39893469 -0.38795966 -0.0063905716
-0.40990672 -1.0188878 -0.21231937
-0.40115571 -0.65267271 -0.048074245
-0.39968669 -0.16606873 -0.020522594
-0.40031171 -0.58534366 -0.03224659
-0.4152717 0.14264327 -0.20148849
-0.40599069 -0.1249187 -0.030124187
-0.40688971 -0.083942711 -0.046713352
-0.41112772 -0.86553675 -0.1249733
-0.40563771 -0.16659969 -0.0236063
-0.41494071 -0.77665669 -0.087463379
-0.41655269 -0.38916475 -0.011767387
-0.41755971 -0.16766673 -0.029782295
-0.4353947 0.13822031 -0.2418375
-0.43051371 -0.94282168 -0.15588522
-0.42362872 -0.5861457 -0.03462553
-0.42294171 -0.53476173 -0.022542477
-0.43891472 -1.0156946 -0.1991744
-0.43234369 -0.77634472 -0.085216522
-0.44894472 0.13524032 -0.26900339
-0.4390167 -0.016424716 -0.099395275
-0.43444571 -0.46019775 -0.021299362
-0.4342027 -0.39037973 -0.017155647
-0.4447037 -1.0150616 -0.19655323
-0.4352957 -0.58655375 -0.035817623
-0.4557637 0.13373929 -0.28267241
-0.44343871 -0.088322699 -0.075223446
-0.44394371 -0.77614468 -0.083722591
-0.45792371 0.093151271 -0.21868658
-0.44855171 -0.13024169 -0.063238621
-0.45388269 -0.94205767 -0.15166235
-0.4485397 -0.69757277 -0.063034534
-0.4469707 -0.58696777 -0.037014484
-0.45656669 -0.054863691 -0.099027634
-0.46205169 -1.0131788 -0.18870831
-0.46653971 0.024452269 -0.16534948
-0.47152171 0.089993298 -0.2456646
-0.47680071 0.12847626 -0.33075523
-0.46782669 -1.0125546 -0.18609953
-0.47462571 0.0548563 -0.19981337
-0.4859857 0.1231243 -0.38038254
-0.4714537 -0.94173974 -0.14939356
-0.4672907 -0.77637476 -0.083232403
-0.47506669 -0.05701369 -0.11348724
-0.47527072 -0.86437672 -0.11668444
-0.47135371 -0.65525967 -0.055281639
-0.4703497 -0.58784169 -0.039553642
-0.4792327 -0.13409871 -0.087099552
-0.4990547 0.083592296 -0.30027723
-0.48171669 -0.46367866 -0.035742283
-0.48692271 -0.86418468 -0.11518621
-0.48201069 -0.5392707 -0.04023838
-0.50600773 0.081975281 -0.31406736
-0.48764169 -0.46411973 -0.037552357
-0.49274871 -0.86409074 -0.11443758
-0.50249374 -0.026518703 -0.17191839
-0.49356171 -0.3952747 -0.039185524
-0.4940747 -0.58977169 -0.046815395
-0.5051077 -0.095769703 -0.12332249
-0.50689071 -0.062253714 -0.14947557
-0.4995077 -0.46500677 -0.041178226
-0.50439972 -0.86390775 -0.11294127
-0.51842672 0.015851319 -0.23100328
-0.53035873 0.071601272 -0.40380526
-0.51538974 -0.028625727 -0.18701839
-0.51464975 -1.0106907 -0.17629147
-0.50654471 -0.65662271 -0.058911324
-0.5205937 -1.0108557 -0.17647552
-0.51827872 -0.94095975 -0.14336824
-0.51441574 -0.77834576 -0.088125229
-0.5363887 0.040516317 -0.31574726
-0.5225867 -0.13958269 -0.12081432
-0.5265407 -1.0110216 -0.17665625
-0.52484971 -0.28832573 -0.070293427
-0.52416474 -0.65732175 -0.060731411
-0.55333471 0.0070642829 -0.29909754
-0.54789871 -0.033947706 -0.22507334
-0.53584671 -0.39997369 -0.060963631
-0.5363847 -0.34815866 -0.068284512
-0.53602874 -0.65813667 -0.063439369
-0.53840369 -0.23809975 -0.095775604
-0.54007673 -0.1827597 -0.11856222
-0.55218172 -0.0699597 -0.20226955
-0.54120374 -0.46827668 -0.05453825
-0.54392874 -0.77962273 -0.091200352
-0.55394268 -0.14375371 -0.14641237
-0.55337667 -0.94043976 -0.1388793
-0.56303573 -0.10565472 -0.18825054
-0.5594157 -0.47042567 -0.063899517
-0.56015372 -0.40269667 -0.073483467
-0.56507069 -0.94027966 -0.13738966
-0.56165868 -0.78040665 -0.093051434
-0.56593269 -0.66074473 -0.072601318
-0.58267772 -0.10913068 -0.21103859
-0.5767647 -0.94012469 -0.1359024
-0.5758847 -0.24333674 -0.12472343
-0.57769573 -0.18775469 -0.14772749
-0.57903868 -0.35275072 -0.090279579
-0.57792372 -0.66179866 -0.076274395
-0.57737768 -0.54690176 -0.069411278
-0.59864968 -0.078544736 -0.26112127
-0.58378971 -0.47331673 -0.07642746
-0.58456373 -0.40544671 -0.086054325
-0.58845669 -0.93998271 -0.13443947
-0.58515769 -0.35341376 -0.093435287
-0.59962571 -0.15217274 -0.19915152
-0.61106271 -0.049706697 -0.33977222
-0.59124768 -0.78173965 -0.096144199
-0.58993071 -0.66285866 -0.079953194
-0.60908371 -0.11381269 -0.24166822
-0.59680873 -0.40683168 -0.092359543
-0.59881169 -0.8667087 -0.1167326
-0.5959397 -0.6633907 -0.081795216
-0.60106772 -0.24687272 -0.14416838
-0.60341471 -0.19197267 -0.17271757
-0.61281872 -0.15461069 -0.21437836
-0.62011373 -0.084428728 -0.30217457
-0.60294169 -0.40752667 -0.095518589
-0.60561073 -0.29931766 -0.12763739
-0.61943769 -0.15583366 -0.22201633
-0.6260727 -0.15706176 -0.22967243
-0.61522573 -0.40892273 -0.1018424
-0.6182397 -0.30117971 -0.13735342
-0.61968571 -0.60028368 -0.085267544
-0.63699973 -0.96324366 -0.21741343
-0.63370472 -0.41102773 -0.1113534
-0.63519669 -0.3605327 -0.12841225
-0.63230568 -0.70833772 -0.095370293
-0.65277368 -0.1620087 -0.26047564
-0.64968872 -0.96571869 -0.22556734
-0.67293471 -0.10108769 -0.41888046
-0.64416969 -0.66770571 -0.09657526
-0.66898471 -0.97003466 -0.23998928
-0.65833968 -0.86965066 -0.12302065
-0.65627068 -0.66880065 -0.10028458
-0.66552371 -0.2573027 -0.20196342
-0.67219871 -0.25865465 -0.20957422
-0.68233973 -0.87122875 -0.12693644
-0.68076068 -0.71284872 -0.11022949
-0.69680071 -0.20995873 -0.27991533
-0.68135971 -0.55877274 -0.11656237
-0.71034372 -0.17743272 -0.35847521
-0.68857169 -0.48592967 -0.13027954
-0.6990577 -0.26410371 -0.2401886
-0.7035917 -0.21127266 -0.28770542
-0.6926747 -0.6721217 -0.11144352
-0.7098307 -0.42272967 -0.16603565
-0.7150647 -0.31687576 -0.21941137
-0.7048437 -0.67324167 -0.11517429
-0.71355069 -0.48904771 -0.14345932
-0.71246773 -0.56277376 -0.13251543
-0.75016773 -0.19180471 -0.45088434
-0.71712172 -0.67457277 -0.11980438
-0.72384471 -0.79247075 -0.12785149
-0.7328397 -0.49236268 -0.15811634
-0.73950869 -0.89753073 -0.22376728
-0.72959572 -0.67631167 -0.12618065
-0.7421267 -0.42800969 -0.19068146
-0.73560768 -0.71804971 -0.12705564
-0.76318872 -0.22908372 -0.39625025
-0.7374807 -0.5660097 -0.14534044
-0.76044869 -0.27660269 -0.31012726
-0.7437517 -0.56682366 -0.14855337
-0.76079071 -0.90611571 -0.25503063
-0.7587077 -0.49682075 -0.17777157
-0.76065272 -0.79632372 -0.1397872
-0.77645671 -0.32994169 -0.28890657
-0.78298169 -0.28361875 -0.35046959
-0.76691568 -0.79722971 -0.14282131
-0.81044769 -0.25379366 -0.55016041
-0.80593568 -0.29094368 -0.39261055
-0.78152668 -0.57174975 -0.1679163
-0.7932477 -0.81692868 -0.22047043
-0.78708172 -0.62107772 -0.1641655
-0.79782873 -0.50359267 -0.20748138
-0.79175669 -0.72539073 -0.15247965
-0.79239768 -0.68513769 -0.15828562
-0.82918268 -0.29836971 -0.43527746
-0.81095469 -0.50587171 -0.21744537
-0.8050437 -0.68692774 -0.16474724
-0.8075797 -0.57645267 -0.18735933
-0.81241071 -0.62451774 -0.17712831
-0.81412673 -0.57765073 -0.19230747
-0.84951168 -0.34979671 -0.39606619
-0.82406771 -0.68963069 -0.17446947
-0.82991171 -0.73125869 -0.17328739
-0.85364068 -0.58489972 -0.22215843
-0.8763147 -0.40738672 -0.36176252
-0.86547869 -0.75502366 -0.27089024
-0.87076968 -0.51661974 -0.26439428
-0.88415271 -0.4100967 -0.37579441
-0.87777573 -0.51833373 -0.27214861
-0.87354469 -0.58856469 -0.23718834
-0.89992672 -0.4155547 -0.40403461
-0.8974337 -0.77048665 -0.33327627
-0.9060117 -0.46222574 -0.35305643
-0.90597171 -0.52524072 -0.3033514
-0.92031568 -0.46557468 -0.36900854
-0.9045167 -0.64127272 -0.24306536
-0.95841873 -0.43821865 -0.52196836
-0.98594469 -0.54613775 -0.39795923
