# .PCD v0.7 - Point Cloud Data file format
VERSION 0.7
FIELDS x y z
SIZE 4 4 4
TYPE F F F
COUNT 1 1 1
WIDTH 1
HEIGHT 1024
VIEWPOINT 0 0 0 1 0 0 0
POINTS 1024
DATA ascii
1.0069813 0.018558562 -0.14440775
0.98762631 0.07556057 -0.096604824
0.98336029 0.074174583 -0.10847378
0.97761226 0.11386657 -0.070014954
0.95885634 0.15514153 -0.065128803
0.95496035 0.11312854 -0.079584599
0.98216224 -0.075692475 -0.26605177
0.96145332 0.022101581 -0.12409163
0.94717932 0.15507656 -0.067412853
0.94294727 0.23605156 -0.038226604
0.95376229 -0.02124542 -0.1547718
0.93290126 0.20430058 -0.051568985
0.92700231 0.15711755 -0.052183628
0.92673028 0.20453054 -0.050274849
0.9076283 0.15856957 -0.042026997
0.90191734 0.11825156 -0.043911934
0.90110636 0.15911853 -0.038064003
0.91055834 -0.10280639 -0.14990473
0.9036783 -0.050533473 -0.10000372
0.88806331 0.20725054 -0.029967785
0.88943434 -0.047956467 -0.083817959
0.88266528 0.28160357 -0.034078598
0.88294935 -0.047328472 -0.080272675
0.88042128 0.35958654 -0.061573029
0.86804533 0.087874532 -0.013970852
0.86881435 0.20861357 -0.019699574
0.88436127 -0.1001274 -0.13544369
0.87452137 0.35960156 -0.062185764
0.86117136 0.16323656 -0.0069689751
0.86398637 0.28241354 -0.02806282
0.85418928 0.12434155 0.00096035004
0.85433531 0.16410857 -0.00014162064
0.86581433 0.44406655 -0.086750031
0.84925127 0.21028256 -0.0065345764
0.85388529 0.33107656 -0.041733742
0.85830033 -0.097478449 -0.12107468
0.84483337 -0.044267476 -0.063799858
0.85067534 0.47759557 -0.10878277
0.83235037 0.28420353 -0.013358593
0.83510935 0.33190358 -0.034750938
0.82593036 0.28464556 -0.0095396042
0.83370233 0.40245557 -0.070206642
0.84947133 -0.15264148 -0.19330263
0.81784236 0.091337562 0.0074472427
0.82612228 -0.043048441 -0.057635784
0.83128238 0.44357455 -0.098201752
0.84240937 -0.15131646 -0.1856637
0.81670833 -0.0017104745 -0.030351639
0.81607234 0.33294457 -0.025317669
0.81367528 -0.042242467 -0.053538799
0.80637729 0.28622854 0.0046391487
0.81517637 0.40299857 -0.065505028
0.82346129 0.47632957 -0.13154793
0.80432129 -0.00094246864 -0.026292801
0.80155432 0.040652573 -0.0040807724
0.8032043 0.33378655 -0.017329693
0.79234827 0.12784058 0.022509098
0.80658531 -0.092264473 -0.092603683
0.80124831 -0.041440427 -0.049449921
0.80628633 0.44436255 -0.090186596
0.81035638 0.47699156 -0.12309885
0.81610334 0.51758051 -0.16956758
0.7799753 0.16828257 0.02737236
0.77981436 0.21494955 0.028697014
0.78587329 0.36397457 -0.021010876
0.79007232 0.40401155 -0.055453777
0.79384327 0.44473857 -0.086391926
0.77733135 0.041657567 0.00060415268
0.80390632 0.56014156 -0.21900368
0.77938235 0.36442858 -0.016349792
0.7875793 0.44495654 -0.084082603
0.77730632 0.40467656 -0.048358917
0.76213229 0.16870856 0.028994083
0.76727927 0.0013355613 -0.0141716
0.76433027 0.33665156 0.010563374
0.77958834 0.47761056 -0.11739969
0.76112437 0.0017105341 -0.012159824
0.75950837 0.36611456 0.0014982224
0.7790463 0.51820254 -0.16357803
0.75024927 0.16898954 0.03007412
0.75791728 -0.038668454 -0.035206795
0.75539827 -0.087162435 -0.06448698
0.75174832 -0.038276434 -0.033178806
0.74781227 0.36615252 0.00057601929
0.76073432 0.47822556 -0.11025763
0.76209927 -0.13990647 -0.12196159
0.73837233 0.16926754 0.031154156
0.74558234 -0.037886441 -0.031154633
0.74452829 0.40700257 -0.022043705
0.76048636 0.51854658 -0.15996599
0.75567734 -0.13923746 -0.11840391
0.73335338 0.094621539 0.023728371
0.73254132 0.24582958 0.030796051
0.73507035 0.043383539 0.0087714195
0.73614335 0.36616856 -0.00057172775
0.74926531 -0.13857144 -0.11485386
0.72667134 0.24589753 0.030790329
0.7326293 0.40714955 -0.021500587
0.74150634 0.47908455 -0.099415779
0.72070432 0.12993455 0.031645298
0.72042727 0.21626258 0.034090996
0.72080135 0.24596453 0.030783176
0.74151731 0.51912153 -0.1524539
0.71533537 0.095305562 0.027194977
0.71493328 0.24603158 0.030779362
0.74427533 0.55988455 -0.23080969
0.71864331 0.36619055 -0.0022935867
0.72092628 0.40716255 -0.022652626
0.74585438 -0.2199015 -0.24488878
0.70872235 0.16995257 0.033849239
0.71229327 0.0043855309 0.0017614365
0.71131837 0.33718455 0.010523319
0.72857034 0.51967955 -0.14450788
0.73825228 -0.2175644 -0.23150492
0.7029233 0.13036352 0.033262253
0.70265329 0.21664453 0.035706997
0.71198535 -0.084095418 -0.048826694
0.70319831 0.24616253 0.030766964
0.70498538 0.044591546 0.01458025
0.70883727 0.48097655 -0.074279785
0.69424033 0.0051365495 0.0052552223
0.68663037 0.28913558 0.021241188
0.6882273 0.0053855777 0.0064182281
0.68364227 0.36622357 -0.0057330132
0.68841338 0.44814256 -0.05038166
0.69511938 0.52176255 -0.11313295
0.70369732 -0.21068746 -0.19339466
0.67809832 -0.033666432 -0.0090289116
0.67199337 -0.033289433 -0.0070309639
0.67197633 0.36623156 -0.0068769455
0.67681837 0.44804755 -0.052941799
0.68999338 -0.20796841 -0.17829657
0.67925727 -0.13135844 -0.076151848
0.66160929 0.097126544 0.036056995
0.66148531 0.21727753 0.037250042
0.67758429 0.52162957 -0.11721277
0.67294133 -0.1307134 -0.072667599
0.65569937 0.097269535 0.036594391
0.66031027 0.36623758 -0.0080208778
0.66808927 0.48066854 -0.083300591
0.64978135 0.21740556 0.037240028
0.6567353 -0.080505431 -0.030633926
0.65300333 0.33731657 0.005792141
0.66956031 -0.20392448 -0.15580273
0.64388835 0.097552538 0.037668228
0.6471833 0.33731854 0.0052242279
0.66278231 -0.2025854 -0.14834595
0.63808334 0.21753055 0.037229061
0.64025235 0.007342577 0.015689373
0.66970134 0.59213555 -0.27676582
0.63426828 0.0075835586 0.016845226
0.66199434 0.59293455 -0.26092863
0.63901234 0.40721256 -0.030684948
0.64928734 -0.19994146 -0.13361979
0.64147127 -0.12751347 -0.055315018
0.62618434 0.097972572 0.039277077
0.6488663 0.56257951 -0.18999672
0.6553123 0.59324455 -0.2551527
0.64293933 -0.19925541 -0.13007784
0.63520634 -0.12688845 -0.05191803
0.62008238 0.17191356 0.041902065
0.62341237 -0.030448437 0.007941246
0.62117732 0.047863543 0.030733109
0.63731432 0.52088255 -0.13384295
0.62908328 -0.12647945 -0.04989481
0.61634028 0.0083005428 0.020304203
0.60829937 0.17216456 0.042972088
0.61561131 0.40721357 -0.032972813
0.61876738 0.44755456 -0.065745831
0.6030103 0.21789253 0.037202358
0.61561334 0.48024854 -0.094896793
0.61762333 -0.1965304 -0.11596298
0.60187638 -0.077009499 -0.012606621
0.59868133 0.28997856 0.021187305
0.59734535 0.04876858 0.035319328
0.60062134 0.33731955 0.00067043304
0.5897373 -0.076244414 -0.0086250305
0.58652031 0.0094795823 0.026057243
0.58898032 0.33731556 -0.00046491623
0.59233236 0.40710354 -0.036593914
0.58159137 -0.028726459 0.016031265
0.58024538 0.24741954 0.030673981
0.6026603 0.56157959 -0.21327066
0.5729903 0.17290252 0.046178341
0.57864928 0.36623353 -0.015999794
0.59110832 0.52000755 -0.15289879
0.58615136 -0.19316643 -0.09843874
0.56866431 0.010175526 0.029496193
0.56133735 0.13357955 0.046128273
0.56371427 -0.028002441 0.019484997
0.56271935 0.010406554 0.030642033
0.57472837 0.47990257 -0.10391569
0.58440328 -0.26839346 -0.21232367
0.56641328 0.44707954 -0.077266693
0.57768238 -0.26698846 -0.20478773
0.55181026 -0.027523458 0.021782398
0.5830183 0.58972752 -0.33492088
0.55405533 0.33729357 -0.0038676262
0.56303334 0.47980157 -0.106493
0.56792927 0.51956254 -0.16244793
0.54463136 0.21845454 0.037166119
0.54392028 0.050729573 0.045374393
0.54823434 0.33728856 -0.0044336319
0.55476427 0.44697055 -0.079827785
0.53992033 -0.027048469 0.024077415
0.53935635 0.24778754 0.03065443
0.54893827 0.44691557 -0.081106663
0.55761337 -0.26280242 -0.18229866
0.54385233 -0.12088245 -0.021791935
0.53206134 0.10011053 0.047829151
0.53460228 0.29021156 0.017879963
0.53303432 0.011546552 0.036358356
0.53659236 0.33727658 -0.0055656433
0.54431236 -0.26003546 -0.16740894
0.53175032 -0.12010247 -0.017809868
0.53419828 0.47920355 -0.11802483
0.51446533 0.10049254 0.049427032
0.51465034 0.17358857 0.047182083
0.5145793 0.051406562 0.04804039
0.50883031 0.17364258 0.047178268
0.51132035 -0.071461499 0.016571045
0.5087173 0.05153954 0.048572063
0.53461635 0.55888957 -0.26984692
0.51447737 0.36617458 -0.022243977
0.52448034 -0.2559194 -0.14522362
0.5136323 -0.11894041 -0.011851788
0.50274527 0.10074353 0.05049324
0.50285637 0.051672578 0.049105167
0.51790035 -0.25455648 -0.13786793
0.49688533 0.10086858 0.051026344
0.49799034 0.21886456 0.037144184
0.50157428 -0.11817139 -0.0078897476
0.49103031 0.10099155 0.05155611
0.49247232 -0.025183439 0.033226013
0.49159834 0.013107538 0.044329166
0.49113932 0.051935554 0.050170422
0.4958373 0.33722156 -0.0095219612
0.5022763 0.44646055 -0.091346741
0.50975633 0.51842356 -0.18638468
0.50478435 -0.25184339 -0.12321281
0.4990283 -0.18398744 -0.050069809
0.4881883 0.29014254 0.013379097
0.48528334 0.052066565 0.050702095
0.51171029 0.55797654 -0.2888689
0.48165634 -0.070252478 0.022305965
0.48101529 0.24826956 0.030632973
0.48238632 0.29013157 0.012814999
0.47978631 0.013546526 0.046599388
0.47943035 0.052195549 0.051234245
0.49226829 -0.2503615 -0.11561489
0.48669931 -0.18270546 -0.043241978
0.48352334 -0.11702746 -0.0019626617
0.47347131 0.10135955 0.053151131
0.47468933 0.21905655 0.037137032
0.4738833 0.01376456 0.047734261
0.47357634 0.052325547 0.051766396
0.50021434 0.55751657 -0.2984128
0.48475531 0.44628456 -0.09518671
0.48604432 -0.24967748 -0.11212873
0.46980932 -0.069775462 0.024595261
0.46881834 -0.024271429 0.037782192
0.46798432 0.013981581 0.048867226
0.47449431 -0.18164045 -0.037707806
0.46389133 -0.069538474 0.025737286
0.46187833 0.052581549 0.052829266
0.45648631 0.17409956 0.047157288
0.45770031 0.24844754 0.030628204
0.46089733 0.33715755 -0.012907028
0.45187432 0.24849057 0.030627251
0.45030433 0.01462853 0.052262306
0.46122432 -0.24695748 -0.098241806
0.45352533 -0.11514241 0.0078773499
0.44486234 0.17419457 0.047154427
0.44434133 0.052959561 0.054422379
0.44924831 0.33713257 -0.014032841
0.45037434 -0.18003649 -0.02974081
0.43905231 0.17424154 0.047151089
0.43931332 -0.023151457 0.043460369
0.43857533 0.014965534 0.053874969
0.44480833 0.36562157 -0.034144878
0.44885632 -0.24560839 -0.091326714
0.43273431 0.015095532 0.05440712
0.44411033 0.44556457 -0.10827875
0.42843932 -0.06813544 0.032577991
0.43322033 0.36547858 -0.036661625
0.44652733 0.51613754 -0.22937965
0.42089033 0.10242558 0.057925224
0.42742431 0.36540657 -0.037920952
0.41524231 0.13608253 0.055669308
0.41649032 0.21950054 0.037125111
0.41664332 -0.067675471 0.034851074
0.41854033 0.28998154 0.006649971
0.43505532 0.5156256 -0.2387476
0.40922233 0.10265553 0.058983326
0.40944234 0.13612854 0.0556674
0.41067433 0.21954155 0.037124157
0.40987733 -0.022052467 0.049118996
0.40938532 0.015605569 0.056527138
0.42095432 0.44501054 -0.11765671
0.42930931 0.51536858 -0.24343872
0.41432631 -0.17766744 -0.017854691
0.40420231 0.17451054 0.047145367
0.40348232 0.053818524 0.058132172
0.42355633 0.51511055 -0.24813461
0.42021233 -0.32548541 -0.19711494
0.41192633 -0.24160641 -0.070707798
0.40575033 -0.11218649 0.023523331
0.40266433 0.33698756 -0.01884985
0.40935731 0.44473055 -0.12235165
0.40579632 -0.24094647 -0.067290783
0.40722731 -0.32263845 -0.18230772
0.39967233 -0.24028748 -0.063874722
0.39635932 -0.17649943 -0.011936665
0.38624933 0.13630754 0.055663109
0.38678533 0.17463756 0.047142029
0.38741633 0.21970153 0.037123203
0.38599432 0.054176569 0.059720993
0.39261231 0.36496556 -0.045472622
0.38132232 -0.066315472 0.04165411
0.39193434 0.44430757 -0.12940073
0.38440332 -0.17572647 -0.0080037117
0.37579131 0.21977854 0.037123203
0.37464431 -0.020762444 0.055886269
0.37441033 0.016350567 0.059704304
0.38099733 0.36481458 -0.047988892
0.38786331 -0.31840247 -0.1602459
0.37083533 0.24825656 0.022946358
0.36852232 0.054527581 0.06130743
0.38030332 0.44402355 -0.13410473
0.36263132 0.10351956 0.06298542
0.37141332 0.40467155 -0.084832668
0.38307732 0.51329052 -0.28115702
0.35835832 0.21988958 0.037119389
0.36557132 0.40459955 -0.086102962
0.36862934 -0.3142094 -0.13835764
0.36054033 -0.17419547 -0.00015592575
0.37144732 0.51276553 -0.29063559
0.35700232 -0.23572844 -0.040119648
0.34568733 0.13659656 0.055660248
0.33948433 0.10368556 0.06298399
0.34036931 0.17495054 0.047142982
0.34187731 0.24814457 0.020171165
0.34804133 0.40436953 -0.090075016
0.35403031 0.47480455 -0.19719362
0.34487131 -0.23444146 -0.03337574
0.32213032 0.10380358 0.06298399
0.32205132 0.01741755 0.064459324
0.32199433 0.055433571 0.065531254
0.32778731 0.44272554 -0.15531588
0.32193333 0.44257855 -0.1576767
0.31162933 -0.10839742 0.042281151
0.30457032 0.055761576 0.067111015
0.31263632 -0.30523139 -0.092111588
0.30413032 0.33560854 -0.040109634
0.29321632 0.10398757 0.062988281
0.29552633 0.24794054 0.015744209
0.30435532 0.44213656 -0.16476679
0.30046731 -0.30387646 -0.085279942
0.29704833 -0.2308895 -0.01536274
0.29072833 0.28951454 -0.005607605
0.29848734 0.44198856 -0.1671319
0.29110333 -0.23049945 -0.013403893
0.28199834 0.13699353 0.055668354
0.28240031 0.17529154 0.047152042
0.28669232 0.33535153 -0.04386282
0.28832433 -0.30253047 -0.0784688
0.28087631 0.33526558 -0.045111656
0.27651933 -0.10707444 0.049034119
0.27081233 0.17535257 0.047156334
0.27616233 0.36338454 -0.07063961
0.26502031 0.17538255 0.047157288
0.26748732 0.28936458 -0.0082468987
0.26924032 0.33509153 -0.047612667
0.27247831 0.40231955 -0.1203208
0.27859631 0.47105855 -0.25769758
0.25885433 0.13712054 0.05567503
0.26074234 0.24776655 0.012430191
0.27274033 0.47076556 -0.26238871
0.25985032 -0.1679005 0.032855988
0.25242332 0.018748581 0.070779324
0.26079932 0.40199757 -0.12498999
0.25808433 -0.29919547 -0.061525822
0.25645533 -0.37223142 -0.16310596
0.24083832 0.018960536 0.071830273
0.24694332 0.36296254 -0.076933861
0.23697034 0.21917856 0.024466038
0.23515233 -0.060994446 0.069715023
0.23754233 0.24764055 0.01022625
0.23500434 0.057011545 0.073420048
0.24924731 0.46958756 -0.28120089
0.24392232 -0.36937946 -0.14862204
0.24001831 -0.29721743 -0.051418781
0.23778632 -0.22705346 0.0041441917
0.23637533 -0.16667849 0.039278984
0.23428732 0.33455753 -0.0551157
0.23524332 0.36279154 -0.079452038
0.22415131 0.13729256 0.055688381
0.22455132 0.17535758 0.045265198
0.22350931 -0.017322421 0.072377205
0.22593933 0.24757457 0.009124279
0.22347033 0.019272566 0.073406219
0.22346634 0.05708456 0.073516369
0.21878032 0.17532057 0.044718266
0.21776833 -0.060598433 0.071680069
0.22013733 0.24754053 0.0085749626
0.21819833 -0.1049425 0.06023407
0.21300933 0.17528355 0.044174194
0.21198133 -0.060487449 0.072204113
0.21194632 0.36214954 -0.08797884
0.22156933 0.46465856 -0.35681486
0.21283332 -0.3623305 -0.11274385
0.20222832 0.21896654 0.021177292
0.20373133 0.28830457 -0.021856785
0.20806733 0.40052456 -0.14603996
0.21086632 0.43804455 -0.22617197
0.19792533 0.28820556 -0.023094654
0.19927032 0.33400857 -0.062618732
0.20029132 0.36179656 -0.092589855
0.20219032 0.40035856 -0.14838266
0.19653632 -0.22444242 0.017688274
0.19493632 -0.10411543 0.064695358
0.18880433 -0.016693473 0.075526237
0.18368033 0.13746554 0.055708408
0.18310432 0.057275534 0.073534966
0.18758333 0.33382154 -0.065121651
0.18861932 0.36144155 -0.097204685
0.18331832 -0.10370749 0.06692028
0.17836632 0.17504555 0.040906429
0.17724532 -0.016489446 0.076573372
0.18277833 0.36126357 -0.099514008
0.17150532 -0.05973345 0.07587719
0.17588933 0.33363253 -0.067622662
0.16634232 0.13753158 0.055718422
0.16746432 0.21873558 0.017895222
0.16572832 -0.059628427 0.076401234
0.16056332 0.13755155 0.05572319
0.16304733 0.28759956 -0.030516624
0.15417632 -0.05942142 0.077451229
0.15428533 0.057392538 0.073553085
0.15547033 -0.22189039 0.031142235
0.14880732 0.10467952 0.06305027
0.15351832 0.36036557 -0.11107397
0.14961833 -0.2215305 0.033056259
0.14915833 0.39874655 -0.17075396
0.13744932 0.13762856 0.055734158
0.13792132 0.17474353 0.03710413
0.13686033 -0.059117436 0.079022408
0.14329833 0.39840555 -0.1753087
0.13792732 -0.22081441 0.03688097
0.13694233 -0.10211045 0.075798035
0.13267532 0.21848655 0.01461935
0.13306433 -0.28744847 -0.0012760162
0.12528132 0.020837545 0.081721306
0.12911633 0.33256257 -0.080990791
0.13004333 0.35963857 -0.12033892
0.12856433 -0.35136443 -0.057602882
0.12578033 -0.16258544 0.060540199
0.12057632 0.17460656 0.035477161
0.12567133 0.39737654 -0.18900061
0.11479433 0.17455953 0.034937382
0.11378632 -0.058721423 0.081115246
0.11567633 0.24641758 -0.0055017471
0.11643833 0.28676456 -0.040416718
0.12312132 0.42963654 -0.34670401
0.11381333 -0.10138148 0.079916
0.10841033 0.10480458 0.063082218
0.10987233 0.24630553 -0.0067276955
0.11732033 0.42853558 -0.36228085
0.10959633 -0.2859444 0.00644207
0.10875933 -0.21904546 0.046411991
0.10476632 0.28655154 -0.042891979
0.10650732 0.35890257 -0.12962103
0.10797532 0.39633954 -0.20273972
0.10260132 -0.1617685 0.064984322
0.097862318 0.21821856 0.011351109
0.098257318 0.24607855 -0.0091767311
0.09666732 0.05757755 0.073599339
0.092946321 -0.34742242 -0.037631035
0.085544325 0.13717657 0.05085516
0.084949322 -0.014966428 0.084941387
0.086635321 0.24584955 -0.011627674
0.088126324 0.33121753 -0.097054005
0.088816322 0.35834557 -0.13659
0.080081321 0.17426556 0.031690121
0.080445319 0.21807754 0.0097193718
0.08112032 -0.3461234 -0.031010628
0.079725325 -0.21778947 0.053114414
0.079455324 -0.16096646 0.069415092
0.073451325 -0.058059454 0.084773064
0.07521832 -0.34547645 -0.027706623
0.069186322 0.24550253 -0.015302658
0.067896321 -0.1605714 0.07162714
0.062254325 0.10491055 0.06312418
0.062715322 0.17411155 0.030071259
0.056485325 0.10492057 0.063130379
0.056925319 0.17405957 0.029530048
0.058003321 0.28567755 -0.052790642
0.056241319 0.021021545 0.081785202
0.057545319 -0.3435474 -0.017827034
0.056558326 -0.21695942 0.057561398
0.056197323 -0.10040647 0.085142136
0.052147321 0.28556556 -0.054028034
0.044828326 0.057689548 0.073652267
0.047078319 -0.43471545 -0.12463999
0.044686325 -0.10022146 0.086186409
0.033169322 -0.057435453 0.088424206
0.033232324 0.021060526 0.081812382
0.035530321 0.35664755 -0.15755177
0.036496319 0.39212358 -0.25814486
0.028195322 0.21711457 4.1007996e-05
0.027419321 -0.057349443 0.088945389
0.027503323 -0.15921742 0.079349041
0.022018321 0.13656658 0.044950962
0.021668322 -0.057264447 0.089466095
0.023129322 -0.42902344 -0.096517563
0.021866322 -0.21574348 0.064210415
0.021677323 -0.099860489 0.088272095
0.016126323 0.10463256 0.060416222
0.017736323 0.35560256 -0.17014074
0.010894321 0.24431157 -0.027554035
0.011109322 0.28476655 -0.062748909
0.0046763234 0.13638854 0.043346405
0.0049283206 0.21661258 -0.004825592
0.0053183213 -0.42552251 -0.079191685
0.0046893209 -0.2794264 0.040811062
0.0044333227 -0.099598467 0.089835167
-0.0070646778 -0.05684942 0.092068195
-0.0069866776 -0.2147575 0.069734097
-0.012800679 -0.014142454 0.089704037
-0.011605678 0.38372254 -0.36670685
-0.012384677 -0.42350346 -0.069204807
-0.012594678 -0.33793849 0.011091232
-0.012687678 -0.2783795 0.046485424
-0.012804678 -0.099343479 0.091398239
-0.018472679 -0.27803344 0.048373222
-0.024200678 0.21597153 -0.01090765
-0.024143677 0.28347456 -0.076363564
-0.024281677 0.021112561 0.081886292
-0.024288677 -0.15754348 0.089231968
-0.030034678 0.10412157 0.056161404
-0.03577368 -0.05645442 0.094670296
-0.041704677 0.21558154 -0.014557838
-0.041823678 0.28282058 -0.083184719
-0.041550677 0.05775857 0.073762417
-0.041581679 -0.27665943 0.055907249
-0.04151468 -0.098934472 0.09400034
-0.04807768 0.35140854 -0.22025394
-0.047257677 -0.15694243 0.092891216
-0.053384677 0.21531755 -0.016991615
-0.053631678 0.28238153 -0.087735653
-0.053039677 0.021113575 0.081929207
-0.05983568 0.32594556 -0.15764189
-0.058800679 -0.21304446 0.079635143
-0.065176681 -0.41755241 -0.039491653
-0.070570678 0.13555354 0.036409378
-0.070693679 0.17259455 0.016217232
-0.070243679 -0.014144421 0.089792252
-0.070608675 -0.33434147 0.030093193
-0.070292681 -0.21267539 0.081827164
-0.076042682 0.021101534 0.08196497
-0.081779674 -0.21230942 0.08401823
-0.08739768 -0.055829465 0.099083424
-0.087478682 -0.014158428 0.089821339
-0.087405682 -0.098322451 0.098155975
-0.094561681 0.24203557 -0.049611568
-0.093428679 -0.27444142 0.06836319
-0.093137681 -0.098249495 0.098675251
-0.098869681 -0.055843472 0.099102974
-0.099180676 -0.2742514 0.069463253
-0.10563068 0.17173856 0.0089969635
-0.10905768 0.34526455 -0.29303885
-0.11034468 -0.055859447 0.099124432
-0.11777668 0.21383154 -0.030375957
-0.11620267 -0.014196455 0.089874268
-0.11644668 0.057348549 0.071209431
-0.11751167 -0.41175741 -0.010144711
-0.12192268 -0.21105939 0.091665268
-0.12755468 -0.055889428 0.099158287
-0.12829968 -0.33087248 0.048926353
-0.13411868 0.10283053 0.046635151
-0.13329369 -0.055900455 0.099169254
-0.13485768 -0.40985948 -0.00044202805
-0.14125967 0.21327454 -0.035243988
-0.14175068 0.24040854 -0.064890862
-0.13931367 0.021014571 0.082076073
-0.14570367 0.10267556 0.045580387
-0.14598368 0.13462156 0.029506207
-0.15043868 0.31984258 -0.22567368
-0.14472368 -0.15564543 0.10172129
-0.14469567 -0.097628415 0.10334301
-0.14860567 -0.51042348 -0.12067795
-0.15179268 0.13454556 0.028977394
-0.15359467 0.23992658 -0.069394588
-0.15044968 -0.15557641 0.10223913
-0.17174667 -0.50465149 -0.092998981
-0.17858568 0.27763057 -0.13576078
-0.17383167 0.020931542 0.082143307
-0.17418368 0.056523561 0.06597805
-0.17340967 -0.20952243 0.1014533
-0.18088868 0.13396156 0.02469635
-0.18458168 0.27739757 -0.13805771
-0.18533967 0.020899534 0.082166195
-0.19332267 0.16950756 -0.0090508461
-0.19423167 0.21198255 -0.04625082
-0.19518368 0.23821956 -0.085190773
-0.19140467 -0.32720143 0.069452286
-0.19097568 -0.27135247 0.086966038
-0.19918668 0.16935354 -0.010252953
-0.20423168 0.13332355 0.019931316
-0.20239568 -0.01441443 0.090046406
-0.20950468 0.10177654 0.039795399
-0.20814468 -0.014434457 0.090060234
-0.21307068 0.23747855 -0.091973782
-0.20839868 0.020612538 0.080673218
-0.21983068 0.30943853 -0.3418088
-0.20979568 -0.40426439 0.029036045
-0.20771568 -0.2088955 0.10591125
-0.20767468 -0.15493542 0.10741997
-0.21389268 -0.014455438 0.090072155
-0.21416968 0.020519555 0.08015728
-0.21788168 -0.49635643 -0.052732944
-0.22266968 0.16873455 -0.015066624
-0.22045468 0.055818558 0.061810017
-0.22366068 -0.49570149 -0.04947567
-0.22854568 0.16857755 -0.016270638
-0.22511367 -0.056183457 0.099370003
-0.22538868 -0.014498472 0.090098381
-0.23099367 0.23673254 -0.098766804
-0.22703367 -0.40323442 0.034660339
-0.22487368 -0.20871049 0.10746431
-0.23442468 0.16842055 -0.017473698
-0.23697768 0.23648155 -0.10103273
-0.23926468 0.27363455 -0.17589903
-0.23054568 -0.15470248 0.10948896
-0.23782668 0.055543542 0.06025219
-0.23626268 -0.15464646 0.11000633
-0.23631068 -0.097172439 0.10849714
-0.24096867 -0.49374646 -0.039731979
-0.24233767 -0.056257427 0.099409103
-0.2504527 -0.56781143 -0.15184402
-0.25017869 0.10116553 0.036126137
-0.25207669 0.16794658 -0.021083832
-0.25365368 0.20941055 -0.068624973
-0.24997868 -0.40187842 0.042137146
-0.24777667 -0.097226441 0.10852718
-0.25618368 -0.56632739 -0.14488983
-0.26380768 0.27183557 -0.19390392
-0.25520766 0.055262566 0.058693409
-0.25350967 -0.097253501 0.10854197
-0.2598877 -0.014646471 0.090183258
-0.26100469 0.055167556 0.05817318
-0.2676127 -0.56337446 -0.13103199
-0.26974967 0.16746658 -0.024696827
-0.27448967 0.13134855 0.0056333542
-0.27138868 -0.014701426 0.090209007
-0.27899569 -0.56044143 -0.11724377
-0.27934766 0.10044754 0.031398296
-0.28500167 0.23445654 -0.11919975
-0.27773067 0.019450545 0.074479103
-0.28253469 -0.05645442 0.0995121
-0.28289068 -0.014759421 0.090240002
-0.28420168 0.054780543 0.056100368
-0.29104868 0.10009652 0.029036999
-0.29402369 -0.056517422 0.099543095
-0.30308369 0.23368657 -0.12602901
-0.29509169 0.019144535 0.072935104
-0.29339567 -0.15413147 0.11517429
-0.30163068 -0.55463141 -0.089866638
-0.29832369 -0.48735946 -0.0075316429
-0.30749866 0.20703954 -0.088838577
-0.30088168 0.019041538 0.072421074
-0.29943967 -0.26824647 0.10755444
-0.29916769 -0.20800143 0.11418819
-0.31515867 0.23317057 -0.13058567
-0.30742067 0.05438453 0.054030418
-0.30487767 -0.20795244 0.11470413
-0.31288269 -0.55175442 -0.07627964
-0.31086966 -0.097573459 0.10869932
-0.31849366 -0.55032247 -0.069509029
-0.32152367 0.12998253 -0.0038986206
-0.32743868 0.23221755 -0.13937902
-0.31854069 -0.39793843 0.064408302
-0.31720167 -0.3231414 0.095081329
-0.32112467 -0.48485941 0.0052280426
-0.32620966 0.099029541 0.021951199
-0.32741368 0.12980855 -0.0050897598
-0.33359167 0.23173755 -0.14380789
-0.33947968 0.26369053 -0.27602673
-0.32200968 -0.20781249 0.11625433
-0.32681268 -0.48423845 0.0084080696
-0.32849666 -0.056724429 0.099639416
-0.32992867 -0.39730042 0.068098068
-0.32860568 -0.32282645 0.097242355
-0.32765067 -0.15386146 0.11827135
-0.33539566 -0.54671341 -0.052295685
-0.33249468 -0.48362046 0.011584282
-0.33794868 0.098668575 0.019589424
-0.33920169 0.12945956 -0.0074748993
-0.35302669 0.26074755 -0.30617094
-0.33647469 0.053873539 0.051445007
-0.33430469 -0.32267147 0.098323345
-0.33357868 -0.26734143 0.11401129
-0.34382367 0.098486543 0.018408298
-0.34144667 0.018300533 0.068830013
-0.34384668 -0.48238939 0.017923355
-0.35275868 0.16459852 -0.046445847
-0.35566169 0.20488554 -0.1068759
-0.34570166 -0.32236344 0.10048103
-0.34530169 -0.09780246 0.10880041
-0.35557869 0.098122537 0.016046047
-0.35690469 0.12893158 -0.011048794
-0.35063267 -0.2669124 0.11718035
-0.36473268 0.16402853 -0.050876617
-0.35974169 0.053454578 0.04938221
-0.36556369 0.053347528 0.048867226
-0.36205068 -0.26682848 0.11821222
-0.36196667 -0.20751649 0.11986637
-0.36847568 -0.32175845 0.10479212
-0.38116068 -0.016522467 0.082437992
-0.37917167 -0.26670843 0.11975908
-0.37908968 -0.15378147 0.12129498
-0.38598669 -0.057127476 0.099811077
-0.38788667 0.017412543 0.064735413
-0.38885769 0.05291456 0.046806335
-0.40417367 0.20256758 -0.1261096
-0.39275268 -0.016757429 0.081423283
-0.39369869 0.017298579 0.064224243
-0.39468569 0.05280453 0.046292305
-0.39122969 -0.32117242 0.10909224
-0.39049467 -0.20733041 0.12244415
-0.39123768 -0.098149478 0.10894442
-0.40270469 0.096636534 0.0065960884
-0.39629167 -0.2665965 0.12130737
-0.39698169 -0.098196447 0.10896206
-0.40860668 0.096447527 0.0054140091
-0.41657469 0.20155454 -0.13490772
-0.40650067 -0.47787243 0.042515278
-0.41814768 0.052043557 0.041856289
-0.41349068 -0.1540795 0.12141323
-0.43524367 0.20002753 -0.14814472
-0.42277768 0.016718566 0.061673164
-0.42402467 0.051843524 0.040691376
-0.41964167 -0.32046145 0.11445713
-0.41996369 -0.098391473 0.10903931
-0.42626068 -0.057453454 0.099938393
-0.42859769 0.016600549 0.061163425
-0.42496368 -0.15418547 0.12145424
-0.43815967 0.095494568 -0.00049161911
-0.43987468 0.12629455 -0.028545856
-0.44773069 0.19900358 -0.15699291
-0.43212467 -0.057770431 0.098176003
-0.43069968 -0.15423948 0.12147522
-0.43781167 -0.53531545 0.0051941872
-0.43496469 -0.4762755 0.051738262
-0.44906169 0.15995657 -0.082008839
-0.44064969 -0.47596043 0.053577423
-0.44370669 -0.058027446 0.097173214
-0.44755366 0.051038563 0.036026001
-0.44234967 -0.31991249 0.11873817
-0.44192868 -0.26633948 0.12543297
-0.44909668 -0.53408843 0.011499405
-0.46118167 0.15936255 -0.086472034
-0.48058268 0.21547854 -0.29489899
-0.46753168 -0.62237448 -0.093081951
-0.45445368 -0.098706424 0.10915899
-0.45769069 -0.47502249 0.059089184
-0.46994969 0.12475556 -0.039520741
-0.47301969 -0.62092048 -0.086360931
-0.46020368 -0.098761499 0.10917902
-0.46336567 -0.47471243 0.060924053
-0.48540568 0.19590455 -0.18365765
-0.46823567 -0.018355429 0.074847221
-0.46639869 -0.3919335 0.10250521
-0.46462968 -0.20695144 0.12914133
-0.47160867 -0.53165847 0.024057388
-0.47070667 -0.3192485 0.12407827
-0.49156266 0.15786654 -0.09764576
-0.48942468 -0.61658543 -0.066288948
-0.48283967 -0.53045446 0.030313969
-0.48569167 -0.018740475 0.073335171
-0.48913869 -0.39138442 0.1067934
-0.50984871 0.15695953 -0.10436583
-0.49856067 0.015129566 0.055063248
-0.49482167 -0.39125043 0.10786343
-0.49324968 -0.26612049 0.13006735
-0.49471968 -0.099109471 0.10930634
-0.49736866 -0.47288245 0.071895123
-0.51224768 0.12256956 -0.054924965
-0.50316268 -0.019132435 0.071824074
-0.51119268 -0.61097544 -0.040206909
-0.52976269 0.19223654 -0.21499491
-0.50622869 -0.099230468 0.1093502
-0.52817464 0.15604657 -0.11109066
-0.51332068 -0.05963546 0.091176033
-0.51045871 -0.31862742 0.13014936
-0.51107371 -0.1550805 0.1217804
-0.52815068 -0.60908347 -0.03068161
-0.53024566 0.048133552 0.019705296
-0.52175367 -0.26603049 0.13264132
-0.52349967 -0.099419415 0.10941839
-0.5468837 0.15462053 -0.12226677
-0.55772173 0.18671554 -0.26474571
-0.52925766 -0.09948343 0.10944033
-0.54868472 0.12066555 -0.068164825
-0.53657663 -0.060194433 0.089183331
-0.53456366 -0.39034039 0.11534309
-0.53326666 -0.31856149 0.1322093
-0.53315365 -0.2660014 0.13367128
-0.5369277 -0.47080845 0.084628105
-0.53885365 -0.26598746 0.13418531
-0.53891468 -0.20714146 0.1333971
-0.5398097 -0.15541941 0.12189627
-0.54077566 -0.099615395 0.10948229
-0.54256964 -0.47051746 0.08644104
-0.56086862 0.12002558 -0.072584629
-0.56581068 0.15296656 -0.13538074
-0.54821563 -0.060478449 0.088187218
-0.54981971 -0.020209432 0.067804337
-0.54466963 -0.31853443 0.13323832
-0.55403674 -0.06062144 0.087691307
-0.55039573 -0.2072894 0.13344622
-0.55131066 -0.15556043 0.12194538
-0.55384767 -0.46993941 0.090064049
-0.57847273 0.15185755 -0.14414883
-0.55725169 -0.38984448 0.11960602
-0.55595362 -0.26595348 0.13572741
-0.57457566 -0.66638845 -0.095717907
-0.56756663 -0.60473841 -0.0085997581
-0.55948269 -0.46965247 0.091872215
-0.57557774 0.089985549 -0.034953594
-0.57997763 -0.6649285 -0.089046955
-0.56281269 -0.15570444 0.12199306
-0.56774271 -0.52504748 0.061378002
-0.56511569 -0.46936649 0.093680382
-0.58529162 0.11873454 -0.081437588
-0.57318664 -0.02076447 0.065799236
-0.57774365 0.046411574 0.010375023
-0.56735265 -0.26593441 0.13675737
-0.5975337 0.15018553 -0.15733767
-0.5742557 -0.38948447 0.12279797
-0.57305372 -0.26592749 0.1372714
-0.57336271 -0.20759445 0.13354921
-0.57637572 -0.46879941 0.097290039
-0.59380865 0.088982582 -0.041505814
-0.58316767 -0.061349452 0.08520937
-0.57992172 -0.38936645 0.12386322
-0.58999264 -0.60230047 0.0039291382
-0.58007264 -0.15592748 0.12206697
-0.58200169 -0.46851844 0.099093437
-0.58558667 -0.3892495 0.12492418
-0.60149169 -0.65913242 -0.062520981
-0.58762562 -0.46823746 0.10089397
-0.59896767 0.011423528 0.035964966
-0.59324765 -0.46795839 0.10269499
-0.6159327 0.11710358 -0.09252882
-0.60243666 -0.021475434 0.063295364
-0.6049037 0.011194527 0.034810066
-0.59585166 -0.26590449 0.139328
-0.60830867 -0.021648467 0.062595367
-0.61348963 0.045090556 0.0033760071
-0.60208964 -0.2079944 0.13368034
-0.60309672 -0.1562354 0.12216902
-0.60823762 -0.38879246 0.12916899
-0.60737872 -0.31845444 0.13889837
-0.60724974 -0.26589948 0.14035511
-0.60885465 -0.15631443 0.12219524
-0.62013769 -0.022123456 0.060314178
-0.63651073 0.086615562 -0.056822777
-0.6193347 -0.20824546 0.13375998
-0.63385773 -0.65156549 -0.027380943
-0.62422264 -0.52213949 0.079526424
-0.63790464 -0.022842467 0.056889057
-0.64335871 0.043969572 -0.002456665
-0.63087463 -0.38835341 0.13340616
-0.65939367 0.11431754 -0.11199474
-0.63658869 -0.20850343 0.13384342
-0.65067172 -0.6497224 -0.017971992
-0.64425373 -0.46665651 0.11343813
-0.65844369 0.0091025829 0.024425983
-0.64714563 -0.26590842 0.14395332
-0.65238273 -0.52073747 0.088545322
-0.66163564 -0.02381146 0.052323341
-0.66440773 0.0088665485 0.023272038
-0.65800762 -0.52046043 0.090345383
-0.66496563 -0.06348443 0.078285217
-0.67037368 0.0086295605 0.022118092
-0.65960467 -0.2088595 0.133955
-0.66424263 -0.26592642 0.14549398
-0.66648066 -0.15714949 0.12246418
-0.66694462 -0.4662165 0.11768627
-0.68231571 0.0081535578 0.019809246
-0.67902064 -0.5928635 0.053417206
-0.70422864 0.11017954 -0.14242172
-0.67687774 -0.20913547 0.13404131
-0.67801774 -0.1573264 0.12251997
-0.69774365 0.041333556 -0.017285824
-0.69532573 -0.6448974 0.0069441795
-0.69031966 -0.5922814 0.057091236
-0.68610466 -0.51909941 0.099322319
-0.69809067 -0.10400647 0.095403194
-0.69528866 -0.46569341 0.12298298
-0.70725965 -0.59143442 0.062519073
-0.70293963 -0.5182994 0.10469103
-0.71186674 -0.06477046 0.074347019
-0.71773767 -0.064934433 0.0738554
-0.70999467 -0.31857342 0.14814901
-0.72310174 -0.6419484 0.022390366
-0.71564364 -0.10451549 0.093941212
-0.71415162 -0.51777345 0.10826302
-0.74951363 0.10597754 -0.17309189
-0.71569562 -0.31858939 0.14866304
-0.74064171 0.038766563 -0.032394886
-0.72981668 -0.59032744 0.069733143
-0.73030472 -0.15867144 0.11971331
-0.76906264 0.10415655 -0.18630981
-0.74137473 -0.065786421 0.070649147
-0.74822068 0.0054815412 0.0071110725
-0.73850465 -0.31866139 0.15071917
-0.74027967 -0.21021348 0.13437319
-0.74059868 -0.4649145 0.13143921
-0.74604964 -0.21031648 0.13440418
-0.77972662 0.077194571 -0.11832571
-0.75042665 -0.26726145 0.14707613
-0.7618227 -0.63790244 0.043852329
-0.75191963 -0.4647314 0.13354635
-0.79656768 0.10029453 -0.21575403
-0.75618672 -0.26737148 0.14710903
-0.75759363 -0.2105245 0.13446712
-0.77501667 -0.028585434 0.030629158
-0.76323664 -0.46455342 0.13565302
-0.81203663 0.096619546 -0.24490976
-0.77712572 -0.067382455 0.063888073
-0.78101468 -0.028843462 0.029488087
-0.7844007 0.0038965344 -0.00045681
-0.76701963 -0.31877345 0.15328836
-0.77119362 -0.15996045 0.11636305
-0.77491462 -0.21084446 0.13456535
-0.78586972 -0.63980442 0.038407326
-0.80235362 0.035025537 -0.054059982
-0.78289568 -0.16033548 0.11540604
-0.78602862 -0.10661846 0.088118076
-0.83549571 0.091045558 -0.28909969
-0.78586364 -0.4642095 0.13986206
-0.82527971 0.072790563 -0.14866495
-0.84338272 0.089171529 -0.30394268
-0.7922467 -0.21117145 0.1346612
-0.79320264 -0.51570743 0.12646437
-0.8151567 0.0019485354 -0.011131763
-0.81115973 -0.64411145 0.022893429
-0.80147171 -0.38772839 0.1544652
-0.80124569 -0.31893939 0.15637016
-0.81720972 -0.6446045 0.021493435
-0.80282664 -0.4639644 0.143013
-0.80808067 -0.26840049 0.14741325
-0.82317567 -0.64492744 0.020820141
-0.81738472 -0.59265047 0.069385052
-0.83096671 -0.069831431 0.053746223
-0.83514667 -0.031210423 0.019207001
-0.83985364 0.00037455559 -0.019687653
-0.81962371 -0.26863843 0.1474824
-0.82953072 -0.59383947 0.065614223
-0.82429969 -0.38786548 0.15652227
-0.85833168 0.031582534 -0.073638916
-0.82980072 -0.31914443 0.15873003
-0.83272672 -0.2119655 0.13489628
-0.84144163 -0.59455448 0.063920021
-0.83564663 -0.1620664 0.11112118
-0.8414197 -0.52024239 0.11143303
-0.86463273 -0.0012154579 -0.028258801
-0.84133267 -0.31939942 0.15880442
-0.8443017 -0.21219939 0.13496637
-0.85747969 -0.64395446 0.02917099
-0.85311663 -0.59481949 0.064195156
-0.84748673 -0.52084941 0.10939837
-0.84413862 -0.4664374 0.13628101
-0.89164972 0.065893531 -0.19629478
-0.86099064 -0.071220458 0.048110008
-0.84713364 -0.38801843 0.15857697
-0.84710073 -0.31952947 0.15884018
-0.8500917 -0.21231848 0.13499737
-0.85428274 -0.2693755 0.14769602
-0.88327265 -0.0024174452 -0.034696579
-0.86766768 -0.21295041 0.13355017
-0.88506973 -0.072346389 0.04360199
-0.88960266 -0.033709466 0.0084590912
-0.87352765 -0.21316046 0.13308239
-0.87458372 -0.46964341 0.1248951
-0.90925562 0.027631581 -0.097336769
-0.87595963 -0.32018942 0.15902901
-0.88215768 -0.32094246 0.15584421
-0.88898563 -0.27014548 0.14791822
-0.89870763 -0.11095542 0.074068069
-0.89437664 -0.5226844 0.10697031
-0.94879663 0.023580551 -0.12300968
-0.91461265 -0.21465451 0.12981701
-0.92029572 -0.27399939 0.13078642
-0.92393863 -0.1651035 0.1040144
-0.95202172 -0.0068954229 -0.058375835
-0.93205965 -0.3271175 0.12981319
-0.94081867 -0.11304146 0.066283226
-0.95795262 -0.038322449 -0.014844894
-0.98201263 0.020164549 -0.14453793
-0.94401968 -0.32786244 0.12752104
-0.96369672 -0.076100409 0.028943062
-0.97044873 -0.039173424 -0.01909399
-0.9533757 -0.2202844 0.10238028
-0.95711672 -0.27736145 0.1172781
-0.96208262 -0.1695444 0.082159996
-0.97589564 -0.076744497 0.02632618
-1.0020597 0.018096566 -0.15751266
-1.0087637 0.017403543 -0.16184902
-1.0024527 -0.010245442 -0.075819016
-1.0039756 -0.043510437 -0.044857025
-0.99037373 -0.22341949 0.089410305
-1.0116106 -0.083687484 -0.015292645
-1.0280447 -0.017773449 -0.12726259
-1.0190706 -0.12275141 0.014768124
-1.0400037 -0.05003947 -0.08556366
-1.0452347 -0.088153422 -0.040394783
-1.0547568 -0.052877426 -0.10335684
-1.0702296 -0.029324472 -0.20566797
-1.0618798 -0.054032445 -0.11042261
-1.0580927 -0.089288414 -0.046093941
-1.0893427 -0.035807431 -0.25031567
