# .PCD v0.7 - Point Cloud Data file format
VERSION 0.7
FIELDS x y z
SIZE 4 4 4
TYPE F F F
COUNT 1 1 1
WIDTH 1
HEIGHT 1024
VIEWPOINT 0 0 0 1 0 0 0
POINTS 1024
DATA ascii
0.80604106 0.43475127 -0.15955305
0.79563105 0.23580527 -0.12395191
0.79805005 0.43586928 -0.14351273
0.78396505 0.19622129 -0.07758379
0.78660107 0.23827827 -0.099054813
0.77261508 0.20087826 -0.033122063
0.76852304 0.24334431 -0.047978878
0.76534009 0.36756527 -0.021676064
0.75745708 0.20392227 -0.0049886703
0.75795609 0.3685993 -0.0091500282
0.75372308 0.29512125 -0.022854805
0.74596304 0.41463527 0.042219162
0.74264705 0.20674926 0.021071911
0.74632508 0.29632729 -0.010000706
0.73528904 0.20815331 0.034019947
0.73838705 0.32789326 0.007651329
0.73229408 0.41597328 0.059514046
0.77170604 0.51400828 -0.32829094
0.75292909 0.47795829 -0.16723776
0.70876205 0.25451428 0.062416077
0.73958009 0.51774132 -0.26144171
0.75353408 0.54570127 -0.38487387
0.69675606 0.45379227 0.11735392
0.73165107 0.51866126 -0.24495363
0.69633108 0.30385429 0.069928169
0.69340104 0.41887629 0.09605217
0.68969804 0.30458826 0.077529907
0.68440306 0.18310827 0.073154926
0.71590304 0.52049029 -0.21216679
0.73952907 0.59160125 -0.42616463
0.67840308 0.45459428 0.12750816
0.69871008 0.48490828 -0.056436062
0.70808804 0.52139729 -0.1958909
0.69111705 0.48587927 -0.040930748
0.68010104 0.1298393 0.0063490868
0.66773105 0.42078829 0.12021828
0.70548904 0.55083132 -0.28345585
0.65550506 0.42137927 0.12724829
0.66855109 0.48876628 0.00517416
0.64878309 0.26220727 0.13662291
0.70783007 0.59197831 -0.42049074
0.64940304 0.42167529 0.13077593
0.66013807 0.086837292 -0.025817871
0.66958606 0.52586228 -0.11571503
0.64328706 0.42198527 0.13450432
0.64227206 0.45594528 0.14416027
0.64522809 0.1364423 0.061002254
0.64011407 0.18753427 0.11007118
0.66200107 0.52674031 -0.099933624
0.67424804 0.55416524 -0.2174449
0.64584708 0.089972258 -0.00097179413
0.66653407 0.55498731 -0.20115376
0.62435806 0.22137231 0.15178633
0.62414104 0.45671028 0.15390205
0.63164806 0.49348527 0.080639362
0.62462407 0.094623268 0.035916328
0.61505407 0.19002527 0.13094711
0.64362609 0.55742627 -0.15279484
0.60596609 0.22287726 0.16470003
0.65247005 0.59715128 -0.30120802
0.66439408 0.62541425 -0.42067099
0.60704005 0.38245827 0.15393925
0.60601604 0.45750827 0.16419792
0.61750907 0.055266261 -0.0094656944
0.60066104 0.42416027 0.16083813
0.59905708 0.49941728 0.1770463
0.62512207 -0.011890709 -0.14665985
0.62489808 0.55792129 -0.14437866
0.59458709 0.42448029 0.16475296
0.60343206 0.05850327 0.015218258
0.60259706 0.5336163 0.023813248
0.57960904 0.2691263 0.20223427
0.58258009 0.38399029 0.17137909
0.64411205 0.67178327 -0.46765184
0.57018709 0.49989927 0.18235302
0.59977007 -0.056968749 -0.19404888
0.56363904 0.34480226 0.19177914
0.56428909 0.38516331 0.18482924
0.55872905 0.22527826 0.18372297
0.57802409 0.0048042536 -0.024264812
0.56660807 0.53777325 0.098793983
0.58079606 0.56246728 -0.054146767
0.55751908 0.3452673 0.19676828
0.55831504 0.38546628 0.18818712
0.55883509 0.42598727 0.18258429
0.61811405 0.6721943 -0.45642185
0.55857009 0.50014728 0.18543434
0.56139308 0.10216129 0.093089104
0.55284709 0.22557425 0.18608904
0.57103604 0.0065232515 -0.011853695
0.54697204 0.22587025 0.18845415
0.56241107 0.56606227 0.018814087
0.54538608 0.34612226 0.20589018
0.58060807 0.60240924 -0.18114185
0.54706305 0.42641029 0.18745804
0.54554707 0.14665526 0.14150333
0.53859305 0.27105731 0.21865892
0.53942704 0.3464613 0.20940304
0.55066407 0.011002302 0.020327091
0.53232509 0.31902426 0.22581625
0.55852604 -0.085662723 -0.13430309
0.52914804 0.54322326 0.1981473
0.52871007 0.38682529 0.20310116
0.58864009 0.70665026 -0.47508574
0.53040504 0.10560828 0.11922932
0.55013704 -0.081557691 -0.10630798
0.52109307 0.27187431 0.22566319
0.54336804 -0.033591747 -0.028936863
0.55112708 0.6051513 -0.11762285
0.57172108 0.67542732 -0.35301685
0.52379405 0.46003029 0.19479036
0.52734005 0.068498254 0.088635921
0.51794505 0.54322129 0.19711208
0.51688904 0.38738528 0.20931292
0.57502007 0.7070123 -0.46187162
0.51790804 0.50108629 0.19754696
0.51824707 0.10675031 0.12774515
0.51604104 0.14830631 0.15347624
0.53613907 -0.07776171 -0.080947876
0.51183105 0.22762728 0.20258904
0.52562106 0.014109254 0.04173708
0.50599307 0.22791725 0.20493603
0.55961406 0.70792329 -0.42701387
0.50624907 0.46059927 0.20191002
0.53145206 0.63524729 -0.16539288
0.49840108 0.14928627 0.16063118
0.52531004 -0.1339007 -0.16321182
0.49260911 0.2725513 0.23033333
0.51505804 0.6085043 -0.039839745
0.52416706 0.63585627 -0.14945269
0.49327311 0.38854727 0.22233534
0.49464008 0.10813326 0.13736296
0.48850712 0.22878331 0.21196413
0.51691908 0.63646126 -0.13361692
0.4887521 0.10847729 0.13976097
0.48424408 0.19812429 0.19517517
0.48127809 0.27276629 0.23165035
0.48383412 0.57512927 0.2002182
0.48149511 0.38913628 0.22897816
0.4830291 0.46126729 0.21012115
0.49486408 -0.06669271 -0.0069289207
0.47702309 0.2291683 0.21481323
0.47404107 0.32175529 0.25187397
0.51054704 0.6801253 -0.20185566
0.47698912 0.10916126 0.14454937
0.48222008 0.019465268 0.078813076
0.4683961 0.32185328 0.25252724
0.46910509 0.15090126 0.17250538
0.46429512 0.27308428 0.23362112
0.4792591 -0.022906721 0.043485165
0.47606412 0.020222306 0.084071159
0.47654209 0.61352229 0.078006268
0.50689405 0.71103626 -0.30765486
0.46697608 0.073905289 0.12714291
0.46524909 0.10984129 0.14932823
0.48149911 -0.11786872 -0.059480667
0.46378407 0.021730304 0.094560146
0.4556371 0.57524729 0.20044327
0.45147911 0.32214129 0.25447798
0.48633012 0.68028527 -0.19844675
0.49078009 0.71236229 -0.25627565
0.46787712 -0.11398166 -0.034535885
0.4458431 0.32223725 0.25512934
0.46391907 0.64217532 0.017488003
0.47912112 0.68078625 -0.18235683
0.50015408 0.76382625 -0.45885897
0.44934011 0.074969292 0.13434696
0.46110609 -0.11205274 -0.022142887
0.44467008 0.61853826 0.19644594
0.46788809 -0.16909868 -0.11233568
0.4727461 0.71237326 -0.25718403
0.43598709 0.11152625 0.16122913
0.44864109 -0.11026073 -0.011088848
0.42687809 0.20003527 0.20869732
0.4258981 0.076375306 0.14391613
0.42431709 0.1121943 0.16597414
0.4190931 0.27390927 0.23885536
0.42148909 0.54406726 0.20541811
0.42262909 0.61831725 0.18952036
0.41989011 0.46274728 0.22773314
0.44064909 -0.16091472 -0.06186676
0.4168641 0.15347826 0.19130993
0.41553909 0.20026231 0.21001816
0.41468608 0.2303893 0.22206593
0.4158721 0.54408324 0.20531416
0.41705111 0.61829925 0.18867302
0.44671509 -0.24760669 -0.23029375
0.42060411 -0.056718707 0.057229042
0.41819909 -0.015664697 0.091613293
0.40581611 0.39265227 0.26870203
0.43587309 -0.23608476 -0.16113281
0.4055011 0.15371931 0.1926403
0.4033781 0.23060429 0.22337914
0.40599608 0.64851427 0.18545914
0.40366009 0.50291324 0.21929693
0.3977271 0.23071128 0.22403526
0.39966211 0.57521224 0.19564438
0.39535511 0.32288331 0.2588172
0.3967101 0.078110278 0.15582132
0.39523208 0.1138463 0.17779207
0.3941431 0.15395826 0.1939683
0.3920761 0.23081726 0.22469091
0.3933681 0.54417527 0.20549107
0.38876009 0.39315027 0.27395916
0.39222708 0.50314724 0.2224369
0.41545311 -0.22951776 -0.12268686
0.3852711 0.27450627 0.24276733
0.38385311 0.35205728 0.26410913
0.38384509 0.11411428 0.17927599
0.3887971 -0.013724744 0.10372019
0.38351908 0.61821032 0.18424034
0.41236109 0.76743531 -0.25580692
0.42074409 0.80107927 -0.38370466
0.37712309 0.1543113 0.19595623
0.37220109 0.39308828 0.27206612
0.37290311 0.43261328 0.26121426
0.3734501 0.07948029 0.16530132
0.3809481 -0.10076171 0.047759056
0.37861711 -0.052442729 0.084300041
0.36838409 0.27479726 0.24471426
0.36726809 0.35198927 0.26221228
0.3729651 0.64813226 0.17289305
0.36716211 0.43282729 0.26386213
0.36961409 0.50341427 0.22543097
0.36766309 0.079789281 0.16741323
0.36385408 0.23133928 0.22796297
0.36592209 0.57529229 0.19508791
0.3621521 0.32274026 0.25501633
0.36395508 0.50349027 0.22635031
0.35559809 0.61810231 0.17989302
0.35011509 0.39300027 0.26954031
0.38490111 0.80213326 -0.29920578
0.36942008 -0.21640569 -0.046099663
0.35218111 0.02913326 0.14304018
0.3469781 0.50373232 0.22934914
0.3425841 0.54453826 0.20910025
0.34131008 0.50382328 0.23053598
0.37647209 0.84426326 -0.36129379
0.33693311 0.54459029 0.20975399
0.35095608 -0.21353573 -0.029801846
0.33353311 0.080544293 0.17141914
0.3318131 0.15522528 0.20123911
0.33128411 0.54464227 0.21040916
0.32855308 0.35181427 0.25777912
0.33332509 0.61795527 0.17502213
0.3356531 0.72247827 0.13463926
0.35685509 0.80295825 -0.23305798
0.32455209 0.23180628 0.23018312
0.3303681 -0.0099257231 0.12774706
0.32562709 0.54470432 0.21124029
0.32302108 0.35178828 0.25714397
0.32249609 0.39288127 0.26637936
0.35408509 -0.37527472 -0.28991508
0.3387011 -0.21163672 -0.01899004
0.33511108 -0.14329678 0.044230938
0.32079411 0.57553029 0.19735193
0.31748611 0.35176128 0.25651121
0.31697011 0.39285627 0.26574612
0.3166391 0.43359828 0.27166796
0.32483709 0.72225225 0.12503529
0.31519109 0.57553029 0.19702816
0.3364611 -0.3568067 -0.18946886
0.32648608 -0.20974678 -0.0082159042
0.31081408 0.081034303 0.17408037
0.31006509 0.1156733 0.18790722
0.30958408 0.57553327 0.19678307
0.32980311 -0.35438567 -0.17653799
0.30039111 0.39277929 0.26384735
0.3231701 -0.35197574 -0.16365862
0.30409908 -0.094219744 0.08700037
0.29837111 0.57553828 0.19629431
0.29534811 0.35164928 0.25397301
0.29632109 0.69045126 0.12699604
0.29737911 0.72182029 0.106462
0.29903111 0.77324927 0.074409962
0.2856411 0.23156226 0.22571421
0.2851541 0.27435529 0.23533726
0.29077509 0.69038028 0.12436438
0.29913509 -0.26937968 -0.040665627
0.29613608 -0.20506769 0.018546104
0.28097311 0.15620726 0.20715094
0.28041109 0.20202929 0.2184391
0.28659409 -0.092999697 0.094247341
0.28151411 0.57557929 0.19628429
0.2787371 0.35156029 0.25206804
0.28628808 0.7216813 0.10039616
0.2782971 0.46550629 0.26091099
0.27678809 0.08174926 0.1780591
0.27611211 0.1163553 0.19186401
0.27534708 0.15628129 0.20752001
0.27484411 0.20199031 0.21780014
0.28076911 -0.092595696 0.09665823
0.27319908 0.35153025 0.25143194
0.2773101 0.61776125 0.16737413
0.28073311 0.72161227 0.097388268
0.28258809 0.77300525 0.059466362
0.29620409 0.84514928 -0.21894169
0.2903901 -0.34008771 -0.10005474
0.27208111 0.031778276 0.15874195
0.26797509 0.32224828 0.24421835
0.27255109 0.64745629 0.14894438
0.27298111 0.80608827 0.019864082
0.2827121 0.84534931 -0.18648863
0.2704691 -0.13826066 0.073119164
0.25979608 0.082097292 0.18004322
0.25861409 0.15615231 0.20559216
0.26144311 -0.0071357489 0.14445496
0.25900111 0.57567728 0.19722891
0.2629371 0.6900543 0.11218691
0.2563031 0.50558329 0.25552034
0.27239808 0.84592128 -0.092228889
0.27180809 -0.33617872 -0.079483986
0.25575209 -0.0070077181 0.14512396
0.2605741 -0.20141977 0.038945198
0.25073609 -0.044810712 0.13066912
0.24773608 0.57574028 0.19802523
0.25960711 -0.33408374 -0.068537712
0.25471109 -0.20097166 0.041395187
0.25297511 -0.13699967 0.080387115
0.24437208 -0.0067537427 0.14646101
0.24011807 0.39145929 0.24389029
0.24001409 0.43206227 0.24627829
0.23993008 0.46478429 0.24820137
0.25352108 -0.33304077 -0.063079834
0.24715208 -0.13658172 0.082805157
0.23472609 0.35069227 0.23967791
0.24603908 0.80556029 -0.024728775
0.22912608 0.39121327 0.24024534
0.22902609 0.43183628 0.24263525
0.23491307 0.6897893 0.10215998
0.22894509 0.46457529 0.2445612
0.22516708 0.57592428 0.20086813
0.23044209 0.72103727 0.072330952
0.21828507 0.3214063 0.23250437
0.22730608 0.77215731 0.007912159
0.23164408 -0.39322168 -0.10009384
0.22928409 -0.3288967 -0.041351795
0.21431009 0.11665326 0.19163036
0.21643208 0.6471293 0.13762236
0.21925707 0.7208823 0.065731049
0.23062007 -0.48806471 -0.22348785
0.22107209 -0.25834674 0.019526958
0.21963708 -0.19831175 0.056046009
0.20901108 0.082780302 0.18337011
0.20838007 0.15573525 0.19979715
0.20821908 0.57610726 0.20397997
0.21607707 0.77201831 -0.00057983398
0.20185308 0.27364427 0.22422934
0.20399807 0.61788225 0.16710997
0.20516507 0.64708626 0.13602114
0.20653008 -0.1336897 0.09966135
0.19633608 0.54561532 0.22233009
0.20241608 0.72066629 0.056524277
0.19162108 0.1555863 0.19786215
0.19125308 0.20134026 0.20816708
0.19443008 -0.088641703 0.11939001
0.19378708 -0.043523729 0.13736391
0.19080909 0.2733323 0.22056532
0.19126308 0.5763253 0.20786524
0.19386908 0.64706731 0.13508034
0.18544208 0.23082125 0.21417618
0.18528308 0.2731753 0.21873236
0.18518607 0.32054627 0.22152233
0.19323708 -0.32276469 -0.0090517998
0.18074708 0.11633629 0.18775129
0.18302909 -0.088381708 0.12073231
0.18241708 -0.043275714 0.13869715
0.18190308 -0.0054117441 0.15377712
0.18138108 0.033640265 0.16912127
0.17988908 0.5451473 0.21295214
0.18406507 0.68948925 0.090285301
0.17954008 0.46328729 0.22320127
0.17515008 0.11628127 0.18710327
0.17673407 -0.04315269 0.13936424
0.17690608 0.64705527 0.13417912
0.17399408 0.38995627 0.22196817
0.17982408 0.72042525 0.04621315
0.16926707 0.1553793 0.19527912
0.16893408 0.2011463 0.20559216
0.17105108 -0.043030739 0.14002705
0.16876808 0.23052728 0.21073294
0.17014508 0.61797225 0.16808891
0.17124107 0.64706129 0.13416815
0.16843508 0.43045729 0.22101736
0.17721908 -0.38349468 -0.050925732
0.16593608 -0.087996721 0.12274122
0.16706908 0.68939728 0.086666107
0.16848308 0.72032028 0.04169035
0.16307308 0.46270329 0.21382523
0.16848607 -0.25420266 0.041584969
0.15808508 0.15527231 0.19398403
0.15761007 0.27238327 0.20954609
0.15800908 0.57582831 0.19647932
0.15752408 0.31981528 0.21234608
0.15739907 0.38957027 0.216465
0.16279308 0.72028029 0.039896965
0.15772907 0.50282824 0.20563698
0.14652108 0.2720623 0.20586634
0.14686008 0.5442003 0.19411707
0.14856409 0.64711726 0.13496923
0.14644508 0.42961428 0.20850611
0.14670908 0.50247329 0.19935703
0.15412109 0.77106327 -0.057952881
0.15220308 -0.31930476 0.0086240768
0.14176609 0.082087278 0.17558193
0.14207308 0.033199251 0.16456032
0.14191908 0.61809129 0.17009497
0.14118908 0.5022943 0.19621325
0.15167308 0.80372131 -0.17912197
0.14636008 -0.31882471 0.011085987
0.13553308 0.20043826 0.19796705
0.13861908 -0.19326276 0.083938122
0.13179208 -0.087248743 0.12674522
0.13106108 -0.0050797462 0.15465403
0.13027509 0.54372025 0.18466234
0.12974608 0.34807527 0.20486116
0.13563508 -0.37738377 -0.020020962
0.13469207 -0.31787175 0.016002178
0.13289508 -0.19312674 0.08461237
0.12521608 0.032999277 0.16260195
0.12499708 0.57465231 0.17123318
0.13433808 0.80349928 -0.19778776
0.12886508 -0.3173967 0.018455029
0.13388808 -0.55516773 -0.17999363
0.11892109 0.15487927 0.18945217
0.12042108 -0.087005734 0.12807703
0.12000708 -0.042106748 0.14502621
0.11980408 -0.0052207112 0.15334511
0.11863507 0.34778929 0.20117331
0.11987008 0.61730528 0.15063334
0.11871508 0.38821128 0.19787693
0.11906408 0.50157529 0.18360615
0.12206008 -0.2506097 0.061021328
0.11330308 0.42833227 0.18965006
0.11340009 0.46092328 0.18554497
0.12264508 0.80339426 -0.20673895
0.11722209 -0.31645173 0.023355007
0.11573108 -0.19272166 0.08663702
0.10771208 0.1995253 0.18872499
0.10873307 -0.042256713 0.14371204
0.10755208 0.31846726 0.19576597
0.10785508 0.46072328 0.18238926
0.11763208 -0.62013978 -0.2484498
0.11543408 -0.54904777 -0.15155888
0.10219708 0.15432626 0.1842103
0.10272507 0.032724261 0.15998697
0.10221608 0.42790127 0.18334198
0.10241708 0.50103128 0.17412329
0.10757709 -0.45497674 -0.062358856
0.10638309 -0.37489468 -0.0076408386
0.10560007 -0.31551272 0.028244972
0.096869081 0.081573308 0.17037106
0.097700074 -0.086530745 0.13073206
0.097455084 -0.042409718 0.14239836
0.097281083 -0.0055117011 0.15072203
0.096557081 0.38727328 0.18528128
0.099795073 -0.3150447 0.030687332
0.091252074 0.081506252 0.16971922
0.09098208 0.1989693 0.18317032
0.092021078 -0.086413741 0.13139629
0.090897083 0.27042431 0.1874032
0.090901077 0.34667027 0.18721724
0.094099075 0.72002029 0.027882099
0.086363077 -0.086428702 0.1311841
0.085319087 0.27025729 0.18555117
0.086013079 -0.005661726 0.14941025
0.088349074 0.72001928 0.027709961
0.093137085 0.80322027 -0.22162771
0.08668609 -0.13086373 0.11433697
0.081794083 0.68900329 0.071493149
0.074399084 0.081301272 0.16775894
0.075060084 -0.086595714 0.12986326
0.074742079 -0.0058137178 0.14809608
0.075641081 0.64576125 0.096563339
0.081224084 0.80320328 -0.22327805
0.076130077 -0.2491377 0.068551064
0.07939209 -0.5418517 -0.11833096
0.068716079 0.11464626 0.17078924
0.068679079 0.15313327 0.17307091
0.069406077 -0.08668071 0.12920332
0.069327086 0.5410893 0.13394213
0.068738088 0.3860873 0.16946697
0.07221508 -0.4503867 -0.040171623
0.070838079 -0.31272668 0.042855263
0.063013077 0.22719431 0.17561817
0.062973082 0.2695843 0.17813015
0.063466087 -0.0059697032 0.14678097
0.063022077 0.31671029 0.17504215
0.067177087 0.77055126 -0.089490891
0.057546083 0.081003308 0.16509438
0.057443086 0.1978423 0.17202711
0.057417084 0.22701228 0.17375898
0.058325086 0.57187927 0.11253214
0.057499085 0.34512728 0.16824627
0.059816081 -0.37098771 0.01203537
0.053303082 0.64463127 0.06558609
0.052057084 0.42593229 0.15480709
0.054105084 0.71953827 0.0081033707
0.052339081 0.49872229 0.13461733
0.057839084 -0.68836468 -0.25930882
0.046785083 -0.087026715 0.12655735
0.046656083 -0.043136716 0.13646936
0.046216082 0.22664827 0.17003918
0.046434086 0.031987309 0.15343332
0.046946082 0.54005927 0.11427402
0.047685083 0.6443463 0.057797909
0.048221085 -0.37002569 0.016928196
0.040716086 0.080333292 0.15949821
0.040631082 0.19727027 0.16644192
0.040798087 0.0319103 0.15277719
0.042086083 -0.31182772 0.047372341
0.041777086 -0.24834877 0.072595119
0.043708082 -0.53477174 -0.085463047
0.035704087 0.53954029 0.10439491
0.035082083 0.31534129 0.15918207
0.039079081 0.76876628 -0.19308567
0.037175085 -0.44729871 -0.025276661
0.029436085 0.15170926 0.16003132
0.030858081 -0.36859375 0.024250031
0.031893086 -0.5324387 -0.074590683
0.023859084 0.079656303 0.15389109
0.023812085 0.26777929 0.15878725
0.02486008 0.61317027 0.04964304
0.024136085 0.45701727 0.12499523
0.026026081 -0.53183466 -0.071799755
0.020258084 0.7173233 -0.079953671
0.021929085 -0.73329574 -0.2714138
0.013119083 0.5384953 0.084550381
0.013699085 0.64262027 0.010674953
0.014669083 -0.59003967 -0.11279202
0.0069430843 0.15088129 0.15255308
0.0070690848 0.38342327 0.1344161
0.0083930828 0.68521029 -0.055184841
0.0036510825 -0.72406477 -0.23228168
-0.0042269155 -0.043922722 0.13051701
-0.0042409152 0.34223729 0.133183
-0.0034749173 0.64174628 -0.013134956
-0.0037019178 -0.36739069 0.030298233
-0.0023949146 -0.72101468 -0.21934271
-0.0094769169 0.56820327 0.035865307
-0.0097889155 0.42260227 0.10750818
-0.0088849161 0.68386829 -0.09977293
-0.0095539168 -0.31064075 0.053451061
-0.0090729166 -0.52860171 -0.056796074
-0.015602916 0.19507426 0.14544296
-0.015477916 -0.13144773 0.1094451
-0.021181917 -0.088140726 0.11859226
-0.020835916 0.61055529 -0.013484001
-0.021165917 0.38174528 0.11264515
-0.019969916 -0.82716376 -0.34401894
-0.020646917 -0.58406371 -0.085731983
-0.026880916 0.02951026 0.13414812
-0.026833916 0.38136327 0.10770798
-0.026807915 0.42154828 0.092655182
-0.026309915 -0.71474069 -0.19274187
-0.032542914 0.1494053 0.13942337
-0.032473914 0.49431327 0.060272217
-0.032450914 -0.36672968 0.033680916
-0.032298915 -0.66105777 -0.14071274
-0.038198914 -0.044558704 0.12599421
-0.038198914 0.45343128 0.070486069
-0.038198914 -0.44118172 0.0047631264
-0.038198914 -0.36660069 0.034357071
-0.043858916 0.076881289 0.13136625
-0.043863915 0.22217429 0.12576914
-0.043879915 0.3401233 0.10791016
-0.044227917 -0.81408876 -0.29091692
-0.043923914 -0.30989569 0.057480335
-0.049519915 0.1100443 0.13147211
-0.049518917 0.14855027 0.131917
-0.049547918 -0.088638723 0.11526012
-0.049535915 -0.045101702 0.12221909
-0.049739916 0.53426731 0.0049991608
-0.049568914 0.33970726 0.10296917
-0.049610917 -0.2470817 0.079421997
-0.055224918 -0.088740706 0.11459303
-0.055211917 0.22151428 0.11934233
-0.055596918 0.56513929 -0.027516842
-0.055346914 0.41977227 0.06774807
-0.056216918 -0.80763775 -0.26468992
-0.055317916 -0.24720174 0.078747272
-0.055834915 -0.65602475 -0.1187129
-0.060879916 -0.009475708 0.12059832
-0.061421916 -0.52386373 -0.034468651
-0.066625915 -0.1323927 0.10342836
-0.072228916 0.1470803 0.1190753
-0.072305918 0.26257926 0.10429001
-0.072992921 0.53256726 -0.026834011
-0.073170915 0.56352532 -0.060837746
-0.07231392 -0.13250166 0.10275793
-0.077954918 -0.089415729 0.11019325
-0.079269916 -0.65295571 -0.10520363
-0.083616912 0.1463393 0.11263514
-0.083719917 0.26195228 0.097819328
-0.085034914 0.56208527 -0.090534687
-0.084331915 -0.44012469 0.010191917
-0.084809914 -0.57806569 -0.058251858
-0.089394912 0.21951526 0.09997797
-0.089560911 0.30826426 0.078931332
-0.089884914 0.41761127 0.037608147
-0.095111921 0.21917927 0.096741199
-0.099008918 -0.91125876 -0.34977674
-0.096807912 -0.65125674 -0.097656727
-0.10083392 0.21884227 0.093500137
-0.10106991 0.30737329 0.068953037
-0.10175191 0.44860727 -0.0021400452
-0.10496192 -0.90783173 -0.3364377
-0.10221991 -0.57646567 -0.050812721
-0.10656291 0.21850431 0.090256214
-0.10665292 0.2603783 0.081583977
-0.10761292 0.44807827 -0.01008606
-0.10737291 -0.4396227 0.0128932
-0.10689291 -0.30972868 0.058753014
-0.11453791 0.5280993 -0.1103878
-0.11516792 0.55842531 -0.16595268
-0.11279692 -0.36501974 0.043085098
-0.11463192 -0.69743377 -0.11870098
-0.11430791 -0.6495747 -0.090134621
-0.11786191 0.10599625 0.098132133
-0.11787792 -0.091464698 0.096888065
-0.11937992 0.44701427 -0.026033878
-0.11835992 -0.31000072 0.057391167
-0.11959192 -0.57488078 -0.043395042
-0.12373492 0.1884793 0.084233284
-0.12425691 -0.36481076 0.044325352
-0.12595192 -0.64846271 -0.085134029
-0.12374792 -0.1930787 0.083220959
-0.12948291 0.18812329 0.080979347
-0.12975392 0.25843829 0.061612129
-0.12924792 -0.012697697 0.097829342
-0.13278791 0.52567327 -0.15569496
-0.13015291 0.3337813 0.032984257
-0.13216591 -0.69570869 -0.11113977
-0.13176791 -0.64790875 -0.082636833
-0.13531792 0.21663129 0.072313309
-0.13555092 0.25795031 0.056602001
-0.13892692 0.52485728 -0.17093277
-0.13581392 0.3046723 0.038833141
-0.13614891 -0.43902069 0.016257286
-0.13575292 -0.36510271 0.042953968
-0.13662592 -0.52006274 -0.015847683
-0.14072591 -0.049572706 0.091842175
-0.14069192 -0.013246715 0.094016075
-0.14217691 0.37290031 -0.00054502487
-0.14267592 0.41258529 -0.032313824
-0.14842492 -0.99564868 -0.39826775
-0.14338891 -0.64680678 -0.07765007
-0.14273992 -0.57340676 -0.036352634
-0.14649692 -0.092957735 0.087348938
-0.15243791 0.51952124 -0.27089787
-0.14765091 0.33248329 0.017789364
-0.14704992 -0.31069869 0.053975105
-0.15330891 0.30330628 0.023668289
-0.15456691 0.41142729 -0.048367023
-0.15501991 0.44378427 -0.074338913
-0.15820792 0.1414333 0.070455074
-0.15796892 -0.093560696 0.083527088
-0.15792091 -0.050435722 0.086110115
-0.16053392 0.41084629 -0.05642271
-0.16238092 0.48123729 -0.15723801
-0.15915291 -0.43855876 0.018937111
-0.15974091 -0.51956969 -0.013143063
-0.16437092 0.21401727 0.047262192
-0.16428192 -0.31112868 0.051924229
-0.16712391 -0.6923067 -0.096087933
-0.16657892 -0.6446237 -0.067708015
-0.16998991 0.18507129 0.053088188
-0.16945592 -0.094167709 0.079697132
-0.17186792 0.36976528 -0.040434837
-0.17002793 -0.31127471 0.051239014
-0.17171793 -0.57277566 -0.032954693
-0.18454991 0.40850228 -0.088841915
-0.18734191 -0.87729377 -0.21676302
-0.18566991 -0.77738172 -0.14017868
-0.18330091 -0.57253069 -0.031599998
-0.18716292 0.1395033 0.054084301
-0.18777493 0.21190327 0.02708292
-0.18695691 -0.25019675 0.063131332
-0.18861192 -0.51898175 -0.0097746849
-0.20088191 -0.96550471 -0.28483105
-0.19302692 -0.3118667 0.048495293
-0.19613992 -0.68952078 -0.08361578
-0.19553792 -0.64255577 -0.058057785
-0.19488291 -0.57229275 -0.030247688
-0.19823492 -0.095702708 0.070100307
-0.19948192 -0.43870372 0.019078255
-0.20975892 -1.0599868 -0.40143967
-0.20318893 -0.77561575 -0.13259888
-0.20193093 -0.68896967 -0.081130981
-0.20015492 -0.51875466 -0.0084319115
-0.20716092 0.32613426 -0.056623936
-0.20406592 -0.13862473 0.065617085
-0.21132892 0.20976728 0.0067791939
-0.22213092 0.40201527 -0.17899084
-0.21638592 -0.36725777 0.033317089
-0.22184892 0.065609276 0.04361105
-0.22197992 0.09866029 0.038925171
-0.22805391 -0.86769575 -0.17853689
-0.22828592 0.13544631 0.019472122
-0.22877492 0.1795153 0.0024981499
-0.22750792 0.017566264 0.046494961
-0.23141192 0.32336026 -0.089039803
-0.23279892 0.36214429 -0.13719082
-0.23488893 0.39979929 -0.20973873
-0.22839792 -0.4395557 0.015604019
-0.22737391 -0.25245672 0.051134109
-0.23091592 -0.68696672 -0.071838856
-0.23352893 0.064744294 0.037019253
-0.23377192 0.097412288 0.028828144
-0.23470493 0.17895126 -0.0026040077
-0.23503292 0.2076093 -0.013653755
-0.23418492 -0.43972868 0.014908314
-0.23369992 -0.3677457 0.031242371
-0.24190092 -0.95513874 -0.24507666
-0.23620892 -0.64171678 -0.05330801
-0.23538493 -0.57149476 -0.025532722
-0.24987292 -1.0349007 -0.30980778
-0.24523492 0.063875258 0.030411243
-0.24785292 0.24721628 -0.052895069
-0.25148091 -0.86524767 -0.16834784
-0.24972592 -0.77099174 -0.11250401
-0.25393993 0.24642527 -0.060956955
-0.2583729 0.3573513 -0.1982069
-0.25934193 -0.95075876 -0.22819662
-0.2573269 -0.86464077 -0.16580868
-0.2585189 0.17668426 -0.023094654
-0.26242992 0.31892127 -0.14099073
-0.25626892 -0.19994277 0.04472208
-0.26314592 -0.44061369 0.011422157
-0.26218992 -0.25466067 0.039508343
-0.26523492 -0.64115673 -0.04993391
-0.26195791 -0.14191276 0.046299934
-0.26428992 -0.57096177 -0.022181988
-0.26374891 -0.51869875 -0.0063056946
-0.2689389 0.061337292 0.010852337
-0.27670091 -0.94641572 -0.21141005
-0.2728979 -0.76872474 -0.10251904
-0.2758649 0.1306293 -0.021355629
-0.27724892 0.20272726 -0.060003757
-0.2876659 0.34542328 -0.35102272
-0.27474192 -0.44097573 0.010023117
-0.27868092 -0.76816267 -0.10002899
-0.27382591 -0.25540477 0.035621166
-0.27537692 -0.51908273 -0.007712841
-0.2808589 0.060014307 0.00066614151
-0.28254291 0.17422825 -0.045258999
-0.28337991 0.20187831 -0.068083763
-0.28054193 -0.44115776 0.0093240738
-0.2816239 -0.57065767 -0.020179749
-0.28844091 -0.64073175 -0.047245979
-0.29148391 -0.10287875 0.025152206
-0.29214591 -0.44152671 0.0079231262
-0.29144591 -0.31649274 0.02616024
-0.29327589 -0.57104176 -0.021494865
-0.29988492 0.12818331 -0.041965008
-0.30096489 0.17157125 -0.069446087
-0.3018679 0.19931626 -0.092443943
-0.29741091 -0.37011272 0.020994186
-0.30481592 0.057347298 -0.019797802
-0.30368692 -0.025690734 0.0082993507
-0.30375892 -0.44189972 0.006521225
-0.30284891 -0.2027927 0.029167175
-0.31029591 -0.52026278 -0.011942863
-0.31803492 0.12624025 -0.058321953
-0.32049391 0.1967293 -0.11698484
-0.3181769 -0.68531066 -0.061704636
-0.31486389 -0.14675373 0.017333984
-0.3242189 0.1252923 -0.066397667
-0.3210119 -0.1055457 0.0085511208
-0.3212499 -0.063066721 0.0029911995
-0.3267349 0.19586229 -0.12520695
-0.32150489 -0.027345717 -0.002974987
-0.34076092 -1.1449418 -0.45300674
-0.32924992 -0.93960875 -0.18397188
-0.32537091 -0.76696473 -0.093324661
-0.32077789 -0.14731175 0.014010906
-0.3289279 0.054652274 -0.040394783
-0.32751691 -0.028085709 -0.008084774
-0.3270019 -0.44265777 0.0037121773
-0.3350859 -0.93899578 -0.18143177
-0.33497989 0.053974271 -0.045562744
-0.33286691 -0.10662174 0.0018839836
-0.3356089 -0.68501574 -0.059693813
-0.33880392 -0.1071617 -0.0014538765
-0.33840689 -0.37305075 0.0072822571
-0.33821592 -0.20596069 0.011486053
-0.33855492 -0.14899474 0.0040273666
-0.33997092 -0.57271475 -0.027173042
-0.34711391 0.052614272 -0.0559268
-0.3491019 0.12147325 -0.098889828
-0.34447491 -0.44334167 0.0010881424
-0.35033992 -0.85522574 -0.12563372
-0.34871989 -0.76655668 -0.09062767
-0.34652489 -0.64036566 -0.043214798
-0.35319692 0.051930308 -0.061123848
-0.35706291 0.16345227 -0.14309692
-0.3510209 -0.065833747 -0.014979839
-0.3585459 0.19067228 -0.17454672
-0.35233191 0.0051472783 -0.042788982
-0.3516629 -0.57314569 -0.028596878
-0.36017391 0.08323729 -0.08476305
-0.3570689 -0.06660974 -0.0201087
-0.3652229 0.18907428 -0.18986082
-0.3584069 0.0044263005 -0.047962666
-0.36627591 -1.0090168 -0.21179295
-0.36538991 0.050559282 -0.071537018
-0.36793092 0.11857826 -0.12347364
-0.37192991 0.18746829 -0.20524502
-0.3644909 0.0037032962 -0.053144932
-0.3803809 -1.1239698 -0.37804365
-0.3633599 -0.57358068 -0.030021667
-0.37150189 0.049871266 -0.076755047
-0.3742379 0.11760628 -0.13171101
-0.36793891 -0.20894474 -0.0051860809
-0.3752729 -0.068949699 -0.035543919
-0.3796649 -0.8547197 -0.12225008
-0.37355191 -0.26259166 -0.0015649796
-0.37634191 -0.68475276 -0.05663681
-0.37447292 -0.5225367 -0.019739628
-0.38531491 0.079181254 -0.11743689
-0.3922399 0.18260425 -0.25182199
-0.39781192 -1.1190317 -0.35994482
-0.37987491 -0.21014971 -0.011881828
-0.38092092 -0.57424372 -0.032166004
-0.3916389 0.078159273 -0.12565565
-0.3990719 0.18096727 -0.26748991
-0.39138991 -0.85452873 -0.12090063
-0.38758191 -0.64197868 -0.048238754
-0.40593591 0.1793223 -0.28322792
-0.41513491 -1.1140208 -0.34154606
-0.40121889 -0.76572174 -0.084593773
-0.4124229 0.11171526 -0.18156195
-0.40491492 -0.1141997 -0.045125008
-0.41296691 -1.0040467 -0.19143391
-0.4089739 -0.85425168 -0.1188817
-0.40371391 -0.52361876 -0.023302078
-0.4187859 -1.0034347 -0.18890095
-0.41716892 -0.11585373 -0.055483818
-0.4198229 -0.0031597018 -0.10222197
-0.4323709 -1.1090388 -0.32320499
-0.4246009 -1.0028257 -0.18637085
-0.41696191 -0.64316875 -0.051840782
-0.42992592 0.07196027 -0.1754117
-0.4329049 0.10641426 -0.22707701
-0.42425591 -0.075274706 -0.077061653
-0.4362199 -1.0016127 -0.18131781
-0.42701492 -0.32683569 -0.024046898
-0.4293029 -0.68695968 -0.063145638
-0.4278779 -0.21502572 -0.038805008
-0.44282091 0.069868267 -0.1921649
-0.43826792 -0.85381967 -0.11553001
-0.44179991 -0.1191867 -0.076305866
-0.43878591 -0.38044471 -0.026311874
-0.44216889 -0.76576573 -0.082428932
-0.44994491 -0.043500721 -0.11361074
-0.45176291 -0.0088317394 -0.14332581
-0.45362389 -0.99980873 -0.17375898
-0.44808289 -0.76603371 -0.083160877
-0.44699189 -0.68771976 -0.065325737
-0.4452709 -0.52706772 -0.037186623
-0.4605999 0.035099268 -0.19031
-0.4594169 -0.99921173 -0.17124271
-0.4703989 0.062611282 -0.25121975
-0.46142289 -0.080104709 -0.10856009
-0.45991692 -0.76657373 -0.084624767
-0.45936191 -0.16248268 -0.075793743
-0.4571839 -0.52806967 -0.041182041
-0.48673889 0.084926307 -0.41301966
-0.4692139 -0.047064722 -0.13829899
-0.4628509 -0.45259577 -0.03855896
-0.46754891 -0.85342473 -0.11219263
-0.4637129 -0.27222675 -0.05206871
-0.48446691 0.058753252 -0.28261709
-0.47175792 -0.76711971 -0.086092949
-0.47034091 -0.21964175 -0.064184666
-0.47905591 -0.12424976 -0.10779285
-0.48025492 -0.082786739 -0.12609386
-0.47584891 -0.2735377 -0.05886507
-0.4750829 -0.52958268 -0.04718399
-0.49063289 -0.015755713 -0.19333982
-0.48074991 -0.45402974 -0.04455471
-0.48891792 -0.99870676 -0.16752195
-0.49155891 -0.12595469 -0.11835766
-0.4883329 -0.68953973 -0.070429802
-0.4942469 -0.68980569 -0.07115984
-0.49322891 -0.58098668 -0.056237698
-0.51029491 -0.019267738 -0.21863508
-0.49900991 -0.53162068 -0.055206776
-0.51925695 -0.090285718 -0.1758399
-0.51394391 -0.22616476 -0.10081005
-0.51121593 -0.5825817 -0.062273979
-0.52791393 -0.057955742 -0.21348476
-0.51873392 -0.27863866 -0.085411072
-0.55105394 0.0020242929 -0.44981384
-0.53238994 -0.092815697 -0.19258595
-0.52359694 -0.3900767 -0.071396828
-0.52351689 -0.64895874 -0.070290089
-0.53846693 -0.8550337 -0.11354685
-0.53502995 -0.53472167 -0.067289829
-0.55222094 -0.096641719 -0.21787405
-0.54742694 -0.46127576 -0.075989723
-0.54892492 -0.77080768 -0.095684052
-0.55014396 -0.28358477 -0.11170006
-0.54780293 -0.69300371 -0.080935955
-0.55172896 -0.23184878 -0.1325388
-0.54707295 -0.53576666 -0.07133007
-0.56552595 -0.099212706 -0.23483896
-0.57488793 -0.038063705 -0.35650587
-0.55426693 -0.39376169 -0.088523865
-0.55636495 -0.85595876 -0.11578703
-0.56022191 -0.17764169 -0.16590786
-0.56042194 -0.39450473 -0.091959953
-0.56082791 -0.7713967 -0.097167015
-0.56278193 -0.28558069 -0.12227583
-0.55987996 -0.69417268 -0.084992886
-0.57614094 -0.14160067 -0.21680307
-0.56586796 -0.46361977 -0.086269855
-0.56572592 -0.65292472 -0.084468842
-0.56516993 -0.53734666 -0.077401638
-0.58281696 -0.14294571 -0.22527075
-0.57546496 -0.2875877 -0.1328907
-0.58872193 -1.0163388 -0.22396803
-0.57750291 -0.58854467 -0.084524632
-0.58437091 -0.46597975 -0.096585751
-0.58631891 -0.34641677 -0.12053871
-0.58818996 -0.28960472 -0.14353895
-0.58990192 -0.2376197 -0.16458273
-0.59055293 -0.46677071 -0.10003185
-0.60043496 -1.0155697 -0.22023296
-0.59456891 -0.29061669 -0.14887381
-0.60293996 -0.46835774 -0.10693693
-0.61354393 -0.18880278 -0.2332058
-0.60876495 -0.77450174 -0.10592365
-0.60815394 -0.65696973 -0.098722935
-0.62284791 -0.40307575 -0.13201284
-0.62215793 -0.85946578 -0.1240449
-0.62094295 -0.77576274 -0.11002064
-0.62780094 -0.47155577 -0.12079287
-0.62924796 -0.40418977 -0.13732767
-0.63307595 -0.29674572 -0.18108463
-0.63414794 -0.86012274 -0.12555504
-0.63953292 -0.29777569 -0.18648386
-0.63258296 -0.59465677 -0.10783672
-0.63880694 -0.59553367 -0.11129665
-0.64535195 -0.77830476 -0.11823368
-0.64503896 -0.59641272 -0.11476088
-0.67684793 -0.17012876 -0.39917707
-0.65080893 -0.66109377 -0.11305666
-0.66973495 -0.20325071 -0.32102108
-0.65715796 -0.70376676 -0.11769485
-0.67324191 -0.30532676 -0.22716475
-0.68492091 -0.2084567 -0.35305882
-0.67756194 -0.95265168 -0.20895386
-0.67030793 -0.86249369 -0.13149166
-0.67004192 -0.5999487 -0.12865496
-0.67830592 -0.47896069 -0.15323162
-0.68351692 -0.95264167 -0.2083559
-0.69109291 -0.25947469 -0.28849697
-0.68477893 -0.48015267 -0.15858364
-0.68210995 -0.78217274 -0.1306057
-0.68934095 -0.36366576 -0.20639181
-0.68321395 -0.55319673 -0.14217377
-0.69597995 -0.36496776 -0.21292782
-0.68805093 -0.66588372 -0.13057899
-0.70544392 -0.26343673 -0.31121778
-0.68950391 -0.55406266 -0.1456728
-0.69992292 -0.87865371 -0.19158697
-0.69439995 -0.78347677 -0.13474369
-0.69394493 -0.70747668 -0.13006687
-0.70426691 -0.48374969 -0.17469978
-0.71443993 -0.31485671 -0.27845383
-0.70210791 -0.55579966 -0.15268278
-0.71078694 -0.48495477 -0.18008995
-0.70671093 -0.78478771 -0.13888884
-0.72851193 -0.27170366 -0.35925198
-0.71731591 -0.48616272 -0.18548679
-0.72344494 -0.37161976 -0.24688482
-0.73035592 -0.37329572 -0.25542879
-0.71954393 -0.67057174 -0.14805079
-0.73697692 -0.48980671 -0.20173979
-0.73849195 -0.88604468 -0.21652985
-0.74423593 -0.37666374 -0.27258396
-0.75978595 -0.28292078 -0.42435408
-0.73307693 -0.60894376 -0.16367579
-0.73853093 -0.67341167 -0.15858269
-0.74052292 -0.56192476 -0.17784882
-0.75818694 -0.38005275 -0.28982592
-0.76519096 -0.3817547 -0.29848099
-0.75122696 -0.67531675 -0.16562366
-0.75850296 -0.61260277 -0.17779684
-0.76997596 -0.4959417 -0.22901297
-0.78631794 -0.38689572 -0.32458305
-0.78325695 -0.49841672 -0.23998499
-0.78863496 -0.43597478 -0.2894907
-0.77671391 -0.67915469 -0.17975807
-0.79568195 -0.43775672 -0.29814386
-0.78455293 -0.61730069 -0.19652796
-0.79504496 -0.81107575 -0.23703003
-0.81661594 -0.39689976 -0.37644863
-0.79591191 -0.68205768 -0.19040203
-0.81693995 -0.44313973 -0.32424498
-0.80170393 -0.7237547 -0.18840694
-0.82406396 -0.44494575 -0.33298779
-0.80812091 -0.72475475 -0.19196272
-0.81776291 -0.62404567 -0.22375774
-0.81997895 -0.57751769 -0.24320602
-0.83837193 -0.44857568 -0.35055208
-0.84885693 -0.40941566 -0.44187689
-0.82097995 -0.72675973 -0.19908381
-0.82161993 -0.68596166 -0.20465374
-0.84563792 -0.45053774 -0.36009264
-0.83397996 -0.81760973 -0.25934172
-0.84011096 -0.58149272 -0.25975704
-0.85316294 -0.51576966 -0.31907082
-0.84804392 -0.74533874 -0.27549362
-0.86033595 -0.5176807 -0.32780504
-0.87643892 -0.75382167 -0.30844975
-0.87445092 -0.58914369 -0.2920208
-0.90285695 -0.47351271 -0.47485685
-0.8964889 -0.52731973 -0.37181187
-0.90377796 -0.52926677 -0.3806839
-0.89893794 -0.71918076 -0.34154701
-0.89603496 -0.59518176 -0.3180747
-0.94123596 -0.50401968 -0.6316247
