# .PCD v0.7 - Point Cloud Data file format
VERSION 0.7
FIELDS x y z
SIZE 4 4 4
TYPE F F F
COUNT 1 1 1
WIDTH 1
HEIGHT 1024
VIEWPOINT 0 0 0 1 0 0 0
POINTS 1024
DATA ascii
0.78759921 -0.063080609 -0.034843922
0.77973425 -0.061115563 -0.022776127
0.78445423 -0.020904541 -0.054171085
0.7720592 -0.059320509 -0.011823177
0.76516521 -0.058301508 -0.0059828758
0.76770723 -0.01614058 -0.023088932
0.75828218 -0.057284534 -0.0001449585
0.76056522 -0.014929533 -0.015605927
0.7514202 -0.056275547 0.0056419373
0.74633318 -0.012512565 -0.00066280365
0.76021123 -0.11604959 -0.095789909
0.7397092 -0.01177454 0.0035710335
0.73170018 -0.054095566 0.017465115
0.73318118 -0.011127532 0.0071868896
0.72531718 -0.053553522 0.02020216
0.74115419 -0.11478657 -0.090384007
0.7189402 -0.053011596 0.022941113
0.72017622 -0.0098595619 0.014256001
0.71369421 -0.0092355609 0.017729282
0.7297132 -0.11533159 -0.095533848
0.70620918 -0.051935613 0.028389931
0.7073012 -0.0086975694 0.020616055
0.7239902 -0.11560959 -0.098132133
0.69999617 -0.051555574 0.030076981
0.70100719 -0.0082565546 0.022842884
0.6937902 -0.051177561 0.031763077
0.68758821 -0.050799549 0.033445835
0.70681119 -0.11645454 -0.10598087
0.68139923 -0.05043155 0.03507328
0.68216121 -0.00693959 0.029509068
0.70108223 -0.11674052 -0.10861778
0.67521721 -0.050068557 0.036674976
0.67589021 -0.0065025687 0.031726837
0.66903722 -0.049705565 0.038278103
0.6896162 -0.11732155 -0.11392689
0.66286421 -0.049343526 0.039876938
0.6566962 -0.048983514 0.041474819
0.67814422 -0.11791152 -0.11927176
0.65087622 -0.0047815442 0.040475845
0.67240322 -0.11820656 -0.12194014
0.6443702 -0.04826659 0.044668198
0.63821518 -0.047909558 0.046262264
0.6384142 -0.0039415359 0.044737816
0.63206422 -0.047553599 0.047853947
0.63219219 -0.0035245419 0.046864986
0.6259172 -0.047198594 0.049446106
0.6494112 -0.11940759 -0.13269186
0.61977518 -0.046844542 0.051034927
0.61976421 -0.0026915669 0.051116943
0.6136362 -0.046491563 0.052623272
0.6379022 -0.12002259 -0.1381278
0.6075052 -0.046143591 0.054185867
0.60116118 -0.0014505386 0.057483196
0.62638521 -0.12064558 -0.14359617
0.59497023 -0.0010385513 0.059603214
0.62062317 -0.12096053 -0.14634609
0.58916318 -0.045136511 0.058659077
0.58878422 -0.0006275773 0.061719894
0.58305722 -0.04480356 0.060144901
0.58887023 0.02984041 0.012804031
0.57695621 -0.044471562 0.061631203
0.57644022 0.00017744303 0.065862179
0.58230019 0.030632436 0.017789841
0.57085919 -0.044140518 0.063116074
0.57576519 0.031396449 0.022572994
0.56476623 -0.043810546 0.064599037
0.56412423 0.00097042322 0.069942951
0.56937319 0.032004416 0.026245117
0.55867523 -0.043480575 0.066081047
0.55797118 0.0013664365 0.071982861
0.55259019 -0.043152511 0.067562103
0.55182618 0.0017604232 0.074020863
0.55661023 0.033219457 0.0335989
0.54650921 -0.04282552 0.069042206
0.54568517 0.0021534562 0.076056004
0.54043221 -0.042499602 0.070518017
0.53954917 0.0025454164 0.078091145
0.53436923 -0.042189538 0.071894169
0.53139722 0.035374463 0.046390057
0.52225918 -0.041575611 0.074625969
0.5211702 0.0037154555 0.08418417
0.5089432 0.0044904351 0.0882411
0.50412118 -0.040662587 0.078709126
0.50284821 0.0048594475 0.090149879
0.49808317 -0.04036051 0.08006525
0.49676722 0.0052184463 0.091990948
0.50020123 0.037842453 0.060885906
0.49069017 0.0055764318 0.09383297
0.49399418 0.038316429 0.063664913
0.48601919 -0.03976053 0.082770824
0.48461819 0.0059324503 0.095671177
0.48779321 0.038789451 0.066442013
0.4799912 -0.039461553 0.084124088
0.47854823 0.0062884688 0.097508907
0.47248518 0.0066424608 0.099346161
0.46797621 -0.038906515 0.08656311
0.46926421 0.040155411 0.074410915
0.4631092 0.040596426 0.076975822
0.4559772 -0.038359582 0.088973045
0.4499802 -0.038086593 0.090177059
0.44467819 0.041911423 0.084652901
0.43619722 0.0087504387 0.11033821
0.43854719 0.042347431 0.087210178
0.43016517 0.0090974569 0.11216402
0.43242121 0.042783439 0.089765072
0.42603618 -0.037011564 0.094954014
0.42413622 0.0094454288 0.11399317
0.4200772 -0.036773503 0.095954895
0.41811919 0.0097814202 0.11575222
0.42021418 0.043610454 0.094578266
0.41412222 -0.036536515 0.096953869
0.41411918 0.044022441 0.096977234
0.40609717 0.010451436 0.11926794
0.40803021 0.044433415 0.099376202
0.40221918 -0.036067545 0.098946095
0.4000932 0.01078546 0.12102413
0.4019472 0.044843435 0.10177422
0.39627022 -0.035833538 0.099939823
0.39409119 0.011117458 0.12277889
0.3903262 -0.035601556 0.10093212
0.38372618 0.046066463 0.10895824
0.37611622 0.012109458 0.12803507
0.37256223 -0.034996569 0.10332394
0.37013119 0.012438416 0.12978601
0.36415118 0.012766421 0.1315341
0.36075521 -0.034635544 0.104671
0.35817617 0.013093412 0.13328218
0.35954022 0.047634423 0.11814785
0.35187918 0.01394546 0.13867903
0.34896523 -0.034292579 0.10591125
0.34573323 0.014566422 0.14248514
0.34644222 0.050034463 0.13445711
0.34311318 -0.034194589 0.10605288
0.34021819 0.050754428 0.13914919
0.33327818 0.016112447 0.152215
0.32694823 0.017082453 0.15845728
0.3242172 -0.031505585 0.12242603
0.32107317 0.053774416 0.15948009
0.30421323 0.072086453 0.29132509
0.31305319 -0.032221556 0.11669207
0.2973302 0.038512468 0.30591726
0.2979812 0.073086441 0.29808617
0.30747521 0.094955444 0.18382025
0.29135221 0.039141417 0.30982494
0.2998212 0.098066449 0.20680714
0.28623819 0.073921442 0.30319881
0.29304123 0.099820435 0.21956587
0.27979523 0.039725423 0.31296921
0.28665119 0.10096645 0.22774696
0.29068822 -0.033683538 0.10509396
0.27494621 0.074006438 0.30290508
0.26882923 0.039248466 0.30875826
0.26945817 0.07377243 0.30076694
0.26810718 0.10349143 0.24544096
0.27387822 -0.034801543 0.096297264
0.25250119 0.03826046 0.30058813
0.25313419 0.07277745 0.29226923
0.26265121 -0.035559595 0.090378284
0.24767621 0.072460413 0.28955126
0.25024319 0.10498542 0.25541115
0.24159621 0.037599444 0.29514694
0.24578021 -0.03669852 0.081516266
0.23067923 0.036925435 0.28963423
0.23275022 0.10590541 0.26110125
0.22521622 0.03658241 0.28684092
0.22573723 0.071310461 0.27957821
0.21975122 0.036238432 0.28404713
0.22122721 0.10629046 0.2631979
0.21425422 0.035948455 0.28163195
0.21456121 0.071097434 0.27724123
0.2232372 -0.038261592 0.069467068
0.2085752 0.036030412 0.28180695
0.21779521 -0.039106548 0.06344986
0.20323421 0.07117945 0.27705097
0.20416422 0.10647541 0.26340914
0.21236323 -0.039996564 0.057128906
0.19726421 0.03609544 0.28149319
0.1985362 0.10641646 0.26258516
0.2069212 -0.040889561 0.050801277
0.19165422 0.036031425 0.28067017
0.19235523 0.10746247 0.27010393
0.18604322 0.035966456 0.2798481
0.18654622 0.10778642 0.27217197
0.19601022 -0.042681515 0.038108826
0.18047522 0.035802424 0.27834082
0.18012021 0.072324455 0.28383398
0.18060921 0.10837644 0.27626419
0.19053821 -0.043581545 0.031744957
0.1741202 0.073103428 0.28911686
0.17460321 0.10912544 0.28155899
0.18505822 -0.044482529 0.025372028
0.16813321 0.073881447 0.29438686
0.17956822 -0.045386612 0.018988132
0.16262423 0.11061841 0.29211807
0.15838821 0.034659445 0.26895905
0.1561902 0.075430453 0.30490303
0.16855921 -0.047202528 0.0061841011
0.1529002 0.034271419 0.26591682
0.1506872 0.11210245 0.30263996
0.14428721 0.076972425 0.31538296
0.15735723 -0.048640549 -0.004087925
0.13835122 0.077739418 0.32061005
0.15155323 -0.048861563 -0.0059018135
0.13669123 0.032395422 0.25186014
0.13285722 0.11431545 0.31835794
0.14564623 -0.048817575 -0.0059480667
0.1313502 0.031572461 0.24580622
0.1265112 0.079268456 0.33103514
0.12693422 0.11504847 0.32357883
0.13963123 -0.048488557 -0.0040888786
0.12599923 0.030747414 0.23973989
0.12102123 0.11578041 0.32879305
0.13345321 -0.047699511 0.00084209442
0.1206402 0.029919446 0.23366499
0.11140423 0.089084446 0.40148687
0.11141123 0.12542844 0.40136528
0.11501522 0.029768467 0.2323041
0.10496022 0.091403425 0.41797686
0.1053182 0.12679142 0.41135883
0.099067226 0.092367411 0.42465782
0.093313202 0.092997432 0.42893219
0.093721226 0.12816441 0.42114305
0.097135201 0.032081425 0.24750614
0.098895207 -0.049976528 -0.016177177
0.085265204 0.03361243 0.25759506
0.076436207 0.093946457 0.43495607
0.079345211 0.034375429 0.26262712
0.070893213 0.094049454 0.43543196
0.071348205 0.12897342 0.42614317
0.073519215 0.034876466 0.26584625
0.065410212 0.093983412 0.43468428
0.065863207 0.12888944 0.42523718
0.068148211 0.034017444 0.25959492
0.059940204 0.093875468 0.43364191
0.075812206 -0.051659524 -0.028521061
0.054531202 0.093584418 0.43127489
0.057376221 0.032293439 0.24705696
0.04963623 0.12796646 0.41749191
0.058282211 -0.052358568 -0.033974171
0.052452222 -0.052654564 -0.036204815
0.033267215 0.091083467 0.41217804
0.040809229 -0.053352535 -0.041348934
0.029981211 0.028942466 0.22248888
0.022686228 0.089501441 0.40025091
0.034996226 -0.053765595 -0.044340134
0.024401203 0.028539419 0.2194519
0.017380223 0.088707447 0.3942709
0.017839208 0.12357044 0.38284016
0.029180214 -0.054178536 -0.047328949
0.011975214 0.088228464 0.39057922
0.012373224 0.12328345 0.38045216
0.023384228 -0.05468756 -0.050949097
0.013230219 0.027728438 0.21335411
0.0065432191 0.087821424 0.38741398
0.0069742203 0.12275141 0.37621117
0.017589226 -0.055227578 -0.054780006
0.007638216 0.027320445 0.21028996
0.0012752116 0.086796463 0.379776
0.011789218 -0.055770576 -0.058616161
-0.0022507906 0.079166412 0.32427311
-0.0018227845 0.11439341 0.31259823
0.0060072094 -0.056427538 -0.063208103
-0.0072207898 0.11359441 0.30635595
-0.013033777 0.077492416 0.31174183
-0.0055587888 -0.057817519 -0.072885036
-0.014779791 0.025667429 0.19795609
-0.018251777 0.11279845 0.29994106
-0.020395786 0.025249422 0.19485092
-0.024290785 0.077616453 0.3122611
-0.02404578 0.11347747 0.30488491
-0.026017785 0.024829447 0.19173527
-0.030069783 0.078321457 0.31718588
-0.02983278 0.11415446 0.30982304
-0.031643778 0.024407446 0.18861198
-0.035607785 0.11482942 0.31475306
-0.034311786 -0.062843502 -0.10733795
-0.042909786 0.023557425 0.18234015
-0.052257791 0.077135444 0.30790329
-0.051917791 0.11243045 0.29609728
-0.045715779 -0.065832555 -0.12760496
-0.05419679 0.022700429 0.17603207
-0.05770278 0.076282442 0.30155611
-0.063157782 0.075426459 0.29519892
-0.06289278 0.11106044 0.28542709
-0.056964785 -0.070095599 -0.156353
-0.065502778 0.021834433 0.16968918
-0.069199786 0.07761246 0.31089306
-0.062398791 -0.073577583 -0.17971516
-0.07116279 0.021398425 0.16650391
-0.075128779 0.079327464 0.32318592
-0.074795783 0.11435246 0.31002522
-0.080282778 0.11365145 0.30458784
-0.07431978 -0.074629605 -0.18702888
-0.082500786 0.020521462 0.16010523
-0.08630079 0.079112411 0.32135487
-0.080290779 -0.075140536 -0.19057417
-0.09176378 0.078252435 0.31498814
-0.090977788 0.11048144 0.28034019
-0.086267784 -0.07565552 -0.19414473
-0.096547782 0.11005545 0.27699709
-0.079048783 -0.17211658 -0.52495813
-0.092249781 -0.076174557 -0.19773388
-0.10205878 0.10922045 0.27055883
-0.098239779 -0.076696575 -0.201334
-0.10523579 0.018742442 0.14720297
-0.10758278 0.10838342 0.26410913
-0.091577783 -0.17336255 -0.53318691
-0.10423379 -0.077219546 -0.20494413
-0.11334679 0.072066426 0.26966429
-0.11311579 0.10754347 0.25764704
-0.11029379 -0.077251613 -0.20526695
-0.11887979 0.07119143 0.26321411
-0.11645178 -0.076449573 -0.2000308
-0.12234178 0.017386436 0.13742924
-0.12442479 0.070313454 0.25675106
-0.12421378 0.10585743 0.24468708
-0.11032379 -0.17610759 -0.55109596
-0.13377479 0.016473413 0.13086796
-0.13554779 0.068551421 0.24378586
-0.13535778 0.10416245 0.23167419
-0.13949779 0.016013443 0.12757206
-0.14112578 0.067667425 0.23728514
-0.14094579 0.10331142 0.22514915
-0.14098978 -0.073262513 -0.17916203
-0.14522678 0.015549421 0.12425709
-0.14641878 0.10127342 0.20964813
-0.15320379 -0.071681559 -0.16877699
-0.15670279 0.01461643 0.11760187
-0.15781578 0.063761413 0.20873404
-0.16244879 0.014153421 0.11430216
-0.16330679 0.098696411 0.18993425
-0.16819978 0.013680458 0.11094618
-0.16895778 0.097832441 0.18333817
-0.17395578 0.013203442 0.10756016
-0.17473778 0.061068416 0.18901825
-0.17461979 0.096966445 0.17673016
-0.17971879 0.01273042 0.10420895
-0.18029378 0.096098423 0.17010593
-0.18339679 -0.071153581 -0.165555
-0.18548879 0.012251437 0.10081911
-0.18940079 -0.071704566 -0.16927671
-0.19126278 0.011771441 0.097430229
-0.19176379 0.058353424 0.16918421
-0.19704178 0.011289418 0.094033241
-0.19746079 0.05744344 0.16254711
-0.19738479 0.093478441 0.15015984
-0.20142779 -0.072814524 -0.17675495
-0.20310478 0.092601418 0.14348507
-0.20745279 -0.073373616 -0.18051004
-0.21462278 0.054697454 0.14255524
-0.21457979 0.090837419 0.13009405
-0.21951878 -0.074498594 -0.18805408
-0.22556178 -0.0750646 -0.19184303
-0.22612178 0.052855432 0.12916183
-0.23187779 0.088174462 0.10990906
-0.23766878 -0.076204598 -0.19945288
-0.23766878 0.0078584552 0.069980145
-0.23766878 0.051002443 0.11571503
-0.23766878 0.087282419 0.10315323
-0.24373078 -0.076777518 -0.20327616
-0.24345878 0.050071418 0.10897112
-0.24980079 -0.07735461 -0.20710993
-0.24932878 0.0068614483 0.063044071
-0.24926078 0.04913944 0.10221481
-0.25587678 -0.077932537 -0.21095514
-0.25516778 0.0063604116 0.059557915
-0.2550748 0.048203468 0.095444202
-0.25516978 0.081420422 0.058825016
-0.26101577 0.0058564544 0.056062222
-0.26100779 0.081338465 0.058220863
-0.26686677 0.0053504109 0.052562237
-0.2741468 -0.079683602 -0.22255898
-0.27272478 0.0048434138 0.049053192
-0.27264678 0.082089424 0.063953876
-0.28025079 -0.080272615 -0.22644997
-0.27858979 0.0043224692 0.045451164
-0.27845079 0.044436455 0.068222046
-0.27849677 0.081655443 0.060709
-0.2863608 -0.080863535 -0.23035192
-0.28445977 0.0038134456 0.041941166
-0.2843248 0.04348743 0.061383247
-0.29033878 0.0032964349 0.038380146
-0.2902118 0.042536438 0.054528236
-0.29021379 0.080794454 0.054273129
-0.2961098 0.041582465 0.047660828
-0.30473578 -0.082648575 -0.24210691
-0.30211079 0.0022654533 0.031293869
-0.30195278 0.079923451 0.047788143
-0.30800679 0.0017424226 0.027701855
-0.30794278 0.039667428 0.033886909
-0.30783078 0.079491436 0.044571877
-0.31702179 -0.08385855 -0.25004292
-0.3139118 0.0012154579 0.024096966
-0.31387877 0.038706422 0.026978016
-0.31371579 0.079057455 0.04135704
-0.32317379 -0.084460557 -0.25399113
-0.31982079 0.00068742037 0.020483971
-0.31982577 0.037742436 0.020057201
-0.31987077 0.075746417 0.016377926
-0.32936877 -0.085467517 -0.26062584
-0.32578579 0.03677541 0.013121128
-0.33225578 0.030884445 -0.029517174
-0.3418048 -0.087595522 -0.27464581
-0.3382718 0.029906452 -0.036520958
-0.34410477 -0.0067365766 -0.030948162
-0.35034379 0.027942419 -0.05057478
-0.36055478 -0.090810597 -0.29578495
-0.35617679 -0.0087765455 -0.044976711
-0.35639778 0.026956439 -0.05762291
-0.36223277 -0.0098015666 -0.05201292
-0.36246479 0.025968432 -0.064686775
-0.37312376 -0.093002617 -0.31017494
-0.37941179 -0.093992531 -0.31665802
-0.37598979 -0.023341537 -0.14617872
-0.38566479 -0.09464258 -0.32086611
-0.38164479 0.017054439 -0.12896585
-0.39192277 -0.095282614 -0.3249979
-0.39818877 -0.095923603 -0.32913208
-0.39429277 -0.025015533 -0.15746307
-0.3939718 0.015039444 -0.14331007
-0.40446377 -0.096564591 -0.33326483
-0.40653276 -0.026146531 -0.16506672
-0.41266379 -0.026726544 -0.16895485
-0.41256177 0.011996448 -0.16493893
-0.4187848 0.010976434 -0.17217779
-0.42494977 -0.02788955 -0.17675209
-0.42502278 0.0099534392 -0.17943382
-0.4311018 -0.028468549 -0.1806159
-0.43127179 0.0089274645 -0.18670416
-0.43726179 -0.029048562 -0.18448782
-0.44381177 0.0068674684 -0.20128918
-0.44969979 -0.03067559 -0.19546986
-0.45010179 0.0058324337 -0.20860577
-0.45599279 -0.03175056 -0.20277786
-0.45640677 0.0047954321 -0.21594
-0.4622978 -0.032828569 -0.21009684
-0.46272379 0.003754437 -0.22328711
-0.46861577 -0.033909559 -0.21743202
-0.47494876 -0.034994543 -0.22478294
-0.48765579 -0.037171543 -0.2395339
-0.49402881 -0.038265526 -0.24693394
-0.50031781 -0.038984597 -0.25171375
-0.50680381 -0.0017135739 -0.26140594
-0.5185228 -0.038588583 -0.24825096
-0.53137177 -0.040801585 -0.26316118
-0.53193581 -0.0039485693 -0.27661896
-0.5378198 -0.041912615 -0.2706461
-0.53839678 -0.0050205588 -0.28412771
-0.54427981 -0.043026507 -0.27814102
-0.55724376 -0.045264542 -0.2931838
-0.55785978 -0.0082555413 -0.30675173
-0.56374681 -0.046388566 -0.3007288
-0.56437576 -0.009339571 -0.31432581
-0.57090878 -0.010427535 -0.32191896
-0.57745379 -0.011518538 -0.32952785
-0.58334476 -0.049779594 -0.32347012
-0.59202278 -0.057019532 -0.37358618
-0.59992278 -0.022283554 -0.40657997
-0.60524678 -0.05924958 -0.38848495
-0.60661077 -0.023483574 -0.41495419
-0.61187977 -0.060369551 -0.39595795
-0.61852676 -0.061491549 -0.40344715
-0.6267978 -0.027171552 -0.44066811
-0.63186681 -0.063747585 -0.41847897
-0.63358676 -0.028469563 -0.44972515
-0.63855779 -0.06488055 -0.42601776
-0.64526379 -0.066016614 -0.43357277
-0.6472128 -0.03107655 -0.46789694
-0.65405279 -0.032385588 -0.47701502
-0.65872079 -0.068298519 -0.4487381
-0.66547281 -0.06944555 -0.45634985
-0.66778678 -0.035012543 -0.4952898
-0.6746788 -0.036329567 -0.50444412
-0.68581581 -0.072904527 -0.47927999
-0.6926288 -0.074065506 -0.48696089
-0.69547778 -0.040332615 -0.53224802
-0.70257777 -0.041957557 -0.5436058
-0.7168448 -0.04522258 -0.56641197
-0.72697181 -0.080034554 -0.52643394
-0.75473177 -0.084872544 -0.55833673
-0.77571982 -0.088539541 -0.58245707
-0.78274781 -0.089768589 -0.59053183
-0.7897948 -0.091002524 -0.59862804
-0.79685682 -0.092238605 -0.60674191
-0.80393481 -0.09347862 -0.61487389
-0.81102878 -0.094722569 -0.62302399
-0.83241481 -0.098477542 -0.64759302
-0.8467558 -0.10099858 -0.66406679
-0.86116582 -0.10353655 -0.6806221
-0.86839682 -0.10481054 -0.68892717
-0.87564379 -0.10608858 -0.6972518
-0.89020681 -0.10867959 -0.71412897
-0.90485477 -0.11131257 -0.73126793
-0.91220582 -0.11263555 -0.73986816
-0.91957682 -0.11396259 -0.74849081
-0.92696381 -0.11529356 -0.75713205
-0.9343698 -0.11662859 -0.76579618
-0.94772577 -0.1769076 -0.83783579
-0.94179279 -0.11796659 -0.77447891
-0.96113181 -0.17717952 -0.83839273
-0.9758268 -0.17944759 -0.85216713
-0.97167379 -0.12336355 -0.80942678
-0.98319679 -0.18058652 -0.85908079
-0.99058378 -0.18172961 -0.86601496
-0.98555881 -0.12438351 -0.81521702
-0.99169677 -0.12372261 -0.80997181
-1.0053998 -0.18402761 -0.87993479
-0.99782783 -0.12306255 -0.80473375
-1.0100688 -0.12174755 -0.79427099
-1.0222777 -0.12043756 -0.78383112
-1.0344567 -0.11913556 -0.773417
-1.0416858 -0.12003559 -0.77895975
0.7758944 -0.018414795 -0.035120487
0.76405144 -0.058622897 -0.0059351921
0.76895142 -0.015295744 -0.024618626
0.76050633 -0.056891859 -0.00015115738
0.76103801 -0.015679359 -0.014625072
0.75157446 -0.054719031 0.0054140091
0.7383827 -0.055280507 0.016061783
0.73986477 -0.0096927881 0.0036096573
0.75236571 -0.1147241 -0.08687067
0.73201942 -0.053931892 0.016573906
0.73416662 -0.0098103881 0.0058135986
0.71933717 -0.05210644 0.022830009
0.72095543 -0.010254383 0.015479565
0.73569775 -0.11446649 -0.093037605
0.71107221 -0.050530851 0.024740219
0.70537508 -0.052532971 0.029807568
0.70520425 -0.008725822 0.022230625
0.7255283 -0.11658365 -0.096793175
0.70150113 -0.0097507834 0.022139072
0.71873528 -0.11623913 -0.1004653
0.6930964 -0.050671399 0.031101227
0.68781453 -0.05011183 0.03472662
0.70812839 -0.11601633 -0.10445309
0.6817584 -0.051654398 0.033953667
0.69605541 -0.11696082 -0.11120701
0.67113191 -0.049740016 0.037929058
0.66996586 -0.0053198934 0.032689571
0.66181099 -0.050065577 0.03874445
0.66271877 -0.005430162 0.034969807
0.68453455 -0.11760563 -0.11611462
0.65494573 -0.048616588 0.041812897
0.65146065 -0.050314009 0.044145107
0.65149963 -0.0052793622 0.042508125
0.67220575 -0.11838514 -0.12386799
0.64494729 -0.04913038 0.044784546
0.6442036 -0.0051009655 0.044296265
0.63960773 -0.0048293471 0.045387268
0.66010571 -0.11827153 -0.1270628
0.63132393 -0.0038833618 0.047430515
0.62695128 -0.0043441057 0.049949646
0.61949587 -0.0016660094 0.051887512
0.61497915 -0.0020439029 0.052959442
0.63846511 -0.12008935 -0.13538551
0.60674715 -0.046651781 0.055309296
0.60366529 -0.0016345978 0.058245182
0.62689042 -0.1212545 -0.14412212
0.5952701 -0.046525657 0.056227207
0.59460723 -0.0012378097 0.060094357
0.59453487 0.027653575 0.0037565231
0.61395925 -0.1226688 -0.14936781
0.58316672 -0.0017936826 0.064544201
0.61001211 -0.12135822 -0.1521101
0.57549536 -0.042879403 0.059589863
0.57759404 -0.00019186735 0.064716339
0.58152026 0.031983972 0.018606663
0.56963366 0.0012535453 0.068313599
0.57514566 0.031326532 0.021104336
0.56463361 -0.044627249 0.064360142
0.56907016 0.031780541 0.027732372
0.56417364 0.030889213 0.029577732
0.55325568 -0.043243349 0.066280842
0.5542028 0.0023180842 0.075713158
0.55797911 0.032708943 0.034231186
0.54974049 0.034859478 0.037141323
0.53995329 0.0036236644 0.077383518
0.54294223 0.033080101 0.040628433
0.53364688 -0.041866362 0.072808743
0.53412813 0.0016476512 0.079698086
0.53585702 0.034196794 0.041931152
0.52732569 0.0030242801 0.080666542
0.52993262 0.034488916 0.04747057
0.52198273 0.0043022037 0.085161209
0.52625006 0.034826458 0.049614906
0.51742065 -0.039998353 0.077521801
0.52023607 0.037438095 0.053133011
0.51175511 0.035809755 0.0557127
0.50503623 -0.041705668 0.078190327
0.5050959 0.037493467 0.057998657
0.49685484 -0.040348113 0.081020832
0.50128019 0.037981093 0.060991287
0.49223977 -0.039973676 0.082150936
0.4943682 0.038779199 0.06347847
0.48630923 0.03944242 0.066330433
0.47872734 -0.039146841 0.084512711
0.48336458 0.040398061 0.070926666
0.47669828 0.03977108 0.07083559
0.46853477 0.039072454 0.074146748
0.46049935 -0.039176166 0.08807373
0.46166581 0.0094934702 0.10163212
0.45715463 -0.039045274 0.088280201
0.4545266 0.0083649755 0.10653496
0.44872248 0.0065416098 0.10655832
0.44381285 -0.037080705 0.092075825
0.44264752 0.008153975 0.10682726
0.43724215 0.042828023 0.086704254
0.43184054 0.010011673 0.11148977
0.43251425 0.043165684 0.088218689
0.42655563 -0.03562516 0.093685627
0.4239344 0.0093851686 0.11544228
0.41959631 -0.03590709 0.09565115
0.41854227 0.010043681 0.11556435
0.41845334 0.044575214 0.094903469
0.41152227 0.0096133947 0.11706161
0.41455716 0.042898178 0.096524239
0.40783852 -0.036842406 0.10005569
0.40794665 0.043896794 0.097626209
0.40266824 0.045425475 0.10123539
0.39530176 0.010072947 0.12358093
0.38387215 -0.035247862 0.10132551
0.38170964 0.011220813 0.12641335
0.3830955 0.045853078 0.10728264
0.37333363 -0.034968913 0.10297441
0.37172854 0.046025276 0.11198854
0.36802447 -0.033712506 0.10358858
0.36482149 0.047933698 0.11475801
0.36160904 -0.033563972 0.10497761
0.35694629 0.014250517 0.13337421
0.3489601 -0.035321176 0.10694551
0.34562671 0.04865104 0.13438368
0.34284371 -0.034359992 0.10757399
0.34006691 0.052372277 0.13967562
0.33694303 -0.030630648 0.12846041
0.33312523 0.016221464 0.15141678
0.33000779 -0.031482041 0.12424946
0.32823628 0.015579939 0.1561904
0.32871217 0.051258564 0.1515398
0.32322276 -0.032215357 0.12221909
0.31963861 0.018626213 0.1663909
0.31848603 -0.031507075 0.11985922
0.30322462 0.036706269 0.29776335
0.30375051 0.070761144 0.29115582
0.2962665 0.038404167 0.30695915
0.29865408 0.07319653 0.29677343
0.29145974 0.073446453 0.30112505
0.30104107 0.09762013 0.20683289
0.28856885 0.074004233 0.30591583
0.29448354 0.10038233 0.21891403
0.29687864 -0.032608151 0.10851192
0.27876961 0.040266514 0.31265354
0.27987123 0.073906124 0.30199242
0.28574592 0.10032648 0.22790051
0.29112422 -0.035214603 0.1051321
0.27350509 0.039136112 0.31229353
0.27693003 0.074481368 0.3025651
0.28182137 0.10307121 0.23538017
0.28550082 -0.032710671 0.10391855
0.26955307 0.040001571 0.30855274
0.26905501 0.072679162 0.30028963
0.26362461 0.038061738 0.30679083
0.26740837 0.10198623 0.24559736
0.27320093 -0.033908129 0.096146584
0.25871229 0.038937986 0.30081987
0.26058996 0.104505 0.24879265
0.25224626 0.072168708 0.29315853
0.25142109 0.10379052 0.25330114
0.25748318 -0.036587894 0.089514732
0.24203263 0.071530342 0.28601313
0.24620692 0.10482264 0.25654459
0.25211561 -0.037502229 0.083825588
0.23632918 0.072002769 0.28228664
0.23229457 0.10631013 0.2594924
0.22470419 0.036492467 0.28622627
0.23349328 -0.037132561 0.076632977
0.22076161 0.070663333 0.2757988
0.22868393 -0.03874141 0.071909904
0.21367721 0.071772039 0.27685165
0.21844949 -0.040194809 0.063918591
0.20328017 0.03691709 0.28025484
0.20360215 0.070860505 0.27735472
0.21348114 -0.03777343 0.055247307
0.1971442 0.036578417 0.28103113
0.1970755 0.070028365 0.27699947
0.19167261 0.037976861 0.28160191
0.19327946 0.071592569 0.27989101
0.20119201 -0.041280448 0.043894291
0.18480439 0.034790277 0.2803297
0.18487455 0.070778787 0.28047991
0.1852607 0.10727388 0.27250481
0.1955664 -0.041015089 0.038316727
0.18062897 0.03416425 0.27682829
0.19045819 -0.042779744 0.030408382
0.175669 0.10916752 0.28172398
0.18511207 -0.043222368 0.024906635
0.16955225 0.033350885 0.2754035
0.16947185 0.074994981 0.29448986
0.16879271 0.10899699 0.28717661
0.16202526 0.075016737 0.29919434
0.16338874 0.10962248 0.29344845
0.17395686 -0.046179235 0.014054298
0.15887026 0.032892704 0.26834822
0.15544741 0.076891959 0.30564833
0.15558906 0.11201739 0.29832602
0.16952486 -0.048562706 0.0072050095
0.15326603 0.034733593 0.26438141
0.15117197 0.1138677 0.30481815
0.14584194 0.033236444 0.25979471
0.14498816 0.076144397 0.31532001
0.14511864 0.11370611 0.30727482
0.14130168 0.033959866 0.2561121
0.13855396 0.079050303 0.32022476
0.14095964 0.11244982 0.3138113
0.1512251 -0.047598183 -0.006670475
0.13202544 0.078947246 0.32501316
0.1326953 0.11490715 0.31622458
0.145748 -0.048634589 -0.0069622993
0.12618013 0.078795731 0.33074284
0.14044215 -0.047229946 -0.0045466423
0.12024109 0.077972651 0.33719492
0.12173702 0.11479831 0.32964563
0.13205738 -0.048470199 0.0021705627
0.12088747 0.028290272 0.23424482
0.11024429 0.090650976 0.40170574
0.10897718 0.12499863 0.40213919
0.12661375 -0.044505417 0.017852306
0.10497887 0.090924382 0.41969299
0.1068808 0.12499732 0.41061115
0.12298165 -0.047650754 0.014874935
0.099112943 0.090521812 0.42389679
0.099136636 0.1275689 0.41746044
0.11586852 -0.045558631 0.010035515
0.10464631 0.030595124 0.24340677
0.094638482 0.090295196 0.42939711
0.1034108 -0.046656072 0.0044074059
0.083500281 0.093789041 0.43420649
0.091634616 -0.050955594 -0.02397728
0.080478653 0.033625066 0.26042414
0.074182615 0.036240757 0.26598787
0.065713808 0.12742037 0.42429304
0.082573339 -0.05065006 -0.028673649
0.060589805 0.093205392 0.43451881
0.055010423 0.09206748 0.4299593
0.066656813 -0.051180184 -0.031123161
0.049532399 0.091796875 0.42962599
0.051325127 0.031755447 0.2421627
0.043758914 0.12801361 0.41320419
0.057743058 -0.052222788 -0.03441
0.052406684 -0.053817928 -0.037102222
0.04577817 -0.053970635 -0.036900997
0.040381745 -0.052013934 -0.040095806
0.022990182 0.12534046 0.38842344
0.024585947 0.029018402 0.22165012
0.017225906 0.088803828 0.39372158
0.018329874 0.12380362 0.3823781
0.012380973 0.088025808 0.38968801
0.012742057 0.12305981 0.38015318
0.0073070824 0.12159246 0.37662506
0.017550573 -0.055524647 -0.054812431
0.0081086904 0.027991652 0.21260309
0.0014092028 0.086158872 0.37906408
0.0034065545 0.11607116 0.318398
0.011820525 -0.05695504 -0.059268475
5.9127808e-05 0.024746537 0.20566988
-0.0026375353 0.079526246 0.32537365
0.0068630874 -0.056540549 -0.064302921
-0.0033598244 0.027113914 0.2037034
-0.008098945 0.11288452 0.30599451
-0.01128152 0.077406526 0.31197882
-0.0052310526 -0.056887329 -0.072012901
-0.013496608 0.026515305 0.19890261
-0.017855197 0.077369809 0.30822229
-0.018900394 0.11244482 0.30018473
-0.010162517 -0.060006082 -0.078647614
-0.023929119 0.11219609 0.30400372
-0.026044413 0.026454508 0.19262266
-0.031516582 0.077951431 0.31530094
-0.023473829 -0.060143888 -0.090241432
-0.032533392 0.024583876 0.18827915
-0.03763251 0.07666409 0.32289076
-0.033169463 0.11420959 0.31495047
-0.040626362 0.07806617 0.31995821
-0.041254655 0.11538547 0.30891132
-0.033448383 -0.06357342 -0.10697508
-0.043926999 0.022957563 0.18032217
-0.039529651 -0.064344704 -0.11665583
-0.051432565 0.11301517 0.29517555
-0.047411531 -0.064154685 -0.1274209
-0.05407232 0.022958875 0.17597389
-0.051523685 -0.067805588 -0.14055634
-0.058289379 0.022375166 0.17333078
-0.064047262 0.07445544 0.2950902
-0.062588722 0.1110695 0.28629065
-0.064122796 0.021215856 0.17034054
-0.063631728 -0.073645294 -0.17928505
-0.072775826 0.021674395 0.16611671
-0.075520694 0.078821003 0.32244825
-0.068049133 -0.07297343 -0.18324757
-0.080922335 0.078293741 0.32643652
-0.078741327 0.11344284 0.30469036
-0.073928237 -0.073933184 -0.18714571
-0.08235614 0.019832432 0.15939426
-0.084299162 0.080021262 0.32164192
-0.092856646 0.078397632 0.31432629
-0.090982839 0.11070293 0.28115892
-0.085137159 -0.0759812 -0.19301987
-0.093125045 0.018815219 0.15395737
-0.096792117 0.075278759 0.28813601
-0.079845473 -0.17192763 -0.52507448
-0.10031207 0.019279242 0.1490531
-0.099072129 -0.078221262 -0.20095921
-0.10398956 -0.077771246 -0.20460844
-0.11199544 0.072133601 0.26987839
-0.097320497 -0.17306596 -0.53965187
-0.1171199 0.018143594 0.14195728
-0.1179404 0.069241762 0.26251554
-0.11900587 0.10603887 0.2512188
-0.1038291 -0.17650944 -0.54469824
-0.11580125 -0.078383982 -0.20062542
-0.122443 0.01846683 0.1401453
-0.12478588 0.069633842 0.2565403
-0.1235723 0.10667729 0.24468565
-0.12212785 -0.075998724 -0.19406986
-0.12881896 0.069464147 0.25032187
-0.12982133 0.10318571 0.23787737
-0.1293526 -0.076175153 -0.19051933
-0.13551362 0.068097413 0.24339771
-0.13307977 0.10438329 0.23062706
-0.13470998 -0.074271977 -0.18455458
-0.13735294 0.014652431 0.12673187
-0.14289892 0.1032927 0.22560549
-0.14058407 -0.072889149 -0.17963934
-0.1468451 0.067353606 0.22329569
-0.15064684 0.014569402 0.12157869
-0.1512965 0.064354002 0.21554422
-0.15240687 -0.072279155 -0.16969109
-0.15609249 0.013551593 0.11710262
-0.15962891 -0.071670115 -0.16309214
-0.16176851 0.013795137 0.1127224
-0.16410241 0.062906921 0.20188046
-0.16841543 0.09958142 0.18250704
-0.17072657 -0.069094718 -0.15848875
-0.17424798 0.014851511 0.10842705
-0.17354077 0.060480654 0.18857288
-0.17344639 0.097763896 0.17745781
-0.1795585 0.013666987 0.10406208
-0.18105388 0.06084168 0.18282127
-0.17984068 0.096873164 0.16996717
-0.18490413 0.014064491 0.10233021
-0.19104385 0.060313523 0.17046976
-0.19064888 0.092605233 0.15800381
-0.19604836 -0.071804464 -0.17243433
-0.19698335 0.055775762 0.16286373
-0.20352793 0.011839628 0.091183186
-0.20176287 0.094922602 0.14385033
-0.20881975 0.01228106 0.087579727
-0.20788361 0.055760443 0.15019989
-0.20935723 0.09310174 0.13569689
-0.21248534 0.011641264 0.083742142
-0.21605179 0.055926561 0.14186382
-0.2147709 0.090934515 0.1296401
-0.21862884 -0.0749138 -0.18733883
-0.22078209 0.053671002 0.13589907
-0.22002402 0.092096508 0.12338638
-0.22639911 -0.074967325 -0.19091988
-0.2251779 0.0092912316 0.0765872
-0.22681782 0.052621424 0.13003349
-0.23176919 -0.076083601 -0.19623375
-0.23106346 0.08898145 0.11017847
-0.23780961 0.0087234378 0.069980145
-0.23727629 0.086392999 0.10308409
-0.24438432 -0.076623619 -0.20457125
-0.24436653 0.051986277 0.10901308
-0.24996559 -0.078534782 -0.20638609
-0.25122166 0.050642848 0.10094929
-0.25730604 -0.080008924 -0.21023607
-0.25621575 0.0052211285 0.059993267
-0.25420102 0.048168361 0.096045017
-0.25902742 0.046663702 0.088390827
-0.26846346 0.005684793 0.05418396
-0.26570615 0.081579864 0.064572334
-0.27212834 0.0045412779 0.050127506
-0.27402511 0.045728922 0.075231552
-0.2720252 0.080851376 0.062722206
-0.28179911 -0.081466854 -0.22673845
-0.27847296 0.044354498 0.068996429
-0.27774748 0.081195354 0.059010029
-0.28562227 -0.080560505 -0.22958183
-0.28392991 0.0056657195 0.043139458
-0.28446174 0.043944061 0.061664581
-0.28274637 0.081408024 0.057019711
-0.29229376 -0.082487762 -0.2334137
-0.28960326 0.0035434961 0.038369656
-0.29029277 0.081383526 0.05391264
-0.29839012 -0.081792295 -0.23653173
-0.29597414 0.0020458102 0.032131672
-0.29683799 0.042185009 0.045724392
-0.3013477 0.0017505884 0.030528069
-0.302167 0.039427459 0.040531635
-0.30165017 0.077798724 0.047590733
-0.3112607 -0.081196845 -0.24598074
-0.30842438 0.040237844 0.035046577
-0.30938056 0.078733444 0.045264244
-0.31749037 -0.084544361 -0.24941683
-0.31495595 0.00019180775 0.023456573
-0.31482062 0.039502263 0.02479744
-0.31343424 0.078855693 0.041955471
-0.32351214 -0.083360612 -0.25316668
-0.31818652 -0.00035846233 0.020459175
-0.31918555 0.038829327 0.019422054
-0.32919556 -0.084909022 -0.26130104
-0.32558089 0.0011542439 0.018100262
-0.32602021 0.074985683 0.010983944
-0.33451244 -0.085034907 -0.26784515
-0.33214578 -0.0053233504 -0.016283989
-0.33228248 0.029626906 -0.029087543
-0.33348683 0.064845383 -0.043813229
-0.33793023 -0.0042685866 -0.021865845
-0.33801973 0.029632807 -0.036709309
-0.33979005 0.06868577 -0.047742844
-0.34440622 -0.0079710484 -0.031207561
-0.3443746 0.027638614 -0.04362154
-0.34471571 0.065100014 -0.056219101
-0.34908018 -0.0094590783 -0.037491322
-0.36017913 -0.091869056 -0.29452038
-0.35609928 -0.0095314384 -0.045193672
-0.35662773 0.026018262 -0.056078911
-0.36635745 -0.091581404 -0.30415344
-0.36039707 -0.0092475414 -0.050611973
-0.36292624 0.026063919 -0.063366413
-0.36864054 -0.012711108 -0.059258938
-0.37813354 -0.094188035 -0.31691265
-0.37598121 0.017203331 -0.12386417
-0.38590333 -0.094362557 -0.32154608
-0.38232744 -0.022154212 -0.15020514
-0.38345355 0.018353522 -0.13011694
-0.38867825 -0.02546221 -0.154531
-0.3973453 -0.096505105 -0.33112907
-0.39388078 0.014862597 -0.1443429
-0.40177357 -0.024997413 -0.16152048
-0.40949687 -0.025282979 -0.16487503
-0.41262457 0.011942506 -0.16556454
-0.41918719 -0.026613414 -0.1710701
-0.41815758 0.011168838 -0.17168093
-0.42523977 -0.028219283 -0.17720175
-0.43134034 0.0088401437 -0.18650723
-0.43651214 0.0086488128 -0.19413614
-0.44599545 0.0063573122 -0.20199728
-0.45030379 0.0034760237 -0.2086935
-0.46824861 0.0026059747 -0.23032379
-0.47421321 -0.033069372 -0.22283697
-0.4888429 -0.039153755 -0.23846436
-0.48886955 -0.00046879053 -0.25212383
-0.49560463 -0.038258612 -0.24815559
-0.50104386 -0.040153682 -0.2512989
-0.50044459 -0.0019010305 -0.26339483
-0.50731814 -0.038184106 -0.25350332
-0.50681639 -0.00067007542 -0.26061773
-0.51309961 -0.039617479 -0.24986792
-0.51946735 -0.00069212914 -0.26069164
-0.52603441 -0.038667977 -0.25404453
-0.52504396 -0.0030427575 -0.26809835
-0.53031027 -0.0042275786 -0.27587032
-0.539783 -0.0050208569 -0.28243685
-0.54400688 -0.0069554448 -0.29173279
-0.54929698 -0.044953287 -0.28685188
-0.55153197 -0.0065555573 -0.29905701
-0.55886155 -0.0076227188 -0.30483866
-0.56390131 -0.046283782 -0.30147457
-0.5643869 -0.0093531609 -0.31456089
-0.56962234 -0.046852291 -0.30957937
-0.57645929 -0.048620164 -0.31550932
-0.57841474 -0.011297822 -0.32949257
-0.58222425 -0.050653279 -0.32105207
-0.58292937 -0.012767494 -0.336936
-0.59126806 -0.056111991 -0.3732934
-0.60034424 -0.023657382 -0.40705633
-0.60409462 -0.059627116 -0.38787842
-0.61274517 -0.060959637 -0.39553499
-0.61297876 -0.025288701 -0.42621422
-0.61956149 -0.06029743 -0.40359211
-0.62044823 -0.025950074 -0.43089676
-0.62575513 -0.065138519 -0.40879631
-0.63086253 -0.061882555 -0.41676521
-0.64556509 -0.0648399 -0.43385363
-0.65057826 -0.065543234 -0.44093227
-0.66075611 -0.033624291 -0.48702908
-0.6728375 -0.03715235 -0.50337267
-0.68091571 -0.038016021 -0.51358175
-0.6840086 -0.072094381 -0.4791646
-0.69371128 -0.073803365 -0.48822308
-0.69911319 -0.07547611 -0.49486732
-0.71745008 -0.045760214 -0.56587553
-0.72281593 -0.045469105 -0.57769632
-0.73488408 -0.081146181 -0.53624249
-0.75410998 -0.08480531 -0.55842161
-0.77558041 -0.08771199 -0.58287954
-0.78090465 -0.088828743 -0.58827686
-0.79033971 -0.091068685 -0.59692717
-0.81080049 -0.093822777 -0.62278843
-0.83993208 -0.098530233 -0.65521717
-0.8482883 -0.10157782 -0.66447592
-0.86212343 -0.10351747 -0.67971325
-0.86777586 -0.10607308 -0.68964243
-0.87560594 -0.10577625 -0.69702578
-0.88060945 -0.10660583 -0.70557165
-0.90506959 -0.11161441 -0.73246574
-0.91184336 -0.11313766 -0.73985863
-0.92136109 -0.11396056 -0.7494235
-0.9342016 -0.1152795 -0.76848078
-0.94556105 -0.17534035 -0.83778334
-0.94334501 -0.11779839 -0.77528763
-0.95594823 -0.1771037 -0.83688164
-0.94854867 -0.11991078 -0.78127432
-0.96049285 -0.17782456 -0.83750248
-0.96425802 -0.12210339 -0.80115652
-0.98201036 -0.18063837 -0.85984659
-0.98434657 -0.12608904 -0.81657267
-0.9974373 -0.18347305 -0.87203836
-1.0054131 -0.18335062 -0.87893248
-1.0035168 -0.12317199 -0.79986715
-1.0110965 -0.1229077 -0.79425049
-1.0156099 -0.12067479 -0.78923321
-1.0345979 -0.11880022 -0.77348804
