# .PCD v0.7 - Point Cloud Data file format
VERSION 0.7
FIELDS x y z
SIZE 4 4 4
TYPE F F F
COUNT 1 1 1
WIDTH 1
HEIGHT 1024
VIEWPOINT 0 0 0 1 0 0 0
POINTS 1024
DATA ascii
1.047814 0.2365368 -0.089308262
1.045923 0.18440276 -0.12015724
1.038952 0.18514282 -0.11454821
1.048636 0.12957376 -0.23043537
1.032236 0.18567979 -0.11071539
1.02553 0.18621379 -0.10689259
1.024814 0.2671138 -0.10163021
1.027728 0.3109268 -0.12304735
1.034055 0.13155979 -0.2156744
1.018831 0.18674576 -0.10307646
1.018696 0.26715177 -0.10208035
1.027004 0.13235676 -0.20990849
1.010761 0.23710877 -0.088978291
1.004626 0.23717481 -0.089183331
1.01416 0.3595708 -0.16063547
1.012942 0.13394278 -0.19841242
1.000353 0.26726377 -0.10343027
1.003191 0.31106877 -0.1248455
0.99296397 0.1881358 -0.094203472
0.99235696 0.23730278 -0.08959341
0.99705797 0.31110281 -0.12529516
0.99893194 0.1355198 -0.18696737
0.98622495 0.2373668 -0.089797497
0.98812497 0.26733679 -0.1043272
0.99092597 0.31113678 -0.12574434
0.98011094 0.23741579 -0.090128422
0.98497593 0.13708776 -0.17557144
0.97401196 0.23745281 -0.090574265
0.97590196 0.26740676 -0.10522318
0.97866398 0.31120276 -0.12664127
0.97801697 0.13786876 -0.16989136
0.96791399 0.23748779 -0.091023445
0.96979094 0.2674408 -0.10567236
0.97106993 0.13864678 -0.16422319
0.96123993 0.18941778 -0.086953163
0.95492399 0.18965679 -0.085636139
0.95571798 0.23755777 -0.091917515
0.95721895 0.1401968 -0.15292645
0.95145893 0.26754081 -0.10701323
0.95414597 0.31132877 -0.12843132
0.94239497 0.1900478 -0.083737373
0.94352597 0.23762578 -0.0928092
0.94534993 0.26757282 -0.1074605
0.94801795 0.31135881 -0.12887955
0.94341695 0.14173681 -0.14167643
0.93923998 0.26760477 -0.10790539
0.94188899 0.31138879 -0.12932444
0.93653595 0.1425038 -0.13606834
0.93133396 0.23769081 -0.093701363
0.92966694 0.14326876 -0.13047457
0.92523897 0.2377218 -0.094148159
0.92963594 0.3114478 -0.13021851
0.92281199 0.14403081 -0.12489128
0.92091799 0.2676968 -0.10924339
0.92351097 0.3114748 -0.13067245
0.92875499 0.095545769 -0.22575855
0.91305196 0.2377848 -0.09503746
0.91481197 0.26772577 -0.10968828
0.91741794 0.31147677 -0.13138437
0.90913695 0.14554882 -0.11376333
0.90695697 0.23781478 -0.095481396
0.90870398 0.26775479 -0.11013222
0.91132295 0.31147879 -0.13209629
0.91432995 0.09774977 -0.20969152
0.90231895 0.14630377 -0.10821724
0.90259898 0.26778382 -0.11057758
0.90522999 0.31147981 -0.13280821
0.89561594 0.14695281 -0.10355234
0.89273298 0.19126081 -0.079010487
0.89477295 0.23787379 -0.09637022
0.89649397 0.26781178 -0.11102343
0.89913696 0.31148082 -0.13351917
0.88902599 0.14749378 -0.0997715
0.89038897 0.26783878 -0.11146641
0.89304298 0.31148082 -0.13423252
0.89361995 0.10016876 -0.19260216
0.88244194 0.1480338 -0.095997334
0.88258797 0.23792982 -0.097257137
0.88428295 0.26786578 -0.11190939
0.87593794 0.14849877 -0.092830181
0.87426198 0.19159079 -0.078237534
0.87649697 0.23795778 -0.097699165
0.87817997 0.26789278 -0.11235237
0.87040699 0.23798478 -0.098143578
0.87207597 0.26791877 -0.11279631
0.87487495 0.31138182 -0.13736057
0.87302595 0.10256577 -0.17562437
0.86317796 0.14918578 -0.088514328
0.86196399 0.19180179 -0.077770233
0.86618698 0.10336077 -0.16998959
0.85987097 0.26796877 -0.11368132
0.85043794 0.14986777 -0.084206581
0.84976596 0.19191182 -0.0781703
0.85376698 0.26799279 -0.11412334
0.85681397 0.31118077 -0.1415062
0.84413695 0.15014178 -0.082604408
0.84366995 0.19196481 -0.078371525
0.84574199 0.10572982 -0.15315437
0.83787197 0.15037876 -0.081298351
0.83995897 0.23811078 -0.10035229
0.84156394 0.26803976 -0.1150074
0.84489095 0.31093776 -0.14538336
0.83895195 0.10651577 -0.14756536
0.83147794 0.19207078 -0.078768253
0.83546299 0.26806277 -0.11544847
0.83898497 0.31076276 -0.14786434
0.83217299 0.10729879 -0.14198828
0.82535195 0.15085077 -0.078689575
0.82778198 0.23815781 -0.10123348
0.82540798 0.10807878 -0.1364255
0.81928897 0.19217479 -0.079167366
0.82325995 0.26810682 -0.11633015
0.81284797 0.15132082 -0.076083183
0.81560695 0.23820281 -0.10211325
0.82152098 0.3099848 -0.15790844
0.81191498 0.10963279 -0.12533236
0.80663794 0.15151179 -0.075128555
0.80715197 0.19222379 -0.080021381
0.81587398 0.30955577 -0.16300058
0.80045396 0.15167582 -0.074400425
0.80108494 0.19224578 -0.080459595
0.80343395 0.23824477 -0.10299349
0.80496198 0.26816881 -0.11765146
0.79846793 0.11117882 -0.11428738
0.79427093 0.15183878 -0.073673248
0.79734594 0.23826581 -0.10343218
0.79176396 0.11194777 -0.1087842
0.78809196 0.15200078 -0.072946548
0.79276198 0.26820779 -0.11853027
0.78507197 0.11271381 -0.10329437
0.78191495 0.15216279 -0.072218418
0.78666395 0.2682268 -0.11897039
0.77681994 0.19232881 -0.082211494
0.78056598 0.2682448 -0.11940956
0.77188593 0.11403382 -0.093993187
0.77075398 0.19234776 -0.082648277
0.77300298 0.23834181 -0.10518551
0.77446598 0.2682628 -0.1198473
0.76539797 0.11457777 -0.090257168
0.76691794 0.23835981 -0.1056242
0.76836896 0.26827979 -0.12028646
0.75730795 0.15270782 -0.070097446
0.75862396 0.19238478 -0.083521366
0.76083398 0.2383768 -0.10606146
0.75257099 0.11550277 -0.084071159
0.75118798 0.1528098 -0.069840431
0.75255996 0.19240278 -0.083957195
0.75474995 0.23839378 -0.10649729
0.74625897 0.11584377 -0.081935406
0.74506897 0.15291077 -0.069583416
0.74649495 0.19241977 -0.084393501
0.75014597 0.26825482 -0.12230635
0.73994994 0.11618382 -0.079799175
0.73895097 0.1530118 -0.069326401
0.74042994 0.19243681 -0.08482933
0.74258095 0.23842579 -0.10737133
0.74407196 0.26824278 -0.1230073
0.75283796 0.047029793 -0.21488619
0.73799998 0.26822978 -0.12370729
0.72672099 0.15321082 -0.068813324
0.73888898 0.049327791 -0.19874859
0.72433096 0.23846877 -0.10867929
0.72585797 0.26819879 -0.1251483
0.71454895 0.15333676 -0.068881512
0.71617395 0.19249678 -0.086568356
0.71984494 0.26811677 -0.12651014
0.72544998 0.050969779 -0.18751717
0.70871794 0.11755377 -0.071686268
0.70847994 0.1533798 -0.069078445
0.71011198 0.19250977 -0.087004185
0.70251298 0.1177848 -0.07039547
0.70404893 0.19252378 -0.087436199
0.70781595 0.26795077 -0.12923622
0.70179999 0.26786679 -0.13059855
0.69027698 0.15350479 -0.069662571
0.68420798 0.15354478 -0.069855213
0.68981093 0.2676388 -0.13389826
0.69206399 0.055031776 -0.15965128
0.67979795 0.19256979 -0.089169502
0.68175095 0.2385518 -0.11172152
0.68388397 0.26744181 -0.13634634
0.68542296 0.05583781 -0.15411234
0.67209697 0.15359581 -0.070480347
0.67566895 0.2385608 -0.11215639
0.67795295 0.2672438 -0.13879347
0.67879295 0.056640804 -0.14858627
0.66553998 0.11887181 -0.064885139
0.66605097 0.15360582 -0.070910454
0.66767395 0.19258982 -0.090034485
0.66958797 0.2385698 -0.11258841
0.66161096 0.19259882 -0.090466499
0.66618097 0.26672381 -0.14489746
0.65326798 0.11917877 -0.063444138
0.65554899 0.19260782 -0.09089756
0.65742695 0.23858279 -0.11349249
0.65897095 0.059035778 -0.13207436
0.64713597 0.11933178 -0.062722206
0.64791495 0.15363282 -0.072203159
0.64948797 0.19261479 -0.091328144
0.64342594 0.19262278 -0.091760159
0.63494998 0.11952376 -0.06217432
0.63736498 0.1926288 -0.092190266
0.62885898 0.11961579 -0.061918259
0.62977993 0.1536538 -0.073492527
0.63318396 0.23849779 -0.1162653
0.63270295 0.062195778 -0.11022329
0.62373495 0.15365982 -0.07392025
0.62524098 0.19264078 -0.093051434
0.62712198 0.23847479 -0.11695814
0.62616497 0.062979817 -0.10478926
0.61668295 0.11979878 -0.061406136
0.61917996 0.19264579 -0.093480587
0.61963797 0.063760817 -0.099369526
0.61164594 0.15366977 -0.074777126
0.61311895 0.19265079 -0.093910217
0.61502194 0.2383948 -0.11865234
0.60451198 0.11997879 -0.060892582
0.60560095 0.15367377 -0.075208187
0.60705596 0.19265479 -0.094339371
0.60900795 0.23829979 -0.12000132
0.60661596 0.06531781 -0.088558197
0.60099494 0.19265777 -0.094768524
0.60299295 0.23820478 -0.12134933
0.60019594 0.065963805 -0.084139347
0.59351194 0.15367979 -0.076062202
0.59493399 0.19266081 -0.095198154
0.59383798 0.066512764 -0.080455303
0.58634698 0.12010682 -0.061228275
0.58746797 0.15368277 -0.076490402
0.59095997 0.23801279 -0.12404633
0.59540594 0.012405813 -0.18459225
0.58748895 0.067059815 -0.076773167
0.58029896 0.12013781 -0.061420441
0.58142298 0.15368378 -0.076916218
0.58494097 0.23791581 -0.12539434
0.58118898 0.067527771 -0.073681355
0.57424998 0.12016881 -0.061609268
0.57537699 0.15368479 -0.07734251
0.57674897 0.19266582 -0.096482277
0.58227193 0.014059782 -0.17352152
0.57496399 0.067864776 -0.071574211
0.56933296 0.15368581 -0.077768326
0.57068795 0.19266582 -0.096910477
0.57304096 0.2375018 -0.1301322
0.56215596 0.12022781 -0.061989307
0.56462699 0.19266582 -0.097335339
0.56918395 0.015703797 -0.16249752
0.56253195 0.068535805 -0.067367554
0.55611098 0.12025279 -0.062204361
0.56113595 0.23707378 -0.13498354
0.55250597 0.19266379 -0.098191261
0.55531895 0.2366398 -0.13945627
0.55614096 0.017337799 -0.15152025
0.55014795 0.069143772 -0.063607216
0.54644299 0.19266278 -0.098616123
0.54952598 0.2361508 -0.14443731
0.54963398 0.01815182 -0.14604521
0.538019 0.12024778 -0.063477516
0.53910995 0.15367877 -0.07989645
0.54314095 0.018962801 -0.14058542
0.53306496 0.15367579 -0.080322266
0.53432 0.19265682 -0.099468231
0.53665799 0.019770801 -0.13513756
0.52595896 0.12024081 -0.064323425
0.52558297 0.070031762 -0.058503151
0.51992697 0.1202358 -0.064747334
0.52219599 0.19264877 -0.10032034
0.51944697 0.070252776 -0.057228565
0.513897 0.12023079 -0.065168381
0.51492995 0.15366381 -0.081593513
0.51727396 0.022182763 -0.11885357
0.51332897 0.070446789 -0.056143284
0.51007295 0.19263977 -0.10117054
0.507236 0.070590794 -0.055430412
0.50283998 0.15365177 -0.082440376
0.50401199 0.19263381 -0.10159445
0.50440699 0.023778796 -0.10806036
0.496795 0.1536448 -0.082863331
0.49505499 0.070876777 -0.054004192
0.48977199 0.12020481 -0.066858292
0.49158099 0.025364816 -0.097309589
0.484703 0.15362978 -0.083708286
0.48583698 0.19258779 -0.10308218
0.48288098 0.071160793 -0.052577496
0.47979 0.19255078 -0.10376358
0.47679698 0.071301818 -0.051864147
0.471679 0.12017781 -0.06812048
0.472426 0.027725816 -0.081267357
0.465646 0.12016779 -0.068539143
0.46656498 0.15360278 -0.084973335
0.467691 0.19247377 -0.10512543
0.46608499 0.02844578 -0.076399326
0.46051899 0.15359277 -0.085395336
0.45982298 0.028994799 -0.072758198
0.45559198 0.19239479 -0.10648537
0.45919698 -0.023621202 -0.17305136
0.44755098 0.12013382 -0.069799423
0.44842699 0.15357077 -0.086235523
0.44151899 0.12012178 -0.070218563
0.44237998 0.15355778 -0.086657524
0.443528 0.1922338 -0.10854721
0.446336 -0.021958232 -0.16212654
0.43548498 0.12010878 -0.070637226
0.43633199 0.1535458 -0.087076187
0.437507 0.19211876 -0.10987759
0.43991899 -0.021130204 -0.15667915
0.434407 0.071889818 -0.049723148
0.429452 0.12009478 -0.071056366
0.43148598 0.19200277 -0.11120415
0.424238 0.1535188 -0.087916374
0.425464 0.19188577 -0.11253119
0.42712098 -0.019482255 -0.14582157
0.422326 0.071998775 -0.049507141
0.41630098 0.072013795 -0.049692154
0.413434 0.19159782 -0.11565828
0.414363 -0.017843246 -0.13500357
0.410274 0.072027802 -0.049876213
0.40609398 0.15347379 -0.089172363
0.40745598 0.1913588 -0.11804533
0.404376 0.032141805 -0.052736282
0.39928499 0.12001681 -0.073143482
0.40004599 0.15345681 -0.089591503
0.40164998 -0.016215205 -0.1242342
0.39828199 0.032354772 -0.051474571
0.39822498 0.072054803 -0.050243378
0.39548799 0.19087881 -0.12282228
0.39530799 -0.015404224 -0.11886644
0.388978 -0.014596224 -0.11350918
0.381181 0.11996281 -0.074393272
0.381899 0.15340477 -0.090844154
0.38364699 0.19002277 -0.13087845
0.38001499 0.0329898 -0.047687531
0.380153 0.072082818 -0.050839424
0.37775499 0.18949378 -0.13579035
0.36789498 0.033265769 -0.046205521
0.363076 0.11990279 -0.075640202
0.36375099 0.15334678 -0.092095375
0.357039 0.11988181 -0.07605648
0.35609198 0.071997762 -0.052493572
0.35120398 -0.0097972155 -0.081600189
0.34972998 0.033659816 -0.044082165
0.350077 0.071974814 -0.052906513
0.34496698 0.11983681 -0.076885223
0.34367898 0.033789814 -0.043376446
0.34406099 0.071951807 -0.053319454
0.33956099 0.15322077 -0.094103336
0.338045 0.071926773 -0.053730488
0.33289298 0.11979079 -0.07771349
0.33351898 0.15316677 -0.094774246
0.33159399 0.034003794 -0.042273521
0.32747397 0.15311378 -0.095444202
0.32601097 0.071876764 -0.054554462
0.32015398 -0.0064712167 -0.059545517
0.31953299 0.034133792 -0.041763306
0.31999397 0.071850777 -0.05496645
0.31477898 0.11971581 -0.078953266
0.315386 0.15300381 -0.096782207
0.31817299 -0.069528222 -0.17865419
0.31401199 -0.0059931874 -0.056426525
0.31350398 0.034197807 -0.041508198
0.30934098 0.15294778 -0.09745121
0.31181398 -0.068501234 -0.17201614
0.30747598 0.034260809 -0.041252136
0.30795798 0.071795821 -0.055786133
0.30193898 0.071767807 -0.056196213
0.29666099 0.11963582 -0.080189228
0.29727599 0.15271777 -0.099765301
0.29920697 -0.066820264 -0.16120815
0.29571998 -0.0050222278 -0.05025053
0.29542097 0.034384787 -0.04074049
0.29591998 0.07173878 -0.056607246
0.290622 0.11960679 -0.080601215
0.29124698 0.15258378 -0.10107422
0.28963199 -0.0047011971 -0.048197269
0.28990099 0.071709812 -0.057016373
0.28388199 0.071679771 -0.057426453
0.27854198 0.1195488 -0.08142519
0.272499 0.11951977 -0.08183527
0.27314597 0.1521768 -0.1050005
0.27411598 -0.063488245 -0.13972425
0.27135998 0.034442782 -0.04103756
0.27183998 0.071616769 -0.058245182
0.26645797 0.11948878 -0.082247257
0.26713297 0.15193677 -0.10717249
0.26538697 -0.0038102269 -0.04267931
0.26582 0.071584821 -0.058653355
0.26111999 0.15167379 -0.1095295
0.26163098 -0.061837196 -0.12904644
0.25933698 -0.0036082268 -0.04142952
0.25933599 0.034437776 -0.041394234
0.25979897 0.071552813 -0.059061527
0.25328898 -0.0034062266 -0.040179253
0.253777 0.071518779 -0.059469223
0.24908197 0.15114582 -0.11424541
0.24918398 -0.060195208 -0.11841154
0.24724197 -0.0032072067 -0.038942337
0.24228698 0.1193608 -0.083888531
0.24130097 0.034410775 -0.042039394
0.24173099 0.071449816 -0.060284138
0.23677799 -0.058565259 -0.10782528
0.23529398 0.034374774 -0.042443275
0.23570797 0.071414769 -0.060693264
0.23019999 0.1192928 -0.08470726
0.23058897 -0.057752252 -0.10254717
0.22928697 0.034336805 -0.042848587
0.22312999 -0.0027261972 -0.036133289
0.22327897 0.034298778 -0.043254375
0.22366098 0.071341813 -0.061506271
0.21811399 0.11919278 -0.085761547
0.21710399 -0.0026072264 -0.035430431
0.21207297 0.11912477 -0.08642149
0.21207997 -0.05533123 -0.086776257
0.21108097 -0.0024902225 -0.034729481
0.21125999 0.034220815 -0.044062138
0.21160999 0.07126677 -0.062318325
0.20603099 0.11905682 -0.087081432
0.20524999 0.03418082 -0.044467449
0.19998899 0.1189878 -0.087742329
0.19923998 0.034139812 -0.044869423
0.19955897 0.071188807 -0.063129425
0.19303098 -0.0022541881 -0.033405304
0.19322798 0.034098804 -0.04527235
0.18753499 -0.052136183 -0.065891266
0.18721698 0.034055769 -0.045675278
0.18750399 0.071107805 -0.063939571
0.18185398 0.11877382 -0.089752197
0.18120599 0.034012794 -0.046079159
0.18147698 0.071066797 -0.064344406
0.17533299 -0.050698161 -0.056488514
0.17519398 0.03396982 -0.046481133
0.16925998 -0.050154209 -0.052938461
0.16316599 0.03388077 -0.047284126
0.16338898 0.070938766 -0.065556526
0.15768799 0.11816782 -0.094922543
0.15713599 -0.049132228 -0.046271324
0.15697297 -0.0019631982 -0.031879425
0.15735999 0.070894778 -0.065960407
0.15096998 -0.0019782186 -0.032053471
0.15113798 0.0337888 -0.04808712
0.15230599 -0.1112752 -0.15963745
0.14506198 -0.04850316 -0.04220438
0.14496699 -0.0019941926 -0.032225132
0.13903098 -0.04819119 -0.040174484
0.13910699 0.03369379 -0.048888206
0.13926698 0.07075882 -0.067168236
0.13998099 -0.1095922 -0.14899254
0.13350698 0.11725378 -0.10247421
0.13295798 -0.0020291805 -0.032570362
0.13323298 0.070712805 -0.06757021
0.12719998 0.070664763 -0.067972183
0.12096398 -0.047409177 -0.035096169
0.12105498 0.033546805 -0.050090313
0.12116698 0.070616782 -0.068375587
0.11535998 0.11606681 -0.11210632
0.11494999 -0.047219157 -0.033860207
0.11503698 0.033496797 -0.050490379
0.11544198 -0.10625517 -0.12782955
0.10930498 0.11547178 -0.11690331
0.10893698 -0.047029257 -0.032622337
0.10901698 0.033445776 -0.050888538
0.10909598 0.070519805 -0.069177151
0.10292798 -0.046840191 -0.031386375
0.096930981 -0.0022262335 -0.034137249
0.096976981 0.033341765 -0.051685333
0.097134985 -0.1037792 -0.11207247
0.090915985 -0.046464205 -0.028914452
0.090956986 0.033288777 -0.052084446
0.09098798 0.070367813 -0.070379257
0.084913984 -0.046346188 -0.028134346
0.078910984 -0.046241164 -0.02743721
0.078910984 0.03317982 -0.052879333
0.072903983 -0.0024502277 -0.035719395
0.066895984 -0.0025082231 -0.03611517
0.066864982 0.033068776 -0.053674221
0.066832982 0.070156813 -0.071977139
0.066808984 -0.099703193 -0.086019516
0.060886983 -0.0025672317 -0.036510468
0.060792983 0.070102811 -0.072376251
0.054875985 -0.0026261806 -0.036904335
0.054750983 0.070046782 -0.072775364
0.048923984 -0.04572916 -0.023956299
0.048864983 -0.0026862025 -0.037300587
0.048788983 0.03289777 -0.054863453
0.048708983 0.069990814 -0.073174477
0.042928983 -0.045661211 -0.023471355
0.042761981 0.032838762 -0.055260181
0.042665981 0.069926798 -0.073635578
0.042709984 -0.096484184 -0.065355301
0.036933981 -0.04562819 -0.023215294
0.036842983 -0.0028082132 -0.038085461
0.036734983 0.032779813 -0.055656433
0.036621984 0.069836795 -0.074282169
0.030938983 -0.045595169 -0.022958279
0.030706983 0.032719791 -0.056049347
0.030575983 0.069745779 -0.074928284
0.024941981 -0.045563221 -0.022703171
0.024814982 -0.0029332042 -0.038872242
0.024676982 0.032658815 -0.056445122
0.024727982 -0.09409523 -0.049962521
0.018947981 -0.045532227 -0.022446156
0.012953982 -0.045502186 -0.022190571
0.012785986 -0.0030602217 -0.0396595
0.0065869838 0.032472789 -0.057629585
0.0063789859 0.069376767 -0.077509403
0.00075298548 -0.0031912327 -0.040442467
0.00080297887 -0.091948152 -0.036005497
-0.005264014 -0.003257215 -0.040834427
-0.0054790154 0.032345772 -0.058416367
-0.0051810145 -0.091645241 -0.033996582
-0.01102902 -0.045493245 -0.021855354
-0.011282019 -0.0033242106 -0.041225433
-0.011801019 0.068904817 -0.08086729
-0.017301016 -0.0033922195 -0.041615486
-0.017139018 -0.091043234 -0.029988289
-0.023027018 -0.045567155 -0.022186279
-0.023321018 -0.0034602284 -0.042005539
-0.023582019 0.032148778 -0.059597492
-0.029028021 -0.045606256 -0.022350311
-0.029619016 0.032081783 -0.059989452
-0.03000702 0.068366766 -0.084673405
-0.035028018 -0.045645237 -0.022516251
-0.036087021 0.068125784 -0.086399555
-0.041029021 -0.045685172 -0.022680283
-0.042181015 0.06780982 -0.088689327
-0.047030024 -0.04572618 -0.022845268
-0.04740902 -0.0037412047 -0.04356432
-0.048278011 0.067492783 -0.09098053
-0.05303701 -0.045797229 -0.023209572
-0.05343502 -0.0038132071 -0.043954372
-0.053773023 0.03180778 -0.061557293
-0.055553012 -0.17214715 -0.15428925
-0.060496025 0.0668028 -0.095968246
-0.058973022 -0.089604259 -0.020075321
-0.065051012 -0.045949221 -0.023980141
-0.065485023 -0.0039591789 -0.044732571
-0.066657014 0.066162765 -0.10068417
-0.071059011 -0.04602623 -0.024366379
-0.072827019 0.065521777 -0.10540438
-0.070921011 -0.089324236 -0.018032551
-0.077068023 -0.046104193 -0.02475214
-0.077539019 -0.0041081905 -0.045509338
-0.076900013 -0.089237213 -0.017341137
-0.083984025 0.031449795 -0.063510418
-0.082880013 -0.08915019 -0.016649246
-0.08909101 -0.046262264 -0.025521278
-0.095103018 -0.046342254 -0.025907516
-0.095629014 -0.0043371916 -0.046671391
-0.096075021 0.031301796 -0.06428957
-0.097400017 -0.16608715 -0.11666536
-0.10212702 0.031194806 -0.064905167
-0.10080902 -0.088896155 -0.014578342
-0.10769402 -0.0044932365 -0.047444344
-0.10818302 0.031084776 -0.06553936
-0.10678602 -0.088813186 -0.013888359
-0.11423901 0.030974805 -0.066174507
-0.11976101 -0.0046522021 -0.048216343
-0.12113901 -0.16279316 -0.096071243
-0.11874802 -0.088736176 -0.013064384
-0.12635502 0.030751765 -0.067441463
-0.12705201 -0.16197526 -0.090947151
-0.12473302 -0.088723183 -0.012807369
-0.13295701 -0.16116023 -0.085832119
-0.13721702 -0.046923161 -0.028588295
-0.13885501 -0.16034722 -0.080727577
-0.13670501 -0.088700175 -0.012292385
-0.14323601 -0.04700923 -0.028971195
-0.149257 -0.047096252 -0.029351234
-0.14867401 -0.088680267 -0.011776447
-0.15598702 -0.0051472187 -0.050526142
-0.15649602 -0.15792418 -0.065472126
-0.16282302 0.029736817 -0.073628426
-0.16236103 -0.15712118 -0.060404301
-0.16065001 -0.088685155 -0.011400223
-0.16821602 -0.15632021 -0.055347443
-0.17937702 -0.047541261 -0.031255245
-0.185404 -0.047632217 -0.031637192
-0.18728602 0.028649807 -0.08062315
-0.185734 -0.15393317 -0.040234566
-0.18465102 -0.088921189 -0.012034416
-0.19742802 -0.15257418 -0.031541348
-0.20349202 -0.047910213 -0.032773495
-0.20434701 -0.0058462024 -0.053590298
-0.205798 0.027398765 -0.088964462
-0.2033 -0.15204418 -0.028096199
-0.20266101 -0.089107156 -0.012505531
-0.20952302 -0.04800415 -0.03315258
-0.21039602 -0.0059372187 -0.053972244
-0.21205801 0.026721776 -0.093622208
-0.209167 -0.15151715 -0.024657249
-0.21644801 -0.006028235 -0.054354191
-0.21468502 -0.089286208 -0.0131464
-0.2225 -0.0061202049 -0.054735184
-0.22097802 -0.15081215 -0.019881248
-0.22762501 -0.04829216 -0.034287453
-0.23366001 -0.048389196 -0.034664154
-0.23273402 -0.089586258 -0.014269352
-0.23969701 -0.048487186 -0.035041332
-0.238722 -0.14997017 -0.013977528
-0.245736 -0.048586249 -0.035419464
-0.24674401 -0.0065732002 -0.056791306
-0.24464101 -0.14972222 -0.012199402
-0.25079501 -0.089893222 -0.01539135
-0.262766 -0.22771215 -0.13738537
-0.25652501 -0.14941823 -0.009786129
-0.25681701 -0.089997172 -0.015764236
-0.26495701 -0.0069671869 -0.058658123
-0.26284 -0.090102196 -0.016138554
-0.27103302 -0.0070992112 -0.059280396
-0.27594402 -0.049090266 -0.037299156
-0.28031 -0.22520316 -0.12201643
-0.28027502 -0.14882123 -0.0049672127
-0.28091902 -0.090420246 -0.017254353
-0.28803501 -0.049297214 -0.038048267
-0.28622502 -0.14872718 -0.0040793419
-0.29218501 -0.14866722 -0.0033955574
-0.29297602 -0.090637207 -0.017998219
-0.30013201 -0.049508214 -0.038798332
-0.303592 -0.22189617 -0.10167027
-0.30618101 -0.049614191 -0.039172173
-0.30939201 -0.22107518 -0.096607208
-0.30410501 -0.1485492 -0.0020275116
-0.30503902 -0.090856194 -0.018740177
-0.31518501 -0.22025716 -0.091554165
-0.310063 -0.14849222 -0.0013432503
-0.31107202 -0.090967178 -0.019111156
-0.32097 -0.21944118 -0.086510181
-0.32433701 -0.049937248 -0.040292263
-0.326188 -0.0093392134 -0.071906567
-0.32197702 -0.14838016 2.2411346e-05
-0.32314101 -0.091191173 -0.019851208
-0.33238202 -0.0097101927 -0.074136257
-0.33251902 -0.21781719 -0.076450348
-0.32917902 -0.091305256 -0.020221233
-0.336449 -0.050157189 -0.041039467
-0.33828202 -0.21700919 -0.071435452
-0.34250602 -0.05026722 -0.0414114
-0.34403601 -0.21620321 -0.066427231
-0.33989802 -0.14835823 0.0012288094
-0.34125501 -0.091534257 -0.020959377
-0.35124302 -0.011424184 -0.084963322
-0.34588 -0.14837623 0.0014867783
-0.347296 -0.091649175 -0.021327496
-0.354626 -0.050491214 -0.042155266
-0.35552502 -0.21459818 -0.056440353
-0.35186401 -0.14839518 0.0017466545
-0.36125702 -0.21380019 -0.051462173
-0.366981 -0.21300316 -0.046492577
-0.372812 -0.050833225 -0.043269157
-0.37269902 -0.21221018 -0.041531563
-0.369811 -0.14845622 0.0025267601
-0.37887701 -0.050948262 -0.043638229
-0.37579402 -0.14847922 0.0027866364
-0.384112 -0.21062922 -0.031636238
-0.38180301 -0.14856219 0.0026826859
-0.391013 -0.051181197 -0.044379234
-0.389808 -0.20984316 -0.026703358
-0.38781402 -0.14865315 0.0025348663
-0.389617 -0.092481256 -0.023902416
-0.39708102 -0.051299214 -0.044748306
-0.395495 -0.20905817 -0.021777153
-0.39382702 -0.14874518 0.0023884773
-0.39566702 -0.092603207 -0.02426815
-0.40316802 -0.05145216 -0.045350552
-0.401719 -0.092726231 -0.024634361
-0.40925801 -0.051607251 -0.045959473
-0.40585601 -0.14893317 0.0020947456
-0.413829 -0.092973232 -0.025365353
-0.41864702 -0.20707524 -0.0086693764
-0.41988501 -0.093099236 -0.025730133
-0.43363103 -0.052235246 -0.048389435
-0.43039098 -0.20655322 -0.0047922134
-0.43200102 -0.093351245 -0.026460171
-0.44586399 -0.052621245 -0.05005455
-0.44201103 -0.14961624 0.00059986115
-0.44412503 -0.093607187 -0.027188301
-0.45201203 -0.052872181 -0.051262379
-0.447997 -0.20579624 0.00092077255
-0.45408902 -0.14988816 -0.00011920929
-0.48977301 -0.4702332 -0.37709427
-0.46013203 -0.15002418 -0.00047636032
-0.49133304 -0.45822525 -0.31696844
-0.47121999 -0.27974427 -0.064229488
-0.49533001 -0.45258021 -0.28844118
-0.476239 -0.27744126 -0.051156521
-0.47166601 -0.20529616 0.0056796074
-0.47221902 -0.15030122 -0.0011925697
-0.48285601 -0.054245234 -0.058001518
-0.50001204 -0.44875121 -0.26892328
-0.478264 -0.15044022 -0.0015492439
-0.48910299 -0.054649234 -0.060192585
-0.487542 -0.27579916 -0.04120636
-0.48349199 -0.20505118 0.0080566406
-0.48431101 -0.15058017 -0.0019073486
-0.49535701 -0.055053234 -0.062384129
-0.51054204 -0.4441632 -0.24512625
-0.50841105 -0.36505723 -0.21948957
-0.49036202 -0.15072227 -0.0022654533
-0.50161403 -0.055459261 -0.064576149
-0.49881902 -0.27416825 -0.031296253
-0.496411 -0.15086317 -0.0026211739
-0.49874803 -0.094797254 -0.030451298
-0.50793207 -0.055966258 -0.067437172
-0.52199006 -0.44195116 -0.23310757
-0.50246304 -0.15100622 -0.0029764175
-0.50482506 -0.094933152 -0.030812263
-0.51439905 -0.056725264 -0.071964264
-0.52775705 -0.44098318 -0.22777748
-0.51216805 -0.33220124 -0.045931339
-0.50631303 -0.20291126 0.022359848
-0.52087802 -0.057486176 -0.076497555
-0.53351903 -0.44001818 -0.22245741
-0.51698303 -0.095208168 -0.031534195
-0.51837903 -0.20321321 0.021657467
-0.53300703 -0.057561159 -0.075939178
-0.54501706 -0.43809819 -0.21184826
-0.51958406 -0.25500727 0.075960636
-0.52441305 -0.20336521 0.021307468
-0.51912004 -0.13738823 0.081211567
-0.52362102 -0.085668206 0.030277729
-0.52203703 -0.24791527 0.11521864
-0.53044903 -0.20351815 0.020958424
-0.52465802 -0.13670623 0.085851669
-0.52662003 -0.080477238 0.063867569
-0.55648506 -0.43619025 -0.20128345
-0.52592301 -0.24387527 0.13781261
-0.53018904 -0.13602626 0.090482712
-0.52990001 -0.075878263 0.093686581
-0.54927605 -0.054487228 -0.053897381
-0.54314107 -0.32144916 0.013514519
-0.53037006 -0.24103618 0.15384674
-0.53571504 -0.13534725 0.095106602
-0.53336602 -0.071685195 0.12092066
-0.54869902 -0.32060421 0.018480778
-0.53518105 -0.2389822 0.16559982
-0.54657704 -0.030551195 0.10614681
-0.57363302 -0.43334925 -0.1855073
-0.54029506 -0.23756719 0.17386484
-0.54069406 -0.06421423 0.16956568
-0.57933503 -0.43240917 -0.18027258
-0.55979502 -0.31892323 0.028383732
-0.54561704 -0.23658419 0.17977047
-0.55029505 -0.12985921 0.12981844
-0.54450405 -0.060828209 0.19166183
-0.55389506 -0.023459196 0.15433264
-0.56533307 -0.31808519 0.033323765
-0.54873204 -0.11682224 0.2089448
-0.54839206 -0.057633162 0.21254444
-0.55770004 -0.020245194 0.17622566
-0.59071606 -0.43053615 -0.16982555
-0.55645907 -0.23505318 0.18923044
-0.54272604 -0.14981616 0.33317471
-0.55233604 -0.054593205 0.23244953
-0.56158006 -0.017206192 0.19695663
-0.56551903 -0.014314234 0.21671343
-0.60206807 -0.42867517 -0.15942144
-0.58190507 -0.31559026 0.048083782
-0.56727403 -0.23353124 0.19865465
-0.55426705 -0.15012217 0.33251047
-0.56951404 -0.011560202 0.2355547
-0.59426403 -0.0044682026 -0.016869545
-0.58741504 -0.31476319 0.052983761
-0.56004006 -0.15027618 0.3321805
-0.56505907 -0.047227263 0.28099251
-0.63107902 -0.55758023 -0.39234018
-0.57534301 -0.011647224 0.23554373
-0.56581604 -0.15043223 0.33184862
-0.56824702 -0.10096526 0.30727243
-0.63691503 -0.55653715 -0.38682032
-0.57866406 -0.0079492331 0.26065874
-0.59006602 0.018895805 0.14642477
-0.61904305 -0.42590618 -0.14388847
-0.58344805 -0.23126519 0.21273375
-0.57404506 -0.10111523 0.30693865
-0.57670206 -0.047512174 0.28031254
-0.64274204 -0.55549824 -0.38131714
-0.58804107 0.030166805 0.22520685
-0.62468702 -0.42498922 -0.13873053
-0.60390705 -0.31229818 0.06763649
-0.57736903 -0.1507442 0.33118963
-0.57984406 -0.10126519 0.30660343
-0.64856106 -0.55446219 -0.3758235
-0.59034806 -0.0082272291 0.25997162
-0.59238803 0.032198787 0.23988676
-0.63032407 -0.42407417 -0.13358259
-0.60939002 -0.31148219 0.072503567
-0.58314705 -0.15090215 0.33086061
-0.58835202 -0.04780221 0.27962685
-0.63595504 -0.42316318 -0.12844229
-0.58893001 -0.15106022 0.3305316
-0.59418005 -0.047947168 0.27928877
-0.66018105 -0.55240417 -0.36488533
-0.60587806 0.066237807 0.22214365
-0.60966003 0.099505782 0.1855526
-0.64157802 -0.4222542 -0.12331629
-0.62033802 -0.30985522 0.082218647
-0.60492402 -0.22827816 0.23137856
-0.60000801 -0.0480932 0.27894974
-0.66597801 -0.5513792 -0.35942745
-0.60788906 -0.008651197 0.25893354
-0.61176002 0.066106796 0.22179461
-0.62580204 -0.30904615 0.087056637
-0.60306007 -0.10187626 0.30526781
-0.61373806 -0.0087932348 0.25859261
-0.61951107 0.1017518 0.20366383
-0.65280306 -0.42044616 -0.11308813
-0.63126004 -0.30824018 0.091884613
-0.60886705 -0.10203016 0.30493546
-0.61167002 -0.04838717 0.27827263
-0.62352806 0.065838814 0.22108078
-0.65840507 -0.41954422 -0.1079812
-0.62096405 -0.22606218 0.2452774
-0.61206806 -0.15170324 0.32921553
-0.61467606 -0.10218525 0.30460262
-0.61750305 -0.048536181 0.27793455
-0.68332505 -0.5483222 -0.34311342
-0.62759203 0.031376779 0.23779774
-0.62630004 -0.22532821 0.24989271
-0.61785805 -0.1518662 0.32888746
-0.62048906 -0.10234225 0.30426979
-0.68909502 -0.54730916 -0.33769417
-0.63129705 -0.0092251897 0.25756884
-0.66958904 -0.41775119 -0.097802162
-0.64759403 -0.30583715 0.10632277
-0.63162804 -0.22459626 0.25450087
-0.63715303 -0.0093702078 0.25722456
-0.63933903 0.03109777 0.2371068
-0.64312702 0.10123277 0.20223761
-0.65302604 -0.30504119 0.11111641
-0.63695002 -0.22386718 0.25910044
-0.62943906 -0.15219319 0.32823467
-0.63211507 -0.10265625 0.30360556
-0.63501406 -0.048985243 0.27692175
-0.70060903 -0.54529417 -0.32689238
-0.64708501 0.065299809 0.21968651
-0.64903402 0.10110182 0.20188665
-0.68074602 -0.41597116 -0.087672234
-0.64887202 -0.0096632242 0.25654364
-0.65109402 0.03081578 0.23641586
-0.65297902 0.065162778 0.21933842
-0.68631601 -0.4150852 -0.082622528
-0.64102906 -0.15252519 0.32758045
-0.64374906 -0.10297418 0.30294371
-0.65473306 -0.0098102093 0.25620461
-0.65697306 0.030674815 0.23607349
-0.66085607 0.10083777 0.2011838
-0.66928405 -0.30266726 0.12545061
-0.65288001 -0.22169125 0.27285385
-0.65253901 -0.049442172 0.27591276
-0.71782607 -0.54229116 -0.31074715
-0.65262401 -0.15285921 0.32692957
-0.65538901 -0.10329616 0.30228043
-0.65838403 -0.04959619 0.27557564
-0.66873604 0.030387819 0.23538446
-0.67066807 0.064749777 0.21829557
-0.67268205 0.10057181 0.20048141
-0.70298105 -0.41244519 -0.067527294
-0.68009001 -0.30109823 0.13496065
-0.65842402 -0.15302825 0.32660341
-0.66121101 -0.10345817 0.30195141
-0.66423106 -0.049750209 0.27524042
-0.72926801 -0.54030716 -0.3000474
-0.67462105 0.030243814 0.23504066
-0.68548304 -0.30031621 0.13970566
-0.66875404 -0.21953619 0.28653383
-0.66422606 -0.15319717 0.32627869
-0.67007905 -0.049905181 0.27490473
-0.73497903 -0.53932023 -0.2947154
-0.68050903 0.030098796 0.23469782
-0.71406007 -0.41069925 -0.05751133
-0.69087201 -0.29953825 0.1444397
-0.67403501 -0.21882224 0.29107761
-0.67286205 -0.1037842 0.30129051
-0.68406504 -0.010559201 0.25450659
-0.68639606 0.029953778 0.2343545
-0.68837506 0.064329803 0.21725655
-0.71958804 -0.40983021 -0.052515507
-0.69625306 -0.29876125 0.14916563
-0.67930806 -0.21811116 0.29561472
-0.67583603 -0.15353918 0.3256278
-0.67869002 -0.10394824 0.30096054
-0.68993604 -0.010711193 0.25416756
-0.69428003 0.064188778 0.21691084
-0.72511107 -0.40896416 -0.047531128
-0.68164307 -0.1537112 0.3253026
-0.68763602 -0.050376177 0.27389956
-0.69580907 -0.010864198 0.25383043
-0.69817704 0.029660821 0.23367071
-0.70018703 0.064045787 0.21656466
-0.73062605 -0.4081012 -0.042555332
-0.68745106 -0.15388417 0.32497978
-0.69349104 -0.050534248 0.27356482
-0.76047301 -0.54034424 -0.29662752
-0.73613703 -0.40724015 -0.03758812
-0.69509506 -0.21598923 0.30917454
-0.69326305 -0.15405822 0.32465553
-0.69618404 -0.10444617 0.29997253
-0.71200705 0.063759804 0.21587563
-0.74164003 -0.4063822 -0.032631397
-0.70034504 -0.21528625 0.31368065
-0.69907504 -0.15423226 0.32433271
-0.70201802 -0.10461426 0.29964542
-0.70520806 -0.050854206 0.27289677
-0.71344101 -0.011327207 0.25281572
-0.71586406 0.029214799 0.23264456
-0.71792006 0.063615799 0.21552944
-0.72006303 0.099479795 0.19768667
-0.74713606 -0.40552723 -0.027683258
-0.72306806 -0.29491615 0.17267179
-0.72176206 0.029065788 0.23230362
-0.75262606 -0.40467417 -0.022744179
-0.71082705 -0.21388721 0.32266665
-0.72520304 -0.011639237 0.25214148
-0.72975004 0.063325763 0.21483946
-0.73192602 0.099199772 0.19698858
-0.71605903 -0.21319115 0.32714987
-0.71652102 -0.1547612 0.32336283
-0.72279507 -0.051338196 0.27189541
-0.73108804 -0.011796236 0.25180578
-0.73356605 0.028763771 0.2316227
-0.73908502 -0.29263723 0.18667555
-0.72234106 -0.15493917 0.32304049
-0.72866201 -0.051501155 0.27156353
-0.73697305 -0.011955202 0.25146866
-0.74379706 0.098917782 0.19629288
-0.76948804 -0.40283418 -0.011448383
-0.74441105 -0.29188323 0.19132757
-0.72650802 -0.21180415 0.33609343
-0.73452902 -0.051665187 0.27123165
-0.74286103 -0.012113214 0.25113249
-0.74537605 0.028458774 0.23094177
-0.74751002 0.062884808 0.21380758
-0.73398405 -0.15529716 0.32239771
-0.74039906 -0.051830173 0.27089882
-0.74875003 -0.012273192 0.25079775
-0.75128305 0.028304815 0.23060083
-0.75567406 0.098631799 0.19559765
-0.73693204 -0.21042621 0.34500647
-0.73980904 -0.15547824 0.3220768
-0.75719303 0.028150797 0.2302618
-0.75935805 0.062587798 0.21311951
-0.76161605 0.098488808 0.19525051
-0.74875903 -0.10598421 0.29702663
-0.76053602 -0.012594223 0.25012541
-0.76310605 0.027995765 0.22992086
-0.76528704 0.062437773 0.21277666
-0.76756102 0.09834379 0.19490242
-0.76565903 -0.28888822 0.20985174
-0.74803007 -0.21006119 0.34842443
-0.75146407 -0.15584219 0.32143259
-0.75461006 -0.10615921 0.29670143
-0.76901907 0.02783978 0.22958088
-0.77095604 -0.28814518 0.21446371
-0.75729406 -0.15602517 0.32111263
-0.76046306 -0.10633516 0.29637575
-0.76389605 -0.052496195 0.26957464
-0.77232707 -0.012918234 0.24945641
-0.77714705 0.062135816 0.21209049
-0.75964206 -0.21044421 0.34779549
-0.76312506 -0.15620923 0.32079363
-0.78307903 0.061983764 0.2117486
-0.78167105 -0.28687227 0.22259045
-0.76895905 -0.15639424 0.32047272
-0.77217305 -0.10668826 0.29572678
-0.77565503 -0.052834153 0.26891279
-0.78412706 -0.013246238 0.24878788
-0.78901607 0.061831772 0.2114048
-0.77126306 -0.21083117 0.34716749
-0.78153902 -0.053004265 0.26858282
-0.79003006 -0.013411224 0.24845266
-0.79269302 0.027209818 0.22822475
-0.79495203 0.061677814 0.21106386
-0.79427105 -0.28838217 0.21623564
-0.77707505 -0.21102524 0.34685373
-0.78389204 -0.10704625 0.29507685
-0.78742301 -0.053175211 0.2682538
-0.79593402 -0.01357621 0.24811983
-0.80089104 0.061523795 0.21072054
-0.78647107 -0.15695322 0.31951666
-0.79330903 -0.053346157 0.26792288
-0.80454004 0.026890814 0.2275486
-0.80683106 0.061369777 0.2103796
-0.79919702 -0.053519249 0.26759481
-0.81046706 0.026729763 0.22721052
-0.86013204 -0.35772526 -0.14254618
-0.79452306 -0.21161425 0.34591579
-0.79815406 -0.15733016 0.3188796
-0.80148202 -0.10758817 0.29410648
-0.80508703 -0.053692222 0.26726484
-0.80034405 -0.21181321 0.34560347
-0.80400002 -0.15752017 0.31856251
-0.82232803 0.026405811 0.22653675
-0.80616605 -0.21201217 0.34529161
-0.80984706 -0.15771127 0.31824541
-0.81687403 -0.054041266 0.26660681
-0.82548606 -0.014416218 0.24645281
-0.83061403 0.060743809 0.20901346
-0.81569505 -0.15790319 0.31792784
-0.83140105 -0.01458621 0.24612141
-0.83419502 0.026079774 0.22586346
-0.83656502 0.060584784 0.20867252
-0.83732104 -0.014757216 0.24578762
-0.84013301 0.025914788 0.22552586
-0.84251803 0.060425818 0.20833158
-0.86705506 -0.27021217 0.031505585
-0.83084005 -0.10850823 0.29249382
-0.83456904 -0.054570198 0.26562262
-0.84324104 -0.014928222 0.24545765
-0.83325303 -0.15848327 0.31697655
-0.83671707 -0.1086942 0.29217148
-0.85201204 0.025583804 0.22485256
-0.84637403 -0.05492723 0.26496649
-0.85508704 -0.015274167 0.24479246
-0.85795403 0.025416791 0.22451687
-0.86232603 -0.1803652 0.19360352
-0.85228002 -0.055107236 0.26463985
-0.86101204 -0.015448213 0.24446154
-0.86389905 0.025249779 0.2241807
-0.86125207 -0.11733925 0.24277782
-0.85818702 -0.055287242 0.26431274
-0.87231207 0.059620798 0.20663261
-0.87804806 -0.13019216 0.16658068
-0.87287205 -0.015799165 0.24379778
-0.87579602 0.024912775 0.22350979
-0.88174605 0.024742782 0.22317266
