# .PCD v0.7 - Point Cloud Data file format
VERSION 0.7
FIELDS x y z
SIZE 4 4 4
TYPE F F F
COUNT 1 1 1
WIDTH 1
HEIGHT 1024
VIEWPOINT 0 0 0 1 0 0 0
POINTS 1024
DATA ascii
0.38097799 -0.74905419 0.016488552
0.37482798 -0.74825025 0.019130707
0.36257198 -0.7467972 0.023859501
0.362297 -0.67547417 0.028783321
0.35035199 -0.74542415 0.028315544
0.35018998 -0.67465425 0.031302452
0.34425399 -0.74477017 0.030429363
0.34420899 -0.59341919 0.031274319
0.338094 -0.67383921 0.033819675
0.33816198 -0.59303117 0.032532692
0.33822498 -0.51776826 0.0313344
0.33207998 -0.74351525 0.034478664
0.33211499 -0.59264421 0.033791542
0.33217698 -0.51739919 0.032592297
0.326006 -0.74292421 0.036375523
0.32600799 -0.67303121 0.036334515
0.32607299 -0.59225917 0.035048485
0.320034 -0.59187615 0.036306381
0.32009399 -0.51666427 0.03510952
0.32012698 -0.47486925 0.034445286
0.31405598 -0.51629925 0.036366463
0.314089 -0.47451317 0.035702705
0.31413999 -0.40903223 0.034660339
0.30784798 -0.74138916 0.041208267
0.30802 -0.51593518 0.037622452
0.30810198 -0.40869319 0.035916328
0.301819 -0.74097621 0.042463303
0.30193099 -0.59073424 0.040074348
0.30198798 -0.51557326 0.038878441
0.302019 -0.47380626 0.038214684
0.302068 -0.40835416 0.037174702
0.30210599 -0.35820723 0.036376476
0.295793 -0.74056518 0.043716431
0.29584399 -0.67103624 0.042611599
0.29595798 -0.51521218 0.040133476
0.29598898 -0.47345424 0.039470673
0.28981897 -0.67064226 0.043865681
0.289877 -0.58998024 0.042583466
0.28996199 -0.47310424 0.040725708
0.28502998 -0.28496623 0.017448425
0.28374797 -0.73974717 0.046222687
0.283797 -0.67024922 0.045118332
0.28390798 -0.51449418 0.042643547
0.28393698 -0.47275519 0.041980267
0.28398398 -0.4073472 0.040939331
0.28401899 -0.35723424 0.040145397
0.27788499 -0.51413727 0.043896675
0.27791399 -0.47240722 0.043234348
0.27799398 -0.35691226 0.041399479
0.27312499 -0.2852062 0.015730381
0.27175999 -0.66946924 0.04762125
0.27181497 -0.5888592 0.046342373
0.26569998 -0.73853123 0.049978256
0.26584998 -0.51342821 0.046402454
0.265921 -0.40635216 0.044701576
0.25978798 -0.58812022 0.048845291
0.25986397 -0.4713732 0.046991348
0.25533798 -0.28596425 0.01121664
0.25368097 -0.73772919 0.052478313
0.253777 -0.58775222 0.050097466
0.253851 -0.47103024 0.048244476
0.25389299 -0.40569425 0.047208309
0.253925 -0.35563624 0.046412468
0.249431 -0.28635025 0.0090556145
0.247676 -0.7373302 0.05372858
0.247719 -0.66792417 0.052627563
0.24777 -0.58738625 0.051348686
0.24788301 -0.40536821 0.04845953
0.247914 -0.35532022 0.04766655
0.243587 -0.81206119 0.0051794052
0.24167399 -0.73693323 0.054976463
0.24171601 -0.66754222 0.053877354
0.241836 -0.47035027 0.050746441
0.23760901 -0.2871362 0.0046825409
0.237148 -0.80872917 0.016963482
0.235716 -0.66716123 0.055124283
0.23576401 -0.58665717 0.053847313
0.235808 -0.51167822 0.052657604
0.235833 -0.47001219 0.051996708
0.235902 -0.35469222 0.050167561
0.23746 -0.24587417 -0.15478373
0.22967701 -0.73614323 0.057474613
0.229717 -0.66678226 0.056373596
0.229764 -0.5862962 0.055096626
0.229808 -0.51133215 0.053907394
0.22983199 -0.46967518 0.053246498
0.22577199 -0.2879262 0.00031328201
0.231405 -0.24626625 -0.15706348
0.224727 -0.80513215 0.029493332
0.223681 -0.7357502 0.058722496
0.22372 -0.66640425 0.057621479
0.223832 -0.46933925 0.054497242
0.22389799 -0.35407019 0.052667618
0.218583 -0.80372322 0.03436327
0.21768901 -0.73535919 0.059969425
0.21772701 -0.66602826 0.058868408
0.21777201 -0.58557618 0.057593346
0.217814 -0.5106442 0.056405544
0.21789999 -0.35376024 0.053917408
0.21392199 -0.28871822 -0.0040516853
0.21928699 -0.24705327 -0.16162157
0.212476 -0.80254221 0.038414478
0.21170001 -0.73497021 0.061213493
0.21173701 -0.66565323 0.060115337
0.211781 -0.58521819 0.058841705
0.211821 -0.51030326 0.057652473
0.211843 -0.46867216 0.056993484
0.211879 -0.40343416 0.055958271
0.211906 -0.35345125 0.055166245
0.207992 -0.28911626 -0.0062327385
0.206379 -0.80138826 0.042376518
0.20574901 -0.66528022 0.061363697
0.205887 -0.40311718 0.057206631
0.20205601 -0.28951418 -0.0084133148
0.20715199 -0.24784327 -0.16617632
0.200306 -0.80039024 0.045779705
0.199727 -0.73419523 0.063706398
0.199762 -0.66490817 0.062608242
0.19984201 -0.50962317 0.060148716
0.199863 -0.46801019 0.059488297
0.199922 -0.35283816 0.057662487
0.196119 -0.28991425 -0.010592461
0.20107999 -0.24823916 -0.16845131
0.194241 -0.7993952 0.049175262
0.19378 -0.66453826 0.06385231
0.19382 -0.58415318 0.062581539
0.19391 -0.40248525 0.059701443
0.19393501 -0.35253322 0.05891037
0.19017901 -0.2903142 -0.01277256
0.195005 -0.24863625 -0.17072773
0.18819401 -0.79850817 0.052188396
0.187895 -0.46735322 0.061981678
0.187951 -0.35223019 0.060156345
0.181822 -0.66380227 0.066342354
0.192661 -0.21584415 -0.29884958
0.181895 -0.50861418 0.063884258
0.181914 -0.46702719 0.063225269
0.181945 -0.40185821 0.062194347
0.178287 -0.29111719 -0.017123699
0.182842 -0.24943221 -0.17527342
0.17584699 -0.66343617 0.067586422
0.175936 -0.46670222 0.064471245
0.17596599 -0.40154719 0.063439369
0.172334 -0.29151917 -0.019300461
0.176754 -0.24983215 -0.1775465
0.169872 -0.66307116 0.06883049
0.18027399 -0.21663725 -0.30355358
0.16995899 -0.46637917 0.065716267
0.16998801 -0.40123618 0.064685345
0.166379 -0.29192317 -0.021472454
0.163902 -0.66270924 0.070073605
0.163936 -0.58240819 0.068801403
0.17407601 -0.21703422 -0.30590439
0.163968 -0.50761724 0.06761837
0.163986 -0.46605623 0.066960335
0.160421 -0.29232717 -0.023646355
0.157906 -0.73153424 0.072411537
0.157934 -0.6623472 0.071315289
0.154459 -0.29273224 -0.025818348
0.151941 -0.73116016 0.073653698
0.151969 -0.66198719 0.072558403
0.161668 -0.21783125 -0.31060171
0.152031 -0.50696015 0.070105553
0.15204801 -0.46541524 0.069447517
0.152096 -0.35045516 0.067530632
0.14849199 -0.29313827 -0.027990341
0.15236901 -0.25143826 -0.18662643
0.146092 -0.79319525 0.070206642
0.145978 -0.73078716 0.074893475
0.14600401 -0.6616292 0.073800564
0.15545601 -0.2182312 -0.31294966
0.15907501 -0.1793102 -0.46101236
0.146064 -0.50663316 0.071347713
0.146129 -0.35018027 0.068682671
0.14252301 -0.29354525 -0.030161381
0.146264 -0.25184119 -0.18889475
0.14010601 -0.79254425 0.072411537
0.140018 -0.73041618 0.076135635
0.140044 -0.66127121 0.07504034
0.140074 -0.58103621 0.07377243
0.152734 -0.17970717 -0.46345329
0.140117 -0.46478021 0.071931362
0.140141 -0.39970517 0.070902348
0.140167 -0.34990418 0.069839478
0.134086 -0.66091621 0.076281548
0.134115 -0.58069718 0.075012684
0.14639001 -0.18010521 -0.46589565
0.134142 -0.50598323 0.073830605
0.134156 -0.46446419 0.073174477
0.13417999 -0.39940226 0.072143555
0.13420901 -0.34966326 0.070839405
0.130575 -0.29436123 -0.034497738
0.13404199 -0.25265121 -0.19342756
0.128152 -0.79132724 0.07653141
0.128106 -0.72967923 0.078613281
0.12813 -0.66056216 0.07752037
0.128158 -0.58035922 0.076253414
0.136804 -0.21943617 -0.31998873
0.14004099 -0.18050325 -0.46833467
0.12818401 -0.50566018 0.075071335
0.128198 -0.46415019 0.074414253
0.12822101 -0.39910126 0.073385715
0.12792601 -0.25305724 -0.19569254
0.122181 -0.79072225 0.078586578
0.122154 -0.72931325 0.079853535
0.122177 -0.66021025 0.078760624
0.12220401 -0.58002317 0.077491283
0.122242 -0.46383619 0.07565546
0.122302 -0.34919119 0.072807312
0.11860999 -0.29518116 -0.038831711
0.116216 -0.79017425 0.080441475
0.116203 -0.72894824 0.081091404
0.124348 -0.22024322 -0.32467651
0.116274 -0.50501919 0.077551365
0.116308 -0.39850116 0.075868607
0.11635201 -0.34898317 0.073664665
0.110256 -0.78962922 0.082289696
0.110255 -0.72858417 0.082330704
0.110276 -0.65950918 0.08123827
0.11811499 -0.22064817 -0.32702065
0.120969 -0.18170321 -0.47565174
0.110323 -0.50470018 0.078792572
0.11033601 -0.46321416 0.078136444
0.110355 -0.39820421 0.077108383
0.110406 -0.34878516 0.074481487
0.10663301 -0.29600322 -0.043160439
0.10802001 -0.23835826 -0.11883545
0.10429999 -0.78908622 0.084138393
0.10430999 -0.72822225 0.083567619
0.107788 -0.18035221 -0.1062026
0.104406 -0.39790821 0.078347683
0.100639 -0.29641616 -0.045323372
0.098351002 -0.78860617 0.085764408
0.09838599 -0.65881419 0.083713531
0.098407999 -0.57869124 0.082447529
0.10167199 -0.18003023 -0.10454559
0.108235 -0.18250823 -0.48052549
0.098439991 -0.46259725 0.080613613
0.098457992 -0.39761221 0.07958746
0.098520994 -0.34841323 0.076022625
0.094639003 -0.29683018 -0.047486305
0.095766991 -0.23768425 -0.11550856
0.092409 -0.78823519 0.087001324
0.092425004 -0.72750318 0.086042404
0.092442989 -0.6584692 0.084951401
0.092483997 -0.50375116 0.082508564
0.092494994 -0.46229017 0.081852436
0.092511997 -0.3973192 0.080825329
0.092581004 -0.34825516 0.076666355
0.088637993 -0.29724419 -0.049647331
0.089646995 -0.2373482 -0.1138463
0.08647199 -0.78786623 0.088237286
0.086503997 -0.65812516 0.086187363
0.086523995 -0.57803321 0.084924698
0.089449003 -0.17938924 -0.10123253
0.086542994 -0.50343823 0.08374548
0.086552992 -0.46198523 0.083090305
0.086568996 -0.39702618 0.082064629
0.082633004 -0.29765916 -0.051807404
0.080536991 -0.78749824 0.089472294
0.080550998 -0.72679019 0.088515282
0.080568001 -0.65778315 0.087424278
0.080586001 -0.57770717 0.086159706
0.083342001 -0.17907023 -0.099577427
0.083131999 -0.11394715 -0.085408688
0.082940996 -0.054974198 -0.072576523
0.077414989 -0.23668218 -0.11052561
0.074617997 -0.72643626 0.089749336
0.074633002 -0.65744221 0.088659286
0.074651003 -0.57738125 0.087396622
0.077238992 -0.17875218 -0.097922325
0.077041 -0.11364722 -0.083761692
0.074666992 -0.50281525 0.086218357
0.074776992 -0.34783518 0.078373432
0.070612997 -0.29849219 -0.056125641
0.068673998 -0.7867682 0.09194231
0.068686992 -0.72608423 0.090983391
0.068700999 -0.65710318 0.089893341
0.068732992 -0.50250518 0.087455273
0.068741992 -0.46107721 0.086800575
0.070785001 -0.054405212 -0.06929636
0.068755001 -0.39615524 0.085776329
0.064606994 0.052771807 -0.059274673
0.064594999 -0.29891026 -0.058281422
0.06274499 -0.78640521 0.093176365
0.062756002 -0.72573221 0.092218399
0.062769994 -0.65676522 0.091130257
0.062785 -0.57673526 0.089866638
0.065038994 -0.17812121 -0.09461832
0.064865991 -0.11304915 -0.080470562
0.06279999 -0.50219727 0.088690281
0.062807992 -0.46077621 0.088037491
0.062820002 -0.39586723 0.087013245
0.058545996 0.052998781 -0.05783844
0.058575999 -0.29932916 -0.060438633
0.059087995 -0.23569119 -0.10555172
0.056818996 -0.78604424 0.094409466
0.05683 -0.72538221 0.093452454
0.056856994 -0.57641423 0.091101646
0.058944996 -0.17780721 -0.092968464
0.058783997 -0.11275125 -0.078826427
0.056876998 -0.46047723 0.089273453
0.058592994 0.0077388287 -0.061965466
0.056986999 -0.34753323 0.079574585
0.052487995 0.053223848 -0.05640173
0.052437995 0.099190772 -0.051680565
0.052552994 -0.29974818 -0.062594414
0.052984994 -0.23536325 -0.10389566
0.050929997 -0.57609415 0.092336655
0.052853998 -0.17749417 -0.091318607
0.052705999 -0.11245525 -0.077184677
0.050948996 -0.46018016 0.090508461
0.052577 -0.053645253 -0.064909458
0.052531999 0.0079678297 -0.060568333
0.051060993 -0.34745622 0.079870701
0.046432 0.053447843 -0.054965496
0.046386 0.099410772 -0.050206661
0.046525996 -0.30016816 -0.064747334
0.044973996 -0.78532624 0.096876621
0.044983994 -0.72468817 0.095919609
0.044993993 -0.65575922 0.09483242
0.045005996 -0.57577622 0.093570709
0.046764996 -0.1771822 -0.089670658
0.046629999 -0.11216021 -0.075541496
0.046513993 -0.053404212 -0.063511372
0.046471994 0.0081957579 -0.05917263
0.045033995 -0.39501226 0.090718269
0.040336996 0.099630773 -0.048732758
0.040294997 0.13845879 -0.043963432
0.040246997 0.17874277 -0.0384655
0.040495995 -0.3005892 -0.06690073
0.040556997 -0.11186624 -0.073902607
0.039099995 -0.45958924 0.09297657
0.040453997 -0.053164244 -0.062113285
0.040415995 0.0084227324 -0.057775497
0.039108995 -0.39472926 0.091953278
0.039211996 -0.34736121 0.080206394
0.034146998 0.23072881 -0.029159546
0.034250997 0.13866878 -0.042491436
0.034207996 0.17894882 -0.036954403
0.034459997 -0.3010112 -0.069052696
0.034694996 -0.23438716 -0.09893465
0.033144996 -0.72399926 0.098385334
0.033152997 -0.65509725 0.097297668
0.033162996 -0.57514322 0.096037388
0.034595996 -0.17656219 -0.086376667
0.034484997 -0.11157322 -0.072261333
0.033171996 -0.50067616 0.094863415
0.034359995 0.0086487532 -0.056380749
0.033185996 -0.39444816 0.093188286
0.028072998 0.26692182 -0.02126646
0.028244998 0.10006678 -0.045785427
0.028210998 0.13887781 -0.041021347
0.028171998 0.1791538 -0.035446644
0.028421998 -0.30143416 -0.071205616
0.028603997 -0.23406422 -0.097283363
0.027275998 -0.78638625 0.092904568
0.027229998 -0.72365725 0.099615574
0.027236998 -0.65476823 0.098530293
0.027245998 -0.57482922 0.097270489
0.028516997 -0.17625415 -0.084730625
0.028417997 -0.11128116 -0.070623398
0.027253997 -0.50037622 0.096096516
0.027258996 -0.45900226 0.095443249
0.028338995 -0.052686214 -0.059318542
0.028308995 0.0088738203 -0.054986477
0.027265996 -0.39416826 0.094421387
0.027363997 -0.34732115 0.080304623
0.022052996 0.26711178 -0.019724369
0.022232998 0.054336786 -0.049230576
0.022173997 0.13908577 -0.039552689
0.022139996 0.17935878 -0.033937454
0.022380996 -0.30185819 -0.073354721
0.022516996 -0.23374319 -0.095633507
0.021592997 -0.79671526 0.055607319
0.021315996 -0.72331619 0.10084724
0.021322995 -0.65444016 0.099761486
0.022439998 -0.17594719 -0.083085537
0.022353996 -0.11099017 -0.068985462
0.021341998 -0.45871127 0.096677303
0.022259995 0.0090978146 -0.053592682
0.021347996 -0.39388919 0.095655441
0.021442998 -0.34733915 0.080176353
0.016068995 0.23132277 -0.024520397
0.016034998 0.26729977 -0.018181324
0.016189996 0.054556847 -0.04779768
0.016163997 0.1004988 -0.042843342
0.016109996 0.17956281 -0.032428741
0.016335998 -0.30228221 -0.075503349
0.016431998 -0.23342216 -0.093984604
0.015845995 -0.80716026 0.017893314
0.015406996 -0.72304726 0.10181856
0.015417997 -0.57420516 0.099733353
0.016366996 -0.17564118 -0.08144331
0.016292997 -0.11070025 -0.06734848
0.016235996 -0.052213192 -0.056529522
0.016212996 0.0093268156 -0.052162647
0.015432995 -0.39361119 0.096887589
0.015520997 -0.34735918 0.080050468
0.010045996 0.23151881 -0.022975445
0.010018997 0.26748776 -0.016639709
0.010147996 0.054775834 -0.046365738
0.010126997 0.10071379 -0.04137373
0.010105997 0.13949877 -0.036615372
0.010080997 0.17976582 -0.030920506
0.010284998 -0.30270827 -0.077652454
0.0096639972 -0.73302126 0.064603329
0.0095059965 -0.57389522 0.1009655
0.010293996 -0.17533624 -0.079801559
0.0095109958 -0.49948323 0.09979248
0.0095179975 -0.39333415 0.098120689
0.0095979962 -0.34742117 0.079730511
0.0040289965 0.23171479 -0.021431446
0.0039799958 0.30935478 -0.0073466301
0.0041109957 0.054993749 -0.044935703
0.0040929969 0.10092878 -0.039904594
0.0039199963 0.38978881 0.0096726418
0.0040769968 0.13970476 -0.035147667
0.0042319968 -0.3031342 -0.079799652
0.004158996 -0.82841027 -0.058815479
0.0038599968 -0.74310327 0.026988506
0.0042269975 -0.17503226 -0.078159332
0.0041779969 -0.11012423 -0.064078331
0.003600996 -0.49918818 0.10102463
0.0036039967 -0.45784521 0.10037231
0.0041409973 -0.051744223 -0.053740501
0.0041259974 0.0097837448 -0.049295425
0.0036069974 -0.39305925 0.09935236
0.0036769975 -0.34749925 0.079339504
-0.0019860025 0.23190981 -0.019888401
-0.0020490028 0.35836279 0.0041546822
-0.001938004 0.10114181 -0.038435459
-0.0020680036 0.38995582 0.011285305
-0.0020960029 0.43581581 0.021886349
-0.0019650031 0.18016982 -0.027909756
-0.0018240027 -0.30356121 -0.081944466
-0.0017820038 -0.83921623 -0.097815514
-0.0020090025 -0.75330019 -0.011048317
-0.0023090038 -0.57327926 0.10342646
-0.0018380042 -0.17472923 -0.076518536
-0.0018750038 -0.10983825 -0.062444687
-0.0019010026 -0.051511168 -0.05234766
-0.0019130036 0.010009766 -0.047863483
-0.0080100037 0.26804781 -0.012020588
-0.0080230031 0.30971777 -0.0041904449
-0.0079570031 0.05542779 -0.042075634
-0.0079660034 0.10135376 -0.036966324
-0.0080530038 0.39012182 0.01289463
-0.0079740034 0.14011377 -0.032215595
-0.0079840031 0.18036979 -0.026404381
-0.0078840032 -0.30398917 -0.084091663
-0.0078370031 -0.23661017 -0.11081553
-0.0077910032 -0.85014617 -0.13725853
-0.0079440037 -0.76361322 -0.049512386
-0.0081140036 -0.66787624 0.04756546
-0.0082130032 -0.57297325 0.1046567
-0.0079000033 -0.17442822 -0.0748806
-0.0079240035 -0.10955226 -0.06081152
-0.0082110036 -0.49860215 0.10348558
-0.0082100034 -0.45727515 0.10283327
-0.014008003 0.23229676 -0.016806602
-0.014014004 0.26823276 -0.010480404
-0.014029004 0.35870081 0.0072994232
-0.013987003 0.055642843 -0.040647507
-0.013992004 0.10156578 -0.035500526
-0.014045004 0.4361338 0.02518034
-0.013996003 0.14031678 -0.030750751
-0.014064003 0.51908779 0.047068596
-0.013948003 -0.30441821 -0.086235523
-0.013895003 -0.24334323 -0.1461997
-0.013946003 -0.77404416 -0.088411331
-0.014031003 -0.67762923 0.0097546577
-0.014115004 -0.57266819 0.10588551
-0.014114004 -0.49831223 0.10471439
-0.014114004 -0.4569912 0.10406446
-0.013980003 -0.051047206 -0.049563408
-0.013983004 0.010460734 -0.045001507
-0.014113003 -0.39224017 0.10304546
-0.014090003 -0.3478992 0.077410698
-0.020017004 0.23248976 -0.015265465
-0.020017004 0.055857778 -0.039218426
-0.020017004 0.10177678 -0.034033298
-0.020017004 0.39045179 0.016112328
-0.020017004 0.43629181 0.026825428
-0.020017004 0.14051878 -0.029284477
-0.020017004 0.18076879 -0.023396492
-0.020017004 0.48780382 0.040122509
-0.020017004 0.56341779 0.061414242
-0.020017004 -0.25014818 -0.18195534
-0.020017004 -0.78459823 -0.12776375
-0.020017004 -0.68749523 -0.028490543
-0.020017004 -0.18107522 -0.11134052
-0.020017004 -0.4980222 0.10594559
-0.020017004 -0.45670927 0.10529661
-0.020017004 -0.050817251 -0.048170567
-0.020017004 -0.39197016 0.1042757
-0.020017004 -0.34813523 0.076296329
-0.026021004 0.23268181 -0.013725758
-0.026015002 0.26860076 -0.0074057579
-0.026008002 0.31025577 0.00053548813
-0.026000004 0.3590368 0.010443687
-0.026042003 0.056070805 -0.037790298
-0.026037004 0.10198581 -0.032567501
-0.025993004 0.39061677 0.017720699
-0.025984004 0.43644881 0.028468609
-0.026033003 0.14072078 -0.027821541
-0.025972003 0.48794776 0.041758537
-0.025954004 0.56354678 0.063084602
-0.025942003 0.6076408 0.076807499
-0.026088003 -0.30527925 -0.090520382
-0.026199004 -0.25702226 -0.2180686
-0.026155002 -0.79527116 -0.16755342
-0.026067004 -0.69747126 -0.067156315
-0.025969002 -0.58746517 0.045771599
-0.026137004 -0.18753016 -0.14673138
-0.026050003 -0.05058825 -0.04678154
-0.025917003 -0.39170122 0.10550642
-0.031997003 0.3104338 0.0021085739
-0.031980004 0.35920781 0.012052536
-0.032064002 0.056283832 -0.036364555
-0.031948004 0.4366048 0.030110359
-0.032047004 0.14092082 -0.026358604
-0.032037005 0.1811648 -0.020393372
-0.031888004 0.56367582 0.064751625
-0.032163002 -0.3057102 -0.092662334
-0.032445002 -0.26391423 -0.25427341
-0.032364003 -0.80606818 -0.20779943
-0.032186002 -0.70756221 -0.1062603
-0.031812005 -0.49744618 0.10840368
-0.031813003 -0.45614922 0.10775137
-0.031873003 -0.34874523 0.073429585
-0.038021006 0.2330628 -0.010648727
-0.038005002 0.26896578 -0.0043354034
-0.037957005 0.35937881 0.013661385
-0.038071003 0.10240382 -0.029637337
-0.037910003 0.43676078 0.031752586
-0.038043004 0.18136078 -0.018891335
-0.037875004 0.48823577 0.045031548
-0.037852004 0.51964778 0.053767681
-0.037783004 0.60788178 0.080211639
-0.037714005 0.68715477 0.10668468
-0.038241003 -0.30614221 -0.094801426
-0.038644001 -0.81699216 -0.24851465
-0.038375005 -0.71776927 -0.14581156
-0.038073003 -0.60620022 -0.030325413
-0.038566001 -0.20064116 -0.21860743
-0.038355004 -0.12297416 -0.13821554
-0.037800003 -0.50557816 0.073825359
-0.037708003 -0.45587015 0.10898256
-0.038168006 -0.053881168 -0.066699505
-0.038096003 0.011351824 -0.03928566
-0.037711002 -0.3911922 0.1078434
-0.037806004 -0.34914422 0.071561337
-0.044019006 0.23325276 -0.0091094971
-0.043997005 0.26914781 -0.002799511
-0.043934003 0.35954881 0.01527071
-0.044104002 0.056706786 -0.033512592
-0.044085003 0.10261077 -0.028173447
-0.043908004 0.39110577 0.022539616
-0.043871004 0.43691677 0.033394337
-0.044069003 0.14132577 -0.023396492
-0.044048004 0.18155777 -0.017390728
-0.043551005 0.7323398 0.12479448
-0.043701004 0.60800183 0.081912518
-0.043661006 0.64343083 0.09332037
-0.043609001 0.68725681 0.10841465
-0.044998005 -0.82804716 -0.28971338
-0.044636004 -0.7280972 -0.18582344
-0.044228002 -0.61573124 -0.069028378
-0.044878006 -0.20730126 -0.2551136
-0.043860003 -0.51440823 0.036287308
-0.044342004 -0.05965817 -0.10165262
-0.043744005 -0.34958017 0.069523335
-0.050012004 0.23344177 -0.0075745583
-0.049985003 0.26932877 -0.0012664795
-0.049950004 0.31096476 0.0068244934
-0.050119005 0.056916833 -0.032087326
-0.049827002 0.4370718 0.03503561
-0.050075002 0.14152879 -0.021895409
-0.049769003 0.4885208 0.048299313
-0.049675003 0.56405979 0.069750309
-0.049615003 0.6081208 0.083611488
-0.049565002 0.64354378 0.095057487
-0.049499005 0.6873588 0.11014271
-0.051118001 -0.26520419 -0.26099443
-0.050967004 -0.73854315 -0.22628736
-0.051253006 -0.21403027 -0.29198933
-0.050895005 -0.13541424 -0.20993233
-0.049987003 -0.52333522 -0.0016613007
-0.049735002 -0.46798515 0.056111336
-0.050577004 -0.065493226 -0.13695145
-0.049499005 -0.39070618 0.11010265
-0.056003004 0.23362976 -0.0060386658
-0.055970002 0.26950878 0.00026655197
-0.055928003 0.31113976 0.0083942413
-0.056104004 0.10302281 -0.025248528
-0.055837002 0.39142781 0.025745392
-0.055780005 0.43722582 0.0366745
-0.056047004 0.18194681 -0.014392376
-0.055300005 0.73252475 0.12831736
-0.055664003 0.5200628 0.058783531
-0.055180002 0.81199378 0.15118647
-0.055598002 0.56418878 0.07144165
-0.055525005 0.60823977 0.085310459
-0.055465002 0.64365679 0.096792698
-0.055386003 0.68746078 0.11187029
-0.056502003 -0.30744517 -0.10121775
-0.057371002 -0.74911118 -0.26722145
-0.057696003 -0.22083116 -0.32925034
-0.057262003 -0.14173222 -0.24634075
-0.056181002 -0.53236425 -0.040035725
-0.055875003 -0.47663116 0.018381596
-0.056876004 -0.071389198 -0.17261028
-0.056469005 0.0026217699 -0.095036507
-0.055407003 -0.39118624 0.10794163
-0.055629004 -0.35045421 0.065451622
-0.061992005 0.2338168 -0.0045046806
-0.061953004 0.26968777 0.0017986298
-0.061903004 0.31131476 0.0099644661
-0.062416002 0.050632834 -0.073926449
-0.062109005 0.10322779 -0.023787498
-0.061797004 0.39158881 0.027348518
-0.062080003 0.1419338 -0.018893719
-0.062043004 0.18213981 -0.01289463
-0.061170004 0.73261678 0.13007641
-0.061649002 0.4888038 0.051563263
-0.061595004 0.52020079 0.060452461
-0.061031003 0.81205583 0.1527195
-0.061362002 0.64376879 0.098526478
-0.062595002 -0.30788124 -0.1033535
-0.064374998 -0.23275924 -0.39462233
-0.063694 -0.14811516 -0.28312731
-0.062446002 -0.5414952 -0.07884264
-0.063239008 -0.077345252 -0.20863533
-0.062760003 -0.0028941631 -0.13026953
-0.061532002 -0.39934421 0.070784569
-0.067977004 0.23400378 -0.0029706955
-0.067876004 0.31148881 0.011532307
-0.067805007 0.3602218 0.021695614
-0.068320006 0.099161804 -0.052092552
-0.067754 0.39174879 0.028950691
-0.066949002 0.76635683 0.14434958
-0.067585006 0.48894477 0.053194523
-0.066880003 0.81211782 0.15425158
-0.066832006 0.84393281 0.16113424
-0.067433998 0.56444782 0.074850559
-0.066762999 0.88946676 0.17098761
-0.067257002 0.64388078 0.1002593
-0.067151003 0.68766278 0.11532259
-0.070404008 -0.77062416 -0.35053062
-0.069550008 -0.65495622 -0.22826147
-0.070728004 -0.23318923 -0.39694166
-0.068781003 -0.55073225 -0.11809063
-0.069667004 -0.083365202 -0.24503469
-0.069114 -0.0084671974 -0.16586256
-0.067725003 -0.4075942 0.033213615
-0.067528002 -0.35133219 0.061382294
-0.073962003 0.2341888 -0.0014367104
-0.073768005 0.3603878 0.023301601
-0.075084001 0.040061831 -0.14433575
-0.074633002 0.094162762 -0.086904526
-0.073711008 0.39190781 0.030551434
-0.072901003 0.73279977 0.13359356
-0.072805002 0.76642883 0.14588547
-0.073449999 0.52047378 0.06378746
-0.072727002 0.8121798 0.15578365
-0.072673008 0.84398782 0.16266346
-0.073348999 0.56457579 0.076552391
-0.073241003 0.60859478 0.090401649
-0.072595999 0.88951182 0.17251158
-0.07254 0.92253578 0.17965555
-0.073150009 0.64399278 0.10199261
-0.073031008 0.68776381 0.11704636
-0.074796006 -0.30875516 -0.10762358
-0.077037007 -0.78157616 -0.39293242
-0.076065004 -0.66505218 -0.26923561
-0.077087 -0.23362124 -0.39926052
-0.075190008 -0.56007826 -0.15779734
-0.074716002 -0.50316322 -0.097379684
-0.073988006 -0.41594017 -0.0047855377
-0.081514999 0.034694791 -0.1800766
-0.079566002 0.43783677 0.043221474
-0.080587998 0.13433778 -0.073844433
-0.080158003 0.18058276 -0.024542332
-0.078657001 0.76650083 0.14742041
-0.079450004 0.48922682 0.056479454
-0.079372004 0.5206098 0.065455437
-0.078570008 0.81224179 0.15731239
-0.078510001 0.84404278 0.16419029
-0.079140007 0.60871178 0.092096329
-0.078425005 0.88955677 0.17403364
-0.078362003 0.92257279 0.18117332
-0.079038002 0.64410377 0.10372353
-0.078906998 0.68786383 0.11877155
-0.082654998 -0.67526519 -0.31067657
-0.081671 -0.56953025 -0.19795036
-0.082022004 -0.019790173 -0.23816347
-0.080320001 -0.42437816 -0.043201447
-0.085920006 0.23455882 0.0016264915
-0.085859999 0.27039778 0.0079183578
-0.088010997 0.029271841 -0.21618462
-0.087448999 0.084012747 -0.15757275
-0.085611999 0.39222479 0.033750534
-0.085505009 0.43798882 0.044857502
-0.086980999 0.12950081 -0.10886765
-0.084506005 0.76657176 0.1489563
-0.085378006 0.48936981 0.058149338
-0.085291997 0.5207448 0.067120552
-0.08441101 0.81230283 0.15884256
-0.084344998 0.84409678 0.16571856
-0.085168004 0.56483179 0.079957485
-0.084251001 0.88960081 0.17555666
-0.084182009 0.92260981 0.18269348
-0.084923998 0.64421475 0.10545349
-0.084779009 0.68796378 0.12049246
-0.08407101 0.9761008 0.19425964
-0.089321002 -0.68560016 -0.35260439
-0.089813009 -0.23448622 -0.40389442
-0.086723998 -0.43291318 -0.082053661
-0.086043999 -0.36675525 -0.011218548
-0.092245996 0.23056382 -0.030318737
-0.09183 0.27057379 0.0094466209
-0.091742009 0.31217778 0.017798424
-0.091634005 0.36088377 0.028106689
-0.09395501 0.07885778 -0.19345045
-0.091559008 0.39238179 0.035347462
-0.091442004 0.4381398 0.046490669
-0.093438998 0.12461281 -0.14424944
-0.092913002 0.17139381 -0.093945503
-0.090475008 0.73307079 0.13885927
-0.090352997 0.76664281 0.15048742
-0.091302007 0.48951179 0.059817314
-0.091074005 0.56495976 0.081656456
-0.090929002 0.60894477 0.095482349
-0.090074003 0.8896448 0.17707729
-0.090000004 0.92264676 0.18421268
-0.090806007 0.64432579 0.10718155
-0.089879006 0.97612578 0.19577265
-0.096065998 -0.69605815 -0.39502764
-0.09420301 -0.53062224 -0.21713066
-0.093199998 -0.4415462 -0.12134552
-0.092449009 -0.37492919 -0.049710751
-0.098660007 0.22623682 -0.064915657
-0.098160997 0.26692379 -0.020973682
-0.097704008 0.31234878 0.019363403
-0.097586006 0.3610478 0.029708385
-0.097504005 0.39253879 0.036946297
-0.099966004 0.11967379 -0.18000174
-0.099389002 0.16672778 -0.12918472
-0.096328005 0.73316079 0.14061356
-0.096087009 0.81242579 0.16190052
-0.096978009 0.56508678 0.083355427
-0.09682101 0.60906076 0.097175598
-0.095897004 0.88968879 0.17859936
-0.096688002 0.64443576 0.10891056
-0.095685005 0.97615081 0.19728756
-0.101087 -0.2686832 -0.27887869
-0.102892 -0.70664525 -0.43796635
-0.101568 -0.59856021 -0.32123661
-0.099751011 -0.45028126 -0.16109753
-0.098929003 -0.38319921 -0.088651657
-0.10513601 0.22186679 -0.099852562
-0.103974 0.30960381 -0.0046854019
-0.103534 0.36121178 0.031307697
-0.10344501 0.39269477 0.038542271
-0.10330801 0.43843877 0.049755573
-0.106557 0.11468381 -0.21611261
-0.10204001 0.76678479 0.15355444
-0.10192001 0.81248581 0.16342926
-0.10183601 0.84425879 0.17029428
-0.102708 0.60917675 0.098867416
-0.101716 0.88973278 0.18012047
-0.101629 0.92272079 0.18724728
-0.10256501 0.64454478 0.11063862
-0.10148701 0.97617579 0.1987977
-0.101744 1.0099998 0.17782927
-0.10735101 -0.26912117 -0.28111029
-0.108936 -0.23579121 -0.41084242
-0.107573 -0.54947019 -0.29930353
-0.10637601 -0.45911527 -0.20129633
-0.111679 0.21745276 -0.13514376
-0.111092 0.25860578 -0.090311527
-0.11042 0.3056888 -0.039018631
-0.109237 0.43858778 0.051385403
-0.112537 0.15725076 -0.20072937
-0.107879 0.76685584 0.15508556
-0.109061 0.48993582 0.064821243
-0.108944 0.52128077 0.073776245
-0.10775 0.81254679 0.16495562
-0.10766001 0.84431279 0.17181826
-0.10877401 0.56533879 0.086750507
-0.108593 0.60929179 0.10055828
-0.10753201 0.88977581 0.18163967
-0.108439 0.64465475 0.11236334
-0.10824201 0.68835878 0.12737465
-0.107287 0.97620082 0.20030832
-0.111486 -0.31139827 -0.12040854
-0.116787 -0.72819924 -0.52537441
-0.113077 -0.46805322 -0.24196053
-0.11765501 0.25438279 -0.12550735
-0.116932 0.30173379 -0.073694706
-0.116097 0.35636377 -0.013917446
-0.115565 0.39121282 0.024215698
-0.113866 0.73342884 0.14586735
-0.11371601 0.76692581 0.15661669
-0.11497401 0.49007678 0.066487312
-0.11357801 0.81260681 0.16648149
-0.114668 0.56546378 0.088447571
-0.114475 0.60940576 0.10224628
-0.113345 0.8898198 0.1831584
-0.11431 0.64476275 0.11408949
-0.11410001 0.68845779 0.12910557
-0.113417 1.0100008 0.17803335
-0.117614 -0.3118422 -0.12253475
-0.12386 -0.73917317 -0.56986952
-0.122171 -0.62863624 -0.44891548
-0.12125701 -0.56876624 -0.38340569
-0.118809 -0.40857816 -0.20812464
-0.123509 0.29773778 -0.10872364
-0.122614 0.3526758 -0.048345566
-0.122042 0.38771981 -0.0098295212
-0.121222 0.43800181 0.045433521
-0.119706 0.73351777 0.14761639
-0.11955 0.76699579 0.15814543
-0.120885 0.49021578 0.068151474
-0.12075201 0.52154577 0.07709837
-0.12055901 0.56558877 0.090141296
-0.120354 0.60952079 0.10393524
-0.119156 0.88986278 0.18467665
-0.11905101 0.92282981 0.1917944
-0.119955 0.6885578 0.13086128
-0.11888 0.97625077 0.20333147
-0.123915 -0.31457019 -0.13603544
-0.12920301 -0.63890421 -0.49249554
-0.12671401 -0.48624623 -0.32471657
-0.125589 -0.41723621 -0.24887133
-0.13015601 0.2936998 -0.14412069
-0.129197 0.34894979 -0.083127499
-0.127709 0.4347508 0.011589527
-0.12554501 0.73360682 0.14936543
-0.125383 0.76706576 0.15967655
-0.12679501 0.49035478 0.069815636
-0.126449 0.56571376 0.091837406
-0.126232 0.60963476 0.10562325
-0.12496701 0.88990581 0.18619442
-0.124855 0.92286581 0.19330931
-0.126045 0.64497983 0.1175375
-0.125808 0.68865776 0.13261938
-0.12467401 0.97627479 0.20481968
-0.125091 1.0100008 0.17823935
-0.130656 -0.32260621 -0.17596674
-0.132448 -0.27088523 -0.29002762
-0.134491 -0.23754215 -0.42009163
-0.133654 -0.49550819 -0.3668375
-0.135195 0.38062578 -0.078958511
-0.13426 0.43146878 -0.022582531
-0.13137901 0.73369479 0.15111351
-0.130935 0.8445248 0.17790747
-0.13233401 0.5658378 0.093530655
-0.13210601 0.60974777 0.10730934
-0.13077301 0.88994879 0.18771267
-0.13065501 0.9229008 0.19482327
-0.131908 0.64508778 0.11926031
-0.131657 0.68875682 0.13437557
-0.130483 0.97627878 0.20516348
-0.13092801 1.0100018 0.1783433
-0.13189401 1.0506728 0.12009859
-0.137473 -0.33073425 -0.21634769
-0.138731 -0.27132821 -0.29225349
-0.14352401 -0.65982115 -0.58125353
-0.142398 -0.59859121 -0.5133605
-0.139387 -0.43486321 -0.33180952
-0.14187001 0.37702477 -0.11404657
-0.14087601 0.42815179 -0.057099342
-0.13721101 0.73378181 0.15285969
-0.13703901 0.76720381 0.1627326
-0.139777 0.48468179 0.0058636665
-0.136747 0.84457678 0.17942858
-0.138217 0.56596076 0.095221519
-0.136576 0.88999176 0.18922853
-0.136452 0.9229368 0.1963377
-0.137767 0.64519477 0.12098265
-0.13629201 0.97628278 0.20550537
-0.150814 -0.67047119 -0.62643862
-0.14961401 -0.60877526 -0.55772161
-0.147779 -0.51436019 -0.45256042
-0.14640699 -0.44383216 -0.37400675
-0.147559 0.42480081 -0.091966629
-0.14304 0.73386979 0.15460539
-0.14286301 0.76727283 0.16425943
-0.146393 0.48164481 -0.028369427
-0.14569099 0.51587379 0.0099263191
-0.142682 0.81290483 0.17410469
-0.14255701 0.84462881 0.18094826
-0.144715 0.56346577 0.06317234
-0.14384501 0.60997283 0.11068058
-0.142377 0.89003378 0.19074249
-0.14224701 0.9229728 0.19784832
-0.143346 0.68895483 0.13788557
-0.142101 0.97628677 0.20584726
-0.14260601 1.0099978 0.17826748
-0.151345 -0.34727716 -0.29852152
-0.151311 -0.27221715 -0.29670572
-0.15819301 -0.68125427 -0.67217875
-0.153511 -0.45290923 -0.4167037
-0.153078 0.47857577 -0.062955379
-0.152335 0.51299381 -0.024274349
-0.15130299 0.56084377 0.029502392
-0.150286 0.60795283 0.082446575
-0.148041 0.92300779 0.19936037
-0.14791 0.97629178 0.20619059
-0.14845 1.0099938 0.1780715
-0.149681 1.0506338 0.11395168
-0.15840399 -0.35569823 -0.34034348
-0.157609 -0.27266324 -0.29893064
-0.16224501 -0.53367627 -0.54036665
-0.16069999 -0.46209919 -0.4599247
-0.15469 0.73404378 0.15809536
-0.154505 0.7674098 0.16731167
-0.159044 0.51008379 -0.058813572
-0.15430801 0.81302178 0.17714739
-0.15417001 0.84473276 0.18398571
-0.156881 0.60555983 0.048974514
-0.153974 0.89011878 0.19377232
-0.15383101 0.92304379 0.20087242
-0.15502501 0.68915081 0.14139032
-0.15371799 0.97629577 0.20653343
-0.154293 1.0099908 0.17787552
-0.155617 1.0506198 0.11189938
-0.165545 -0.36421716 -0.38264751
-0.166528 -0.23975217 -0.43163872
-0.16051 0.73412979 0.15983725
-0.165821 0.50714481 -0.093700409
-0.160116 0.81307983 0.1786685
-0.159973 0.8447848 0.18550444
-0.163541 0.60314178 0.015169621
-0.162641 0.64100575 0.058110714
-0.161541 0.68730283 0.11061668
-0.160137 1.0099868 0.17768049
-0.170467 -0.27586019 -0.31547165
-0.172948 -0.24019623 -0.43394375
-0.17706101 -0.5534662 -0.63030529
-0.175335 -0.48080921 -0.54790354
-0.165922 0.81313777 0.18018866
-0.165773 0.84483576 0.1870203
-0.17145801 0.55281979 -0.073523521
-0.170267 0.60069883 -0.018972397
-0.16555899 0.89020276 0.19679928
-0.16540401 0.92311382 0.20389271
-0.168164 0.68530977 0.077422619
-0.165332 0.9763028 0.20721865
-0.167501 1.0505937 0.10779238
-0.18008199 -0.38156521 -0.46877432
-0.179372 -0.24064219 -0.43624973
-0.182786 -0.49033725 -0.59269857
-0.172704 0.76600075 0.13855553
-0.171725 0.81319582 0.18170834
-0.17157 0.84488779 0.1885376
-0.17134801 0.89024478 0.19831133
-0.171187 0.92314881 0.20540237
-0.17606799 0.63650477 -0.0096564293
-0.171138 0.9763068 0.20756149
-0.17182501 1.0099788 0.17728949
-0.17346799 1.0505757 0.10491467
-0.187481 -0.39039719 -0.51261473
-0.185801 -0.24108815 -0.43855572
-0.17935599 0.76440078 0.10562325
-0.178058 0.81231678 0.16071844
-0.177367 0.84493876 0.19005442
-0.183927 0.59573781 -0.088309288
-0.17696901 0.92318279 0.20691156
-0.18288399 0.63421881 -0.044062614
-0.176946 0.97630978 0.20790529
-0.179462 1.0505518 0.10112238
-0.192286 -0.30022526 -0.44303274
-0.183778 0.84405482 0.16625547
-0.182748 0.92321777 0.20841837
-0.18843199 0.67920679 -0.024170399
-0.182752 0.97631377 0.20824766
-0.18351799 1.0099708 0.17689943
-0.185463 1.0505278 0.097327709
-0.199733 -0.30854321 -0.48657036
-0.193904 0.72543579 -0.0026535988
-0.192855 0.76115382 0.038798332
-0.190455 0.84284377 0.13360357
-0.18852299 0.92325181 0.20992661
-0.19532301 0.67713177 -0.058712482
-0.189364 1.0099669 0.17670345
-0.19147 1.0505037 0.093527317
-0.20521501 -0.24316418 -0.44947433
-0.199705 0.75950575 0.0048856735
-0.19575299 0.8889448 0.1558094
-0.194717 0.92288077 0.19537735
-0.19521099 1.0099618 0.17650938
-0.197492 1.0504788 0.089400291
-0.207771 0.7217418 -0.071666718
-0.205075 0.80676377 0.027935505
-0.20142099 0.92205882 0.16300058
-0.200169 0.97632378 0.20927668
-0.20106 1.0099578 0.1763134
-0.20365 1.0504237 0.080600262
-0.213615 0.75615883 -0.063976288
-0.210887 0.83913678 0.033689499
-0.209315 0.88694781 0.08996439
-0.206385 0.97607177 0.19486427
-0.206909 1.0099537 0.17612028
-0.21899 0.8039028 -0.040454388
-0.217833 0.83787578 -0.00027656555
-0.216196 0.88593477 0.056558609
-0.213145 0.97550881 0.16248751
-0.21276601 1.0099458 0.17562771
-0.22314499 0.88491082 0.022816658
-0.22192401 0.91954279 0.063968658
-0.21997 0.97494078 0.1297946
-0.23016401 0.8838768 -0.011262417
-0.228894 0.91868782 0.030301571
-0.226863 0.97436577 0.096777439
-0.225582 1.0094918 0.1387167
-0.235936 0.91782379 -0.0037136078
-0.233826 0.97378576 0.063426495
-0.23249499 1.0090878 0.10577869
-0.239475 1.0086808 0.072523594
-0.247958 0.9726088 -0.0042614937
-0.246525 1.0082688 0.038938522
