# .PCD v0.7 - Point Cloud Data file format
VERSION 0.7
FIELDS x y z
SIZE 4 4 4
TYPE F F F
COUNT 1 1 1
WIDTH 1
HEIGHT 1024
VIEWPOINT 0 0 0 1 0 0 0
POINTS 1024
DATA ascii
1.0310043 0.043891609 -0.032647133
1.0130134 0.055654585 0.050969601
1.0144833 0.094762564 0.040448666
1.0093753 0.14600259 0.032254696
1.0068463 0.05570358 0.050475597
1.0055484 0.097463608 0.059834957
1.0033534 0.14590061 0.030595779
1.0006803 0.055752575 0.04998064
0.9994483 0.097453594 0.058916569
0.99737835 0.14575261 0.028578758
0.99451435 0.055800557 0.049483776
0.9933483 0.097442567 0.05799675
0.99140233 0.14560461 0.026561737
0.98835033 0.055847585 0.048987865
0.98724931 0.0974316 0.057078838
0.9854213 0.1454556 0.024544716
0.98218435 0.055894613 0.048491001
0.98114735 0.09741956 0.056159973
0.97944134 0.14530557 0.022528648
0.97602034 0.055939555 0.04799366
0.97504735 0.097406566 0.055241585
0.97345734 0.14515561 0.020514011
0.96985734 0.055984557 0.047496796
0.96894634 0.097393572 0.054323673
0.96747231 0.14500457 0.018497944
0.96369535 0.056028605 0.046998978
0.96284634 0.097379565 0.053404808
0.96148431 0.14485258 0.016481876
0.95753133 0.056071579 0.046500683
0.9567433 0.097364604 0.052485943
0.95549434 0.14470059 0.014465809
0.9513703 0.056114554 0.046000957
0.95065033 0.097341597 0.051506996
0.94950235 0.14454859 0.012454033
0.94521034 0.056155562 0.045501709
0.94457334 0.097300589 0.050407887
0.94350833 0.14439559 0.010439873
0.93905032 0.05619657 0.045004845
0.93849534 0.097259581 0.04930687
0.93751234 0.14424157 0.0084247589
0.9328903 0.056236565 0.044504642
0.93241632 0.097218573 0.048206806
0.9315123 0.1440866 0.0064105988
0.92673033 0.056275606 0.044004917
0.92633533 0.097175598 0.047106743
0.92551231 0.14393157 0.0043988228
0.92057133 0.056314588 0.043503761
0.9202553 0.097132564 0.046007633
0.91958231 0.14370257 0.0018019676
0.91441435 0.056351602 0.043004036
0.91417533 0.097088575 0.044909
0.91370434 0.1434176 -0.0012311935
0.90825635 0.056388557 0.042503834
0.90809435 0.097044587 0.043808937
0.90781933 0.14313257 -0.0042619705
0.9020983 0.056424558 0.042001724
0.90201032 0.096999586 0.042709827
0.9019323 0.1428476 -0.0072922707
0.89596134 0.056437612 0.041340828
0.89592832 0.096953571 0.041610718
0.89604235 0.1425606 -0.010324001
0.88983333 0.056440592 0.04061079
0.89014733 0.14227456 -0.013354301
0.88370532 0.056442559 0.039879799
0.88376135 0.096859574 0.039413929
0.88424832 0.14198661 -0.016385078
0.88340831 0.010397553 -0.0093922615
0.8775773 0.056443572 0.039150715
0.87767732 0.096811593 0.038314819
0.8783443 0.1416986 -0.01941824
0.87682033 0.010902643 -0.0066390038
0.87144732 0.056443572 0.038419724
0.87159133 0.096763611 0.037214756
0.87318832 0.14061159 -0.02879715
0.87024134 0.011404634 -0.0038952827
0.86531931 0.056443572 0.037688732
0.86550534 0.096713603 0.0361166
0.86366934 0.011904597 -0.0011582375
0.8591913 0.056442559 0.036957741
0.85941935 0.096663594 0.035018921
0.85711634 0.012387633 0.0014638901
0.85306334 0.056440592 0.036226749
0.85333234 0.096613586 0.033919811
0.85081834 0.012555599 0.0019168854
0.84693331 0.056437612 0.035496712
0.84724331 0.096561611 0.032821655
0.84452534 0.012723565 0.002368927
0.84080535 0.056434572 0.034764767
0.84115434 0.096509576 0.031723976
0.83823431 0.012890577 0.0028166771
0.83467734 0.056430578 0.034032822
0.83506531 0.096457601 0.03062582
0.8319453 0.013055563 0.003264904
0.82854933 0.056425571 0.033302784
0.82897633 0.096403599 0.029526711
0.82242131 0.056419611 0.032570839
0.82288533 0.096349597 0.028430939
0.8193723 0.013383627 0.0041546822
0.81629133 0.056412578 0.03183794
0.81679231 0.096294582 0.027331829
0.81308931 0.013545632 0.0045976639
0.81016332 0.056405604 0.031105042
0.8107003 0.096239567 0.026234627
0.80680931 0.013707638 0.0050406456
0.80403435 0.056397557 0.030375004
0.80460835 0.096183598 0.025136948
0.80053031 0.013867617 0.0054807663
0.79790634 0.05638957 0.029641628
0.79853135 0.096106589 0.023888588
0.79425335 0.014027596 0.0059218407
0.7917763 0.056379557 0.02890873
0.79245633 0.096022606 0.022593021
0.78798932 0.014172554 0.0062637329
0.78564733 0.056369603 0.028175831
0.78638232 0.09593761 0.021296024
0.78178233 0.014240623 0.0060806274
0.77951831 0.056358576 0.027441978
0.78030735 0.0958516 0.019999027
0.77557731 0.014307618 0.0058937073
0.77338934 0.056346595 0.026710033
0.77423131 0.095765591 0.018702984
0.76937234 0.014373541 0.0057086945
0.76726031 0.056333601 0.025975704
0.76815331 0.095679581 0.01740694
0.76316732 0.014438629 0.0055217743
0.76112932 0.056320608 0.025242805
0.76207334 0.095591605 0.016110897
0.75696534 0.014502525 0.0053329468
0.75500035 0.056306601 0.024509907
0.75599331 0.095503569 0.014815807
0.7507633 0.014566541 0.0051460266
0.74888533 0.056271613 0.023630619
0.74991232 0.095414579 0.013519764
0.74456233 0.01462853 0.0049548149
0.74277431 0.056230605 0.022711754
0.74383032 0.095325589 0.012222767
0.73836035 0.014690638 0.0047659874
0.73666131 0.056188583 0.021793842
0.73774534 0.095235586 0.010927677
0.73216134 0.0147506 0.004573822
0.73054832 0.056145608 0.020874977
0.73166031 0.09514457 0.0096340179
0.72596234 0.014810562 0.0043826103
0.72443533 0.056101561 0.019954681
0.72557431 0.095053613 0.0083398819
0.71976531 0.014869571 0.0041918755
0.71832234 0.056057572 0.019038677
0.71948731 0.09496057 0.0070438385
0.71356833 0.014927626 0.0039978027
0.71220833 0.056013584 0.018120766
0.71339935 0.0948686 0.0057506561
0.70737034 0.014984608 0.0038027763
0.7060923 0.055967569 0.017200947
0.70730835 0.094774604 0.0044536591
0.70117533 0.015040636 0.0036087036
0.69997734 0.055920601 0.016281605
0.70121735 0.094680607 0.0031599998
0.69498032 0.015096545 0.0034136772
0.69386131 0.055873573 0.01536274
0.69512534 0.094585598 0.0018658638
0.68878633 0.015150547 0.0032176971
0.68774533 0.055825591 0.014445782
0.68903232 0.094489574 0.00057268143
0.68260431 0.015183568 0.0028786659
0.68162632 0.055777609 0.013525009
0.6829353 0.094393611 -0.00072002411
0.67644131 0.015190601 0.0023608208
0.67550832 0.055727601 0.012606621
0.67683935 0.094296575 -0.0020151138
0.67027831 0.015196562 0.0018439293
0.66939032 0.055677593 0.011686802
0.67074233 0.094199598 -0.0033082962
0.6641143 0.015201569 0.0013256073
0.66327131 0.055627584 0.01076889
0.66464335 0.094100595 -0.0046010017
0.65795135 0.015205622 0.00080680847
0.65715235 0.055575609 0.0098500252
0.65856135 0.093975604 -0.0060911179
0.65178633 0.015208602 0.00028991699
0.6510303 0.055523574 0.0089316368
0.6524803 0.093842566 -0.0076403618
0.64562333 0.015211582 -0.00023031235
0.64490932 0.055470586 0.0080118179
0.64639932 0.093708575 -0.0091872215
0.63946033 0.015212536 -0.00074720383
0.63878834 0.055416584 0.0070929527
0.64031631 0.09357357 -0.010734081
0.63329732 0.015213609 -0.0012683868
0.63266635 0.055361569 0.0061736107
0.63423234 0.093438566 -0.012281418
0.62713331 0.015213609 -0.0017871857
0.62654132 0.055306613 0.0052547455
0.62814432 0.093302608 -0.013827324
0.62097031 0.015213609 -0.0023083687
0.62041831 0.055250585 0.0043349266
0.62205631 0.093165576 -0.015374184
0.61480731 0.015211582 -0.0028281212
0.61429435 0.055193603 0.0034155846
0.61596632 0.093028605 -0.016921043
0.60864431 0.015209556 -0.0033493042
0.60816932 0.055136561 0.0024957657
0.60987431 0.092890561 -0.018467426
0.60248131 0.015205622 -0.0038709641
0.60204333 0.055077612 0.0015769005
0.60378033 0.092751563 -0.020011425
0.59631735 0.015201569 -0.0043931007
0.59591532 0.055018604 0.00065660477
0.59768331 0.092612565 -0.021558285
0.59015435 0.015196562 -0.0049142838
0.5898003 0.054937601 -0.00042009354
0.59158534 0.092472613 -0.023102283
0.58399135 0.015190601 -0.0054373741
0.58368534 0.054852605 -0.0015120506
0.58548635 0.092331588 -0.024647236
0.57782835 0.015184641 -0.0059614182
0.57757032 0.054767609 -0.0026040077
0.57938534 0.092190564 -0.026192188
0.57166332 0.015176535 -0.0064840317
0.57145131 0.054682612 -0.0036959648
0.57328033 0.092048585 -0.027737141
0.56550032 0.015168548 -0.007007122
0.56533331 0.05459559 -0.0047883987
0.56717533 0.091905594 -0.029281139
0.55933732 0.015159607 -0.0075321198
0.55921435 0.054508567 -0.0058803558
0.5610683 0.091762602 -0.030825138
0.55317432 0.015149593 -0.0080571175
0.55309433 0.05442059 -0.0069713593
0.5549593 0.091618598 -0.032368183
0.5470233 0.015114546 -0.008752346
0.54697335 0.054331601 -0.00806427
0.54884833 0.091473579 -0.033912182
0.54087335 0.015072584 -0.0094923973
0.54084933 0.054242611 -0.0091562271
0.54274035 0.091317594 -0.035533428
0.53472435 0.015028596 -0.010234356
0.53472531 0.054152608 -0.010247231
0.53665435 0.091117561 -0.037484169
0.52857536 0.014984608 -0.010977268
0.52860135 0.054061592 -0.011339188
0.53056532 0.090916574 -0.039438248
0.52242637 0.014939547 -0.011719227
0.52247536 0.053969562 -0.012431145
0.52447432 0.090715587 -0.041388988
0.51627535 0.014893532 -0.012461185
0.51634836 0.053877592 -0.013523102
0.51838136 0.090513587 -0.043340206
0.51012331 0.014846563 -0.013204098
0.51021832 0.053784609 -0.014613152
0.51228231 0.090310574 -0.045292377
0.50397235 0.014799595 -0.013946056
0.50408834 0.053690612 -0.015706062
0.50618333 0.090106606 -0.047243118
0.49782035 0.0147506 -0.014688969
0.49795836 0.053595603 -0.016797066
0.50008136 0.08990258 -0.049194336
0.49166736 0.014701605 -0.015434265
0.49182636 0.053500593 -0.017889023
0.49397737 0.089697599 -0.051144123
0.48551336 0.01465261 -0.016177177
0.48569137 0.05340457 -0.01898098
0.48786837 0.089492559 -0.053095341
0.47935936 0.014601588 -0.016921043
0.47955737 0.053307593 -0.020071983
0.48175734 0.089286566 -0.055044174
0.47320536 0.014549613 -0.01766634
0.47342235 0.053210557 -0.021164417
0.47564536 0.089079559 -0.056993008
0.46705034 0.014497638 -0.018410206
0.46728536 0.053112566 -0.022255421
0.46952936 0.088872612 -0.058941364
0.46400735 -0.039709449 -0.070782185
0.46089435 0.01444459 -0.019155025
0.46114737 0.053013563 -0.023348331
0.46341136 0.088663578 -0.060891151
0.45761037 -0.039275408 -0.068270206
0.45473737 0.014390588 -0.019900322
0.45500636 0.052913606 -0.024440289
0.45728835 0.088455558 -0.062839031
0.45122135 -0.03884542 -0.065769196
0.44858035 0.014335632 -0.020645142
0.44886637 0.05281359 -0.025530338
0.45119536 0.088175595 -0.065319061
0.44483736 -0.038415432 -0.06327343
0.44242334 0.014280558 -0.021391392
0.44272435 0.052711606 -0.026622295
0.44512334 0.08783859 -0.068222046
0.43845937 -0.037988424 -0.06078434
0.43626437 0.014224529 -0.022136211
0.43658134 0.052610576 -0.027713299
0.43904635 0.087501585 -0.071125984
0.43213037 -0.037687421 -0.059129238
0.43010435 0.014166594 -0.022881985
0.43044335 0.052486598 -0.028956413
0.43296435 0.087163568 -0.074031353
0.42587835 -0.037581444 -0.05877018
0.42394435 0.014109612 -0.023628235
0.42430836 0.052357554 -0.030236244
0.42687836 0.086824596 -0.076934338
0.41962835 -0.037477374 -0.058415413
0.41778436 0.014050603 -0.024374962
0.41817135 0.052226603 -0.031516075
0.42078835 0.086485565 -0.079837322
0.41337934 -0.037374377 -0.058061123
0.41162336 0.013990641 -0.025121212
0.41203237 0.052096605 -0.032796383
0.41469437 0.08614558 -0.082744122
0.40713134 -0.03727138 -0.057708263
0.40546235 0.013930559 -0.02586937
0.40589234 0.051964581 -0.034076214
0.40859535 0.085804582 -0.085649967
0.40088236 -0.03717041 -0.057356358
0.39929837 0.013869643 -0.026615143
0.39974836 0.051832557 -0.035356998
0.40252236 0.085380554 -0.089173317
0.39463636 -0.037070394 -0.057007313
0.39313835 0.013798594 -0.027424335
0.39360535 0.051699579 -0.03663826
0.39684835 0.083903611 -0.10065699
0.38839236 -0.03697145 -0.056657314
0.38698336 0.013710618 -0.028347015
0.38745937 0.051565588 -0.037917137
0.38214937 -0.036872387 -0.056307316
0.38082737 0.013622642 -0.029269218
0.38131237 0.051430583 -0.039196968
0.37590536 -0.03677547 -0.055959225
0.37466836 0.013532639 -0.030191422
0.37516236 0.051295578 -0.04047823
0.36966535 -0.036678433 -0.055613995
0.36850935 0.013442636 -0.031113148
0.36901134 0.051159561 -0.041756153
0.36342534 -0.036583424 -0.05526638
0.36235034 0.01335156 -0.032037258
0.36285937 0.051022589 -0.043035984
0.35720336 -0.036543369 -0.055286407
0.35618937 0.01325953 -0.032960415
0.35670537 0.050885558 -0.044316292
0.35099137 -0.036537409 -0.055526257
0.35002735 0.01316762 -0.033883095
0.35054937 0.050747573 -0.045594215
0.34477836 -0.036532402 -0.055764198
0.34386337 0.013074636 -0.034805298
0.34439036 0.050608575 -0.046874046
0.33856636 -0.036528468 -0.056006432
0.33769935 0.012979627 -0.035729408
0.33823034 0.050469577 -0.0481534
0.33235535 -0.036524415 -0.056248188
0.33153436 0.012884617 -0.036652088
0.33206937 0.050328612 -0.049432278
0.32614437 -0.036522388 -0.056490421
0.32536736 0.012789607 -0.037576199
0.32590735 0.050187588 -0.050711155
0.31993136 -0.036521435 -0.056735039
0.31919837 0.012692571 -0.038501263
0.31974036 0.050046563 -0.051990032
0.31372035 -0.036521435 -0.056979179
0.31303036 0.012595534 -0.039422989
0.31357434 0.049903572 -0.053268433
0.30750835 -0.036521435 -0.057224274
0.30686036 0.012497544 -0.040347099
0.30740535 0.04976058 -0.05454731
0.30129737 -0.036523461 -0.057470322
0.30068937 0.012398601 -0.04127121
0.30123535 0.049616575 -0.055826187
0.29508635 -0.036525369 -0.057717323
0.29451737 0.012299538 -0.04219532
0.29506335 0.04947257 -0.057104111
0.28887334 -0.036529422 -0.057965279
0.28834236 0.012198567 -0.043120384
0.28888837 0.049326599 -0.058382034
0.28266236 -0.036533475 -0.058213234
0.28216735 0.012097597 -0.044043064
0.28271535 0.0491696 -0.059743404
0.27645135 -0.036538363 -0.058462143
0.27599135 0.011995554 -0.044968128
0.27654636 0.048989594 -0.061262131
0.27023935 -0.036544442 -0.058712006
0.26981434 0.011892557 -0.045893192
0.27037436 0.048808575 -0.062782288
0.26402634 -0.036551476 -0.058963299
0.26363435 0.011788607 -0.04681921
0.26419935 0.048627555 -0.064301014
0.25781536 -0.036559463 -0.059214115
0.25745434 0.011684537 -0.04774332
0.25802234 0.048445582 -0.06581831
0.25160334 -0.036568403 -0.059467316
0.25127333 0.011579633 -0.048667431
0.25184435 0.048262596 -0.06733799
0.24539734 -0.036602378 -0.059875965
0.24509133 0.011473536 -0.049592972
0.24566334 0.048078597 -0.068856239
0.23919334 -0.036657453 -0.060427189
0.23890834 0.011367559 -0.050517082
0.23948035 0.047894597 -0.070374012
0.23298834 -0.036713362 -0.060979366
0.23272134 0.011259556 -0.0514431
0.23329334 0.047709584 -0.071893215
0.22678334 -0.036771417 -0.061532021
0.22653534 0.011151552 -0.052368164
0.22710533 0.047523558 -0.073410034
0.22057834 -0.036829472 -0.062085152
0.22035134 0.011024594 -0.053418159
0.22091433 0.047336578 -0.07492733
0.21437234 -0.036888361 -0.062639236
0.21416634 0.010891557 -0.054506302
0.21472234 0.047149599 -0.076445103
0.20816433 -0.036948442 -0.063192368
0.20797834 0.010757565 -0.055595398
0.20852534 0.046961606 -0.077963352
0.20195735 -0.037009358 -0.063747406
0.20179035 0.010622621 -0.056684017
0.20232834 0.046772599 -0.079480171
0.19574934 -0.037070394 -0.064301968
0.19560134 0.010486603 -0.05777216
0.19612834 0.046583593 -0.08099699
0.18954034 -0.037133455 -0.064856052
0.18941034 0.010350585 -0.058861256
0.18992634 0.046393573 -0.082514286
0.18333134 -0.037196398 -0.065412998
0.18321735 0.010213614 -0.059949398
0.18372133 0.0462026 -0.084030151
0.17711934 -0.037261367 -0.065970421
0.17702034 0.010075569 -0.061038017
0.17751235 0.046011567 -0.085548401
0.17090935 -0.037326455 -0.066527367
0.17082433 0.0099365711 -0.062127113
0.17130335 0.045818567 -0.08706522
0.16469733 -0.037392378 -0.067084312
0.16462635 0.0097975731 -0.063216209
0.16509134 0.045625567 -0.088581085
0.15848534 -0.037459373 -0.067641258
0.15842634 0.0096576214 -0.064305305
0.15887734 0.045432568 -0.090095997
0.15227035 -0.037527442 -0.068199158
0.15222335 0.0095165968 -0.065394402
0.15266134 0.045214593 -0.091784
0.14605634 -0.037595391 -0.068758011
0.14602034 0.0093746185 -0.066482067
0.14644834 0.044965565 -0.093687057
0.13984135 -0.037665367 -0.069317341
0.13981535 0.0092315674 -0.067572117
0.14023134 0.044716597 -0.095590115
0.13362634 -0.037735462 -0.06987524
0.13360934 0.0090886354 -0.068661213
0.13401134 0.044466555 -0.097491264
0.12740934 -0.037807465 -0.070437431
0.12740034 0.0089446306 -0.069751263
0.12778935 0.04421556 -0.099393368
0.12119134 -0.037879467 -0.070997238
0.12118934 0.0087995529 -0.070840359
0.12156135 0.043964565 -0.10129309
0.11497335 -0.037952423 -0.071557999
0.11497734 0.0086536407 -0.071930408
0.11533235 0.043712556 -0.10319519
0.10875434 -0.038026452 -0.072119236
0.10876334 0.0085076094 -0.073019028
0.10909934 0.043459594 -0.10509634
0.10253434 -0.038101435 -0.072681427
0.10254835 0.0083595514 -0.074109077
0.10286334 0.043206573 -0.10699511
0.096315339 -0.038206458 -0.073441029
0.096331343 0.0082116127 -0.075198174
0.096625343 0.042952597 -0.10889721
0.090093344 -0.038313389 -0.074203968
0.090110347 0.0080626011 -0.076288223
0.090381339 0.042697608 -0.11079597
0.083872348 -0.038421392 -0.074968338
0.083889343 0.0079135895 -0.077378273
0.084136344 0.042441607 -0.11269617
0.077650346 -0.038529396 -0.075732231
0.077666342 0.0077625513 -0.078467369
0.077887341 0.042185605 -0.11459541
0.071426347 -0.038639426 -0.076496124
0.071442343 0.0076116323 -0.079557419
0.071635343 0.041928589 -0.11649513
0.065199345 -0.038749456 -0.077260971
0.065214343 0.0074596405 -0.080646992
0.065379344 0.041670561 -0.11839533
0.058973342 -0.03886044 -0.078027248
0.058986343 0.0073065758 -0.081737995
0.059120342 0.041412592 -0.12029219
0.052745342 -0.038972378 -0.078791142
0.052756347 0.0071525574 -0.082827091
0.052861344 0.04105258 -0.12292528
0.046516344 -0.039084435 -0.079557419
0.046524346 0.0069775581 -0.084063053
0.046597343 0.040668607 -0.12572432
0.040286344 -0.039198399 -0.080322266
0.040290345 0.0067965984 -0.085333347
0.040328346 0.040283561 -0.1285243
0.034052346 -0.039313436 -0.081089973
0.034052346 0.0066156387 -0.086601257
0.034052346 0.039897561 -0.13132429
0.027819345 -0.039428473 -0.081856251
0.027814344 0.0064336061 -0.087869167
0.027774345 0.039510608 -0.13412714
0.021585345 -0.039544463 -0.082623005
0.021574344 0.0062506199 -0.089136124
0.021490343 0.039122581 -0.13692808
0.015349343 -0.039661407 -0.083390236
0.015331345 0.0060665607 -0.090406418
0.015202343 0.038734555 -0.13973141
0.0091113448 -0.039779425 -0.084158421
0.0090843439 0.0058815479 -0.091674328
0.0089073442 0.038345575 -0.1425333
0.0028723441 -0.039898396 -0.084925175
0.002837345 0.0056965351 -0.092943192
0.0026093461 0.037955582 -0.14533424
0.0026523434 -0.093838453 -0.13546419
-0.003367655 -0.040018439 -0.085694313
-0.0034116544 0.0055105686 -0.094209194
-0.0037256554 0.036740601 -0.1541152
-0.003615655 -0.093495369 -0.13323641
-0.0096086562 -0.040138364 -0.086462975
-0.0096636564 0.0053235292 -0.095477104
-0.010087654 0.03523761 -0.16498137
-0.0098806545 -0.093153358 -0.1310153
-0.015850656 -0.040260434 -0.087231159
-0.015917655 0.0051355362 -0.096745014
-0.016141657 -0.092813373 -0.12880039
-0.022096656 -0.040382385 -0.088001251
-0.022175655 0.0049465895 -0.098015308
-0.022399656 -0.092475414 -0.12659025
-0.028342657 -0.040505409 -0.088772297
-0.028433654 0.0047576427 -0.099282265
-0.028660659 -0.092275381 -0.12526321
-0.034588654 -0.040629387 -0.089540958
-0.034694653 0.0045676231 -0.10055113
-0.034929659 -0.092246413 -0.12501717
-0.040837657 -0.040754437 -0.09031105
-0.040957656 0.0043765306 -0.10181808
-0.041198652 -0.092217445 -0.12477207
-0.047088657 -0.040880442 -0.09108305
-0.047225658 0.0041846037 -0.10308743
-0.047468659 -0.092190385 -0.12453127
-0.053340655 -0.0410074 -0.091854095
-0.053492654 0.0039925575 -0.10435534
-0.053736653 -0.092164397 -0.12428999
-0.059592653 -0.041134357 -0.092626095
-0.059763659 0.0037995577 -0.10562229
-0.060004655 -0.09213841 -0.12404823
-0.06584765 -0.041263461 -0.093397141
-0.066035658 0.0036056042 -0.1068902
-0.066271663 -0.092114449 -0.12380838
-0.072103649 -0.04139936 -0.094215393
-0.072310656 0.0034105778 -0.10815811
-0.072539657 -0.092091441 -0.12356901
-0.078365654 -0.041553378 -0.09514904
-0.078589663 0.0032145977 -0.10942602
-0.07880865 -0.092069387 -0.12333107
-0.08462666 -0.041709423 -0.096083164
-0.084869653 0.0030186176 -0.11069536
-0.085074663 -0.092048407 -0.12309599
-0.090890661 -0.041865468 -0.097019196
-0.091151655 0.0028215647 -0.11196327
-0.091341659 -0.092028379 -0.12286234
-0.09715566 -0.042022467 -0.09795332
-0.097435653 0.002623558 -0.11323023
-0.097608656 -0.092009425 -0.12262917
-0.10342465 -0.042179465 -0.098888397
-0.10372466 0.0024245977 -0.11449814
-0.10387667 -0.091992378 -0.12240028
-0.10969366 -0.042338371 -0.099822044
-0.11001366 0.0022256374 -0.11576605
-0.11014865 -0.092021465 -0.12246418
-0.11596467 -0.042498469 -0.10075808
-0.11630866 0.0020055771 -0.11716938
-0.11642566 -0.092089415 -0.12277126
-0.12223765 -0.042658448 -0.10169315
-0.12260766 0.0017726421 -0.11866426
-0.12270366 -0.092158437 -0.12307835
-0.12851165 -0.042819381 -0.10263014
-0.12890966 0.0015375614 -0.12015724
-0.12898266 -0.092228413 -0.12338829
-0.13479066 -0.042981386 -0.10356522
-0.13521665 0.0013025999 -0.12165117
-0.13526466 -0.092299461 -0.12369823
-0.14106865 -0.043144464 -0.1045022
-0.14152466 0.0010665655 -0.12314415
-0.14154565 -0.092372417 -0.12400818
-0.14734866 -0.043308377 -0.10543919
-0.14783466 0.00083053112 -0.12463903
-0.14782666 -0.092445374 -0.12431908
-0.15363066 -0.043473363 -0.10637522
-0.15414865 0.00059258938 -0.12613297
-0.15410966 -0.092519403 -0.12463427
-0.15991665 -0.043638468 -0.1073122
-0.16046666 0.00035452843 -0.12762642
-0.16039366 -0.092594385 -0.12494612
-0.16620266 -0.043805361 -0.10825014
-0.16678566 0.00011563301 -0.1291213
-0.16667865 -0.092671394 -0.12526226
-0.17249066 -0.043972373 -0.10918713
-0.17310865 -0.0001244545 -0.13061333
-0.17296366 -0.09274745 -0.12557602
-0.17878066 -0.044140458 -0.11012506
-0.17943366 -0.00036537647 -0.13210726
-0.17924866 -0.092826366 -0.12589216
-0.18507266 -0.044309378 -0.11106396
-0.18576166 -0.00060641766 -0.13360023
-0.18553565 -0.092905402 -0.12621021
-0.19136865 -0.04447937 -0.11200237
-0.19209465 -0.00084841251 -0.13509321
-0.19182566 -0.092985392 -0.12652826
-0.19766466 -0.044650435 -0.11294127
-0.19842866 -0.001091361 -0.13658619
-0.19811366 -0.093066454 -0.12684631
-0.20396265 -0.044821382 -0.1138792
-0.20476566 -0.0013353825 -0.13807821
-0.20440365 -0.09314847 -0.12716722
-0.21026266 -0.044994473 -0.1148181
-0.21110566 -0.0015794039 -0.13957119
-0.21069366 -0.093232393 -0.12748718
-0.21656667 -0.045167446 -0.11575842
-0.21744965 -0.001824379 -0.14106321
-0.21698667 -0.093316436 -0.12780905
-0.22287066 -0.045341372 -0.11669731
-0.22379567 -0.0020713806 -0.14255619
-0.22327967 -0.093401432 -0.1281333
-0.22917666 -0.045516372 -0.11763716
-0.23014466 -0.0023183823 -0.14405012
-0.22957267 -0.093487382 -0.12845516
-0.23548464 -0.045692444 -0.11857605
-0.23649667 -0.0025653839 -0.1455431
-0.23587365 -0.093601465 -0.12895203
-0.24179466 -0.04586947 -0.11951828
-0.24285166 -0.0028144121 -0.14703512
-0.24217965 -0.093732357 -0.12955141
-0.24810867 -0.046047449 -0.12045717
-0.24921165 -0.0030634403 -0.14852715
-0.24848966 -0.093864441 -0.13014936
-0.25442263 -0.046225429 -0.1213994
-0.25557464 -0.0033204556 -0.15006733
-0.25479865 -0.093997359 -0.13074923
-0.26073965 -0.046406388 -0.12234735
-0.26195365 -0.0036233664 -0.15192223
-0.26110864 -0.09413147 -0.13134813
-0.26706463 -0.046609402 -0.12343931
-0.26833564 -0.0039263964 -0.15377522
-0.26742065 -0.094265461 -0.13194704
-0.27339363 -0.046812415 -0.12453032
-0.27472365 -0.0042314529 -0.15563011
-0.27373666 -0.09440136 -0.13254929
-0.27972263 -0.047017455 -0.12562227
-0.28111365 -0.0045363903 -0.15748215
-0.28005165 -0.09453845 -0.13315105
-0.28605464 -0.047222376 -0.12671328
-0.28750765 -0.0048424006 -0.15933609
-0.28636864 -0.094675422 -0.1337533
-0.29238865 -0.04742837 -0.12780428
-0.29390463 -0.0051484108 -0.16118717
-0.29268664 -0.09481442 -0.13435411
-0.29872563 -0.047635436 -0.12889528
-0.30030665 -0.0054564476 -0.16304111
-0.29900664 -0.094953418 -0.13495731
-0.30506665 -0.04784441 -0.12998819
-0.30671266 -0.0057643652 -0.16489315
-0.30532965 -0.095094442 -0.13556337
-0.31140864 -0.04805243 -0.1310792
-0.31312165 -0.0060734749 -0.16674614
-0.31165263 -0.095235467 -0.1361661
-0.31775266 -0.048262358 -0.1321702
-0.31953365 -0.006383419 -0.16859913
-0.31797764 -0.095378399 -0.1367712
-0.32409865 -0.048472404 -0.13326311
-0.32595065 -0.0066944361 -0.17045021
-0.32430366 -0.09552145 -0.13737726
-0.33044964 -0.048684359 -0.13435507
-0.33237165 -0.0070054531 -0.1723032
-0.33063364 -0.095666409 -0.13798428
-0.33680165 -0.048896432 -0.13544941
-0.33879563 -0.0073174238 -0.17415524
-0.33696264 -0.095811367 -0.13859129
-0.34315565 -0.049109459 -0.13654232
-0.34522364 -0.0076314211 -0.17600727
-0.34329465 -0.095957398 -0.13919926
-0.34951165 -0.04932344 -0.13763523
-0.35165465 -0.0079444647 -0.1778574
-0.34962764 -0.096104383 -0.13980627
-0.35587063 -0.049538374 -0.13872814
-0.35808966 -0.0082594156 -0.179708
-0.35596165 -0.096253395 -0.14041519
-0.36223364 -0.049753428 -0.13982105
-0.36454365 -0.0086084604 -0.18179607
-0.36229965 -0.096402407 -0.14102507
-0.36859766 -0.049970388 -0.14091396
-0.37103364 -0.0090453625 -0.18448925
-0.36863765 -0.096552372 -0.14163399
-0.37496465 -0.050188422 -0.1420083
-0.37752965 -0.0094844103 -0.18718433
-0.37497765 -0.09670341 -0.14224625
-0.38133365 -0.050406456 -0.14310122
-0.38403064 -0.0099234581 -0.18988132
-0.38131964 -0.096855402 -0.14285707
-0.38770565 -0.050625443 -0.14419603
-0.39053664 -0.01036346 -0.19257498
-0.38766265 -0.097008467 -0.14346838
-0.39408064 -0.050845385 -0.14529037
-0.39705065 -0.010804415 -0.19526911
-0.40045765 -0.051066399 -0.14638519
-0.40356764 -0.01124537 -0.19796419
-0.40036264 -0.097335458 -0.14480639
-0.40683764 -0.051288366 -0.14748001
-0.41008964 -0.011688471 -0.20066023
-0.40672264 -0.097519398 -0.14560127
-0.41321963 -0.051511407 -0.14857435
-0.41661763 -0.012131453 -0.20335531
-0.41308466 -0.097705364 -0.14639711
-0.41960564 -0.051735401 -0.14967012
-0.42315266 -0.012575388 -0.2060504
-0.41944966 -0.09789145 -0.14719534
-0.42599264 -0.051959395 -0.15076542
-0.42992264 -0.01354146 -0.2123704
-0.42581564 -0.098079443 -0.14799213
-0.43238264 -0.052184463 -0.15186024
-0.43695664 -0.015068412 -0.2225852
-0.43218464 -0.098267436 -0.14879131
-0.43877566 -0.052410364 -0.15295601
-0.43855464 -0.098456383 -0.14958811
-0.44517064 -0.052637458 -0.1540513
-0.44492763 -0.098647475 -0.15038729
-0.45156965 -0.052865386 -0.15514708
-0.45130363 -0.098838449 -0.15118599
-0.45797464 -0.053102374 -0.1562953
-0.45768064 -0.099030375 -0.15198612
-0.46438864 -0.053356409 -0.1575551
-0.46405965 -0.099223375 -0.1527853
-0.47080663 -0.053611398 -0.15881443
-0.47044066 -0.099417448 -0.15358639
-0.47722867 -0.053868413 -0.16007423
-0.47682562 -0.099612474 -0.15438604
-0.48365167 -0.054124475 -0.16133308
-0.48321167 -0.099808455 -0.15518808
-0.49007866 -0.054382443 -0.16259336
-0.48959962 -0.10000539 -0.15599108
-0.49650761 -0.054641366 -0.16385221
-0.49598965 -0.10020339 -0.15679121
-0.50294065 -0.054900408 -0.16511297
-0.50238168 -0.10040247 -0.1575942
-0.50937766 -0.055161357 -0.16637421
-0.50877869 -0.10060239 -0.15839815
-0.51581669 -0.055422425 -0.16763401
-0.5151757 -0.10080338 -0.1592021
-0.52225769 -0.055684447 -0.16889334
-0.52157468 -0.10100436 -0.16000605
-0.52870268 -0.055947423 -0.17015314
-0.5355987 -0.18110645 -0.25875711
-0.52797568 -0.10120738 -0.16081238
-0.53515267 -0.056211472 -0.17141533
-0.54605168 -0.028677464 -0.30990124
-0.53993267 -0.17678142 -0.23215199
-0.53438169 -0.10141146 -0.16161728
-0.54160368 -0.056475401 -0.17267418
-0.55037665 -0.024868369 -0.28291607
-0.54423565 -0.17248845 -0.20574427
-0.5407877 -0.10161543 -0.16242218
-0.54805768 -0.056741357 -0.17393637
-0.55467069 -0.021087408 -0.25612307
-0.54850668 -0.16822743 -0.17952108
-0.54719567 -0.10182142 -0.16322803
-0.55451465 -0.057008386 -0.17519617
-0.55893368 -0.017334461 -0.22952223
-0.55274868 -0.16399646 -0.15348339
-0.55360669 -0.10202837 -0.16403437
-0.56097466 -0.057275414 -0.17645741
-0.56316668 -0.013608456 -0.20311022
-0.55851567 -0.16293144 -0.14654112
-0.55948669 -0.10121644 -0.15834904
-0.56545866 -0.053954363 -0.15386629
-0.56737065 -0.0099084377 -0.17687607
-0.56455564 -0.16243041 -0.14300442
-0.56345969 -0.096820474 -0.12981415
-0.56962568 -0.050140381 -0.1279912
-0.57154369 -0.0062373877 -0.15083933
-0.5705927 -0.16193843 -0.1395092
-0.56761968 -0.092867374 -0.10410404
-0.57376266 -0.046353459 -0.10229826
-0.57568765 -0.0025924444 -0.12498426
-0.57666165 -0.16152036 -0.13645697
-0.57174969 -0.088943362 -0.078573227
-0.57787168 -0.04259336 -0.076784134
-0.57980269 0.0010266304 -0.099308968
-0.58272666 -0.16110539 -0.13341618
-0.57585168 -0.085046411 -0.053219318
-0.58195364 -0.038859367 -0.051440239
-0.58389068 0.0046195984 -0.073806286
-0.58879066 -0.16069138 -0.13037825
-0.57992667 -0.0811764 -0.028032303
-0.58600569 -0.035153389 -0.026277065
-0.58794868 0.0081865788 -0.04848814
-0.59484869 -0.16028047 -0.1273551
-0.58397168 -0.077335358 -0.0030269623
-0.59002966 -0.031473398 -0.0012869835
-0.59197867 0.011727571 -0.02334404
-0.60090369 -0.15987241 -0.12434006
-0.58798867 -0.073521376 0.021806717
-0.59402567 -0.027819395 0.023530006
-0.5959807 0.015244603 0.0016279221
-0.60695469 -0.15946543 -0.12133217
-0.59197867 -0.069734454 0.046471596
-0.59786165 -0.023968458 0.049658775
-0.59995466 0.018736601 0.026427746
-0.61300164 -0.15906143 -0.11833334
-0.59594065 -0.065973401 0.070967674
-0.60180366 -0.020365357 0.074141979
-0.60390365 0.022203565 0.051065922
-0.6190477 -0.15865946 -0.11534405
-0.59987766 -0.062238455 0.095304966
-0.60571766 -0.016788363 0.098452568
-0.60782367 0.025646567 0.075527668
-0.62508869 -0.15826046 -0.11236525
-0.60378569 -0.058531404 0.11946774
-0.60960466 -0.013236403 0.12259865
-0.6117177 0.029064536 0.099824905
-0.63112569 -0.15786338 -0.10939407
-0.60766667 -0.054845452 0.14349079
-0.61346567 -0.0097093582 0.1465807
-0.61558467 0.032459557 0.12395763
-0.63716066 -0.15746939 -0.10643721
-0.61152667 -0.051195383 0.16728783
-0.6173017 -0.0062054396 0.17040968
-0.61942667 0.035831571 0.14793396
-0.64319366 -0.15707946 -0.10349512
-0.61535466 -0.047558427 0.19100857
-0.62111169 -0.0027264357 0.19407463
-0.62324166 0.03917861 0.17174387
-0.64922267 -0.15669143 -0.10056305
-0.62079066 -0.046637416 0.19744158
-0.62489569 0.00072753429 0.21757984
-0.62703168 0.042503595 0.19539404
-0.65524769 -0.15630543 -0.097642422
-0.62674767 -0.046586394 0.1983428
-0.62865365 0.0041586161 0.24092865
-0.63079566 0.04580456 0.2188859
-0.66131467 -0.15599942 -0.095190048
-0.63270468 -0.046535373 0.19924259
-0.63453567 0.049083591 0.24222279
-0.66738766 -0.15570939 -0.092833996
-0.63866168 -0.046486378 0.20013762
-0.63609767 0.010950565 0.28717184
-0.63825065 0.052340567 0.26541281
-0.67346066 -0.15542138 -0.090485096
-0.6446197 -0.046438456 0.20103168
-0.63978368 0.014310598 0.31005096
-0.64194065 0.055574596 0.28843975
-0.67952865 -0.15513539 -0.088139057
-0.65057665 -0.046392441 0.20192099
-0.64344269 0.017649531 0.33279896
-0.64560568 0.058787584 0.31131887
-0.68559468 -0.15485144 -0.085805416
-0.65653265 -0.04634738 0.20280886
-0.64843369 0.018955588 0.3420577
-0.64924765 0.061977565 0.33404779
-0.69165766 -0.15456939 -0.083475113
-0.6624887 -0.046303391 0.20369291
-0.65430766 0.018940568 0.34255886
-0.65286565 0.065147579 0.35663366
-0.66844565 -0.046260357 0.20457458
-0.6601817 0.018924594 0.34305763
-0.65645969 0.068295598 0.3790679
-0.7037797 -0.15401137 -0.078838348
-0.6744017 -0.046219468 0.20545197
-0.66003066 0.071421564 0.40135479
-0.70983768 -0.15373647 -0.076535225
-0.68035668 -0.046179414 0.20632696
-0.6719287 0.018890619 0.34404802
-0.66343069 0.074729562 0.42490101
-0.71589267 -0.15346241 -0.074237347
-0.68631166 -0.046140432 0.20719957
-0.6778037 0.018870592 0.34453773
-0.6669547 0.077813566 0.44689989
-0.7219457 -0.15319145 -0.071947098
-0.69226766 -0.046103358 0.20806885
-0.6836797 0.018850565 0.34502983
-0.6716727 0.079236567 0.45738077
-0.72799766 -0.15292239 -0.069664001
-0.69822466 -0.046067357 0.20893478
-0.68955564 0.018829584 0.34551573
-0.6774677 0.079192579 0.45769501
-0.7340467 -0.15265536 -0.067389011
-0.70417869 -0.046032429 0.20979881
-0.69543165 0.01880753 0.34600163
-0.68326366 0.079148591 0.45800877
-0.74009365 -0.15238941 -0.06512022
-0.71013367 -0.045998454 0.21065998
-0.70130765 0.018783569 0.34648466
-0.68905967 0.079102576 0.45832157
-0.74613768 -0.15212643 -0.062857151
-0.71608865 -0.045966387 0.21151781
-0.70718569 0.018759608 0.34696674
-0.69485867 0.079055607 0.45863104
-0.75218165 -0.15186536 -0.060601234
-0.72204566 -0.045935392 0.21237278
-0.71306366 0.018733621 0.34744596
-0.7006557 0.079008579 0.45894003
-0.7582227 -0.15160644 -0.058351994
-0.7280007 -0.045905471 0.21322393
-0.70645469 0.078959584 0.45924759
-0.76428968 -0.15139139 -0.056365013
-0.73396069 -0.045883417 0.21402884
-0.71225369 0.078910589 0.45955276
-0.77037168 -0.15120137 -0.054526329
-0.73993069 -0.04587841 0.21473598
-0.73069865 0.018649578 0.34887266
-0.7180537 0.078859568 0.4598546
-0.77645165 -0.15101445 -0.052694321
-0.7459017 -0.045874357 0.21543884
-0.73658067 0.018619537 0.34934282
-0.72385669 0.078808606 0.46015692
-0.78253269 -0.15082836 -0.050866127
-0.75187469 -0.04587245 0.21613884
-0.74246067 0.018588543 0.34981203
-0.72965866 0.078755558 0.46045971
-0.78860968 -0.15064442 -0.049044132
-0.75784665 -0.045870423 0.21683502
-0.74834168 0.018556595 0.35027885
-0.7354607 0.078702569 0.46075869
-0.79468566 -0.15046239 -0.047227383
-0.76381868 -0.045870423 0.21752977
-0.75422269 0.018523574 0.35074282
-0.74126369 0.078648567 0.46105671
-0.80076069 -0.15028143 -0.045418262
-0.76979065 -0.045871377 0.21822166
-0.76010668 0.018488526 0.35120583
-0.74706966 0.078593612 0.46135378
-0.80683666 -0.15010345 -0.043612957
-0.7757647 -0.045874357 0.21891069
-0.76598966 0.018453598 0.35166597
-0.75287467 0.07853657 0.46165085
-0.81290865 -0.14992642 -0.041813374
-0.78173769 -0.045877457 0.21959782
-0.7718727 0.018416643 0.35212374
-0.7586807 0.078479588 0.46194267
-0.78771067 -0.045882463 0.22028303
-0.77775669 0.018378615 0.35257959
-0.76448768 0.078421593 0.46223593
-0.82505065 -0.14957845 -0.038232327
-0.79368466 -0.045888424 0.220963
-0.7836417 0.018339634 0.35303402
-0.77029568 0.078362584 0.46252489
-0.83111966 -0.14940643 -0.036450386
-0.79965866 -0.045895457 0.22164202
-0.78952968 0.018300533 0.35348701
-0.7761057 0.078302562 0.46281481
-0.83718967 -0.14923739 -0.034673214
-0.80563468 -0.045904398 0.2223177
-0.7954157 0.018259525 0.35393667
-0.78244567 0.077620566 0.45880699
-0.8432557 -0.14906943 -0.032903194
-0.81160969 -0.045913458 0.2229929
-0.80130267 0.018217564 0.35438395
-0.78897667 0.076728582 0.45334387
-0.84932166 -0.14890337 -0.031135082
-0.81758469 -0.045924425 0.22366476
-0.80719066 0.018173575 0.35482979
-0.7955187 0.075833559 0.44787693
-0.85538667 -0.14873946 -0.02937603
-0.8235597 -0.045936465 0.22433567
-0.8130787 0.018129587 0.35527372
-0.80207169 0.074938595 0.44240761
-0.86144966 -0.14857638 -0.027622223
-0.82953566 -0.045949459 0.22500372
-0.81897068 0.018083572 0.35571384
-0.80863768 0.074040592 0.43693399
-0.86751366 -0.14841545 -0.025871277
-0.83551365 -0.045963407 0.22566986
-0.82486665 0.018029571 0.3561039
-0.81521368 0.073142588 0.431458
-0.87357569 -0.14825642 -0.024127007
-0.84149069 -0.045979381 0.22633171
-0.83076864 0.017969608 0.35645485
-0.82180166 0.072242558 0.42597771
-0.84746867 -0.045996428 0.22699165
-0.83667165 0.017907619 0.35680294
-0.82840067 0.071340561 0.4204917
-0.85344666 -0.046014428 0.22764874
-0.8425777 0.017844558 0.35715199
-0.83501369 0.07043761 0.41500092
-0.85942668 -0.046033382 0.22830391
-0.84848267 0.017780542 0.35749578
-0.8416357 0.069532573 0.4095068
-0.86540568 -0.046054363 0.22895575
-0.85438967 0.017715573 0.35783863
-0.8482697 0.068626583 0.40400982
-0.87138569 -0.046075463 0.22960567
-0.86029667 0.017649531 0.35817862
-0.85491568 0.067718565 0.39850903
-0.87736565 -0.046099424 0.23025179
-0.86620468 0.017582536 0.3585186
-0.86157268 0.066809595 0.39300585
-0.88334668 -0.046123385 0.23089361
-0.87211567 0.017514586 0.35885572
-0.86836469 0.0657686 0.38659477
-0.88932967 -0.046149373 0.23153591
-0.87802565 0.017444611 0.35919094
-0.87520367 0.064689577 0.37993002
-0.89531267 -0.046176434 0.23217392
-0.88393766 0.017374635 0.35952377
-0.88205665 0.063608587 0.37325668
-0.90129566 -0.046204448 0.23281002
-0.88984966 0.017303586 0.3598547
-0.88892365 0.06252557 0.36657763
-0.90727866 -0.046233416 0.23344183
-0.89576566 0.01723063 0.36018467
-0.89580667 0.061440587 0.35989094
-0.91326469 -0.046263456 0.23407364
-0.90168065 0.017156601 0.36051178
-0.90270168 0.060353577 0.35320187
-0.91924965 -0.046295404 0.23470163
-0.90759665 0.017082572 0.36083698
-0.90961069 0.0592646 0.34650373
-0.92523569 -0.046328425 0.23532581
-0.91351366 0.017005563 0.3611598
-0.91653365 0.05817461 0.33980274
-0.91943169 0.016929626 0.36148262
-0.92347169 0.057082593 0.33309269
-0.92535269 0.016851544 0.36180162
-0.9304257 0.055987597 0.32637787
-0.9312737 0.016772628 0.36211872
-0.93761969 0.054663599 0.3180809
-0.93719566 0.016691566 0.36243486
-0.94489169 0.053275585 0.30935478
-0.94311869 0.016610622 0.36274958
-0.94904464 0.016528606 0.3630619
