# .PCD v0.7 - Point Cloud Data file format
VERSION 0.7
FIELDS x y z
SIZE 4 4 4
TYPE F F F
COUNT 1 1 1
WIDTH 1
HEIGHT 1024
VIEWPOINT 0 0 0 1 0 0 0
POINTS 1024
DATA ascii
0.37090492 0.91876054 0.23341942
0.36470994 0.91887951 0.24004078
0.35931495 0.8652485 0.23084641
0.35858095 0.91898149 0.24560165
0.35385394 0.83210152 0.22267246
0.35340893 0.8652795 0.23178339
0.35268694 0.91900253 0.24653482
0.34679493 0.91902351 0.24746561
0.34160092 0.86534154 0.23365641
0.34090593 0.91904449 0.2483964
0.34703794 0.95164454 0.11835957
0.33612293 0.83221251 0.22549152
0.33501893 0.91906554 0.24932957
0.34076393 0.9517315 0.12521744
0.33021694 0.83224851 0.22643042
0.32980394 0.86540252 0.23552656
0.32913494 0.9190855 0.2502594
0.33450192 0.95181853 0.13205862
0.32431293 0.83228451 0.2273674
0.32390794 0.8654325 0.23646355
0.32825392 0.95190454 0.13888645
0.31840995 0.83232051 0.22830582
0.31801292 0.86546254 0.23739767
0.32201594 0.9519915 0.14570379
0.33009395 0.99251854 -0.039313316
0.31251094 0.83235651 0.22924376
0.31149194 0.91914749 0.25304937
0.31579393 0.95207751 0.15250349
0.32369393 0.99256349 -0.032131195
0.30661294 0.83239251 0.23018074
0.30623195 0.8655225 0.2392664
0.30561593 0.91916752 0.25397873
0.31730694 0.99260849 -0.024962425
0.30034494 0.86555254 0.24019957
0.30338794 0.95224851 0.16606236
0.31093293 0.99265349 -0.017809391
0.29386795 0.91920853 0.25583649
0.29720193 0.95233351 0.17282438
0.30457193 0.99269849 -0.010670185
0.28893194 0.83249849 0.2329874
0.28799793 0.91922849 0.25676537
0.29103094 0.95241851 0.17956877
0.28304294 0.83253348 0.23392439
0.28269392 0.86564052 0.24299765
0.28212994 0.91924852 0.25769377
0.28487194 0.9525035 0.1862998
0.27715594 0.83256853 0.23485756
0.27681494 0.86566949 0.24393177
0.27626392 0.91926849 0.25862074
0.27872694 0.9525885 0.19301844
0.27499992 0.78365648 0.13410139
0.27127093 0.83260351 0.23579359
0.27039993 0.9192875 0.25954771
0.27259392 0.95267248 0.19972277
0.26962993 0.75102752 0.11818171
0.26854494 0.78419554 0.14848852
0.26538593 0.8326385 0.23672867
0.26506191 0.86572754 0.24579573
0.26453593 0.91930753 0.26047468
0.27297193 0.9929195 0.024796486
0.26307294 0.7517575 0.13549757
0.26235393 0.78448451 0.15609455
0.25918892 0.86575651 0.24672556
0.25867593 0.9193275 0.26140261
0.26669294 0.99296349 0.031844616
0.25817293 0.70442951 0.10506868
0.25681394 0.75216055 0.14496565
0.25331792 0.86578548 0.24765539
0.25281793 0.91934651 0.26232767
0.25163293 0.70528054 0.1224494
0.25063393 0.75248551 0.15257978
0.25018892 0.7848655 0.1660018
0.24774893 0.8327415 0.23952961
0.24744892 0.86581349 0.24858665
0.24696192 0.91936654 0.26325369
0.24818492 0.95300752 0.22640657
0.25417292 0.99305153 0.045898438
0.24624692 0.6709435 0.10502243
0.24533492 0.70581353 0.13326168
0.24455993 0.75268853 0.15727043
0.24418992 0.78497255 0.16872072
0.24187292 0.83277452 0.24046278
0.24157992 0.86584252 0.24951744
0.24110693 0.91938549 0.26417971
0.24211192 0.9530915 0.23304653
0.24793091 0.9930945 0.05290556
0.23977593 0.67181754 0.1212368
0.23915792 0.70619154 0.14090061
0.23855792 0.75281048 0.15999746
0.24182592 0.62335151 0.056003571
0.23525493 0.91940451 0.26510572
0.23605393 0.95317453 0.23967075
0.24170393 0.99313849 0.059895515
0.24685092 1.0295525 -0.1039114
0.23359393 0.6722365 0.12890148
0.23256092 0.75293148 0.16272068
0.23012891 0.83284253 0.24232674
0.22985192 0.86589849 0.25137663
0.23468092 0.62559551 0.093318462
0.22940393 0.91942352 0.2660284
0.23000792 0.95325649 0.24628162
0.23548892 0.99318153 0.066872597
0.22742592 0.67265356 0.13655376
0.22664492 0.75294554 0.16289759
0.22425993 0.83287549 0.24325848
0.22399092 0.8659265 0.25230646
0.23013492 0.5790835 0.045306683
0.22820692 0.62662053 0.1102705
0.22355592 0.91944253 0.26695442
0.22397391 0.95333952 0.25287962
0.22928792 0.9932245 0.073832512
0.23412892 1.0295635 -0.089294434
0.22140191 0.67283154 0.13971281
0.22105592 0.70674151 0.15171957
0.22075093 0.7529285 0.16229773
0.22056392 0.78500354 0.16881657
0.22303492 0.58159149 0.083037376
0.21770993 0.91946149 0.26787758
0.21795192 0.95342153 0.25946474
0.22778893 1.0295686 -0.082007408
0.21539292 0.67298651 0.14245367
0.21511792 0.70677853 0.15232182
0.21485592 0.75291049 0.16169977
0.21474892 0.78488749 0.16551638
0.21774392 0.54483354 0.058306694
0.21252592 0.83294249 0.24512243
0.21227293 0.86598152 0.25416279
0.21586291 0.6275605 0.12564039
0.21186392 0.9194805 0.2688036
0.22145993 1.0295745 -0.074735641
0.20921493 0.70675755 0.15172148
0.20899892 0.75283349 0.15970278
0.21111391 0.5465005 0.081526756
0.20666192 0.83297551 0.24605274
0.20641792 0.86600953 0.25509167
0.21040292 0.5832535 0.10781765
0.20602192 0.91949952 0.26972675
0.21514592 1.0295795 -0.067480564
0.20348991 0.67310047 0.14428377
0.20331092 0.70673549 0.15112162
0.20317392 0.75270152 0.15636969
0.20310792 0.78465354 0.15885448
0.20602192 0.50046349 0.047609806
0.20080093 0.83300751 0.24698257
0.20056392 0.86603653 0.25601959
0.20424291 0.58377349 0.11551571
0.20041393 0.9193635 0.26173544
0.20120192 0.95308954 0.23167038
0.19743292 0.70666254 0.1494565
0.19731691 0.78448248 0.15407562
0.19941393 0.50230652 0.071208477
0.19861992 0.54802454 0.10259867
0.19494092 0.83304048 0.24791336
0.19471292 0.86606354 0.25694656
0.19820292 0.5840165 0.11904335
0.19781092 0.6281215 0.13454056
0.19519292 0.9189555 0.23797846
0.19595893 0.95279849 0.20769978
0.19847192 0.99343848 0.10842752
0.19166692 0.67305255 0.14307976
0.19150992 0.75242752 0.14949369
0.19309492 0.50336254 0.084659576
0.18908192 0.83307254 0.24884367
0.18886092 0.86609054 0.25787354
0.19218692 0.5842095 0.12179756
0.19188993 0.62809455 0.13393879
0.18993191 0.91854453 0.21404552
0.19067793 0.95250654 0.18354845
0.19628292 1.0295955 -0.045806408
0.18580993 0.67290449 0.14015675
0.18574792 0.70635247 0.14276457
0.18767792 0.45798254 0.060863495
0.18572992 0.75218451 0.14351368
0.18576293 0.78405154 0.1421175
0.18693492 0.5039745 0.092405796
0.18351991 0.86557448 0.2373085
0.18617992 0.58439451 0.12445259
0.18596992 0.62806654 0.13333464
0.18463592 0.9181295 0.18995047
0.18535993 0.9522115 0.15923166
0.18623792 0.99352252 0.12197447
0.17995693 0.67273355 0.13680458
0.18201593 0.42578453 0.046076775
0.18137293 0.45913154 0.074411392
0.17994092 0.7519415 0.1375227
0.17998393 0.78381652 0.13562775
0.18081392 0.5044995 0.099023819
0.17756093 0.83288652 0.24239779
0.17821892 0.86497355 0.21337843
0.18025093 0.58436352 0.12384939
0.18004993 0.62803853 0.13273048
0.18000393 0.9519155 0.13474178
0.18085591 0.99337351 0.097214699
0.17409892 0.67256153 0.13344765
0.17561992 0.42735952 0.063750744
0.17521793 0.45979452 0.082181454
0.17414092 0.75169653 0.1315217
0.17424692 0.78349149 0.12667751
0.17478992 0.5047245 0.10179663
0.17447792 0.54902452 0.11606264
0.17288092 0.86436749 0.1892786
0.17417492 0.62788051 0.12996244
0.17392892 0.91729254 0.14123869
0.17543392 0.99322349 0.072273731
0.17036892 0.37342548 0.028239727
0.16825892 0.6723305 0.1289854
0.16828892 0.70563447 0.12752151
0.16945992 0.42806953 0.071643353
0.16909993 0.46036452 0.088835716
0.16849492 0.7831645 0.11770439
0.16876993 0.50494951 0.10456467
0.16750392 0.86375749 0.16500664
0.16839193 0.58430052 0.1226387
0.16830893 0.62768751 0.12659979
0.16851792 0.91686851 0.11661959
0.16917492 0.95131552 0.085226536
0.16997293 0.99307251 0.047151566
0.17131892 1.0296175 -0.017119408
0.16243993 0.6720165 0.12296867
0.16331393 0.42876852 0.079429626
0.16306992 0.46060753 0.091614723
0.16261092 0.75099754 0.11447239
0.16273393 0.7828235 0.10832882
0.16278292 0.50506353 0.10592175
0.16260292 0.5489555 0.11485052
0.16208692 0.86314249 0.14055157
0.16250291 0.58412349 0.11984348
0.16243492 0.6274935 0.12323141
0.16306593 0.9164415 0.091814518
0.16446993 0.99292052 0.021837711
0.16514492 1.0296215 -0.011752605
0.15854593 0.32706654 0.016274452
0.15661292 0.67170155 0.1169405
0.15704592 0.46085054 0.09439373
0.15702592 0.78235149 0.095451355
0.15667492 0.54888451 0.11373472
0.15792592 0.8608225 0.048597813
0.15662192 0.5839085 0.11647272
0.15657592 0.62724054 0.11889839
0.15757492 0.91601151 0.066837788
0.15892892 0.9927665 -0.00365448
0.15957892 1.0296025 -0.037494183
0.15308392 0.2926355 -0.015012264
0.15218392 0.32890052 0.034080505
0.15161791 0.37698048 0.064985752
0.15088892 0.70454955 0.10474157
0.15123293 0.42936951 0.085989475
0.15105392 0.46097451 0.095750809
0.15108593 0.75015551 0.094014645
0.15129693 0.78187847 0.08252573
0.15088992 0.50498754 0.10470581
0.15078592 0.54865152 0.11035681
0.15179092 0.82726651 0.055521488
0.15073992 0.62688649 0.11286449
0.15204492 0.91557848 0.041675568
0.15263292 0.9503985 0.0095887184
0.15334693 0.99261254 -0.029335499
0.15397193 1.0295835 -0.063424587
0.14642492 0.29630053 0.019176483
0.14595592 0.33013153 0.046004772
0.14552993 0.37751049 0.070413589
0.14498292 0.6709035 0.10175037
0.14520992 0.4296245 0.088768482
0.14509892 0.46093249 0.095140457
0.14534393 0.74962151 0.08108139
0.14560492 0.78127754 0.066139698
0.14495192 0.50490749 0.10357141
0.14489192 0.54841852 0.1069746
0.14647393 0.91514254 0.016332626
0.14703892 0.95008749 -0.015992641
0.14012192 0.2980395 0.035356522
0.13949493 0.37778753 0.073208809
0.13917093 0.6704275 0.092710495
0.13930492 0.70358753 0.084638596
0.13924693 0.4295795 0.088158607
0.13914092 0.46088952 0.094530582
0.13958693 0.74906647 0.067647457
0.13993393 0.78056455 0.04670763
0.13904692 0.5046525 0.10018158
0.13899092 0.54818451 0.10358858
0.13900593 0.58301651 0.10266972
0.13903792 0.62617552 0.10076475
0.14086093 0.91470253 -0.0092043877
0.14140092 0.94977552 -0.041771412
0.13459292 0.24657553 0.0041875839
0.13397993 0.29888952 0.043212414
0.13372293 0.33154649 0.059626579
0.13334492 0.66994953 0.083650589
0.13353293 0.7029655 0.07167244
0.13328393 0.42953354 0.087547779
0.13319193 0.46080053 0.093376637
0.13390192 0.74826252 0.048234463
0.13439192 0.77947152 0.017011642
0.13313892 0.5043965 0.096790791
0.13572292 0.94946051 -0.067732334
0.12828292 0.24862051 0.022064686
0.12785293 0.29973853 0.051066399
0.12768392 0.33184254 0.062428474
0.12773992 0.70234048 0.058656693
0.12731993 0.42948753 0.086934566
0.12727493 0.46052349 0.089979649
0.12822993 0.74732453 0.025605679
0.12722492 0.5041405 0.093394756
0.12724392 0.54737753 0.092076778
0.12726793 0.58222252 0.090491772
0.13000293 0.94914252 -0.093886375
0.12213792 0.24956852 0.030308723
0.12180792 0.3000555 0.053946495
0.12165092 0.33213753 0.065228462
0.12150192 0.37806851 0.075867653
0.12201093 0.70141351 0.039410591
0.12135193 0.46024454 0.086576462
0.12297192 0.74503952 -0.029402256
0.12136093 0.54694951 0.085996628
0.12142393 0.58162951 0.081428528
0.11687593 0.16615951 -0.027729511
0.11633292 0.20667851 0.013681412
0.11601293 0.25047451 0.038187504
0.11576992 0.30036354 0.056753635
0.11564992 0.33221751 0.065930367
0.11596492 0.66773748 0.041854382
0.11542392 0.45996553 0.083171368
0.11544092 0.50325549 0.081820488
0.11548293 0.54643351 0.078671455
0.11556593 0.58103347 0.072338581
0.11571692 0.62380552 0.060789585
0.11052293 0.1690135 -0.0049433708
0.11019893 0.20763451 0.021587372
0.10974292 0.30060053 0.058888435
0.10966392 0.3321625 0.06531477
0.10956593 0.37784153 0.0733428
0.11018993 0.66669852 0.022288799
0.10951793 0.4286595 0.077328682
0.10951392 0.45950752 0.07763958
0.10953693 0.50278753 0.075721741
0.10961193 0.54579055 0.069571495
0.10987893 0.62302852 0.047728539
0.10407892 0.20858949 0.029492378
0.10390492 0.25125349 0.044893742
0.10362093 0.37752151 0.069924355
0.10508393 0.1108315 -0.059034348
0.10358693 0.42827451 0.072898388
0.10360193 0.45900154 0.071534634
0.10384293 0.57958555 0.050314426
0.098195925 0.17167354 0.016235352
0.097865924 0.25158054 0.047697544
0.09770593 0.33193451 0.062948704
0.097668931 0.37719953 0.066502571
0.098606929 0.11559451 -0.023065567
0.097665921 0.4277395 0.066783428
0.097679928 0.45849353 0.06541872
0.097745925 0.50151652 0.059206486
0.097842932 0.54439652 0.049873352
0.097975925 0.5787245 0.037220478
0.098234922 0.62092853 0.012476444
0.09209992 0.17248052 0.022637367
0.091975927 0.20933253 0.035573483
0.091864929 0.25151652 0.047078609
0.091745928 0.33158952 0.059520721
0.092872933 0.07099551 -0.057914257
0.091734931 0.42720252 0.060659409
0.091760918 0.45787251 0.057958603
0.091836929 0.50081152 0.050057411
0.091963932 0.54346752 0.036773682
0.09211193 0.57768047 0.021387577
0.092465922 0.61925852 -0.015499592
0.086046927 0.17284054 0.025470734
0.085937925 0.2096225 0.037940502
0.085863926 0.25145251 0.046460629
0.085800923 0.30006552 0.053636551
0.08577393 0.37627852 0.05676651
0.08652392 0.074964523 -0.029185295
0.086255923 0.11885953 0.0015206337
0.085793927 0.42665553 0.05441761
0.085842922 0.45710951 0.048810482
0.086062923 0.54253447 0.023628712
0.086253926 0.57638347 0.0017127991
0.079996929 0.17320049 0.028298378
0.079925925 0.20955354 0.037320614
0.079858929 0.25138754 0.045838356
0.079805925 0.33089453 0.052619457
0.079821929 0.37569451 0.050622463
0.080144927 0.11991751 0.009475708
0.079863921 0.42585051 0.045258522
0.079907924 0.45634252 0.039630413
0.080012925 0.49897051 0.026227474
0.07396692 0.17333549 0.029336452
0.07391493 0.20948452 0.036698818
0.073871925 0.25106549 0.04295969
0.073846921 0.33026952 0.046467781
0.073860928 0.37510949 0.044468403
0.074084923 0.12031853 0.012461662
0.07396993 0.45544052 0.028835773
0.074079923 0.49795049 0.013041496
0.074273929 0.53981251 -0.014662266
0.067902923 0.2094155 0.036076546
0.067881927 0.25067753 0.039512634
0.067868926 0.29880351 0.041683674
0.068538927 -0.014763474 -0.067916393
0.068254925 0.037670493 -0.021517277
0.06787692 0.32964253 0.040306568
0.067902923 0.37431151 0.036100388
0.06811893 0.079108536 0.00072479248
0.068029925 0.12069851 0.015298367
0.06795992 0.42423153 0.026864529
0.068027928 0.45433754 0.015654564
0.061928924 0.17318851 0.028089523
0.061903924 0.20902854 0.032810688
0.061886925 0.25028849 0.03605938
0.061889924 0.2981475 0.035512447
0.062316924 -0.011472464 -0.046004295
0.062146924 0.038822532 -0.013523579
0.061934926 0.37343252 0.026893616
0.061983924 0.12098849 0.017456532
0.062208924 0.49496549 -0.025508404
0.055910923 0.1729995 0.026543617
0.055897925 0.20861751 0.029350758
0.055897925 0.29749054 0.029332638
0.056169927 -0.0095105171 -0.032952309
0.056059927 0.03966552 -0.0076704025
0.055912927 0.32817352 0.025887489
0.055948924 0.37255049 0.017656803
0.055997923 0.07990253 0.0064196587
0.056023926 0.42190051 0.00043964386
0.056291923 0.49221754 -0.060946465
0.049897924 0.17257053 0.023079395
0.049887925 0.20820552 0.025887489
0.050065927 -0.0083044767 -0.024933338
0.049994923 0.040078521 -0.0048155785
0.049920924 0.32723153 0.016655445
0.049958926 0.37140054 0.0056238174
0.050033927 0.42045951 -0.015879631
0.050106928 0.44994754 -0.036737442
0.050178923 -0.058208466 -0.057516575
0.043879926 0.17213953 0.019610405
0.043880925 0.24836451 0.019078732
0.043896925 0.29575849 0.013073444
0.043979928 -0.0073684454 -0.018709183
0.043935925 0.040490508 -0.0019645691
0.043911926 0.32628554 0.0073933601
0.043911926 0.080026507 0.0072803497
0.043889925 0.12074649 0.015557766
0.044024926 0.41870248 -0.035760403
0.044119924 0.44696152 -0.072338581
0.044016927 -0.67925751 -0.032966614
0.044045925 -0.056093454 -0.044011593
0.037854925 0.17170751 0.0161376
0.037860926 0.24762648 0.012579441
0.037876926 0.29476953 0.00380373
0.037910923 -0.0069364309 -0.015845299
0.037885927 0.040577531 -0.0013666153
0.037890926 0.3250705 -0.0044956207
0.037921924 0.36875051 -0.022079468
0.037871927 0.079942524 0.0066537857
0.037934925 -0.6784215 -0.029583454
0.037945926 -0.054833531 -0.035966396
0.031826925 0.17094952 0.010059357
0.031827927 0.20612651 0.0084805489
0.031832926 0.24657351 0.0033144951
0.031846926 -0.006506443 -0.012985229
0.031836927 0.040488541 -0.0019965172
0.031850927 0.32370949 -0.017803192
0.031830925 0.079775512 0.0054388046
0.031858925 -0.67758751 -0.026200294
0.031894926 -0.12141252 -0.068331242
0.031860925 -0.053825498 -0.029528618
0.025785925 0.20529449 0.0015244484
0.025785925 0.24551553 -0.005982399
0.025785925 0.29224849 -0.019804478
0.025785925 -0.0063824654 -0.012162209
0.025785925 0.040398538 -0.0026273727
0.025785925 0.32225549 -0.032020569
0.025785925 0.079295516 0.0019536018
0.025785925 0.11936951 0.0051164627
0.025785925 -0.75519454 -0.0073223114
0.025785925 -0.67675352 -0.022816181
0.025785925 -0.1896975 -0.13211823
0.025785925 -0.11953545 -0.056968212
0.025785925 -0.053375483 -0.026656628
0.019736925 0.16939449 -0.0024065971
0.019731926 0.20418149 -0.0077695847
0.019709926 0.29082149 -0.033163548
0.019727925 -0.0064774752 -0.012793541
0.019692926 0.32021248 -0.05197525
0.019736925 0.078813493 -0.001537323
0.019738926 0.11867648 -0.0001244545
0.019770924 -0.74387646 0.036551476
0.019657925 -0.18290544 -0.092938423
0.019577924 -0.63790548 -0.18404818
0.019695925 -0.11820149 -0.048888206
0.019717924 -0.052927494 -0.023788452
0.013672926 0.16837049 -0.010599613
0.013660925 0.2030645 -0.017095566
0.013640925 0.24289954 -0.028965473
0.013667925 -0.0065745115 -0.013426304
0.013676926 0.039613485 -0.0080914497
0.013556925 0.31769049 -0.076621532
0.013679925 0.11785054 -0.0063705444
0.013830925 -0.73270047 0.079880714
0.013662925 -0.67509043 -0.016050339
0.013558925 -0.17987955 -0.075478554
0.013375925 -0.63707447 -0.18050337
0.013614926 -0.11732244 -0.043563366
0.013650925 -0.052781463 -0.022844315
0.0075909253 0.1672045 -0.019929409
0.0075719245 0.20183754 -0.02733326
0.0074559245 0.28673154 -0.071426392
0.0076149255 0.077527523 -0.010845184
0.0076099243 0.1170215 -0.012625217
0.0075419247 -0.83449852 -0.038591385
0.0079649258 -0.7216655 0.12266636
0.007279925 -0.25444746 -0.13882446
0.0074669253 -0.17847645 -0.067368507
0.0071799252 -0.63624346 -0.17695951
0.0069319252 -0.61433554 -0.27163744
0.0075369254 -0.11684954 -0.040682316
0.007581925 -0.052882433 -0.023477554
0.0013859253 0.23942453 -0.059482574
0.0012249257 0.2830745 -0.10564661
0.0015289243 -0.0073754787 -0.018737316
0.0015399251 0.038561523 -0.01539135
0.0015249252 0.1160565 -0.019908428
0.0016139243 -0.8226285 0.0056796074
0.002147926 -0.71235049 0.15878773
0.0015619248 -0.6734345 -0.0092873573
0.001225926 -0.24835944 -0.10542059
0.0013869256 -0.17707348 -0.059260368
0.00098892488 -0.63541543 -0.17341423
0.001461925 -0.11637652 -0.037804604
-0.0046900753 0.19861853 -0.054184437
-0.0045510754 -0.0079054832 -0.022246361
-0.0045480747 0.037658513 -0.021666527
-0.0045810752 0.1148175 -0.029260635
-0.0042380746 -0.81091452 0.049377441
-0.0048440751 -0.24544847 -0.089434624
-0.0046980754 -0.17652452 -0.056069374
-0.0051950756 -0.63458848 -0.16987228
-0.005607076 -0.61268044 -0.26436234
-0.0046180747 -0.11635447 -0.037648201
-0.0045660753 -0.053258538 -0.025838375
-0.010787074 0.16286349 -0.054639339
-0.010880075 0.19644052 -0.072345257
-0.011084076 0.23352349 -0.11128759
-0.010637075 -0.0084575415 -0.025903225
-0.010648075 0.036753535 -0.027950287
-0.010665074 0.074693501 -0.031326294
-0.011175074 -0.30890143 -0.12874746
-0.010764074 -0.90042651 -0.05023241
-0.010017075 -0.79934955 0.092524529
-0.010515075 -0.67178249 -0.0025262833
-0.011372074 -0.63376248 -0.16633129
-0.011867076 -0.61185443 -0.26072645
-0.010702074 -0.1164645 -0.038284302
-0.010655075 -0.053813457 -0.029357433
-0.016970076 0.16107953 -0.068894386
-0.017115075 0.19401848 -0.09254837
-0.016746074 -0.0094064474 -0.032197475
-0.016758073 0.035845518 -0.034244537
-0.016851075 0.11215353 -0.049354553
-0.017223075 -0.30538452 -0.11023521
-0.016585074 -0.88812852 -0.0058336258
-0.015724074 -0.78792846 0.13514137
-0.015520073 -0.7098825 0.16843939
-0.016544074 -0.67095947 0.00085258484
-0.016861074 -0.17565143 -0.050970554
-0.017544076 -0.6329385 -0.16278934
-0.018120077 -0.61103046 -0.25709152
-0.019054074 -0.57551146 -0.40997744
-0.023219075 0.15855849 -0.089050293
-0.023482073 0.1899175 -0.12676334
-0.023036074 0.1103645 -0.062846184
-0.023289073 -0.30326748 -0.099068642
-0.021360073 -0.77665043 0.1772275
-0.021399073 -0.70906246 0.17165756
-0.023091074 -0.2420615 -0.070753574
-0.023709074 -0.63211548 -0.15925026
-0.022886075 -0.11697948 -0.041325569
-0.022852074 -0.054938436 -0.036480427
-0.025433075 -0.57468951 -0.40618753
-0.029541075 0.1554575 -0.11385059
-0.028999075 -0.011311531 -0.04481554
-0.029131074 0.070484519 -0.061723232
-0.029247075 0.10857052 -0.076374531
-0.029909074 -0.38893545 -0.16069937
-0.029238075 -0.97614157 -0.075262547
-0.028008074 -0.86399949 0.081290722
-0.027273074 -0.70824349 0.17487478
-0.028587073 -0.66931653 0.0076117516
-0.029180076 -0.24154043 -0.067852497
-0.029870074 -0.63129449 -0.15571022
-0.030609075 -0.60938549 -0.24982262
-0.028999075 -0.11757147 -0.044861317
-0.028983075 -0.055933475 -0.042793274
-0.031807076 -0.57386851 -0.40239954
-0.032760076 -0.54562545 -0.52372265
-0.035161074 -0.012619495 -0.053485394
-0.035235073 0.031859517 -0.06190443
-0.035352074 0.068611503 -0.075260639
-0.035527077 0.10605252 -0.095371246
-0.035443075 -0.30074847 -0.085742474
-0.034961075 -0.96332347 -0.030556202
-0.033612076 -0.85216546 0.12402868
-0.032445073 -0.75507545 0.25775862
-0.033141077 -0.70742643 0.17809057
-0.035157073 -0.17602646 -0.052993298
-0.035117075 -0.11816347 -0.048399448
-0.039231073 -0.54480743 -0.51981163
-0.041347075 -0.01404345 -0.0629282
-0.041460078 0.030021548 -0.074659348
-0.041598078 0.066701531 -0.0890522
-0.041854072 0.10335749 -0.11570454
-0.041888077 -0.38064444 -0.11929464
-0.041538078 -0.30020547 -0.082829475
-0.040612075 -0.95067143 0.013579369
-0.039147075 -0.84047949 0.16623974
-0.038259078 -0.75482547 0.25874043
-0.040605072 -0.6676805 0.014364719
-0.041385073 -0.24137545 -0.066844463
-0.041286077 -0.17665052 -0.056538582
-0.042170074 -0.62965548 -0.14863348
-0.041249078 -0.11888051 -0.052681446
-0.047549073 -0.015473485 -0.072402477
-0.047715072 0.028065562 -0.088241577
-0.047936078 0.063898504 -0.10931635
-0.048383076 0.098556519 -0.15196657
-0.047954071 -0.37900651 -0.11107349
-0.047628079 -0.29966354 -0.079920292
-0.046193074 -0.93818045 0.05715847
-0.044614073 -0.82893753 0.20793247
-0.044071075 -0.75457752 0.25972557
-0.044859078 -0.70579648 0.18452358
-0.047498073 -0.24150443 -0.067488194
-0.048311073 -0.62883854 -0.14509439
-0.049293075 -0.60693049 -0.23892832
-0.047462072 -0.059289455 -0.064086437
-0.050886076 -0.57141554 -0.39104033
-0.052153077 -0.54317653 -0.51198959
-0.053806078 -0.017374516 -0.085011482
-0.054020073 0.025805473 -0.10392857
-0.054025073 -0.37766349 -0.10431862
-0.053748075 -0.29968643 -0.079977512
-0.051704075 -0.9258455 0.10019779
-0.050084073 -0.81921744 0.24305868
-0.049883071 -0.75433147 0.26070547
-0.050711077 -0.70498252 0.18773937
-0.052601073 -0.66604853 0.021119595
-0.053621072 -0.24174154 -0.068719387
-0.053563077 -0.17790449 -0.063644409
-0.054447073 -0.62802446 -0.14156532
-0.055511076 -0.60611546 -0.2352972
-0.053583074 -0.1209985 -0.065377235
-0.057235073 -0.57060051 -0.38725519
-0.054696072 -0.46931148 -0.16352129
-0.060408074 0.022875547 -0.12428665
-0.061266076 0.052131534 -0.19450855
-0.059875075 -0.29982352 -0.080625534
-0.055908073 -0.81896353 0.24404335
-0.056556072 -0.70417047 0.19095469
-0.058590073 -0.66523552 0.024495602
-0.059773076 -0.24240446 -0.072282314
-0.059734073 -0.17887247 -0.069153309
-0.060576078 -0.62721252 -0.13803959
-0.061720077 -0.6053015 -0.23166943
-0.059766073 -0.12206149 -0.071741581
-0.059904072 -0.062279463 -0.083062649
-0.066432074 -0.021757483 -0.11408758
-0.066935077 0.01880753 -0.15257359
-0.066227078 -0.37651944 -0.09846735
-0.06252107 -0.90164447 0.18465281
-0.061731074 -0.81871045 0.2450285
-0.061500076 -0.75384355 0.2626667
-0.062396076 -0.70336044 0.19417143
-0.064573079 -0.66442347 0.027870655
-0.066699073 -0.62640047 -0.13450861
-0.066190079 -0.064259529 -0.095645428
-0.067387074 -0.52671754 -0.18706226
-0.072865069 -0.024831533 -0.1344986
-0.072348073 -0.37633753 -0.09747839
-0.072159082 -0.30048454 -0.083938599
-0.067830071 -0.88976848 0.22610569
-0.067552075 -0.81845951 0.24601364
-0.067305073 -0.7536025 0.2636466
-0.070551068 -0.66361248 0.031245708
-0.07209608 -0.24373543 -0.07942152
-0.072131068 -0.18111145 -0.081907272
-0.072816074 -0.62558949 -0.1309762
-0.074121073 -0.60367751 -0.22441626
-0.072253078 -0.12522054 -0.090698242
-0.072513074 -0.066410542 -0.10931444
-0.072756082 -0.46154749 -0.12666464
-0.078492075 -0.37648654 -0.09813118
-0.078334078 -0.30118346 -0.087518215
-0.073658079 -0.88934648 0.22766066
-0.073110074 -0.75336254 0.2646246
-0.074060068 -0.70174348 0.20060253
-0.076522082 -0.66280353 0.034618378
-0.078303069 -0.24484944 -0.085441589
-0.078365073 -0.18246245 -0.089614391
-0.07892707 -0.62477946 -0.12744427
-0.080311075 -0.60286748 -0.22078943
-0.07852307 -0.12681246 -0.10024738
-0.078849077 -0.4606235 -0.12221718
-0.084638074 -0.37663543 -0.098784447
-0.084518075 -0.30188346 -0.0911026
-0.079495072 -0.88908744 0.22865057
-0.079191074 -0.81796253 0.24798059
-0.078914076 -0.75312352 0.26560354
-0.07988508 -0.70093644 0.20381975
-0.084644079 -0.18413353 -0.09915638
-0.085033074 -0.62397146 -0.12391138
-0.08633408 -0.5996685 -0.20672131
-0.084960073 -0.46001947 -0.11927652
-0.09080407 -0.37702549 -0.10062456
-0.090723068 -0.30277944 -0.095714569
-0.084715068 -0.75288653 0.26658058
-0.085703075 -0.70013154 0.20703459
-0.088450074 -0.66118848 0.041366577
-0.090939075 -0.18580949 -0.10872555
-0.091132075 -0.62316453 -0.1203804
-0.092141077 -0.59386051 -0.1812582
-0.091253072 -0.13137352 -0.12766361
-0.092003077 -0.076400518 -0.1729002
-0.091388077 -0.51555443 -0.13581038
-0.091065079 -0.45941854 -0.11633921
-0.097004071 -0.37776852 -0.10422134
-0.09696807 -0.30402148 -0.10213327
-0.091160074 -0.88857746 0.23062181
-0.090822071 -0.8174715 0.24994469
-0.090515077 -0.7526505 0.26755857
-0.091515079 -0.69932747 0.21024942
-0.097045079 -0.24875653 -0.10656738
-0.09722507 -0.62235951 -0.11685038
-0.098105073 -0.59068346 -0.16728163
-0.097714081 -0.13423645 -0.14488649
-0.097504079 -0.51492953 -0.13285923
-0.097227082 -0.45957148 -0.11695957
-0.10322408 -0.30526745 -0.10856724
-0.096636072 -0.81722844 0.25092459
-0.096313074 -0.75241649 0.26853466
-0.10336308 -0.25052452 -0.11615229
-0.10368907 -0.19021249 -0.13390064
-0.10331208 -0.62155545 -0.11332035
-0.10361607 -0.5143075 -0.12991142
-0.10339008 -0.45973349 -0.11761427
-0.10282008 -0.88807344 0.23259163
-0.10244907 -0.81698751 0.25190258
-0.10211107 -0.75218451 0.26950836
-0.10970108 -0.25229943 -0.12576962
-0.10939407 -0.62075245 -0.10979128
-0.11021408 -0.58734751 -0.15248537
-0.10955708 -0.45989752 -0.1182723
-0.10864708 -0.88782454 0.23357439
-0.10790607 -0.75195444 0.27048159
-0.10892208 -0.69692445 0.2198925
-0.11223508 -0.65797651 0.054854393
-0.11546908 -0.61995149 -0.10626459
-0.11633807 -0.58669746 -0.14952421
-0.11594608 -0.51438344 -0.13002157
-0.12199607 -0.38195252 -0.1245842
-0.12220508 -0.31028748 -0.13457727
-0.11447307 -0.88757646 0.23455667
-0.11373708 -0.75220346 0.26967049
-0.11471307 -0.69612646 0.22310638
-0.11816707 -0.65717745 0.058225632
-0.12256707 -0.25710046 -0.15184259
-0.12339108 -0.20020747 -0.19118357
-0.12212408 -0.51455653 -0.13068247
-0.12829608 -0.38327849 -0.13105726
-0.12029707 -0.88733149 0.23553753
-0.11987607 -0.81627452 0.25483561
-0.12049808 -0.69532943 0.22631836
-0.12409309 -0.65637946 0.06159544
-0.12907508 -0.25984347 -0.16674852
-0.13081208 -0.20979452 -0.24633741
-0.12760107 -0.61835253 -0.099208355
-0.12862007 -0.58592248 -0.14588356
-0.12833709 -0.51508152 -0.13294649
-0.12824509 -0.46219349 -0.12871742
-0.13466808 -0.38513744 -0.1401782
-0.13508707 -0.31492245 -0.15865135
-0.12568209 -0.81603944 0.25581074
-0.12573308 -0.75659549 0.25355482
-0.12627807 -0.69453347 0.22953272
-0.13001308 -0.65558243 0.064965725
-0.13365908 -0.6175555 -0.095683575
-0.13481309 -0.58610654 -0.14654732
-0.13458708 -0.51590848 -0.13658047
-0.13452607 -0.46332443 -0.13391542
-0.14107108 -0.38711047 -0.14985943
-0.13155808 -0.8166225 0.25384378
-0.13205507 -0.69373953 0.23274565
-0.13592908 -0.65478754 0.068334579
-0.13971208 -0.61676049 -0.092158318
-0.14100908 -0.58629048 -0.14721251
-0.14084408 -0.51673853 -0.1402154
-0.14749008 -0.38908947 -0.15956545
-0.13776208 -0.88660252 0.23848057
-0.13758507 -0.81890345 0.24575758
-0.13779008 -0.76101351 0.23736048
-0.13802408 -0.6950525 0.2277956
-0.14575708 -0.61596549 -0.088633537
-0.14712308 -0.51771748 -0.14453125
-0.14718108 -0.46614254 -0.14691448
-0.14358108 -0.88636351 0.23946047
-0.15179709 -0.61517346 -0.085110188
-0.15351608 -0.58769751 -0.15305138
-0.15346508 -0.51918054 -0.15104342
-0.16216208 -0.33185744 -0.24699354
-0.14944308 -0.88662243 0.23870754
-0.14968307 -0.82348549 0.22952652
-0.14990407 -0.76545954 0.22108841
-0.15979707 -0.58857143 -0.15670538
-0.15982008 -0.52064645 -0.15756845
-0.15999109 -0.46985745 -0.16411829
-0.15575708 -0.8257885 0.22137976
-0.15598609 -0.76769245 0.21292162
-0.15624708 -0.70149553 0.20328665
-0.15953408 -0.65161943 0.08180666
-0.16610308 -0.58958745 -0.16098022
-0.16158608 -0.89138448 0.22243977
-0.16184407 -0.82809746 0.2132144
-0.16235107 -0.70365548 0.19507742
-0.16542108 -0.65083146 0.085170746
-0.17245108 -0.59089553 -0.16651726
-0.16768008 -0.89377546 0.21427774
-0.16794609 -0.83041346 0.20502758
-0.16819108 -0.77217853 0.19652843
-0.16847008 -0.70582247 0.18684673
-0.17130208 -0.65004349 0.088538647
-0.17914107 -0.52647448 -0.1836133
-0.17958808 -0.47739148 -0.19913435
-0.17378809 -0.89617443 0.2060957
-0.17406307 -0.83273649 0.1968236
-0.17431608 -0.77443254 0.18830156
-0.17717707 -0.64925754 0.09190464
-0.18463208 -0.58932149 -0.15928841
-0.18565108 -0.5287075 -0.19361019
-0.17991208 -0.89858043 0.19789171
-0.18019608 -0.83506751 0.18859768
-0.18075408 -0.71017754 0.17032576
-0.19230308 -0.53183353 -0.20766544
-0.19309108 -0.48475254 -0.23346949
-0.18661408 -0.77896047 0.17178679
-0.18692107 -0.71236444 0.1620326
-0.19679208 -0.58775449 -0.15207052
-0.19898307 -0.5349735 -0.2217803
-0.20006408 -0.48961151 -0.25618458
-0.19220708 -0.90341544 0.18142366
-0.19278608 -0.7812345 0.1634984
-0.19310208 -0.71455848 0.15372038
-0.19477208 -0.64690852 0.10199881
-0.19990608 -0.60887647 -0.056930542
-0.20286208 -0.58697343 -0.14846849
-0.20582008 -0.53902352 -0.24003553
-0.22397108 -0.47758543 -0.59835958
-0.19868708 -0.84210253 0.16379547
-0.19897307 -0.78351653 0.15518951
-0.19929808 -0.71675944 0.1453886
-0.20062608 -0.64612854 0.10536146
-0.20892708 -0.58619547 -0.14486647
-0.21278508 -0.54370844 -0.26117659
-0.23040907 -0.47681248 -0.59429121
-0.20456208 -0.90828049 0.16487455
-0.20488209 -0.84446144 0.15548754
-0.21187508 -0.60731947 -0.049906254
-0.23684306 -0.47604144 -0.59022236
-0.21109308 -0.84682953 0.14715672
-0.21173908 -0.72118247 0.12865877
-0.21231808 -0.64457154 0.11208773
-0.21785209 -0.60654151 -0.046390533
-0.22103907 -0.5846405 -0.1376586
-0.22620307 -0.54914844 -0.28553343
-0.23030709 -0.5209465 -0.40307045
-0.24326809 -0.47527146 -0.58615828
-0.21731807 -0.84920251 0.13880873
-0.21762908 -0.79040444 0.13013744
-0.21839409 -0.64544046 0.10877037
-0.22382207 -0.60576451 -0.042871475
-0.23237409 -0.54837751 -0.28179741
-0.24968709 -0.47450244 -0.58209419
-0.22321308 -0.91563451 0.13989544
-0.22387809 -0.79271448 0.12174749
-0.22424109 -0.72563243 0.11184549
-0.23312609 -0.58309054 -0.13045263
-0.24283908 -0.5194025 -0.3953352
-0.25609908 -0.47373545 -0.57803249
-0.23014407 -0.79503143 0.11333466
-0.23916109 -0.58231747 -0.12685061
-0.24469607 -0.54683244 -0.27429724
-0.24909507 -0.51863253 -0.39146423
-0.23609008 -0.8563695 0.11363363
-0.23680709 -0.73011053 0.094950676
-0.23725207 -0.65186048 0.083371639
-0.24169709 -0.60344553 -0.032337189
-0.24519007 -0.58154547 -0.12324858
-0.26890507 -0.47220445 -0.56991148
-0.24272408 -0.7996875 0.096442699
-0.24357207 -0.65401351 0.074860573
-0.24764608 -0.60267448 -0.028825283
-0.25699607 -0.5452925 -0.2668004
-0.26159006 -0.51709354 -0.38372135
-0.24903707 -0.80202651 0.087966442
-0.24943908 -0.73461652 0.07796669
-0.24990709 -0.65617454 0.066327572
-0.25723106 -0.58000648 -0.11604834
-0.26313606 -0.5445255 -0.26305437
-0.26782706 -0.5163275 -0.37985945
-0.25500607 -0.86360347 0.088267803
-0.25577807 -0.73688054 0.069442749
-0.25952306 -0.60113752 -0.021805286
-0.26324305 -0.57923853 -0.11244822
-0.26927006 -0.54375851 -0.25930834
-0.27405906 -0.51556551 -0.37600851
-0.28806305 -0.46992052 -0.55774355
-0.26134306 -0.8660295 0.079770565
-0.26171306 -0.80672646 0.070949554
-0.26213408 -0.73915052 0.06089735
-0.26262406 -0.66051447 0.049201488
-0.26545307 -0.60037148 -0.018295288
-0.27539808 -0.5429945 -0.25556564
-0.28028408 -0.5148015 -0.37214422
-0.29443705 -0.46916151 -0.55368948
-0.26769805 -0.86846447 0.071249485
-0.26807606 -0.80908847 0.062405586
-0.26850706 -0.74142945 0.052328587
-0.26900905 -0.66269553 0.040602684
-0.27210405 -0.60359144 -0.031723499
-0.27525008 -0.57770753 -0.10525131
-0.30080307 -0.46840346 -0.54963827
-0.27489507 -0.7437135 0.043740749
-0.28763705 -0.5414685 -0.2480793
-0.30716306 -0.46764743 -0.54558754
-0.28045306 -0.87335551 0.054145813
-0.28084907 -0.81383252 0.045258522
-0.28130007 -0.74600554 0.035129547
-0.28671005 -0.61657047 -0.086345196
-0.29374605 -0.54070747 -0.24433851
-0.31351605 -0.46689343 -0.54153919
-0.28726006 -0.81621647 0.036651611
-0.28772107 -0.74830544 0.026498795
-0.29069006 -0.68247652 -0.038885593
-0.29410008 -0.62313843 -0.11397934
-0.29985008 -0.53994751 -0.2405982
-0.30512208 -0.5117625 -0.35670757
-0.31986207 -0.46614051 -0.53749323
-0.29327407 -0.87827647 0.036956787
-0.29436606 -0.75176752 0.013366699
-0.29804605 -0.68926144 -0.06614542
-0.30155006 -0.6297605 -0.14183521
-0.30352905 -0.59614444 -0.18459558
-0.30667806 -0.54265547 -0.25263834
-0.31131607 -0.51100552 -0.35284948
-0.32620406 -0.46538746 -0.5334444
-0.29971108 -0.88074946 0.028325558
-0.30168405 -0.7587775 -0.013491631
-0.30546308 -0.69610453 -0.093627453
-0.30906007 -0.63643849 -0.16991949
-0.31109306 -0.60272753 -0.21302462
-0.31432807 -0.54908347 -0.28161764
-0.31750607 -0.51025045 -0.34899426
-0.33253807 -0.46463752 -0.5294013
-0.30616406 -0.88323045 0.019674778
-0.30659506 -0.82341146 0.010697365
-0.30905607 -0.76584148 -0.040550232
-0.31293607 -0.70300055 -0.12132025
-0.31663007 -0.64316952 -0.19822121
-0.31871706 -0.60936248 -0.24167347
-0.32203907 -0.5555625 -0.31082249
-0.32462606 -0.51364648 -0.36469555
-0.33886507 -0.46388853 -0.52536154
-0.31263205 -0.88571846 0.011002541
-0.31648806 -0.7729615 -0.06782341
-0.32981205 -0.56209648 -0.34026718
-0.33246908 -0.52005649 -0.39458323
-0.34518605 -0.46314049 -0.52132034
-0.31911805 -0.88821352 0.0023097992
-0.32397807 -0.78013945 -0.095310211
-0.32806307 -0.71696043 -0.17736864
-0.33195308 -0.65679753 -0.25551033
-0.33415106 -0.62279844 -0.29966927
-0.35270807 -0.46718252 -0.54110241
-0.32562205 -0.89071846 -0.0064115524
-0.33152905 -0.78737843 -0.12302446
-0.33572006 -0.72402954 -0.20573759
-0.34555507 -0.57533145 -0.39989328
-0.34835207 -0.53303945 -0.45511341
-0.36086106 -0.47355449 -0.57246447
-0.33551505 -0.84825754 -0.080613613
-0.34984207 -0.6364615 -0.35862541
-0.33988607 -0.90215147 -0.046972275
-0.34681106 -0.80202949 -0.17909956
-0.35121608 -0.73833752 -0.26314926
-0.35541207 -0.67767048 -0.34321022
-0.35778305 -0.6433785 -0.38846159
-0.36155906 -0.58878946 -0.46050119
-0.34744805 -0.90982449 -0.074294567
-0.35073605 -0.86330843 -0.13600922
-0.36579105 -0.6503545 -0.4185462
-0.36966106 -0.59560454 -0.49118662
-0.35843807 -0.8709265 -0.16403961
-0.36234006 -0.81692147 -0.23607826
-0.36696607 -0.75288546 -0.32149744
-0.37137306 -0.69187748 -0.40287638
-0.37783206 -0.6024785 -0.52212763
-0.38092408 -0.55967653 -0.5792222
-0.36620507 -0.87860954 -0.19230032
-0.37020105 -0.82446146 -0.26491928
-0.37494007 -0.76025248 -0.3510375
-0.37945607 -0.69907343 -0.43308926
-0.38200906 -0.66448545 -0.47947645
-0.38607407 -0.60941243 -0.55333853
-0.37812406 -0.83206344 -0.29399061
-0.38297907 -0.76767945 -0.38081264
-0.39021906 -0.67164052 -0.51032162
-0.39438406 -0.61640549 -0.58480549
-0.38611308 -0.83972847 -0.3232975
-0.39849907 -0.67885745 -0.54142332
-0.39925605 -0.78272247 -0.44110441
-0.40410605 -0.72102547 -0.5252223
-0.40684906 -0.68613648 -0.57278919
-0.40749708 -0.79034054 -0.47162724
-0.41246206 -0.72846854 -0.55645227
-0.41527006 -0.69347847 -0.60442257
-0.42089206 -0.73597848 -0.58795547
