# .PCD v0.7 - Point Cloud Data file format
VERSION 0.7
FIELDS x y z
SIZE 4 4 4
TYPE F F F
COUNT 1 1 1
WIDTH 1
HEIGHT 1024
VIEWPOINT 0 0 0 1 0 0 0
POINTS 1024
DATA ascii
0.90994561 -0.051193774 0.013279915
0.92006361 -0.025079787 -0.064621449
0.93082261 0.0026422143 -0.14746428
0.89649266 -0.042606771 0.071913719
0.90161663 -0.01151377 0.032192707
0.90053463 -0.1336838 0.040575504
0.90692663 0.0649122 -0.055093288
0.91637361 0.090566218 -0.12883949
0.89999962 -0.19907784 -0.0010180473
0.93029165 0.19325721 -0.28552628
0.88359165 0.03346318 0.081569672
0.89273661 -0.19717276 0.009680748
0.89019966 0.1441052 -0.016850471
0.87683064 -0.0033137798 0.088977814
0.90442061 0.24959123 -0.17734241
0.87068164 0.034994185 0.091617584
0.87832665 -0.19343376 0.030673504
0.86984164 0.1521312 0.051690578
0.8742786 0.19452024 0.016065598
0.86097461 0.11573321 0.076088905
0.86769462 0.19520921 0.021748543
0.85788161 0.036447227 0.10109758
0.86482561 -0.19081879 0.044950485
0.85689062 0.15346521 0.061902523
0.85117263 -0.00020879507 0.10847473
0.86601961 -0.25515079 -0.012446404
0.84819663 0.11702019 0.085353851
0.85910761 -0.25357878 -0.0041584969
0.83864164 -0.035265803 0.11626291
0.85761166 0.2631492 -0.040494442
0.87313265 0.30133122 -0.16875315
0.84509063 -0.18746781 0.062968731
0.84098762 -0.12379181 0.09687376
0.83307761 -0.078502774 0.11441565
0.83239365 -0.034610808 0.12011051
0.83463061 -0.12295675 0.10148478
0.82769966 0.086698234 0.11098194
0.83848161 -0.24889684 0.020558834
0.83105564 0.26576823 -0.016122341
0.8250156 -0.24608481 0.035299778
0.81583863 -0.12075675 0.11341667
0.81059062 0.12034321 0.10882568
0.81621063 0.19998819 0.060620785
0.8180716 0.26688921 -0.0058531761
0.79680461 0.089268208 0.12809849
0.79570961 0.042215228 0.1376338
0.79411763 0.1587292 0.10106373
0.79738665 0.20146519 0.072371483
0.78920662 -0.030464768 0.14416885
0.81382561 0.31044823 -0.07190752
0.82392865 0.33338922 -0.16058445
0.79844165 -0.24076474 0.063113689
0.81627065 0.33467019 -0.14610338
0.77708763 -0.029485822 0.14966679
0.78753763 0.2297442 0.056501865
0.76477963 0.0078291893 0.15708256
0.76661265 -0.11567974 0.1404767
0.76176465 0.1237852 0.13224459
0.76900363 0.23093319 0.066142559
0.76048762 0.20388019 0.091011524
0.75333661 -0.070823789 0.15683556
0.76764464 0.31465322 -0.02918005
0.74244666 0.092909217 0.15142393
0.74375963 0.12483722 0.13914156
0.74835861 0.20456022 0.096106529
0.74083263 0.0094801784 0.1665287
0.73650664 0.093225181 0.15334272
0.73957562 0.16204518 0.12438965
0.74463463 0.23227018 0.076655865
0.74866563 0.2718572 0.038627625
0.73561162 0.046261191 0.16179466
0.75481266 0.31563622 -0.019370079
0.73058063 0.093531191 0.15517569
0.73185164 0.12545723 0.14308071
0.73360664 0.16234219 0.12638187
0.72900361 0.010153234 0.1701827
0.73276466 -0.17365885 0.13439655
0.73052263 -0.1127038 0.15572977
0.73633164 0.27258718 0.045003891
0.72309566 0.010488212 0.17200756
0.72172564 0.16288519 0.12994576
0.71408361 0.12631023 0.14840174
0.71848363 -0.23197579 0.10545588
0.71268362 -0.11143076 0.16206169
0.71809262 0.27347922 0.052479744
0.70550364 0.011342227 0.17641878
0.7067486 -0.11100984 0.16416359
0.70395261 0.16367722 0.13513279
0.70856863 0.23393619 0.089298725
0.71776563 0.31749719 -0.0020432472
0.70308363 -0.17161775 0.14376879
0.69381666 0.011874199 0.17912483
0.72809261 0.37734222 -0.16427231
0.70621866 -0.30011284 0.054878712
0.70043862 -0.23039675 0.11278582
0.72140664 0.3779242 -0.15740347
0.68910766 -0.10996974 0.16907692
0.68217862 0.012357235 0.18149376
0.68048066 0.16452622 0.1403079
0.68276662 0.20746922 0.11678171
0.67955565 -0.17023885 0.14982891
0.67189163 0.096098185 0.16994381
0.67462164 0.16473621 0.14159489
0.67687565 0.2076782 0.11818266
0.66609466 0.096282184 0.17086363
0.66880262 0.16489923 0.14247751
0.67604363 0.2752192 0.06659174
0.66481966 0.012964189 0.18423271
0.6653766 0.049374223 0.17839575
0.68556863 0.3452282 -0.033251286
0.66299361 0.16505522 0.14330387
0.65900564 -0.022632778 0.18549871
0.67942464 0.34550518 -0.030518055
0.67815262 -0.3660748 -0.017055511
0.65568763 0.12839019 0.16013479
0.66423863 0.27553821 0.068829536
0.66947865 0.31922323 0.01287365
0.65547264 0.23563719 0.10086489
0.65836161 0.27567619 0.06972456
0.65765464 -0.29518676 0.077339649
0.64767462 0.20848018 0.12297869
0.64962465 0.23578221 0.10174894
0.65757364 0.31952822 0.015239716
0.64255065 -0.10777378 0.1787405
0.63978964 0.1656602 0.14649057
0.63638866 -0.065048814 0.18386793
0.63606161 0.013774216 0.18745375
0.66277063 0.38232321 -0.10602427
0.64074361 0.27608621 0.072408676
0.63033164 0.013912201 0.18793678
0.64568365 0.31983221 0.017600536
0.65664661 0.38251919 -0.1040411
0.64002162 -0.29433382 0.080425739
0.6355226 -0.22630382 0.13033581
0.63108063 -0.10747278 0.17962551
0.63028163 0.2088412 0.12479353
0.62492865 -0.064759791 0.18476868
0.63491565 0.27617919 0.072860718
0.64313966 0.34672219 -0.019284248
0.64144164 -0.3622508 -0.00025129318
0.63418263 -0.29412079 0.081077576
0.61998862 0.097485185 0.17630863
0.62450761 0.20893621 0.12517452
0.61888963 0.014163196 0.18874359
0.6280176 0.3201322 0.019436836
0.6295796 -0.36170578 0.0015788078
0.61808866 -0.22558975 0.13292551
0.60750866 0.014322221 0.18890572
0.60795963 0.05076021 0.18370056
0.62526661 0.3471182 -0.016128063
0.62372261 -0.36158574 0.0017008781
0.60208362 -0.064288795 0.18591976
0.60182065 0.014400184 0.18898582
0.61786664 -0.36146677 0.0018205643
0.61087364 -0.29333079 0.083385944
0.59714365 0.09783721 0.17716074
0.5965746 0.050910234 0.18386173
0.61201161 -0.36134982 0.0019407272
0.60073465 -0.22500181 0.13483572
0.59863764 -0.16742682 0.15955257
0.59145361 0.097895205 0.17714882
0.59256661 0.12950522 0.16388464
0.59573764 0.20930123 0.12612152
0.60456961 0.3204422 0.020950794
0.58576763 0.097949207 0.17710352
0.58504766 -0.064096808 0.18576574
0.58478063 0.014598191 0.18898582
0.60860163 0.38333118 -0.097694397
0.58852464 0.27670318 0.074379921
0.57549262 0.12963623 0.16357374
0.57347864 0.014636219 0.18833685
0.57413864 -0.10662079 0.18021488
0.56760865 -0.020742774 0.19073391
0.57452261 0.23675418 0.10480785
0.56850165 -0.10664082 0.1796298
0.56313062 0.098002195 0.17569065
0.56716365 0.20943022 0.12500381
0.57825565 0.34759122 -0.014379501
0.57070464 -0.2932508 0.080505848
0.56455964 -0.16726685 0.15772581
0.55748063 0.097999215 0.17522287
0.55850863 0.12963122 0.16216755
0.55652565 0.014689207 0.18736172
0.55727166 -0.10677481 0.17787886
0.55070561 -0.020767808 0.18922091
0.55977964 0.27675521 0.072618484
0.56395561 0.32055718 0.018967628
0.57316566 0.38342118 -0.099381447
0.56521064 -0.36045778 0.0028338432
0.55326265 -0.16734576 0.15635777
0.55010861 0.20938623 0.12325382
0.54557365 -0.064158797 0.18219662
0.56085563 0.34753323 -0.016423225
0.54761362 -0.16738677 0.1556735
0.53995967 -0.06422478 0.18132162
0.54600167 0.23668522 0.10189676
0.56142563 0.38337618 -0.10086918
0.53499967 0.097786188 0.17177677
0.53706664 0.16637719 0.14427948
0.53434765 -0.064292789 0.18044567
0.53388464 -0.020958781 0.18659973
0.53631264 -0.16747081 0.15430164
0.53034765 0.12937319 0.1578536
0.52582765 0.1661942 0.14182854
0.52903062 0.23643821 0.098213673
0.52679563 -0.22506177 0.12863588
0.52338564 0.23633319 0.096767902
0.52112365 -0.22510982 0.12794495
0.51188767 -0.064569771 0.17694378
0.50790668 0.12898421 0.15296984
0.50895566 0.16591519 0.13815069
0.51063263 0.20876122 0.11447191
0.52684063 0.38252223 -0.11444139
0.51333362 -0.29322779 0.076320648
0.50670165 -0.10741484 0.16998959
0.50140363 0.097180188 0.16447353
0.50500065 0.20865023 0.11303282
0.50082666 0.050417185 0.17271757
0.50107867 -0.10749078 0.16911268
0.49579966 0.097077191 0.16325474
0.49503565 -0.064785779 0.1743145
0.50079066 0.23590523 0.090978622
0.50680965 -0.35946083 0.0037975311
0.50186062 -0.29323578 0.075474739
0.49674967 -0.1677928 0.14949465
0.49275467 -0.22536278 0.12448454
0.48544267 0.12858623 0.14808464
0.48809168 0.20831418 0.10871458
0.48707765 -0.22541583 0.12379074
0.48245266 0.20820022 0.10727453
0.47809267 0.013486207 0.17292452
0.48962465 0.31929523 -0.0006980896
0.47420266 0.12838322 0.1456399
0.49220666 0.38157421 -0.12905121
0.46775568 0.096552193 0.15716648
0.47819567 0.3190462 -0.0042681694
0.46295565 0.12817818 0.14319658
0.46125865 0.013206184 0.1697917
0.47247565 0.31892121 -0.0060534477
0.48075166 0.38111019 -0.1357913
0.45568267 -0.065316796 0.16816664
0.46015966 -0.35875678 0.004447937
0.45596567 -0.29330981 0.072054863
0.45301467 -0.22575581 0.11962175
0.45043465 -0.10820377 0.16120052
0.44857666 0.20751023 0.098635674
0.44984165 0.23491418 0.077951908
0.44468465 0.049524188 0.16226387
0.45530665 0.3185432 -0.011410236
0.44292367 0.20739323 0.097195625
0.45223367 0.34474123 -0.057220459
0.43569666 0.16464621 0.12220669
0.42917967 0.12754923 0.13586283
0.43282366 0.2345742 0.073605537
0.43685567 -0.35843575 0.0047307014
0.42354566 0.12744218 0.13463974
0.42714766 0.23446023 0.072155952
0.42911866 0.27429122 0.037987709
0.43237865 0.31803221 -0.018557072
0.43502066 0.34422719 -0.064374447
0.41875467 0.16433918 0.1185236
0.41628566 -0.065885782 0.16200876
0.42927667 0.34405518 -0.066758156
0.43519765 0.37859219 -0.17104006
0.42154166 -0.29341078 0.06945467
0.41893065 -0.22613084 0.11543369
0.41065267 -0.065970778 0.16112661
0.41578865 0.23422921 0.069257736
0.40745166 0.16413218 0.11606884
0.40502065 -0.066055775 0.16024494
0.40483665 -0.023050785 0.16357851
0.41777566 0.34370923 -0.071531296
0.41356465 -0.35813582 0.004989624
0.40099066 0.1270082 0.12974882
0.39968267 0.048761189 0.1538887
0.40940967 0.31751519 -0.025708199
0.40774366 -0.35806382 0.0050497055
0.39405265 0.048663199 0.15284061
0.39619467 -0.22639883 0.11263371
0.39489567 -0.16882074 0.13702774
0.39048567 0.16381723 0.1123848
0.39791065 0.31725323 -0.029286385
0.40050066 0.3431862 -0.078696251
0.38405767 0.1266762 0.12607956
0.37684065 -0.066492796 0.15583467
0.38639966 0.31698918 -0.032864094
0.38137266 -0.29357779 0.066382885
0.37120268 -0.066582799 0.15495157
0.37108466 -0.023695767 0.15730762
0.37151566 0.048263192 0.14864874
0.38919666 0.3760342 -0.20650434
0.37283465 -0.35765982 0.0053749084
0.36776066 -0.22675478 0.10912275
0.36656666 -0.16915774 0.13353682
0.35992065 -0.066764772 0.15318394
0.36089766 -0.16922879 0.13283682
0.35519865 0.094299197 0.13279152
0.35427865 -0.066856802 0.15229988
0.35419068 -0.024027824 0.15416765
0.35439065 0.011285186 0.14991856
0.36584866 0.34212822 -0.093044281
0.36120266 -0.35753584 0.0054707527
0.35841367 -0.29369676 0.064608574
0.35456666 -0.10972977 0.1461935
0.34955466 0.094180226 0.13157272
0.35014865 0.12599719 0.11873674
0.35317665 0.2329272 0.053310871
0.34956065 -0.16937077 0.13143778
0.34292167 -0.024252772 0.15207577
0.34747267 0.23280519 0.051860809
0.34922266 0.27232623 0.013328552
0.34331566 0.047748208 0.14340687
0.36021668 0.37441522 -0.22877932
0.34326968 -0.10992479 0.14442348
0.34603366 0.3160522 -0.045397282
0.33164567 -0.02448082 0.14998293
0.33202466 0.047537208 0.14130878
0.34857365 0.37376219 -0.23771429
0.33545166 -0.29383183 0.062820911
0.33361468 -0.22721374 0.10489273
0.33254766 -0.16959178 0.12933254
0.33034667 0.23243719 0.047508717
0.33203566 0.27189219 0.0080399513
0.32618865 0.010738194 0.14467764
0.32463467 0.23231423 0.046055794
0.32869267 0.31564319 -0.050773144
0.32290766 0.31550622 -0.052565098
0.32525668 0.34087223 -0.10980844
0.30999365 0.093328178 0.12302971
0.31236267 0.2045542 0.064034939
0.31320167 0.2320652 0.043154716
0.31482467 0.27145422 0.002746582
0.32520166 0.37245023 -0.25562429
0.30433565 0.093203187 0.12180853
0.30345067 -0.067721784 0.14433479
0.30343467 -0.025063813 0.14474583
0.31362465 0.34050918 -0.11460447
0.29779765 -0.067821801 0.14344692
0.29812166 0.046889186 0.13500786
0.30553466 0.31509221 -0.057945251
0.30308366 -0.35699177 0.0058426857
0.29803267 -0.1107378 0.13732672
0.29525465 0.20416319 0.059705734
0.29214066 -0.025301814 0.1426487
0.29603964 0.2316882 0.038797855
0.29374367 -0.22779179 0.099935532
0.28954765 0.20403218 0.058260918
0.28648865 -0.068023801 0.14167261
0.28649166 -0.025421798 0.14160061
0.28664765 0.0099431872 0.13733578
0.29393965 0.3148132 -0.061533451
0.29614964 0.33996123 -0.12180233
0.28168467 0.092700183 0.11692381
0.28083065 -0.068125784 0.14078569
0.28608766 0.27071422 -0.0060772896
0.28565866 -0.35685384 0.005920887
0.28234366 -0.22796583 0.098514557
0.28146765 -0.17030275 0.12299585
0.27646866 0.12445021 0.10280895
0.27549064 0.046443224 0.13080263
0.26953366 -0.025786817 0.13845587
0.27404466 -0.35676885 0.0059657097
0.27094164 -0.22814274 0.097092628
0.26510766 0.12420321 0.10035658
0.26881367 0.27026421 -0.011376381
0.26523966 -0.22823381 0.096379757
0.26442665 -0.17055678 0.1208725
0.25900567 0.092187226 0.11203766
0.25822064 -0.026034772 0.13635492
0.26304966 0.27011323 -0.013141155
0.26694664 0.33903819 -0.13381433
0.25953466 -0.22832477 0.095666885
0.25839067 -0.11149085 0.13110065
0.25373766 0.12395322 0.097903728
0.25252965 -0.068648815 0.13634586
0.25504065 -0.29444182 0.056456566
0.25383064 -0.2284168 0.094952583
0.25306067 -0.17072976 0.11945581
0.24765664 0.091926217 0.10959291
0.25151464 0.26980919 -0.016676426
0.24716866 0.045871198 0.12554455
0.25336367 0.31354821 -0.077208519
0.24443164 0.23052722 0.025718689
0.24136865 0.0089921951 0.12893152
0.24138364 -0.11182678 0.12842894
0.23996866 0.26950318 -0.02021122
0.24351767 0.33829123 -0.14343643
0.23235166 0.20268619 0.043811798
0.22986665 -0.069081783 0.1327858
0.23418966 0.26935023 -0.021979332
0.23841766 -0.46184981 -0.17334938
0.22662064 0.20254922 0.042366505
0.22718865 0.23013121 0.021355629
0.22448367 0.045401216 0.12133265
0.23011166 0.3127712 -0.086667061
0.22630167 -0.29471076 0.054142952
0.22463065 -0.17117882 0.11590672
0.21852764 -0.069302797 0.13100481
0.22180766 -0.35650778 0.0057625771
0.21894166 -0.17127085 0.1151948
0.21356165 0.091130197 0.10225487
0.21388966 0.12306023 0.089313507
0.21313265 0.045162201 0.11922693
0.21325266 -0.17136478 0.11448193
0.21301267 -0.11240184 0.12396955
0.20941165 0.20213318 0.038027763
0.20745265 0.045041203 0.11817265
0.21022364 -0.35663176 0.0048165321
0.20905167 -0.2948848 0.052742481
0.20156765 -0.027312815 0.12585068
0.20177364 0.044920206 0.11711884
0.20679864 0.31198621 -0.096137047
0.20165366 -0.11263776 0.1221838
0.19583365 -0.069753766 0.12743855
0.20236367 0.3369652 -0.16030121
0.19673365 -0.22938979 0.087792873
0.19079465 0.090586185 0.097360611
0.19107765 0.1225372 0.0843997
0.19218364 0.20171219 0.033688545
0.19511965 0.31159121 -0.10087633
0.19101864 -0.22949278 0.087073803
0.18454164 -0.027710795 0.12269783
0.18786865 0.26810318 -0.036134243
0.18927467 0.31139219 -0.10324526
0.18068567 0.20142823 0.030792713
0.18110865 0.22905123 0.0097126961
0.18125466 -0.35696185 0.0024394989
0.17892265 -0.11311984 0.11860657
0.17431265 0.1589312 0.061678886
0.17493364 0.2012862 0.029345512
0.17311865 -0.070217788 0.12386751
0.17318165 -0.027979791 0.12059259
0.16799664 0.09003222 0.092463493
0.16917965 0.20114321 0.027897835
0.17045066 0.26762718 -0.041446209
0.16342266 0.2009992 0.026450634
0.16463965 0.2674672 -0.043217182
0.16693565 0.33581018 -0.17478323
0.16386765 -0.3571738 0.0010008812
0.16200866 -0.17233682 0.1074996
0.15882365 0.26730722 -0.044990063
0.15098265 -0.23023784 0.082025528
0.14565766 0.15817118 0.054505825
0.14481866 0.0068202019 0.11102867
0.14867565 -0.45656478 -0.14893341
0.13991965 0.15801722 0.053069592
0.14037165 0.20041919 0.020655632
0.13900566 -0.070937812 0.11850166
0.13912466 0.0066862106 0.10997486
0.13342965 0.0065512061 0.10891962
0.13349666 0.043319225 0.10375166
0.13730165 0.3348332 -0.18687439
0.12818265 0.12104619 0.070875645
0.12843466 0.15770721 0.050198555
0.12907165 -0.3576268 -0.0019001961
0.12245365 0.12090719 0.069646835
0.12268966 0.15755218 0.048763752
0.12387466 0.26633519 -0.0556283
0.12471066 0.30917519 -0.1293664
0.12541866 0.33443922 -0.19171715
0.12272566 -0.29590082 0.04562664
0.12199966 -0.11438179 0.10964251
0.11750766 0.22748321 -0.0065875053
0.11098865 0.12062722 0.067184925
0.11119266 0.1572392 0.045891762
0.11058766 -0.029513776 0.10899973
0.11171366 0.22731018 -0.0083351135
0.11292066 0.30876619 -0.13412333
0.11120465 -0.29605377 0.044662952
0.11089466 -0.2310288 0.076952934
0.11067966 -0.17355883 0.099405766
0.10525365 0.1204862 0.065952778
0.10572466 0.19953221 0.011958599
0.10488665 -0.029656768 0.10794687
0.10636066 0.2658422 -0.060951233
0.099411651 0.088308215 0.077753544
0.09347865 -0.029946804 0.10583591
0.088366657 0.19908118 0.0076079369
0.087742656 -0.072152793 0.10988188
0.087773651 -0.030092776 0.10477877
0.088152654 -0.2963748 0.042724609
0.087828651 -0.17412579 0.095797539
0.082039654 -0.072306812 0.10882664
0.082065657 -0.03023982 0.10372353
0.082088657 0.0053052306 0.099410534
0.076782659 0.1987772 0.0047059059
0.076354653 -0.030387819 0.1026659
0.077450655 0.3075242 -0.14841318
0.077371657 -0.45268977 -0.13031816
0.070626654 -0.072615802 0.10671663
0.071070656 0.22608423 -0.020581245
0.071448654 -0.45238078 -0.12880325
0.07102266 -0.3584758 -0.0068120956
0.065010652 0.087411225 0.070388794
0.065044656 0.11948121 0.057328701
0.065104656 0.15596318 0.034395695
0.064917654 -0.072770774 0.10566092
0.065008655 -0.23199177 0.071120739
0.059292655 0.11933422 0.056094646
0.059432656 0.22572923 -0.024082184
0.059319656 -0.29679978 0.040279865
0.059230655 -0.17485285 0.091281891
0.059215657 -0.11586583 0.099742889
0.053499654 -0.030984819 0.09843874
0.053608656 0.22555119 -0.025834084
0.047779657 0.26416421 -0.078721046
0.047779657 0.0044412017 0.093060493
0.041950654 0.22519219 -0.029337406
0.036316656 0.040650189 0.083002567
0.035883658 0.30605119 -0.16511917
0.030627655 -0.073720813 0.099325657
0.030613655 -0.031594813 0.09420681
0.030581655 0.040486217 0.081778526
0.024731655 0.11844522 0.048692703
0.024261655 0.26347822 -0.085839272
0.024791656 -0.23288381 0.065988541
0.019021655 0.086179197 0.060555935
0.018856656 0.1546492 0.022887707
0.019103656 0.040158212 0.079334736
0.013064656 0.15448219 0.021446705
0.013406657 0.0035521984 0.086700916
0.011530656 0.32776219 -0.27161646
0.012890656 -0.35943782 -0.011819363
0.0070706569 0.19690818 -0.012729168
0.0064306557 -0.4501158 -0.11743307
0.0070726536 -0.35953975 -0.012324333
0.0073666535 -0.29763281 0.035825729
0.0075376555 -0.23328078 0.063780785
0.0018716566 0.039660215 0.07566452
0.0017836541 -0.23341584 0.063041687
0.0019766539 -0.11730182 0.090704918
-0.0040253438 0.085547209 0.055634499
-0.010416344 0.19642818 -0.017095089
-0.0095093437 -0.032690823 0.086790562
-0.011109345 0.26243418 -0.096528053
-0.011293344 -0.45017982 -0.11761951
-0.015935346 0.15363818 0.014244556
-0.016250342 0.19626719 -0.018550396
-0.017015345 0.26225823 -0.098309517
-0.015380345 0.039156199 0.071993828
-0.022386342 0.22318119 -0.048629284
-0.022032343 -0.36007082 -0.014869213
-0.028839342 0.26190418 -0.10187721
-0.026784346 0.0024821758 0.079269886
-0.027010344 -0.23410177 0.059348583
-0.033367343 0.15312421 0.0099215508
-0.035856344 0.30346721 -0.19384241
-0.034928344 -0.45028377 -0.11789322
-0.033107348 -0.29855275 0.031150818
-0.032772347 -0.23424184 0.058607578
-0.039182343 0.15295219 0.0084786415
-0.040673345 0.26154923 -0.10544634
-0.038415343 0.038474202 0.067095757
-0.041862346 0.30324823 -0.19624043
-0.044626348 0.11659718 0.033862591
-0.049507342 0.32401121 -0.31571817
-0.045335345 -0.36051583 -0.01692152
-0.052521348 0.26119119 -0.10901642
-0.051163346 -0.3606298 -0.017438412
-0.058568344 -0.45041084 -0.11819649
-0.061151348 -0.076393783 0.082381725
-0.062823348 -0.36086082 -0.018471241
-0.061178342 -0.11897981 0.080719948
-0.067588344 0.083756208 0.04208374
-0.066903345 -0.076567769 0.081321716
-0.066993348 -0.034321785 0.076173782
-0.070319347 0.26065022 -0.11437321
-0.067069344 0.0013751984 0.071823597
-0.070389345 -0.45048285 -0.11835814
-0.067078345 -0.17831874 0.071293831
-0.073380344 0.083589196 0.040850639
-0.072658345 -0.076742768 0.0802598
-0.079433344 0.11561519 0.026233673
-0.078813352 0.037254214 0.058513641
-0.096573345 0.082915187 0.035915852
-0.10004834 0.25973821 -0.12331343
-0.096160345 0.036720216 0.054832935
-0.097828351 -0.36158383 -0.021598339
-0.10158034 -0.035336792 0.069788933
-0.10366634 -0.36170876 -0.022123337
-0.10203735 -0.23599982 0.049674511
-0.10852335 0.11468422 0.019075871
-0.10996034 0.19361019 -0.041874409
-0.10950734 -0.36183381 -0.022648335
-0.11300134 -0.077986777 0.072820663
-0.11534735 -0.36196077 -0.023174286
-0.11300834 -0.1204288 0.072515488
-0.12257635 0.21993923 -0.078525066
-0.12389135 0.25899923 -0.13047028
-0.12118835 -0.3620888 -0.023702145
-0.11938835 -0.23646176 0.047427654
-0.12600935 0.11411822 0.01477766
-0.12512136 0.035817206 0.048692703
-0.12952036 -0.45092678 -0.11927938
-0.13583434 0.25862622 -0.13405228
-0.13058034 -0.00043678284 0.060095787
-0.13543734 -0.45097876 -0.11938238
-0.13938934 0.1927492 -0.049180508
-0.14035633 0.21934921 -0.083812237
-0.14181036 0.25843918 -0.13584518
-0.13872135 -0.36247981 -0.025290489
-0.14352235 0.11354518 0.010475636
-0.14528334 0.19257522 -0.05064106
-0.14188033 -0.078899801 0.06749773
-0.14936534 0.11335319 0.0090417862
-0.15019634 0.14956021 -0.018965244
-0.15118036 0.19240022 -0.052103519
-0.14766234 -0.079084814 0.066431522
-0.14794534 -0.00094681978 0.056889534
-0.15041533 -0.36274683 -0.026354313
-0.14833733 -0.2372508 0.043671608
-0.15472335 0.081183195 0.023555756
-0.15708536 0.19220722 -0.053738117
-0.15360436 -0.036910772 0.060192585
-0.16294035 0.29866922 -0.24539948
-0.15910333 -0.4512018 -0.1198082
-0.15413135 -0.23741078 0.042918682
-0.16055334 0.081006229 0.022316933
-0.16411033 0.21855623 -0.090868473
-0.16079736 -0.30208576 0.014559746
-0.15947434 -0.18111181 0.05663681
-0.16691133 0.11277318 0.004737854
-0.16576934 0.034523189 0.040086746
-0.17276534 0.11257923 0.0033025742
-0.17483133 0.19158721 -0.058974266
-0.17152634 -0.23789978 0.040654659
-0.17105734 -0.18147779 0.054797649
-0.17655936 -0.12229478 0.062444687
-0.18546435 0.14844322 -0.027652264
-0.18273634 -0.0019857883 0.050469875
-0.19382036 0.29667723 -0.26692629
-0.18870234 -0.45151174 -0.12038326
-0.18235034 -0.12246883 0.061524868
-0.18973234 0.080111206 0.016125679
-0.19034633 0.11199123 -0.0010051727
-0.19135234 0.14825422 -0.029103279
-0.19984233 0.21734822 -0.10146236
-0.20190635 0.25615519 -0.15775537
-0.19424734 -0.18221879 0.051113605
-0.19393334 -0.12282181 0.059686661
-0.20142135 0.079749227 0.013647556
-0.20158833 -0.30331576 0.0092167854
-0.20560434 -0.080979824 0.05576086
-0.20580435 -0.038547814 0.050569534
-0.21382633 0.11119819 -0.006752491
-0.22230533 0.18990922 -0.072953224
-0.21742934 -0.03892082 0.048426628
-0.23113734 0.29426122 -0.29286909
-0.21798533 -0.23924482 0.034591675
-0.22324532 -0.0391078 0.047355652
-0.22971535 0.21632522 -0.1103034
-0.22344333 -0.0032917857 0.042539597
-0.22404933 0.032613218 0.027767658
-0.22884533 -0.081760824 0.051482677
-0.22927132 -0.0034937859 0.041312695
-0.24048033 -0.082156777 0.049340725
-0.24093732 -0.0039017797 0.038857937
-0.24158335 0.032027185 0.024067879
-0.24072534 -0.18374681 0.043723583
-0.25208834 0.18884122 -0.081702232
-0.25641733 0.25391918 -0.17890549
-0.24677435 -0.0041058064 0.037629604
-0.24743333 0.031830192 0.02283287
-0.25003335 -0.36520183 -0.035564423
-0.24707934 -0.24011779 0.0307827
-0.25502935 0.1097852 -0.016820431
-0.25631234 0.14614022 -0.045062065
-0.25805533 0.18862522 -0.083454132
-0.25235933 -0.040056765 0.041992664
-0.25328535 0.031632185 0.021597862
-0.26874834 0.29181623 -0.31893444
-0.25590533 -0.3653568 -0.036114216
-0.26858035 0.25341618 -0.1836133
-0.26001135 -0.30516279 0.0015277863
-0.25778934 -0.12481976 0.049548626
-0.27409235 0.14555019 -0.049422264
-0.26984033 -0.18473184 0.039088726
-0.27765834 0.077325225 -0.0024933815
-0.27864033 0.10896319 -0.022579193
-0.27599633 -0.0051407814 0.03148365
-0.29398733 0.29017019 -0.33638048
-0.27941033 -0.36598778 -0.038328171
-0.28354034 0.077134192 -0.0037374496
-0.28455034 0.10875618 -0.024021149
-0.28972733 0.2142362 -0.12801838
-0.30031833 0.28975618 -0.34074926
-0.29575035 0.21402323 -0.12979317
-0.28845635 0.030430198 0.014183521
-0.29531533 0.076749206 -0.0062251091
-0.30177432 0.21381122 -0.13156843
-0.31130233 0.25163621 -0.20011616
-0.30101833 -0.30651879 -0.0038952827
-0.30438933 -0.12633884 0.042140484
-0.31299534 0.076167226 -0.0099611282
-0.31124535 -0.24212778 0.022344589
-0.31022334 -0.12653279 0.041212559
-0.31653735 -0.18635583 0.031651497
-0.32479733 0.075776219 -0.012452126
-0.33581734 0.25060523 -0.20956516
-0.32649434 -0.36730778 -0.042805195
-0.33595735 0.18576819 -0.10625648
-0.32833335 -0.042614818 0.028010845
-0.34195733 0.25034618 -0.21192932
-0.32823235 -0.1867708 0.02978754
-0.33951935 0.1433382 -0.06543541
-0.33389235 -0.085437775 0.03216362
-0.34810334 0.25008619 -0.21429539
-0.34799632 0.18531919 -0.1097703
-0.35425335 0.24982518 -0.2166605
-0.34052035 -0.0074827671 0.017938614
-0.34139234 0.028579235 0.0030455589
-0.34417534 -0.36782277 -0.044501305
-0.33993635 -0.18718982 0.027921677
-0.34976634 0.10643423 -0.039890289
-0.34561333 -0.085862815 0.0300107
-0.34592533 -0.043224812 0.024773598
-0.36040935 0.24956423 -0.21902847
-0.35479134 -0.45390177 -0.12446928
-0.35751134 -0.1878258 0.025119781
-0.37212035 0.18441421 -0.11680508
-0.36353734 -0.043841779 0.021536827
-0.36337334 -0.18803978 0.024184704
-0.37804034 0.073980212 -0.023683071
-0.37529433 -0.044256806 0.019373894
-0.38083532 -0.087157786 0.023540497
-0.39259133 0.2105462 -0.15824318
-0.38175634 -0.0090218186 0.0093007088
-0.38097534 -0.18868685 0.021375656
-0.38990334 0.073573232 -0.026182175
-0.39333633 0.14147019 -0.078567505
-0.38705835 -0.044675767 0.017210484
-0.39867532 0.21032423 -0.16002512
-0.38637635 -0.1293658 0.027623653
-0.39259633 -0.087596774 0.021381855
-0.40476334 0.21010119 -0.16180849
-0.40982333 0.24745423 -0.23799229
-0.39356333 -0.0094677806 0.0068278313
-0.40841934 0.18303722 -0.12737131
-0.40047833 0.02645123 -0.0093631744
-0.39813435 -0.1298238 0.025467873
-0.40771934 0.072957218 -0.029934406
-0.41448233 0.18280619 -0.12913322
-0.40640235 0.026235223 -0.010605335
-0.40914235 -0.36980081 -0.050801277
-0.40690532 -0.31024778 -0.017992496
-0.40502933 -0.24533677 0.0095348358
-0.41367334 0.072733223 -0.031328201
-0.41232833 0.026017189 -0.01184845
-0.42024332 -0.45514476 -0.12647152
-0.41091734 -0.24556983 0.0085916519
-0.41651833 -0.045735776 0.011797905
-0.42620033 -0.45526683 -0.1266675
-0.42204633 -0.088707805 0.015974522
-0.42313135 -0.010597765 0.00064468384
-0.43332234 0.10336018 -0.060147285
-0.43877333 0.1818732 -0.13619041
-0.44137734 0.20875019 -0.17251635
-0.43012834 0.025360227 -0.015580177
-0.43052733 -0.31112385 -0.021157265
-0.43753633 0.071807206 -0.037077427
-0.43931535 0.10313523 -0.061597347
-0.44749233 0.2085222 -0.1743021
-0.45332131 0.24557519 -0.25463438
-0.43643835 -0.31134582 -0.021949291
-0.43449634 -0.24651074 0.0048189163
-0.44013333 -0.046597779 0.0074596405
-0.45361236 0.20829421 -0.17609024
-0.44948533 0.071340203 -0.039952278
-0.45344236 0.13933319 -0.093196392
-0.44604334 -0.046815813 0.006374836
-0.45973536 0.20806623 -0.17787647
-0.45546731 0.071105182 -0.041391373
-0.46196935 -0.45602679 -0.12786627
-0.46145031 0.070869207 -0.042830467
-0.47828636 0.24448818 -0.26416206
-0.46245632 -0.37152779 -0.056051254
-0.46743736 0.070633233 -0.044270515
-0.46932831 0.1020022 -0.068851471
-0.47390136 -0.45629179 -0.12828112
-0.46930131 -0.090529799 0.0073056221
-0.47059134 -0.012445807 -0.0092673302
-0.47194931 -0.31269884 -0.026722431
-0.47942135 0.070159197 -0.047149181
-0.48754236 0.17997622 -0.1503253
-0.49706432 0.24366623 -0.27131844
-0.47585335 -0.24819684 -0.0018033981
-0.49365535 0.1797362 -0.15209532
-0.48368433 0.023348212 -0.02679348
-0.49181136 -0.45669985 -0.12891722
-0.48380533 -0.31315875 -0.028319359
-0.48177037 -0.24844074 -0.0027513504
-0.48749235 -0.048362792 -0.0012373924
-0.49214032 -0.37252879 -0.05900526
-0.49742135 0.069442213 -0.05147028
-0.49342433 -0.048586786 -0.002325058
-0.51588637 0.2428382 -0.27848339
-0.49257132 -0.13361776 0.0081596375
-0.51815039 0.17877018 -0.1591773
-0.50485837 -0.09193182 0.00078582764
-0.52119237 0.20574623 -0.19578218
-0.51752639 0.10015219 -0.080476284
-0.51994938 0.13690519 -0.10933447
-0.52428335 0.17852718 -0.16094732
-0.52735937 0.20551121 -0.19757509
-0.51354235 0.022205234 -0.033033371
-0.52168638 -0.45740783 -0.13001633
-0.51733136 -0.24993181 -0.0084533691
-0.51629037 -0.13460279 0.0038166046
-0.52222639 -0.13485074 0.0027308464
-0.52907735 -0.049949765 -0.0088682175
-0.55367237 0.24116522 -0.29283619
-0.53131837 -0.31504178 -0.034734249
-0.5292064 -0.25043583 -0.010356426
-0.55501336 0.17730218 -0.16981411
-0.54051536 -0.093364835 -0.0057482719
-0.55825937 0.20432419 -0.20655107
-0.54569739 -0.37440777 -0.064391136
-0.54109037 -0.25094485 -0.012262344
-0.55381936 0.098735213 -0.089213371
-0.54646736 -0.09360683 -0.0068392754
-0.55758435 -0.45830584 -0.13139629
-0.55987936 0.098497212 -0.090670109
-0.55242234 -0.093848825 -0.0079293251
-0.57064837 0.2038452 -0.21014738
-0.56357139 -0.45846081 -0.13163328
-0.55512935 -0.31601083 -0.037961483
-0.57350039 0.17655921 -0.17514133
-0.5610894 -0.31625485 -0.038769245
-0.57467735 0.1348592 -0.12257719
-0.59164435 0.23946923 -0.30722523
-0.56609339 -0.01629281 -0.029158115
-0.57555938 -0.45878685 -0.13217306
-0.5638634 -0.13661385 -0.0048904419
-0.58077538 0.13462818 -0.12405109
-0.58928734 0.2030952 -0.2158041
-0.59799135 0.2391842 -0.30962706
-0.57349336 0.019860208 -0.045548439
-0.59555036 0.20279819 -0.2181344
-0.57950538 0.019621193 -0.046802044
-0.57578439 -0.13712585 -0.0070700645
-0.6107024 0.23861223 -0.31443405
-0.58746839 -0.37593782 -0.068641186
-0.58495134 -0.31724584 -0.042010307
-0.58277136 -0.25275779 -0.018953323
-0.58821839 -0.095323801 -0.014486313
-0.61058539 0.17505521 -0.18580818
-0.59419435 -0.095572829 -0.015579224
-0.59942138 -0.37638581 -0.06986618
-0.5968954 -0.31774676 -0.043635368
-0.61132336 0.13346523 -0.13142538
-0.61678034 0.17480218 -0.18758726
-0.60211337 -0.017787814 -0.036642075
-0.61176234 -0.46022379 -0.13594341
-0.60287136 -0.31799984 -0.044450283
-0.59987837 -0.19736874 -0.013643265
-0.61215037 0.064750195 -0.078922272
-0.62298036 0.17454821 -0.18936825
-0.61138338 -0.3768388 -0.071095467
-0.60885036 -0.31825376 -0.04526329
-0.60564035 -0.13842082 -0.012531281
-0.62360436 0.13295323 -0.13474131
-0.62918538 0.17429423 -0.19115019
-0.61214036 -0.096324801 -0.018865108
-0.61812836 -0.09657681 -0.019961357
-0.61871034 -0.05355978 -0.025793076
-0.64914638 0.23670322 -0.33071709
-0.62989438 -0.46096075 -0.13784313
-0.63591838 0.13241822 -0.13823605
-0.64584434 0.20039821 -0.23681021
-0.65572637 0.23623723 -0.33495426
-0.62375838 -0.19838679 -0.017474174
-0.64208138 0.13214922 -0.13998413
-0.63073438 -0.054086804 -0.028279305
-0.65215439 0.20009518 -0.23914909
-0.66231638 0.23576921 -0.33919525
-0.63376439 0.01743722 -0.058102131
-0.63279134 -0.31927979 -0.048529148
-0.66891634 0.23530018 -0.34344244
-0.6413734 -0.37807477 -0.07461834
-0.63557237 -0.13973975 -0.01800251
-0.65410239 -0.46196175 -0.14039516
-0.65734738 0.094583213 -0.11404848
-0.64811337 -0.097851753 -0.025448322
-0.65341038 -0.37862384 -0.076274395
-0.64853734 -0.25570881 -0.029522419
-0.64756536 -0.14027274 -0.0201931
-0.68027735 -0.58013976 -0.33406448
-0.66677737 0.13106918 -0.14698219
-0.65636235 -0.020083785 -0.047894478
-0.66621935 -0.46246982 -0.14167833
-0.65453237 -0.25598276 -0.030485153
-0.65367037 -0.19968176 -0.022275448
-0.66402239 0.016197205 -0.064395428
-0.67228138 -0.46272576 -0.14232111
-0.66053134 -0.25625885 -0.031450272
-0.6924004 -0.58000278 -0.33214045
-0.67008537 0.015947223 -0.065655231
-0.67916435 0.061912179 -0.094884396
-0.67253739 -0.25681281 -0.033383369
-0.67165136 -0.20047081 -0.02516222
-0.69154137 0.12997723 -0.15398836
-0.71058434 -0.57981384 -0.32929039
-0.68419534 -0.099410772 -0.032048225
-0.68661737 -0.021387815 -0.054161072
-0.68365234 -0.20100081 -0.027090073
-0.69022137 -0.099673748 -0.033149242
-0.69436735 0.014937222 -0.070700169
-0.70263135 -0.46402681 -0.1455574
-0.69562536 -0.38058281 -0.0820961
-0.71015936 0.12915021 -0.15924835
-0.70870835 -0.46429181 -0.14620829
-0.69884437 -0.32219481 -0.057575226
-0.69566238 -0.14244485 -0.028978348
-0.70227939 -0.10020185 -0.035353184
-0.70168835 -0.14272082 -0.030080318
-0.70922136 -0.057599783 -0.044486046
-0.72490335 0.091786206 -0.13018608
-0.73530936 0.16986823 -0.22151613
-0.72695237 -0.46509182 -0.14816713
-0.71370739 -0.20234478 -0.031919479
-0.72303635 -0.022980809 -0.061695099
-0.71972936 -0.20261681 -0.032887459
-0.73432839 0.059523225 -0.10798216
-0.73723739 0.091267228 -0.13312626
-0.74787939 0.16933519 -0.22510052
-0.73089135 0.013400197 -0.078279495
-0.75908339 -0.57941079 -0.32193518
-0.73699039 0.013141215 -0.079543114
-0.74522138 -0.46590483 -0.15013933
-0.73186636 -0.14411378 -0.035588264
-0.76514637 -0.57936978 -0.32103825
-0.74403238 -0.3828938 -0.08880043
-0.74104637 -0.32412183 -0.063382149
-0.75999838 0.12691522 -0.17330313
-0.76676637 0.16852921 -0.23048019
-0.77307135 0.19420522 -0.28375435
-0.74920136 0.012620211 -0.082074165
-0.75009638 -0.38318777 -0.089641094
-0.74708736 -0.32440174 -0.06421423
-0.74396038 -0.1446768 -0.037795067
-0.7681374 0.089959204 -0.14048624
-0.75957835 -0.024601817 -0.069243431
-0.76961434 -0.46700776 -0.15278339
-0.75690335 -0.26080883 -0.046970367
-0.76389539 -0.060114801 -0.055745125
-0.76754135 0.011833191 -0.085876465
-0.76830339 -0.38407779 -0.092172146
-0.77744734 0.057622194 -0.11819506
-0.77178735 -0.025149822 -0.071764469
-0.77437735 -0.38437784 -0.093018055
-0.79833436 0.16717321 -0.23946142
-0.78009236 -0.20539081 -0.042598248
-0.78031838 -0.14638984 -0.044427395
-0.81099236 0.16662621 -0.2430582
-0.79204637 0.010773182 -0.090949059
-0.78717637 -0.26228678 -0.051851273
-0.79312938 -0.10428083 -0.051951408
-0.79246336 -0.14696777 -0.046643257
-0.81640536 0.12434518 -0.18915606
-0.82366937 0.16607618 -0.24665737
-0.7992124 -0.10455978 -0.053062439
-0.80050236 -0.061829805 -0.063272476
-0.80431938 0.01023823 -0.09348917
-0.80157238 -0.32697177 -0.071747303
-0.79826039 -0.2062428 -0.04552412
-0.81456035 0.055963218 -0.12696838
-0.82269639 0.12405622 -0.19092035
-0.83001637 0.16580021 -0.24845839
-0.80530035 -0.1048398 -0.054174423
-0.83751035 0.1910032 -0.30736923
-0.85739738 0.22179723 -0.46369219
-0.80850136 -0.026811779 -0.079336166
-0.80537838 -0.26318574 -0.054789066
-0.82400537 0.08755821 -0.15376616
-0.81138939 -0.10512078 -0.055285454
-0.81273437 -0.062408805 -0.065783501
-0.81145138 -0.26348782 -0.055770397
-0.81038934 -0.20681477 -0.047477245
-0.83023238 0.087288201 -0.15524435
-0.84272039 0.16524619 -0.25206041
-0.85046536 0.19035518 -0.31210327
-0.82918239 -0.38712382 -0.10066223
-0.83938235 0.054842234 -0.13282537
-0.83528835 -0.38743484 -0.10151625
-0.83194637 -0.32843983 -0.075961113
-0.82860535 -0.20768178 -0.050411224
-0.82898235 -0.14872682 -0.053300381
-0.86181438 0.16440922 -0.25747108
-0.83724034 -0.063576818 -0.070815086
-0.83919436 -0.028218806 -0.08565712
-0.84337538 -0.063870788 -0.072072506
-0.84411538 -0.32903576 -0.077653408
-0.84118235 -0.14932084 -0.055524349
-0.85803938 0.053993225 -0.13722324
-0.86143035 0.085924208 -0.16264248
-0.84799737 -0.10682678 -0.061967373
-0.85149634 -0.028787792 -0.088189125
-0.86347538 -0.47439277 -0.1779623
-0.84728634 -0.14961874 -0.056637287
-0.8642664 0.053708196 -0.13869047
-0.88946939 0.1883902 -0.32633114
-0.85405236 -0.26563084 -0.06264925
-0.86022937 -0.10740185 -0.064198494
-0.86634934 -0.10769081 -0.065313339
-0.88646436 0.084819198 -0.16857147
-0.89218938 0.1208272 -0.21036816
-0.90654534 0.1624192 -0.27024317
-0.88026637 -0.065654814 -0.079633236
-0.88231939 -0.030225813 -0.094528198
-0.87786335 -0.15112484 -0.062206268
-0.88473135 -0.10856485 -0.068666458
-0.88642937 -0.065954804 -0.080897331
-0.88399035 -0.15142882 -0.063322067
-0.89684439 0.0061222315 -0.11259842
-0.89443535 -0.33346879 -0.095341206
-0.90797538 0.051694214 -0.14897537
-0.89700335 -0.10915184 -0.070903301
-0.91423535 0.051403224 -0.15044546
-0.9247824 0.082592189 -0.18200827
-0.93379635 0.1162312 -0.24534416
-0.91152334 -0.27149379 -0.088840485
-0.91571838 -0.11033475 -0.076218128
-0.9232384 -0.21576881 -0.086819172
-0.93002039 -0.15691185 -0.092196465
