# .PCD v0.7 - Point Cloud Data file format
VERSION 0.7
FIELDS x y z
SIZE 4 4 4
TYPE F F F
COUNT 1 1 1
WIDTH 1
HEIGHT 1024
VIEWPOINT 0 0 0 1 0 0 0
POINTS 1024
DATA ascii
0.47165543 0.45077872 -0.067019939
0.47262943 0.52687472 -0.080770016
0.45686543 0.4539777 -0.023059845
0.45716444 0.48780072 -0.027388096
0.45303041 0.57249773 -0.052437782
0.44607642 0.57338274 -0.036255836
0.44792444 0.6048587 -0.063704967
0.44470042 0.3700617 -0.015809059
0.44339943 0.41381073 0.0035309792
0.44799542 0.64643669 -0.15319109
0.43651643 0.49099571 0.019638062
0.43713143 0.53245872 0.010370255
0.44337142 0.15321672 -0.1734252
0.43995044 0.20623171 -0.12121677
0.43273243 0.34056669 -0.011096954
0.43002841 0.45788872 0.030155182
0.43209943 0.20946568 -0.09138298
0.42362043 0.4586007 0.039740086
0.42372441 0.49227172 0.038123131
0.43288842 0.075143695 -0.19617891
0.42438841 0.21255273 -0.062922955
0.41259643 0.57708472 0.031225204
0.41311142 0.34368873 0.023025036
0.41695142 0.65130371 -0.038002014
0.41297841 0.1653837 -0.06820488
0.41121542 0.21510869 -0.039777756
0.42059541 0.02555269 -0.1909852
0.40627843 0.57756174 0.039793015
0.40733543 0.60915768 0.022753239
0.40467441 0.4941687 0.065649986
0.40526241 0.53531468 0.056178093
0.41800341 -0.059251308 -0.24637079
0.40014741 0.34574974 0.045569897
0.39895943 0.53586471 0.06499815
0.39983743 0.16810673 -0.045025826
0.40757743 -0.011067271 -0.17340803
0.39263043 0.37790573 0.074522972
0.39940143 0.6827907 -0.037787914
0.39330041 0.16946071 -0.033494949
0.38900441 0.29658169 0.038824081
0.38727343 0.34779471 0.067959785
0.39033943 0.65362972 0.016346931
0.38942343 0.091564715 -0.067019939
0.38619643 0.6837737 -0.011893749
0.37970042 0.49647471 0.0990839
0.38288543 0.093057692 -0.055418015
0.37765342 0.25306273 0.035316944
0.38462943 0.039732695 -0.08565712
0.37377441 0.42181873 0.10259485
0.37637141 0.094544709 -0.043857098
0.38072643 -0.040924311 -0.12055588
0.36893141 0.34958369 0.087162018
0.36822343 0.38012868 0.099631786
0.36987841 0.096026719 -0.032335758
0.36738843 0.17482173 0.012203217
0.37155643 0.042904735 -0.062363148
0.36199641 0.53859872 0.10863113
0.38437843 -0.27325833 -0.29169083
0.38083142 -0.20603132 -0.22825098
0.35911542 0.2554037 0.057184219
0.35746741 0.61240572 0.087114811
0.35680842 0.3506977 0.099101067
0.35615343 0.38113773 0.11100101
0.36069942 0.68531168 0.028398037
0.35570043 0.42318571 0.11922503
0.37659043 -0.26775932 -0.26035404
0.36254242 -0.083821297 -0.11241817
0.35857943 0.046050727 -0.03923893
0.34969842 0.42363971 0.12474823
0.34965143 0.4983387 0.12560701
0.35601041 -0.082008243 -0.10065985
0.34695843 0.25670171 0.069235802
0.35212544 0.04761368 -0.027742863
0.35602742 0.75915772 -0.10097408
0.36824742 -0.39814925 -0.33031702
0.35743943 -0.12966633 -0.12747097
0.34449142 0.10105872 0.0066690445
0.34366742 0.13686574 0.022380829
0.33986643 0.30220973 0.094922066
0.33663341 0.17891371 0.046573162
0.35703042 -0.47455132 -0.34924221
0.33226943 0.10266268 0.01890707
0.33147642 0.13839668 0.03455925
0.32781541 0.30340773 0.10682726
0.32617342 0.38363773 0.13923979
0.33259842 0.72951472 0.012426853
0.34930643 -0.46808732 -0.31739902
0.34519142 -0.38002527 -0.23616409
0.33789644 -0.12399435 -0.092171192
0.32345644 0.22837269 0.079675198
0.32903942 -0.027918279 -0.032487869
0.32730341 0.05175972 0.0023860931
0.31933442 0.13991868 0.046689987
0.31781644 0.68721271 0.077725887
0.31390542 0.42633569 0.15769386
0.32076943 0.72968072 0.017355919
0.32842743 -0.24635625 -0.13923311
0.31402642 0.10505271 0.037176132
0.30905041 0.58321667 0.14076996
0.31872642 -0.11892629 -0.060676098
0.33355442 -0.60881126 -0.36937714
0.30723742 0.14143372 0.058776855
0.30540642 0.23037869 0.097595215
0.31162441 -0.071731329 -0.034266949
0.30385444 0.30578369 0.13049507
0.30378342 0.6147067 0.13201523
0.32955042 -0.68644035 -0.4143858
0.31257543 -0.11790431 -0.054423809
0.32591844 -0.60171831 -0.33736897
0.30120641 0.14218771 0.064799786
0.29879242 0.26182473 0.11696196
0.29709843 0.3557747 0.15356302
0.30306041 0.72992873 0.024737835
0.31435943 -0.4480933 -0.21938086
0.31074741 -0.30759633 -0.14134407
0.30901143 -0.24006629 -0.10383511
0.30771542 -0.18026924 -0.075829983
0.29518741 0.14293969 0.070812225
0.29770443 0.015729725 0.015380859
0.29139641 0.58398068 0.15430021
0.29196942 0.6152007 0.14168787
0.29306343 0.65804875 0.11759281
0.29716843 0.73001069 0.027198792
0.30580443 -0.36575234 -0.16297674
0.30030844 -0.11586726 -0.041955948
0.28610143 0.61541867 0.14593887
0.28484142 0.42772269 0.17424107
0.30129343 -0.44312024 -0.19517803
0.30893242 -0.71830332 -0.36670589
0.29541942 -0.17810726 -0.063282967
0.28385541 0.10899168 0.067385197
0.27980441 0.58432066 0.16018105
0.27905741 0.42797971 0.17729187
0.29775342 0.81039971 -0.25091982
0.29479343 -0.44064832 -0.18314075
0.29689243 -0.52758324 -0.23120117
0.27785641 0.10977268 0.073390007
0.27628043 0.68848169 0.11022615
0.28549042 -0.30077732 -0.10504007
0.29351541 -0.65821326 -0.29259777
0.29172543 -0.58240032 -0.25075197
0.27280143 0.059318721 0.057137012
0.26776943 0.38704473 0.17717695
0.26750943 0.42848969 0.18338203
0.28548741 0.81050169 -0.24555016
0.28186843 -0.43573725 -0.15920496
0.29424241 -0.90123034 -0.45444107
0.27591643 -0.11183023 -0.017183781
0.28386843 -0.52232325 -0.20692396
0.26751643 0.020097733 0.04578495
0.27868342 -0.57693028 -0.22633696
0.26018241 0.11130273 0.084930897
0.26218742 -0.017815292 0.035019875
0.25726742 0.30856472 0.15751696
0.25653842 0.35788172 0.17566395
0.25598443 0.4289977 0.18946409
0.25625342 0.54332972 0.18275118
0.26806942 -0.35564125 -0.11142206
0.26378942 -0.10982823 -0.0048680305
0.27093643 -0.51710534 -0.18281984
0.25433043 0.1117357 0.088164806
0.25255743 0.2344327 0.13329697
0.25696543 -0.063084304 0.02108717
0.25076944 0.35817969 0.17880487
0.27506042 -0.96953535 -0.43945217
0.27030143 -0.78337932 -0.3183198
0.26092944 -0.29599226 -0.079782963
0.25030041 -0.016446292 0.044107914
0.24632241 0.26518971 0.14765406
0.25578842 -0.35313928 -0.098748207
0.26576343 -0.87617433 -0.3583889
0.26189241 -0.69222629 -0.25764179
0.23992741 0.30953568 0.16699219
0.23924841 0.35877371 0.18508196
0.23874241 0.4297547 0.19855881
0.2482674 0.76043773 -0.055164814
0.24966641 -0.35189331 -0.092431068
0.24568941 -0.10684526 0.013514042
0.2368104 0.11302572 0.097845078
0.23802441 0.022865713 0.064725876
0.23408541 0.61678767 0.17216301
0.23322541 0.38870472 0.19561195
0.23483641 0.65956473 0.15167284
0.2385004 0.7308237 0.051760197
0.25428843 -0.95307028 -0.37881088
0.2426344 -0.2924403 -0.060989857
0.23976341 -0.10621834 0.01731205
0.2283954 0.3101787 0.17329121
0.2290664 0.65969372 0.15455103
0.22971441 0.68951571 0.1364398
0.22730441 0.50386775 0.20378304
0.2275324 0.54427069 0.19741011
0.24271841 0.81085372 -0.22685099
0.23864141 -0.42612028 -0.11294413
0.23745641 -0.34941435 -0.079844952
0.2355524 -0.22617424 -0.026648998
0.24078541 -0.56488633 -0.17284679
0.2247114 0.14881372 0.11709881
0.23136941 -0.34818029 -0.073567867
0.2364064 -0.68264925 -0.21781301
0.2215144 -0.059494317 0.043741226
0.21581341 0.4715327 0.21118116
0.22641741 -0.42349434 -0.10028315
0.22529441 -0.34694827 -0.067303181
0.23307441 -0.85973024 -0.29579115
0.2314374 -0.76566529 -0.24772787
0.22207741 -0.10457325 0.027206898
0.21204741 0.23696071 0.15551424
0.2156464 -0.058974266 0.04701519
0.21167941 0.26725572 0.16662121
0.21462841 0.02476871 0.077716827
0.21015641 0.47164172 0.21251822
0.22446641 0.81100273 -0.2188549
0.22032341 -0.42218626 -0.093970776
0.22520541 -0.76398933 -0.24112606
0.2233334 -0.63291335 -0.18468904
0.21619441 -0.10402834 0.030497074
0.22229941 -0.56050825 -0.15351295
0.20772941 0.11515468 0.11390686
0.20683941 0.19031769 0.14145088
0.2087934 0.025241733 0.080955982
0.2054304 0.6174587 0.18506098
0.2060474 0.66020167 0.1659832
0.20450041 0.47174972 0.21385622
0.2047604 0.54482067 0.20583105
0.21317841 -0.3444953 -0.05480814
0.2019314 0.11557668 0.11710691
0.2010674 0.1906997 0.14462519
0.2005264 0.23767471 0.16182995
0.20392941 -0.057938278 0.053551197
0.19941841 0.5864467 0.19709682
0.2067894 0.76091969 -0.037479877
0.2081694 -0.41958034 -0.081377029
0.2065614 -0.28660631 -0.030208111
0.2058244 -0.2225523 -0.0067448616
0.20515841 -0.16471124 0.014441013
0.19614041 0.11599773 0.12030602
0.19757141 -0.011979282 0.073451042
0.1967044 0.065588713 0.10185003
0.19322641 0.4312017 0.21566725
0.20127541 -0.34308529 -0.047773838
0.20991641 -1.0024343 -0.33060408
0.20882641 -0.93017328 -0.29492188
0.19858341 -0.10240126 0.040344238
0.18908241 0.23819971 0.16639185
0.19223741 -0.056907296 0.060071945
0.1917444 -0.011490285 0.076691151
0.18758141 0.43131572 0.21696424
0.19498341 0.76105672 -0.03243494
0.1940234 -0.22133827 -0.00010204315
0.1987354 -0.62682426 -0.15885496
0.1971194 -0.49995124 -0.10443115
0.1833954 0.2383517 0.16765308
0.18272841 0.61777067 0.19081593
0.18226641 0.3608647 0.20685196
0.18610041 0.73153871 0.073769093
0.18908641 0.76112473 -0.029914856
0.1901994 -0.41689527 -0.068536758
0.19633541 -0.92649031 -0.28155613
0.19422641 -0.7556833 -0.20832396
0.17812741 0.19184172 0.15398407
0.17771041 0.23850268 0.16891003
0.18056841 -0.055881321 0.066578865
0.1801054 -0.010514319 0.083166122
0.1774414 0.26858169 0.17853308
0.1763214 0.50495672 0.21862507
0.1764864 0.54528475 0.21273613
0.1880964 0.8112967 -0.20292091
0.1730774 0.11746573 0.13140678
0.17474441 -0.055370271 0.069828033
0.17079541 0.39056069 0.21574497
0.17730641 0.76125968 -0.02488184
0.18389241 -0.92282927 -0.26824474
0.18041141 -0.62230635 -0.13963413
0.1791124 -0.49712527 -0.091607094
0.16778341 0.067658722 0.11669493
0.1657294 0.6180017 0.19513083
0.1653244 0.36123472 0.21057701
0.1687164 0.73177373 0.081068993
0.1711054 -0.28276932 -0.010176182
0.17049441 -0.21892929 0.013142109
0.17366341 -0.55018032 -0.10785294
0.16105141 0.1923247 0.15777397
0.1598064 0.58703071 0.20694685
0.16006941 0.61807871 0.19656801
0.16293141 0.7318517 0.083500862
0.1655474 0.76139474 -0.01986599
0.17225941 -0.98951733 -0.2850399
0.1696604 -0.74912333 -0.18232775
0.1646284 -0.21833134 0.016443253
0.1671914 -0.49561429 -0.084792137
0.15404241 0.3614797 0.21305799
0.15377341 0.50535369 0.22403812
0.1593354 -0.28150332 -0.0035290718
0.1627524 -0.66463625 -0.14334393
0.15770441 -0.098652244 0.063199997
0.1612384 -0.49486232 -0.08138895
0.14997841 0.15271771 0.14753723
0.15119341 -0.0085693002 0.095987797
0.1487724 0.31283969 0.19871283
0.14957841 0.69063973 0.16451406
0.15792541 0.81153971 -0.18966913
0.15745841 -0.74598229 -0.16986084
0.15291241 -0.21713924 0.023036957
0.15675241 -0.66378927 -0.13988304
0.1439954 0.1928007 0.1615572
0.1448974 0.068407714 0.12180805
0.14310341 0.6183067 0.20087719
0.14250341 0.4322097 0.22730398
0.14560141 0.73208368 0.090785027
0.1507574 -0.66294432 -0.13642597
0.1465884 -0.15902328 0.047298908
0.14610241 -0.097747326 0.068712234
0.14979941 -0.54705226 -0.094172955
0.14935441 -0.49336326 -0.074597836
0.13831641 0.19295871 0.162817
0.13799141 0.23954773 0.17770195
0.13971841 -0.0081623197 0.09856081
0.13747841 0.31310272 0.20120192
0.13945441 0.029589713 0.11062193
0.14589241 0.81163573 -0.18438482
0.1427754 -0.41123927 -0.04155302
0.1417284 -0.27961624 0.0064120293
0.13263841 0.19311571 0.16407681
0.13159341 0.58743972 0.21396399
0.13150841 0.36196274 0.2180109
0.1398824 0.81168371 -0.18174982
0.1413514 -0.98012125 -0.25185013
0.1407274 -0.91017628 -0.22209215
0.1345814 -0.097302318 0.071308136
0.12743941 0.11886871 0.141572
0.12721841 0.15338272 0.152596
0.12696241 0.19327271 0.16533613
0.1285384 -0.05266428 0.086791039
0.1264714 0.26985872 0.18979597
0.12596041 0.58751369 0.21524
0.12588041 0.36208171 0.21924782
0.12561341 0.47322571 0.232512
0.12831241 0.73231369 0.098059177
0.12564841 0.50584173 0.23079205
0.1362174 0.84514368 -0.2957201
0.13462541 -0.90862525 -0.21643496
0.12174542 0.11904073 0.14283991
0.12453341 0.76186073 -0.0023341179
0.12344242 -0.15776229 0.05445385
0.11534742 0.24013072 0.18271017
0.11491741 0.3136217 0.20617199
0.11657441 0.030357718 0.11573887
0.11634641 0.069326699 0.12818098
0.11493941 0.6185317 0.20495796
0.11527742 0.66115272 0.1865468
0.11441141 0.43275371 0.23374701
0.11681041 0.7324667 0.10289288
0.12401641 0.84521371 -0.29026604
0.12354741 -1.0512962 -0.2646718
0.12298941 -0.9751513 -0.23427582
0.12253342 -0.90666831 -0.20937109
0.11800741 -0.21449327 0.037570953
0.11731742 -0.096641302 0.075195789
0.11132141 -0.052036285 0.090657234
0.10889342 0.3918497 0.22973299
0.10964341 0.66116667 0.18677998
0.10992541 0.69089371 0.17060184
0.11333741 -0.40776324 -0.024816036
0.11257642 -0.27725935 0.018767834
0.10428541 0.1938917 0.17036104
0.10558541 -0.051828265 0.091945171
0.10534842 -0.0069633126 0.10626316
0.10514841 0.030737698 0.11829519
0.10494241 0.069689691 0.13072395
0.10339542 0.36254174 0.22404003
0.10336442 0.54616868 0.22589684
0.11178342 0.84531868 -0.28181314
0.10707442 -0.33316123 0.002161026
0.098376416 0.66119373 0.18725014
0.097635418 0.47339672 0.2344079
0.099588417 0.73269367 0.11013603
0.097671412 0.50596273 0.23213005
0.10695942 0.88727969 -0.35908699
0.10163341 -0.40677524 -0.020089149
0.10038141 -0.15683532 0.059660912
0.093313411 0.11989069 0.14916611
0.092981413 0.6909377 0.17151213
0.093856417 0.73276871 0.11254597
0.098791413 -0.97110927 -0.22009611
0.096848413 -0.61034131 -0.089118958
0.088197418 -0.0063753128 0.11010218
0.086861417 0.61859369 0.20579195
0.086621411 0.36247069 0.22298193
0.088129416 0.73284471 0.1149559
0.089118414 -0.21327925 0.044109821
0.088865414 -0.15637827 0.062256813
0.090576418 -0.53937423 -0.060254097
0.081475414 0.24080473 0.18848515
0.082328416 0.031487703 0.12339306
0.081247412 0.61860573 0.20595884
0.081029415 0.36244673 0.22263002
0.080879413 0.4733867 0.2340312
0.082407415 0.73291969 0.11736393
0.083745413 0.76231772 0.015105247
0.080983415 0.54619968 0.22607899
0.090114415 0.92437869 -0.47137213
0.083111413 -0.15615129 0.063556194
0.084488414 -0.4861393 -0.041676044
0.076010413 0.19448072 0.17513418
0.076627411 0.031672716 0.12466621
0.075632416 0.6186167 0.20612717
0.075357415 0.39179969 0.22863102
0.077935413 0.76238167 0.017589092
0.081464417 0.84545273 -0.27124882
0.081042416 -1.0430773 -0.23668289
0.077358417 -0.15592527 0.064854145
0.077121414 -0.095132351 0.084236145
0.078643411 -0.48583925 -0.040335178
0.069996417 0.31388968 0.20830488
0.070018418 0.61862874 0.20629406
0.069729418 0.50596571 0.23179293
0.076647416 0.88716769 -0.37799406
0.072511412 -0.40536129 -0.013435841
0.075004414 -1.0420383 -0.23313379
0.071608417 -0.15569925 0.066149235
0.064741418 0.19441372 0.17441702
0.065106414 0.070934713 0.139606
0.064178415 0.39176971 0.22814608
0.064131416 0.43272471 0.23265409
0.066694416 -0.40508235 -0.012108803
0.068972416 -1.0410023 -0.22958803
0.068430416 -0.89799035 -0.17779112
0.067138411 -0.53804731 -0.054488182
0.059305415 0.12045872 0.15330601
0.058981415 0.24067968 0.18705797
0.058784414 0.3138327 0.20759726
0.058589414 0.39175373 0.22790384
0.058963414 0.66128272 0.18888903
0.059113413 0.69102073 0.17333698
0.058605414 0.54622567 0.22626209
0.060880415 -0.40480435 -0.010783195
0.061125413 -0.48494732 -0.036321163
0.053651415 0.12042069 0.15294504
0.053177416 0.31380373 0.20724106
0.053867415 0.032189727 0.12817192
0.053772416 0.070873737 0.13903379
0.053181414 0.61866069 0.20679522
0.054746415 0.76263869 0.027510166
0.052965414 0.50596368 0.23159218
0.060184412 0.88585269 -0.59568119
0.056928415 -1.0389373 -0.22251081
0.056691416 -0.96413934 -0.19544697
0.056477416 -0.89609027 -0.17081976
0.055754416 -0.65122128 -0.08805275
0.054206416 -0.094289303 0.089385033
0.055291414 -0.48465323 -0.034985065
0.047568414 0.3137747 0.20688486
0.048104413 0.070831716 0.13867092
0.047491416 0.58765072 0.2167182
0.047568414 0.6186707 0.20696211
0.047407415 0.39172071 0.2274189
0.047845416 0.69096267 0.17167187
0.050312415 0.81238568 -0.14240599
0.051218413 0.84562069 -0.25773001
0.053940415 0.88580072 -0.6043458
0.050913416 -1.0379093 -0.21897793
0.050294414 -0.81858325 -0.14011192
0.050076414 -0.73141229 -0.11234474
0.049458414 -0.48435926 -0.033648968
0.042273413 0.15462768 0.16184902
0.042674415 -0.049844265 0.10443592
0.042046413 0.27044374 0.19437218
0.042513415 0.032101691 0.12744522
0.043176416 0.76276672 0.032463074
0.041822415 0.54623872 0.22633791
0.044907413 -1.0368832 -0.21544886
0.044718415 -0.96217024 -0.18843889
0.044547416 -0.89419925 -0.16386414
0.043022413 -0.2113893 0.054528236
0.042896416 -0.15458727 0.072618961
0.036557414 0.19423568 0.17262411
0.036836416 0.032056689 0.12708092
0.036352415 0.6186437 0.20630598
0.036196414 0.43267271 0.23174095
0.036188416 0.4733457 0.23302507
0.037399415 0.76282972 0.034937859
0.036198415 0.50595868 0.23139
0.038907416 -1.0358613 -0.21192598
0.037160415 -0.15436828 0.073908806
0.031028414 0.1202597 0.15150023
0.030747412 0.61859369 0.20524025
0.031625416 0.76289272 0.037412167
0.033129413 0.84572071 -0.2496438
0.031720415 -0.32974327 0.01929903
0.032660414 -0.89316332 -0.1600728
0.032388415 -0.73037529 -0.10824776
0.031432416 -0.15428126 0.074399948
0.032065414 -0.53622031 -0.046435833
0.025524413 -0.0054702759 0.115839
0.025090413 0.58757472 0.21515703
0.025295412 0.69084072 0.16824818
0.025939412 -0.32948828 0.020609856
0.026815413 -0.9598093 -0.18002176
0.026384413 -0.64958334 -0.08127594
0.026322413 -0.60515332 -0.067133904
0.025706412 -0.15433824 0.074029922
0.025632413 -0.094011307 0.0909729
0.019879412 -0.050046265 0.10296679
0.019836413 -0.0055202842 0.11547279
0.019523412 0.31361973 0.20510626
0.019799413 0.031916738 0.12598801
0.019761413 0.070612729 0.13685608
0.019432412 0.50595069 0.23118925
0.019454412 0.54616272 0.22495413
0.020037413 -0.21079731 0.05781889
0.014180413 -0.0500983 0.10260105
0.013919413 0.6184417 0.20203686
0.014331413 0.76308173 0.044826031
0.013845412 0.50589371 0.23031521
0.013863413 0.54608274 0.223598
0.014793413 -0.81640732 -0.13185883
0.0084584132 -0.0056203008 0.11474085
0.0084184129 0.73354268 0.13749313
0.0086164139 -0.32884228 0.023951054
0.0088864136 -0.81604934 -0.13048601
0.008837413 -0.72901332 -0.10279894
0.0087304134 -0.53502929 -0.041089058
0.002719413 0.1940037 0.17046404
0.0027004131 0.27020371 0.19186783
0.0026934133 0.61833471 0.19981098
0.0026754132 0.54592168 0.22088385
0.0029564132 -0.72867727 -0.101439
0.002833413 -0.27335334 0.039182186
-0.0029245869 0.2701667 0.1915102
-0.0029245869 0.031720698 0.12452698
-0.0029245869 -0.40204132 0.0026741028
-0.0029245869 -0.32898426 0.023197174
-0.0029245869 -0.64798129 -0.074524879
-0.0085765868 0.15425771 0.1585989
-0.0086155869 -0.0057772994 0.11364079
-0.0085255867 0.36194271 0.21638393
-0.0088005867 -0.72800827 -0.098722935
-0.0086805867 -0.27349031 0.038431168
-0.0086655868 -0.21111429 0.055953979
-0.014245586 0.11990774 0.14859915
-0.014228586 0.15421271 0.15823698
-0.014269587 0.070327699 0.13467026
-0.014802586 -0.95709729 -0.17029476
-0.014674587 -0.72767627 -0.097365856
-0.014380587 -0.15475929 0.071432114
-0.014350588 -0.094408274 0.088387012
-0.019907588 0.11986071 0.14823484
-0.019852588 0.1938377 0.16902208
-0.020032587 -0.050430298 0.10038996
-0.019797588 0.27002871 0.19018126
-0.019757587 0.58705974 0.205441
-0.019709587 0.43205571 0.22369909
-0.019715587 0.50531769 0.22160292
-0.020237587 -0.32920432 0.022064209
-0.020619588 -0.8142873 -0.12364197
-0.020442588 -0.60268331 -0.056387901
-0.020109586 -0.15482235 0.071060181
-0.020064587 -0.094467282 0.088016987
-0.025571587 0.11981368 0.14787483
-0.025644587 0.7332207 0.12684679
-0.025340587 0.54551268 0.21409082
-0.026083587 -0.40235424 0.0011520386
-0.026011588 -0.3292793 0.021686077
-0.026514588 -0.81393933 -0.12227583
-0.026279587 -0.60238135 -0.055049896
-0.025840588 -0.15488732 0.070685863
-0.031234587 0.11976469 0.14751101
-0.031443585 -0.050547302 0.099651814
-0.030916587 0.4317967 0.22040081
-0.032340586 0.81301671 -0.10604906
-0.031874586 -0.40243626 0.00077104568
-0.032602586 -0.9559623 -0.16614294
-0.032405585 -0.81359231 -0.12091112
-0.032035585 -0.5339663 -0.036189079
-0.036897585 0.1197167 0.14714813
-0.038653586 -1.0290083 -0.18808317
-0.038294587 -0.81324828 -0.11954689
-0.037385587 -0.21145427 0.054080963
-0.038025584 -0.64650929 -0.068173885
-0.042458586 0.19323069 0.16378689
-0.042389587 0.23941571 0.17505217
-0.042208586 0.36089772 0.20468283
-0.042132586 0.43153572 0.21709824
-0.044771586 0.84614468 -0.21478987
-0.043459587 -0.40260124 9.059906e-06
-0.044014584 -0.72611535 -0.090908051
-0.043877587 -0.64660931 -0.068563938
-0.048075587 0.66042674 0.16818714
-0.048202585 0.69016469 0.15002298
-0.047753584 0.50482774 0.2143259
-0.050543584 -1.0282303 -0.18530321
-0.048877586 -0.21159625 0.053332806
-0.049510587 -0.53424227 -0.03734684
-0.053740587 0.66032374 0.16574717
-0.054122586 0.73292267 0.117136
-0.056486584 -1.0278453 -0.18391609
-0.054626584 -0.21166933 0.052957058
-0.055489585 -0.60286427 -0.056994915
-0.059539586 0.1529817 0.14818621
-0.059799585 0.030837715 0.11836815
-0.059717584 0.069385707 0.12777805
-0.059563585 0.68999273 0.14544916
-0.060527585 -0.27415431 0.035038948
-0.064949587 0.2683897 0.174438
-0.06475959 0.58644474 0.19418097
-0.064660586 0.54492772 0.20456219
-0.066638589 -0.40294433 -0.0015177727
-0.068362586 -1.0270793 -0.18114185
-0.067178585 -0.60306525 -0.057773113
-0.070298582 0.38958472 0.20211887
-0.070232585 0.43084371 0.20840311
-0.070215583 0.47168672 0.20997
-0.072434582 -0.4030323 -0.0019011497
-0.073640585 -0.81267726 -0.11705685
-0.073387586 -0.72666025 -0.092876911
-0.071538582 -0.095195293 0.083703041
-0.072822586 -0.53462625 -0.038892746
-0.077159584 -0.051691294 0.092380047
-0.076203585 0.61719471 0.17665195
-0.075863585 0.4307017 0.2066431
-0.077001587 0.73258972 0.106287
-0.075923584 0.54472673 0.20131016
-0.078233585 -0.40312231 -0.00228405
-0.080231585 -1.0263203 -0.17837286
-0.082894586 -0.052005291 0.090353966
-0.086394586 0.84636772 -0.19613075
-0.086171582 -1.0261782 -0.17781115
-0.085922584 -0.95366824 -0.15742493
-0.083025582 -0.095851302 0.079638004
-0.087705582 0.23767871 0.1592288
-0.087471582 0.31088972 0.17712784
-0.087545589 0.6169377 0.17146826
-0.089829586 -0.40330434 -0.0030498505
-0.093796588 0.11723971 0.12784481
-0.093679585 0.15150368 0.13622379
-0.093543589 0.1911397 0.14591694
-0.093385585 0.23745871 0.15724516
-0.094097584 0.029118717 0.1062932
-0.094250582 0.73225069 0.0952878
-0.097790584 -0.95393431 -0.15823078
-0.098400585 0.47097671 0.20036983
-0.10416459 0.84646171 -0.18815184
-0.10372659 -0.95407033 -0.15863514
-0.10070459 -0.21312428 0.045084953
-0.10244858 -0.64767432 -0.072480202
-0.10226458 -0.60370028 -0.060113907
-0.10028259 -0.096842289 0.073531151
-0.10541159 0.06718868 0.11171293
-0.10441758 0.58539671 0.17499924
-0.10412159 0.50342971 0.19383287
-0.10866258 -0.72735727 -0.095246792
-0.10672958 -0.27557027 0.027840137
-0.10649058 -0.21349633 0.043028831
-0.10831159 -0.64778733 -0.072872162
-0.11079858 0.15075374 0.1302228
-0.11113959 0.066910684 0.1097002
-0.10974558 0.42966372 0.19373083
-0.11411958 0.81362569 -0.069994926
-0.11594059 -1.0268853 -0.17984486
-0.11494558 -0.81354129 -0.11984682
-0.11364859 -0.53534424 -0.041613102
-0.11665858 0.1161927 0.11981916
-0.11651259 0.15050268 0.12822008
-0.11583158 0.30990273 0.16725111
-0.11542858 0.4702397 0.19030094
-0.12154058 -0.95448625 -0.15985012
-0.12084959 -0.81367028 -0.12024689
-0.12042659 -0.72760034 -0.096042156
-0.12003659 -0.64801824 -0.073660851
-0.11783058 -0.15802026 0.052678108
-0.12205159 0.18995172 0.13594007
-0.12184259 0.23634773 0.14730501
-0.12277959 0.027661681 0.096190929
-0.12112159 0.42910069 0.18667603
-0.12472059 -0.40475333 -0.009718895
-0.12631059 -0.72772431 -0.096438885
-0.12589958 -0.6481353 -0.074053764
-0.1250746 -0.48357224 -0.02902317
-0.1281136 0.11566472 0.11579895
-0.12776458 0.1897127 0.13394022
-0.12754659 0.23612368 0.14531088
-0.12891459 -0.054551303 0.074096203
-0.12741959 0.26599771 0.15195513
-0.13056359 -0.40519524 -0.01181221
-0.1326616 -0.81393325 -0.12104988
-0.13408959 0.065787733 0.10162783
-0.13290159 0.58461273 0.16079092
-0.1336066 0.6586107 0.12567997
-0.1325126 0.46949771 0.1802001
-0.1360506 -0.33290827 0.0039191246
-0.13577859 -0.27755225 0.017485142
-0.1351956 -0.15909231 0.046515942
-0.13884959 0.61569667 0.14668608
-0.13851359 0.35707474 0.1627512
-0.13838759 0.38669372 0.16874409
-0.1382186 0.46924871 0.176826
-0.1439676 -0.72810328 -0.097633839
-0.1415996 -0.27795231 0.015408993
-0.14532059 0.11486673 0.10975695
-0.14623259 -0.055522263 0.067974091
-0.1444636 0.30810273 0.1490221
-0.14558659 0.065221727 0.097582817
-0.1443346 0.58428872 0.15495396
-0.1464656 0.73107672 0.05727911
-0.14772059 -0.33374834 -0.00025320053
-0.15038259 -0.81433833 -0.1222558
-0.14985459 -0.72823334 -0.098033905
-0.14679059 -0.15981233 0.042400837
-0.15055259 0.23446673 0.13028002
-0.15041459 0.2643497 0.1363349
-0.1509586 0.6580407 0.11236191
-0.1514256 0.68795872 0.091773033
-0.14967459 0.42768168 0.16896486
-0.15356159 -0.33417034 -0.0023398399
-0.15676959 -0.8892113 -0.14368486
-0.15440659 -0.48593533 -0.039566994
-0.15779859 -0.056174278 0.063885212
-0.15618359 0.26393569 0.1324172
-0.1561776 0.61500072 0.13266993
-0.1557436 0.35600871 0.15107918
-0.16123259 -0.65014231 -0.08185482
-0.16210559 0.23359871 0.12242413
-0.16358659 -0.056502283 0.061839104
-0.16195759 0.2635197 0.12849283
-0.1631376 0.025336683 0.080183029
-0.1629466 0.063903689 0.088005066
-0.1690836 -0.9556663 -0.16311312
-0.16455059 -0.21727729 0.022377014
-0.16751559 0.30655372 0.1333828
-0.16777059 0.61453372 0.12329483
-0.16711259 0.38500768 0.14930487
-0.16689759 0.42678171 0.15778303
-0.17120959 0.76157868 -0.012578964
-0.17205359 -0.4873693 -0.045914173
-0.1743266 0.11232769 0.090099812
-0.17329559 0.30616373 0.12946081
-0.17458959 0.062812686 0.080043793
-0.1732076 0.58307469 0.13284302
-0.17358059 0.61429971 0.11859703
-0.17287859 0.38466769 0.14540291
-0.17421059 0.65727472 0.094514847
-0.1726556 0.42646873 0.15389109
-0.17743459 -0.40878129 -0.028613091
-0.17696659 -0.33587027 -0.010706902
-0.17620859 -0.21804726 0.018229008
-0.1790206 0.58280271 0.12789679
-0.18004559 0.65708172 0.090036869
-0.18337859 0.76105171 -0.033132076
-0.17837059 0.50055468 0.15193796
-0.1874816 -1.0287493 -0.18477821
-0.18245959 -0.28078926 0.00083303452
-0.1849286 -0.65230024 -0.090434074
-0.18669559 -0.014324307 0.056603909
-0.18512759 0.26184773 0.11275005
-0.18487959 0.3053807 0.1216011
-0.19344959 -1.0289153 -0.18519306
-0.1871966 -0.10258627 0.038658142
-0.18973659 -0.48881829 -0.052275181
-0.19182059 0.11077672 0.078155994
-0.19161859 0.14513969 0.085147858
-0.19255659 -0.014924288 0.052587032
-0.1910636 0.61359167 0.10444307
-0.18997559 0.4255237 0.14218426
-0.1902566 0.54047072 0.13243198
-0.1937546 -0.21938527 0.010993958
-0.19680059 -0.65338826 -0.094731808
-0.19693659 0.23096871 0.098735809
-0.1964916 0.3045947 0.11372185
-0.1981996 0.02189672 0.05618
-0.19651259 0.5819847 0.11301708
-0.19601659 0.38329971 0.12974215
-0.19768059 0.6563797 0.073657036
-0.20394459 -0.81859231 -0.13737106
-0.20003559 -0.28206933 -0.0056910515
-0.20457859 -0.060623288 0.03547287
-0.2043016 -0.016128302 0.04453516
-0.20406859 0.021318734 0.052161217
-0.20382759 0.060061693 0.060050964
-0.2045126 0.68590868 0.037642956
-0.20156859 0.46608272 0.13401318
-0.2081586 0.75980771 -0.081696987
-0.2055756 -0.22085929 0.0028381348
-0.2048526 -0.10456431 0.026523113
-0.2084146 0.26015872 0.096926212
-0.20813459 0.3038047 0.10582209
-0.20782159 0.35276371 0.115798
-0.20962059 0.65573472 0.058526993
-0.21050759 0.68563068 0.030304909
-0.2074966 0.42423773 0.12612581
-0.2164886 -0.89401627 -0.15999174
-0.21464059 -0.65503335 -0.10119581
-0.21377359 -0.54288626 -0.073604107
-0.21583159 0.020157695 0.044106007
-0.21452959 0.61259067 0.084437847
-0.21339859 0.4237057 0.1194582
-0.21855259 0.72808069 -0.040111065
-0.2202466 -0.61176527 -0.092567921
-0.2197036 -0.54339731 -0.075744152
-0.22062059 0.18254071 0.073320866
-0.22030559 0.22919273 0.082839012
-0.22197759 -0.017946303 0.032419205
-0.22048359 0.61224371 0.07745409
-0.21931159 0.42317271 0.11277723
-0.21921159 0.4647457 0.11578989
-0.2241606 -0.34045124 -0.033382893
-0.22336659 -0.22308433 -0.0094380379
-0.2229856 -0.16682231 0.0020418167
-0.22788459 -0.018555284 0.028367996
-0.22582959 0.30211169 0.088726044
-0.22544359 0.38072973 0.10004616
-0.23103359 0.72734368 -0.064139843
-0.2252066 0.4974907 0.10702801
-0.23063159 -0.41386235 -0.052333832
-0.23012759 -0.34127533 -0.037516117
-0.2350726 -0.96164834 -0.18276882
-0.2293116 -0.22382927 -0.013538837
-0.23251659 -0.65669334 -0.10767412
-0.23157459 -0.54442227 -0.080027103
-0.2341186 -0.063807309 0.015192032
-0.2320056 0.25790769 0.075701237
-0.23353259 0.018404722 0.031986237
-0.23179959 0.58025074 0.081601143
-0.2313906 0.38014871 0.093320847
-0.2311786 0.42210174 0.099368095
-0.24221259 -1.0383643 -0.21659899
-0.2375526 -0.54514825 -0.08313179
-0.2377546 0.30077869 0.075215816
-0.23734759 0.37956572 0.086584091
-0.23975259 0.65406573 0.019402027
-0.24208559 -0.34293032 -0.045797825
-0.24656759 -0.8972373 -0.17099905
-0.24515559 -0.73715532 -0.13155413
-0.2403716 -0.10856533 0.0021038055
-0.24458259 0.14016968 0.045338154
-0.24412559 0.22643071 0.057798862
-0.2437356 0.30010968 0.068440914
-0.24296059 0.49629369 0.089556217
-0.24807659 -0.34376132 -0.049946785
-0.24719359 -0.22607732 -0.02587986
-0.24677059 -0.16966426 -0.014342785
-0.2505976 0.13932574 0.038500786
-0.25158858 -0.021007299 0.012111187
-0.24996559 0.2557587 0.055335999
-0.24972859 0.29943871 0.06165123
-0.25069159 0.61018771 0.035993099
-0.2490716 0.42048371 0.079153061
-0.25463358 -0.41737831 -0.068996906
-0.25862858 -0.8985393 -0.17541504
-0.25615859 -0.61595726 -0.10963392
-0.25273558 -0.17037928 -0.018455029
-0.25563759 -0.54805529 -0.095738888
-0.25662658 0.13847768 0.031648159
-0.25788558 -0.066384315 -0.0011329651
-0.25597757 0.25503772 0.048518181
-0.25817558 0.65286875 -0.0086960793
-0.26466557 -0.89919329 -0.17762518
-0.25964358 -0.28995025 -0.046905994
-0.26255858 -0.66049731 -0.12277699
-0.26286459 0.10319471 0.019790173
-0.26217657 0.2241717 0.03731823
-0.26106557 0.41939771 0.065601826
-0.26082557 0.46149871 0.07170105
-0.26084259 0.49504071 0.071275234
-0.26609558 -0.34626627 -0.062432766
-0.27134657 -0.96570528 -0.19608402
-0.26998657 -0.82539332 -0.16146898
-0.26926658 -0.74022925 -0.14314699
-0.26907158 0.60886073 0.0092382431
-0.27211758 -0.34710526 -0.066606998
-0.27675459 -0.90050828 -0.18205404
-0.27455258 0.1758877 0.016798973
-0.27529258 0.051627696 -0.0012397766
-0.27447358 0.57681775 0.018723965
-0.27314559 0.4936747 0.051095009
-0.27367857 0.53465772 0.038103104
-0.27876157 -0.42092931 -0.085754871
-0.27814656 -0.34794629 -0.070785046
-0.28347158 -0.96707332 -0.20053816
-0.28280458 -0.90116727 -0.18426895
-0.27667657 -0.1732583 -0.034954071
-0.27989057 0.29605371 0.027480125
-0.27922958 0.45942071 0.04326725
-0.28481257 -0.42182326 -0.089959145
-0.28652659 -0.62108934 -0.13085699
-0.28275558 -0.17427623 -0.040871143
-0.28696659 0.1342057 -0.0028438568
-0.28642559 0.2211287 0.0097999573
-0.28567058 0.34470069 0.027443886
-0.29509959 -0.90362632 -0.19293118
-0.28924358 -0.23159528 -0.056060791
-0.29252058 0.22036171 0.0028848648
-0.29438159 -0.072395325 -0.039748192
-0.29409757 -0.027753294 -0.033246994
-0.29232758 0.25067168 0.0072989464
-0.29361159 0.048770726 -0.022102833
-0.29307857 0.5752517 -0.0099139214
-0.29197857 0.34360373 0.015292168
-0.30059657 -0.83103931 -0.18210411
-0.29579559 -0.29481828 -0.072140217
-0.29873157 -0.62316024 -0.13938904
-0.29967159 0.57430172 -0.027473927
-0.29826659 0.3724407 0.004076004
-0.30234757 -0.35133326 -0.087560177
-0.30802459 -0.97138226 -0.21504593
-0.30742759 -0.90610027 -0.20162296
-0.30081657 -0.11758626 -0.053197861
-0.30422059 -0.55591929 -0.12962294
-0.30444357 0.4899267 -0.0042629242
-0.30853659 -0.35268426 -0.094389915
-0.31118658 0.24733371 -0.024507046
-0.31326857 0.5720337 -0.069489956
-0.31093457 0.4126687 -0.01905489
-0.31475157 -0.35409629 -0.10153198
-0.31978759 -0.90858626 -0.21034193
-0.31357658 -0.18032229 -0.076146126
-0.31594959 -0.50572824 -0.12741184
-0.31906056 -0.076784253 -0.067931175
-0.31875157 -0.031944275 -0.061375141
-0.31759557 0.2460407 -0.036858082
-0.31822157 0.044921696 -0.050134182
-0.32016659 0.57085073 -0.091391087
-0.31733757 0.4116897 -0.031386852
-0.31727159 0.45408571 -0.029985905
-0.31936559 -0.12103224 -0.074400902
-0.32257357 -0.55891025 -0.14242983
-0.32494858 -0.032999277 -0.068445206
-0.32722557 -0.35693228 -0.11585999
-0.33218458 -0.91108632 -0.21908712
-0.33145058 -0.8369993 -0.20381689
-0.33060357 -0.75147223 -0.18619013
-0.32938558 -0.62838328 -0.16082096
-0.33041057 0.28744072 -0.060236931
-0.33080858 0.042434692 -0.06836319
-0.33028159 0.36714572 -0.057596207
-0.33400357 -0.43104327 -0.13370085
-0.33456758 -0.50968826 -0.14522409
-0.33721358 0.090435684 -0.079226971
-0.33709058 0.16493171 -0.076750755
-0.33688956 0.28621572 -0.072723866
-0.33845857 0.4487277 -0.10424805
-0.34528556 -0.97916234 -0.24138498
-0.34297058 -0.75375533 -0.1948719
-0.34085959 -0.51128924 -0.15247679
-0.34346959 0.24081373 -0.08672905
-0.34439757 0.36310768 -0.10505819
-0.34516859 0.4046967 -0.12026501
-0.35084158 -0.91485929 -0.23225117
-0.34516159 -0.24314427 -0.12013912
-0.34474057 -0.18645632 -0.11181498
-0.35055357 -0.083330274 -0.11007786
-0.35134858 0.33091772 -0.12550116
-0.35388157 -0.56630731 -0.17464685
-0.35348856 -0.51450729 -0.16703415
-0.35704258 -0.040795267 -0.1212678
-0.35697758 -0.0032783151 -0.1200161
-0.36332059 -0.91739035 -0.24105692
-0.35730258 -0.18893933 -0.12621784
-0.36334556 0.11873269 -0.12858486
-0.36416158 0.20432872 -0.14390707
-0.36371258 -0.087237239 -0.13547993
-0.36363357 -0.04266727 -0.13398695
-0.36349657 0.033890724 -0.13142395
-0.36555257 -0.43864524 -0.17000198
-0.36497858 -0.36554134 -0.159235
-0.37029758 -0.98441529 -0.25907183
-0.36454058 -0.30979431 -0.15102482
-0.36711359 -0.63762224 -0.19931221
-0.36379057 -0.13115025 -0.13694811
-0.37180957 0.20090771 -0.17557001
-0.37240657 0.23045468 -0.18658495
-0.37657258 -0.98573732 -0.26350784
-0.37779057 0.1129837 -0.17589903
-0.37859058 0.15176868 -0.19042921
-0.38216957 -0.92151833 -0.25545883
-0.38157359 -0.84818232 -0.24463511
-0.38088459 -0.76340032 -0.23212099
-0.37705657 -0.13526225 -0.16255999
-0.37933859 -0.57303834 -0.20402288
-0.38355958 -0.048330307 -0.17244291
-0.38382658 0.027700722 -0.17721891
-0.38465258 -0.44326031 -0.19198275
-0.38416559 -0.37030923 -0.18327999
-0.38971558 -0.99120927 -0.28255701
-0.38862059 -0.92362332 -0.262959
-0.38666159 -0.68656623 -0.22793198
-0.39264157 0.071596682 -0.2274251
-0.39053959 -0.19982529 -0.19040489
-0.39215258 -0.57643425 -0.21881104
-0.39171457 -0.52427232 -0.21109486
-0.39785057 -0.054334283 -0.21356678
-0.39863959 -0.01835829 -0.22724295
-0.39946058 0.019102693 -0.24148607
-0.39760157 -0.37538934 -0.20924902
-0.40021157 -0.76917028 -0.25451374
-0.39749458 -0.32039034 -0.20739079
-0.39858058 -0.57813931 -0.22622919
-0.40654859 -0.022889316 -0.25970221
-0.40450257 -0.45005524 -0.22475004
-0.40561858 -0.6482873 -0.24381018
-0.40389559 -0.14359128 -0.21437693
-0.40502459 -0.57984924 -0.23366499
-0.41129157 -0.4527663 -0.23787594
-0.41457456 -0.93210328 -0.29313278
-0.41079459 -0.20647025 -0.22952318
-0.41857159 -0.65188527 -0.25878096
-0.41826457 -0.53361928 -0.25370312
-0.42763957 -0.93638134 -0.30832291
-0.42521557 -0.58778226 -0.26868296
-0.43181258 -0.46096635 -0.27755117
-0.43874857 -0.39148724 -0.29149914
-0.43922657 -0.70400023 -0.29909611
-0.44664657 -0.86863232 -0.32017374
-0.44632658 -0.78475928 -0.31516409
-0.45518658 -0.40431428 -0.35798311
-0.45395356 -0.94501424 -0.33892012
-0.45302159 -0.66739523 -0.32450199
-0.46175256 -0.47880125 -0.36466217
-0.46748859 -0.8788873 -0.35865307
-0.47454059 -0.88252425 -0.37230921
-0.48123556 -0.72372031 -0.38040304
-0.49919257 -0.69934535 -0.46125317
-0.51107162 -0.90402126 -0.45329618
-0.51333463 -0.82755029 -0.48487282
