# .PCD v0.7 - Point Cloud Data file format
VERSION 0.7
FIELDS x y z
SIZE 4 4 4
TYPE F F F
COUNT 1 1 1
WIDTH 1
HEIGHT 1024
VIEWPOINT 0 0 0 1 0 0 0
POINTS 1024
DATA ascii
1.0233338 -0.31044227 -0.30467939
1.0312818 -0.2702592 -0.40402174
1.0411009 -0.18039626 -0.51792431
0.95960486 -0.25306028 0.020598412
1.0150238 -0.21771127 -0.46560335
1.0194218 -0.13687724 -0.54324865
1.0225478 -0.10053825 -0.56607151
1.0075098 -0.1773482 -0.50204754
1.0127468 -0.13636225 -0.54053259
0.91951686 -0.12114722 0.14450741
1.0163858 0.024544716 -0.61406374
1.0060768 -0.13584727 -0.53781652
1.0091368 -0.099520266 -0.56045055
0.90996385 -0.12306124 0.13086748
0.99773687 0.11755776 -0.6174016
0.99740386 0.19761175 -0.61488533
0.90848285 -0.19221824 0.056006432
0.89128989 -0.079193234 0.14279366
0.98261088 0.026857734 -0.59905767
0.97710687 0.068950772 -0.6055274
0.97741687 0.15130574 -0.60791731
0.96924484 0.027688742 -0.59379768
0.88039386 -0.12801629 0.095018387
0.85167187 0.13257474 0.27453423
0.87115687 -0.08183223 0.12243223
0.96394289 0.15209472 -0.60187864
0.96134484 0.25413173 -0.58159256
0.95961785 0.28760672 -0.56811333
0.84635586 0.16993475 0.27255964
0.95709586 0.12017977 -0.59792662
0.95721489 0.15248775 -0.5988636
0.95600384 0.20054775 -0.58934641
0.94964689 0.33539373 -0.53937054
0.87019289 -0.12933928 0.085186481
0.86095089 -0.083046257 0.11297464
0.94554889 0.28870672 -0.55668831
0.84865987 0.086783767 0.16546059
0.84424889 0.16184574 0.20062637
0.85303688 -0.037958264 0.13056946
0.84999388 0.038013756 0.1548295
0.85058188 -0.084098279 0.10460329
0.91949987 0.42340276 -0.44870043
0.83720487 0.20280474 0.16657352
0.91184485 0.42423573 -0.4369626
0.84953189 -0.13177425 0.066900253
0.83347386 0.085214734 0.15091038
0.84457988 0.38258672 0.06045723
0.82876086 0.15556276 0.14307261
0.83049488 0.27029872 0.12884855
0.82955289 0.035951734 0.13658047
0.84051788 0.38156074 0.046630383
0.84628588 0.41968074 -0.00069236755
0.85140085 0.45060974 -0.042652607
0.83894485 -0.13271624 0.059532642
0.82438588 0.19934177 0.13234138
0.84764284 0.44951174 -0.059837341
0.82268488 0.34061176 0.051311493
0.83264387 0.41756773 -0.032209396
0.82302684 -0.13414127 0.048439503
0.80798888 0.11567277 0.12688255
0.80830789 0.15370876 0.12419462
0.80927384 0.19780272 0.11602545
0.81544185 0.31236076 0.063916683
0.81276989 0.33958477 0.037814617
0.79730684 0.082048774 0.12103367
0.79895788 -0.0045982599 0.10686541
0.79757386 -0.08836627 0.069571495
0.79503089 0.22462177 0.091546535
0.81049186 0.41345975 -0.092846394
0.78223789 0.15172273 0.1035943
0.79818189 0.37555075 -0.036346436
0.79049987 -0.13624829 0.031079292
0.77695489 0.15137577 0.099927425
0.77759188 -0.00598526 0.094289303
0.77220488 -0.006290257 0.091456413
0.77491188 0.30854672 0.015838623
0.77390885 -0.13692528 0.02485323
0.76488489 -0.090079248 0.05437851
0.76370084 0.22229373 0.065108299
0.76595688 0.26300275 0.044670582
0.77265888 0.33547473 -0.016039371
0.75938088 -0.090305269 0.052254677
0.76756889 0.33498174 -0.022510529
0.75054085 -0.0074222684 0.080807686
0.74998486 0.030505717 0.085929394
0.76799583 0.37245375 -0.079862595
0.74448788 0.11142176 0.083967686
0.74836284 -0.090760231 0.048004627
0.75735986 0.33399177 -0.035490513
0.74121284 0.19279772 0.061208248
0.73412788 -0.0081102848 0.074024677
0.74703085 0.33306372 -0.047716618
0.73434687 0.26074672 0.017575264
0.72811389 0.029622734 0.076879501
0.74178487 0.33265173 -0.053197384
0.72235787 0.077650726 0.077308655
0.72279584 0.11040372 0.07311058
0.72315788 -0.0085542798 0.069633484
0.73580587 -0.20653921 -0.051724434
0.71690488 0.077411771 0.074819565
0.72088289 0.21983075 0.036326408
0.72999287 -0.2064572 -0.051830769
0.71144986 0.077172756 0.072329521
0.71187985 0.10994375 0.068125248
0.71543187 0.21959573 0.033457279
0.70933086 -0.091799259 0.03695631
0.70753086 -0.046419263 0.054679394
0.70333683 0.19090474 0.039461613
0.72330189 0.36672276 -0.15880871
0.69605589 0.14725572 0.054903507
0.69635487 -0.046655238 0.051905632
0.70991284 0.33035874 -0.083928585
0.69241089 0.19042772 0.03388834
0.69072086 -0.046707273 0.050975323
0.68945086 0.028423727 0.06381464
0.69501287 -0.13832027 0.0075936317
0.68689388 0.19024277 0.03160429
0.68673486 -0.09201926 0.033225536
0.68508488 -0.046761274 0.050047398
0.68428087 -0.009576261 0.058252335
0.69488984 -0.2055673 -0.049946308
0.68930888 -0.13833028 0.0069713593
0.67944884 -0.046815276 0.049119473
0.68565589 0.25813472 -0.01475668
0.68355888 -0.13826424 0.0068325996
0.67328984 0.10867375 0.053622246
0.67543387 -0.092133284 0.031358242
0.67705286 0.21805775 0.014538288
0.68462789 0.30233777 -0.064124584
0.66773385 0.10852873 0.051878452
0.68810385 -0.27895123 -0.16163254
0.66165084 0.075715721 0.055695534
0.65589488 0.027835727 0.056111336
0.65048385 0.075487733 0.052820683
0.65097189 0.10820276 0.04756546
0.65261686 -0.092040241 0.029826641
0.65059489 -0.01004523 0.051622391
0.65935189 -0.20382923 -0.042768478
0.64537889 0.10809374 0.046129227
0.66095489 0.32745475 -0.12338257
0.64388186 0.21686274 -0.00029754639
0.63418186 0.10788673 0.04338026
0.63688284 0.18880874 0.013417244
0.64597988 0.30059373 -0.087527752
0.63728487 -0.13726026 0.0089483261
0.62838084 -0.046830237 0.044251442
0.63565487 0.25643373 -0.037254333
0.64443088 0.32655972 -0.13558435
0.62289786 0.10778773 0.041540623
0.63890886 0.32626176 -0.13964033
0.61116987 -0.046538234 0.044779301
0.60543483 -0.046440244 0.044973373
0.60520685 -0.010038257 0.047626495
0.59979188 0.074961722 0.044085503
0.60031986 0.10758275 0.037863255
0.60462189 0.21593672 -0.012834549
0.60568887 -0.20018929 -0.025415421
0.59380186 -0.0099482536 0.047314644
0.58842587 0.074975729 0.043241501
0.59177583 0.18810773 0.0029244423
0.58827484 -0.046221256 0.04505825
0.58789384 0.027775764 0.049648285
0.59386688 -0.19950324 -0.02223444
0.59288585 -0.26348823 -0.080543518
0.58471686 -0.13501531 0.01882267
0.57756788 0.10760576 0.036171436
0.58942688 0.29907376 -0.10963345
0.58676589 -0.26277524 -0.076917648
0.57104588 -0.045868278 0.046122551
0.57626188 0.21557772 -0.018702507
0.57090288 -0.0096082687 0.047900677
0.58366585 0.29901773 -0.11072731
0.59211689 -0.3478933 -0.21575737
0.56897485 0.18803173 0.00034952164
0.56047285 0.10766572 0.035306454
0.55928087 0.028186738 0.050452232
0.56141084 -0.13401026 0.023393631
0.55757284 0.18799073 -0.00092935562
0.56882584 -0.33479029 -0.14552355
0.55821484 -0.19688028 -0.0091743469
0.54850388 0.075243771 0.042200565
0.54803884 -0.045305252 0.04824543
0.56200588 -0.33246726 -0.13327742
0.54226387 -0.045117259 0.049119473
0.53713083 -0.08884728 0.041496277
0.52886587 0.18816274 -0.0014886856
0.53294384 0.25534475 -0.057012558
0.52481586 0.028954744 0.053657532
0.53733385 0.29879677 -0.1167984
0.54139388 0.32420772 -0.17208862
0.52785784 -0.1929732 0.012244225
0.51458585 0.10832274 0.037358284
0.52567482 0.29882377 -0.11734438
0.52962285 0.32425076 -0.17242575
0.51157886 0.18836272 -0.00085258484
0.51312387 0.21565872 -0.022676468
0.50759083 0.029356718 0.055468559
0.50428087 0.14529675 0.021354675
0.51640582 -0.38883322 -0.15204239
0.50578785 -0.24845225 -0.00018548965
0.49678582 0.076310754 0.046998501
0.49572784 -0.0068532825 0.062320232
0.48988682 -0.08489126 0.06455946
0.48566082 0.10921872 0.042851448
0.49636585 -0.38176924 -0.11621475
0.49109185 -0.31418031 -0.037847519
0.47922283 0.077319741 0.05391264
0.49673185 0.35725176 -0.30009556
0.46810383 0.11018372 0.049774647
0.47086585 0.18950075 0.0070633888
0.47844285 0.29974675 -0.11010361
0.46498585 0.18978375 0.0093393326
0.46061984 -0.0044032335 0.077791691
0.47240084 0.30006474 -0.10688972
0.48324084 0.35912073 -0.27683353
0.45642182 0.11082375 0.054382324
0.46028483 -0.30820423 -0.0070147514
0.44890183 -0.039223254 0.083864689
0.46033785 0.30069774 -0.10047245
0.45421582 -0.30718523 -0.0017924309
0.44869584 0.21785975 -0.0053725243
0.45088184 0.25739276 -0.041103363
0.45431682 0.30101275 -0.097268581
0.44495684 0.25766772 -0.038588524
0.45070684 0.32790774 -0.13396549
0.44568884 -0.3687163 -0.050727367
0.43760484 -0.12331122 0.083363533
0.43607184 -0.30414325 0.013814449
0.42844585 0.14868474 0.046316624
0.43103585 0.21872872 0.0020785332
0.42591083 -0.1222263 0.089621544
0.41990185 -0.0015932322 0.095733643
0.42743385 -0.3655023 -0.034885406
0.42420882 -0.30270225 0.021037579
0.41568685 0.11303473 0.07045126
0.41399083 -0.078830242 0.10031557
0.42136982 -0.36443621 -0.029625416
0.40988484 0.11334777 0.072740555
0.41228884 0.19229573 0.029743671
0.41540784 0.25903177 -0.026042461
0.40517583 0.14985377 0.055294514
0.40347582 -0.17946631 0.086190701
0.39936984 0.15014476 0.057536602
0.39094284 -0.077331245 0.10905647
0.39094782 -0.03515023 0.1089716
0.39585084 0.22044772 0.016934395
0.40245783 0.33039176 -0.10706139
0.39721584 -0.36020321 -0.0086803436
0.39474285 -0.29936224 0.037743568
0.39190882 -0.17858022 0.090934277
0.39444885 0.30412877 -0.065382481
0.38197783 0.15101177 0.064249516
0.38849482 0.30443573 -0.062208652
0.37960684 -0.11860222 0.11027431
0.37619084 0.15129972 0.066484451
0.37375283 -0.076368272 0.11459637
0.38449383 0.33127773 -0.097426414
0.37322584 -0.35601729 0.012105465
0.36329484 0.083672762 0.098213673
0.36576185 0.19447976 0.047777653
0.36231384 -0.075730264 0.11828327
0.36232084 0.0019127727 0.11812544
0.37067583 0.30535376 -0.052705765
0.37135383 -0.44001931 -0.066567421
0.35731885 -0.17595226 0.10511255
0.35226583 0.11609375 0.092741489
0.34654984 0.11630374 0.094227314
0.35295984 0.30617476 -0.044263363
0.34793684 -0.29411024 0.064250469
0.34709784 0.30638373 -0.042163372
0.34211582 -0.29346126 0.067546368
0.33473083 0.084822774 0.1060977
0.33377784 -0.074153244 0.12748051
0.33378184 -0.032111228 0.12739468
0.33930084 0.26222175 0.0034832954
0.34123984 0.30659276 -0.040064335
0.34293982 0.33305174 -0.078237534
0.33495983 -0.22925323 0.10095453
0.32941884 0.11692876 0.098685265
0.32852682 0.03910774 0.11910963
0.33538485 0.30680072 -0.037966728
0.32921684 -0.22880024 0.10331345
0.32452783 0.15324277 0.081170559
0.32938883 -0.43278927 -0.032440662
0.32610685 -0.34948927 0.044257641
0.32469484 -0.29155225 0.077259541
0.31762984 0.085503757 0.11082029
0.31670085 -0.073218226 0.13298559
0.31893283 -0.29105824 0.079726696
0.31717983 -0.17294127 0.12155628
0.31193683 0.085728765 0.11239147
0.31231683 0.11754775 0.10313845
0.31753883 -0.4310233 -0.024130344
0.31452784 -0.34845024 0.049240589
0.31201982 -0.22745126 0.1103735
0.30828083 0.19640577 0.063263416
0.31578383 0.37167472 -0.12353659
0.30575183 -0.17209131 0.12623644
0.29965985 -0.030330241 0.13839149
0.30296785 -0.34741622 0.054213524
0.30167484 -0.28958529 0.087110519
0.31161883 -0.53499621 -0.16597843
0.29398584 -0.030036271 0.14021969
0.30034885 0.30803776 -0.025396347
0.30180782 0.33443975 -0.063389301
0.29492083 -0.22637922 0.11588764
0.28919384 0.086623728 0.11867428
0.29302683 0.26365572 0.016569614
0.28876585 0.040767729 0.1300683
0.29393384 -0.42751926 -0.0075936317
0.28538483 0.19714075 0.069270611
0.28277484 0.0054577589 0.14045954
0.28309885 0.04100275 0.13163042
0.28264284 -0.11265725 0.14405346
0.29304385 -0.52925724 -0.13959455
0.27783984 0.08706677 0.12181234
0.27819085 0.11876774 0.11203146
0.28025183 0.22480875 0.054442406
0.28149083 0.26400977 0.019839287
0.27251384 0.11896873 0.11351156
0.27395386 0.19750476 0.072271347
0.27146384 0.0059437156 0.14357424
0.28028783 0.37289673 -0.10910177
0.26581383 0.0061847568 0.14512968
0.27130684 0.30894274 -0.016210556
0.26840383 -0.34435028 0.069063663
0.25845784 0.26470977 0.026370525
0.26897484 0.43663076 -0.29923344
0.25519285 -0.22413427 0.12743855
0.24983484 0.11976677 0.11942863
0.25042784 0.15575874 0.10054445
0.25112784 0.19822472 0.078264236
0.25504884 0.33599472 -0.046485424
0.25292483 -0.42148024 0.021093369
0.25015885 -0.28524131 0.10912323
0.24315283 -0.027772248 0.15426445
0.25330883 0.41026974 -0.17811775
0.24387184 -0.22350222 0.13072729
0.23907283 0.15613574 0.10351753
0.24732885 0.41052973 -0.17464542
0.23876286 -0.28429121 0.11398745
0.24135584 0.41078976 -0.17117643
0.22724983 0.12034976 0.12362528
0.22776285 0.15637076 0.1052556
0.22631785 -0.069148242 0.15698338
0.23176584 0.33675975 -0.038060665
0.22829285 -0.34084028 0.08627224
0.22634083 -0.1104793 0.15616226
0.22269884 0.19896972 0.084402561
0.22743583 0.37445372 -0.09066534
0.21508983 -0.068748236 0.15935135
0.21831584 0.26575977 0.036162376
0.22062185 -0.51018924 -0.051883698
0.21174285 0.22672772 0.071112633
0.20961383 0.0078087449 0.15524626
0.21766385 0.41143173 -0.16280031
0.20660883 -0.4154852 0.04967165
0.19884083 0.089432716 0.13842726
0.19859284 0.043625772 0.14894533
0.20210484 0.31054676 -5.7697296e-05
0.19979283 -0.33846027 0.098047256
0.19322184 0.089564741 0.13935947
0.19831383 0.37494975 -0.084998608
0.20169485 0.44106674 -0.23398542
0.19345784 -0.28134626 0.12895823
0.18824485 0.15713072 0.11095667
0.19249585 0.37504774 -0.083863735
0.18845385 -0.33777922 0.10136938
0.18781585 -0.2810232 0.13060045
0.18707785 -0.10903126 0.16444969
0.19406283 -0.58141631 -0.15569544
0.17586285 -0.067371249 0.16762447
0.18086585 0.37524277 -0.081593513
0.17656285 -0.28058928 0.13274431
0.17056084 0.044317722 0.15358162
0.17059284 -0.21951431 0.1519165
0.16698885 0.26660275 0.043825626
0.16481084 0.0089627504 0.16264057
0.15974684 0.12169576 0.13334036
0.15908684 -0.066794276 0.17116451
0.15921885 0.0091037154 0.16356468
0.15910083 -0.10802227 0.17035341
0.16244185 -0.5033893 -0.02107048
0.15479285 0.20017976 0.094257355
0.15349784 -0.066603243 0.1723423
0.15872684 0.41293076 -0.14299536
0.15999985 0.44205976 -0.21979475
0.14803985 0.0093847513 0.16541147
0.15051684 0.31132174 0.0076975822
0.14886385 -0.3354333 0.11295557
0.14349784 0.20037472 0.095899582
0.14371584 0.22790176 0.081220627
0.14257383 0.044992745 0.15821028
0.14479384 0.31140572 0.0085606575
0.14523284 0.33834672 -0.020997524
0.14286384 -0.27940828 0.1386385
0.13240184 0.22808975 0.08290863
0.13128585 0.0097997189 0.16818047
0.13625884 0.44261876 -0.21169662
0.13356385 -0.50006431 -0.0058264732
0.12656684 0.20066172 0.098364353
0.12674585 0.22818375 0.083751678
0.12763284 0.31165475 0.011145592
0.12798485 0.33864772 -0.017649651
0.12864083 0.37610072 -0.071373463
0.12565684 -0.16361326 0.17285538
0.12047484 0.12244177 0.13901329
0.12109284 0.22827673 0.084596634
0.12012984 0.0099897385 0.16942644
0.12223984 0.33874673 -0.016535759
0.12284884 0.37619472 -0.070236683
0.12440784 0.44289574 -0.20765257
0.12008484 -0.16350728 0.17343426
0.11455784 0.01004374 0.16975641
0.11451384 -0.16340131 0.17401552
0.11711484 -0.56330627 -0.074370384
0.10905884 0.045619726 0.16254759
0.11184084 0.41410074 -0.12718248
0.10986284 -0.40930921 0.078792572
0.10942484 -0.33314723 0.12446547
0.10356684 0.091462731 0.15315866
0.10414284 0.22855377 0.087128639
0.10337484 -0.16319221 0.17517328
0.10546284 -0.5610283 -0.064096451
0.097787842 -0.023968279 0.17800331
0.098540843 -0.40862328 0.082113266
0.098181844 -0.33250529 0.12773943
0.097786844 -0.10669827 0.17804432
0.092484839 0.12272072 0.14108324
0.09309084 0.26768577 0.054195404
0.092313841 -0.2169742 0.16554546
0.087215841 0.22865874 0.088028431
0.087655842 0.31211174 0.015945435
0.086735845 -0.2167992 0.16651535
0.081296846 0.12277174 0.14144039
0.081099838 -0.023810267 0.17899752
0.082095847 0.33922273 -0.011194706
0.081958845 -0.49554521 0.015019417
0.07577984 0.15875775 0.12378359
0.076538838 -0.5579502 -0.050255775
0.070028841 0.045960724 0.16487265
0.071027845 0.41453275 -0.12138748
0.07007584 -0.27697021 0.15133762
0.069972843 -0.10622126 0.18093634
0.064915843 0.33926874 -0.010712624
0.065057844 0.37665576 -0.064695358
0.064833842 -0.49428529 0.020895481
0.058858842 -0.16238827 0.17980242
0.05330484 0.010594726 0.17340469
0.053512841 0.37668276 -0.064364433
0.053560842 0.41464573 -0.11984539
0.053629842 0.44355375 -0.19813633
0.047738843 0.37669575 -0.06419754
0.047738843 0.47614273 -0.36825371
0.047738843 -0.40662831 0.091848373
0.047738843 -0.10585326 0.18324852
0.042185843 -0.064498246 0.18549967
0.03658184 0.091991723 0.15716124
0.03661184 0.010731757 0.17440224
0.036336839 0.31221175 0.016960621
0.035673842 0.47645274 -0.36305952
0.036548842 -0.33049029 0.13813734
0.036613841 -0.21527225 0.17521334
0.030966841 0.12297273 0.1430583
0.030078841 0.44369274 -0.19601774
0.030954842 -0.33043021 0.13846636
0.025068842 0.26782674 0.055547237
0.025485842 0.010819733 0.17506838
0.024934841 0.31222874 0.017190456
0.024652841 0.37674576 -0.063525677
0.019784842 0.12301177 0.14342165
0.019955842 -0.023283243 0.18264437
0.014194842 0.12303072 0.14360237
0.01440084 -0.023239255 0.18297768
0.012824841 0.41476974 -0.11801672
0.011595841 0.47706974 -0.3526597
0.0086968392 0.092186749 0.1588335
0.00827384 0.22881877 0.089600563
0.0078338422 0.31225276 0.017535686
0.0073418394 0.37677872 -0.063013554
0.0083248429 -0.4054262 0.097957611
0.0086878426 -0.2758792 0.15740252
0.0088088401 -0.21495324 0.17716265
0.0065448396 -0.65415722 -0.1934104
0.0031218417 0.092223763 0.15916824
-0.0022181608 -0.063924253 0.18952656
-0.0037751608 0.33941972 -0.0087313652
-0.0046301596 0.41479874 -0.11749458
-0.0064401589 0.47733873 -0.3480444
-0.0029241592 -0.40509325 0.099695683
-0.0022381581 -0.10529828 0.18699455
-0.0085021593 0.20144874 0.10549068
-0.01110116 0.44392374 -0.19228745
-0.0081951581 -0.33003622 0.14075851
-0.014598157 0.26787877 0.056353569
-0.015738159 0.37681776 -0.062322617
-0.016980156 0.44395575 -0.19175243
-0.018508159 0.47715974 -0.35093069
-0.014166158 -0.40476424 0.10143137
-0.01533816 -0.55151731 -0.020686626
-0.018936157 -0.023226261 0.18333054
-0.02034016 -0.4883582 0.049188614
-0.025549158 0.22886074 0.090297699
-0.025932156 0.26788974 0.056585312
-0.027899161 0.41483274 -0.11679173
-0.024966158 -0.3298822 0.14173651
-0.024492159 -0.16184527 0.18349457
-0.024453156 -0.10533828 0.18695354
-0.030741163 0.15905476 0.1268115
-0.036124162 0.12300074 0.14381838
-0.035617158 -0.023361266 0.18258524
-0.035705157 0.010859728 0.1758666
-0.042676158 0.47679976 -0.3566823
-0.036634162 -0.40412122 0.10489035
-0.035605162 -0.1618703 0.18347454
-0.038233161 -0.5508303 -0.017293453
-0.041731156 -0.32973725 0.14270926
-0.041209161 -0.21453625 0.18006945
-0.041162156 -0.16188425 0.18346453
-0.041114159 -0.10537624 0.18691969
-0.048123159 0.22868174 0.088842392
-0.048621155 0.26773077 0.055221558
-0.049583159 0.33930475 -0.0095863342
-0.05351916 0.20127773 0.1044426
-0.052184157 -0.064026237 0.18943357
-0.054903157 0.31208676 0.016349316
-0.052223161 -0.10540527 0.18690157
-0.058521159 0.12274975 0.1420536
-0.059424162 0.22853774 0.087617397
-0.05809316 0.046248734 0.16788626
-0.064164162 0.44348475 -0.19824934
-0.066886157 0.47643575 -0.3624115
-0.065075159 0.22846574 0.087007523
-0.066803157 0.33908272 -0.011946678
-0.070072159 0.44341174 -0.19926262
-0.063449159 -0.2145732 0.18021059
-0.066823162 -0.55000526 -0.013095379
-0.068847157 -0.06412828 0.18903828
-0.069344155 -0.27522725 0.16193247
-0.075031161 -0.6440683 -0.14834833
-0.068887159 -0.10545427 0.18686962
-0.07504116 0.091665745 0.15571928
-0.075664163 0.15857077 0.12326145
-0.074822158 0.046110749 0.16714048
-0.079339154 0.37629873 -0.068106651
-0.080124162 -0.023752272 0.18059969
-0.084036164 0.33885777 -0.014303684
-0.086247154 0.41422275 -0.12443876
-0.080852158 -0.32955927 0.14431047
-0.079998158 -0.10549128 0.18684769
-0.086538158 0.12242377 0.13985348
-0.086904161 0.15844375 0.12237549
-0.088392161 -0.48813421 0.051316261
-0.094924159 0.31163377 0.011973381
-0.098147161 0.15831572 0.12149048
-0.096642159 -0.064399242 0.18780136
-0.096823163 -0.023909271 0.17985344
-0.09765216 -0.32981724 0.14331341
-0.097216152 -0.27522427 0.16252041
-0.10391317 -0.64059728 -0.13259172
-0.096743159 -0.16206926 0.18336344
-0.10239216 -0.023963273 0.17960644
-0.10255016 0.010279715 0.17288446
-0.10832416 0.37593973 -0.072104454
-0.10325516 -0.32990521 0.14298058
-0.10222215 -0.10557324 0.18680334
-0.10776616 -0.064512253 0.18730831
-0.11033716 0.22786874 0.082122326
-0.11116015 0.26696277 0.048425674
-0.11548515 0.41388574 -0.12851238
-0.10885816 -0.32999426 0.14264727
-0.11108316 -0.48818725 0.051580429
-0.11419915 0.091175735 0.15266037
-0.11554316 0.20061874 0.099537373
-0.11675616 -0.48820323 0.051645279
-0.12018915 0.12201375 0.13721848
-0.12118816 0.20055473 0.099092484
-0.12355115 0.31129676 0.0088524818
-0.12094115 -0.40372831 0.10850525
-0.12242915 -0.48822027 0.051709652
-0.12539715 0.091029763 0.15178823
-0.12580317 0.12194377 0.13678169
-0.13006115 0.33824074 -0.020575523
-0.12515116 -0.27565223 0.16086435
-0.12810317 -0.48823923 0.051771641
-0.14621615 0.47446975 -0.39351749
-0.13531417 -0.54817921 -0.0032143593
-0.13659716 0.090882719 0.15091753
-0.13753417 0.15784872 0.11840153
-0.13581315 -0.024301231 0.17812443
-0.13866717 0.22748077 0.079079628
-0.13963816 0.26659477 0.045349598
-0.14219916 0.090807736 0.15048361
-0.14316416 0.15777975 0.11796045
-0.14118016 -0.065021276 0.18481541
-0.14192116 -0.27592129 0.15986347
-0.14144415 -0.21563321 0.1759305
-0.14698917 -0.02456224 0.17663765
-0.14717916 0.0097737312 0.17042446
-0.14906216 -0.40382522 0.10881662
-0.16235214 0.41332975 -0.13501835
-0.15310615 -0.27610523 0.15919638
-0.15261817 -0.21590322 0.17471552
-0.15233615 -0.10627526 0.18369341
-0.15647316 -0.48835129 0.052071571
-0.15794215 -0.065474272 0.18231344
-0.17764217 0.47237575 -0.4276104
-0.16031215 -0.40387231 0.1089344
-0.15932116 -0.33084029 0.13963032
-0.15820715 -0.21603924 0.17410946
-0.16392517 -0.54830223 -0.002913475
-0.16214716 -0.48837727 0.052130699
-0.16353217 -0.065626264 0.18148041
-0.16429415 -0.27629322 0.15852737
-0.16365317 -0.16329128 0.1778326
-0.17388615 0.26605576 0.040787697
-0.16958615 0.0092127323 0.16707468
-0.17519414 0.31058776 0.0023813248
-0.17812917 0.37487376 -0.083846569
-0.19030115 0.47153074 -0.44132471
-0.17472017 -0.065933228 0.17981243
-0.17844316 0.22674876 0.073191643
-0.17519414 0.0090697408 0.16623545
-0.18399015 0.37471676 -0.085665703
-0.18342716 0.19959772 0.092056274
-0.18031517 -0.066088259 0.17897749
-0.18080115 0.0089277625 0.1653986
-0.18177217 -0.33124322 0.13828039
-0.18719316 0.089718759 0.14324236
-0.18591315 -0.066243231 0.1781435
-0.18664816 0.044501722 0.1580925
-0.18738717 -0.33134526 0.13794327
-0.18617216 -0.21673328 0.17106867
-0.18601316 -0.16382128 0.17540359
-0.19065517 -0.48928827 0.048814297
-0.19178915 -0.025740266 0.16994667
-0.19836816 -0.54909223 -0.0053167343
-0.19904014 0.12040573 0.12632942
-0.20746318 0.37408572 -0.092943668
-0.20985317 0.30973876 -0.0059585571
-0.20279917 -0.16422826 0.17357826
-0.20261616 -0.10740626 0.17823648
-0.20986018 -0.5493682 -0.0061335564
-0.20976216 0.089076757 0.13896656
-0.21035618 0.12009573 0.12418032
-0.20886916 0.0082027316 0.16120434
-0.21563917 0.30959576 -0.0073485374
-0.22178715 0.41136876 -0.16042042
-0.22520417 0.44005775 -0.24550962
-0.21106017 -0.40469831 0.10665655
-0.20985818 -0.33176821 0.13658333
-0.21984616 0.26483876 0.029801369
-0.22510716 0.37360775 -0.098412514
-0.22776118 0.41116375 -0.16306734
-0.21468717 -0.27718621 0.1554985
-0.22168016 0.11978275 0.12203026
-0.22029117 -0.27729028 0.15515852
-0.21959618 -0.16464227 0.17175245
-0.22895616 0.19847775 0.083348274
-0.22515017 -0.067353249 0.17229748
-0.22546616 -0.026654243 0.16492128
-0.23136416 0.26452976 0.027052402
-0.22573218 0.0077597499 0.15868664
-0.23972616 0.41075075 -0.16836548
-0.22806016 -0.40531427 0.10429144
-0.22590917 -0.2774412 0.15456629
-0.22519916 -0.16478127 0.17114449
-0.23285517 -0.54993731 -0.0077886581
-0.23465717 0.19833475 0.082259655
-0.23135716 0.007609725 0.15784645
-0.24033818 0.33562475 -0.047867775
-0.23080316 -0.1649223 0.17053461
-0.23059916 -0.10806227 0.17519665
-0.23802516 0.08826077 0.1336174
-0.24036017 0.19819176 0.081169605
-0.24868315 0.37296277 -0.10571671
-0.23940116 -0.40573031 0.10271168
-0.24905816 -0.63748723 -0.11412239
-0.23640817 -0.1650632 0.16992426
-0.25041616 0.30872577 -0.015701771
-0.25499016 -0.63807422 -0.11642456
-0.25011417 -0.55038029 -0.0090475082
-0.25286016 0.22463375 0.055527687
-0.24824116 0.0071587563 0.15532637
-0.26049316 0.37263775 -0.10937166
-0.25751317 0.19769877 0.077332497
-0.26640415 0.37247473 -0.11120176
-0.27376616 0.43847874 -0.26729345
-0.25642917 -0.40636426 0.10033035
-0.26138917 0.11866874 0.11450052
-0.26222017 0.15489376 0.097204685
-0.26598617 0.26358974 0.018801689
-0.26634517 0.087428749 0.12826538
-0.26896816 0.19735175 0.074631691
-0.28135616 0.33441073 -0.060428619
-0.28778815 0.40907973 -0.18961668
-0.28472218 -0.64105529 -0.1280427
-0.27844316 0.11818177 0.11126947
-0.28723216 0.33423573 -0.062227726
-0.27919316 -0.40736228 0.096468449
-0.27671915 -0.27956229 0.14529753
-0.27613115 -0.21986431 0.15691423
-0.28226218 -0.49287421 0.035883427
-0.28336617 0.086920738 0.12505054
-0.28502518 0.15427274 0.092870235
-0.28617316 0.19682676 0.070577621
-0.28210217 0.0061377287 0.14957428
-0.29112315 0.30768973 -0.025462627
-0.30467716 0.43697774 -0.28848457
-0.29665115 -0.64226729 -0.1327405
-0.28712416 -0.069544256 0.1606226
-0.29491717 0.26279175 0.011916637
-0.29694918 0.30753976 -0.02685833
-0.29900315 0.33386576 -0.066037655
-0.28914016 -0.33521122 0.12214756
-0.28715816 -0.16711229 0.15996552
-0.29315418 -0.02891624 0.15238047
-0.30280516 0.30734575 -0.028742313
-0.30800918 0.37113374 -0.12641764
-0.30050117 0.086192727 0.12010956
-0.30472016 0.22300577 0.042202473
-0.31401217 0.37087977 -0.1293726
-0.31848416 0.40737775 -0.21193838
-0.30502915 -0.28077823 0.1401186
-0.30444717 -0.22120029 0.15069437
-0.31392717 -0.5538252 -0.021568775
-0.30982018 -0.070602238 0.15478468
-0.31635717 0.22249675 0.037863255
-0.32603717 0.37036973 -0.13528776
-0.31978115 -0.55429524 -0.023389339
-0.33205816 0.37011474 -0.1382494
-0.32524917 0.15271974 0.081395626
-0.32225418 0.040388763 0.13332939
-0.32486716 -0.40955323 0.088014603
-0.33001617 0.11610574 0.096713543
-0.32687315 -0.071404278 0.15039825
-0.32727218 -0.030447245 0.14359665
-0.33384216 0.22172874 0.03134346
-0.33836818 0.30564976 -0.045965672
-0.33063117 -0.40998429 0.086196423
-0.33434215 -0.4962433 0.022810459
-0.33640116 -0.41041726 0.084374428
-0.34256315 0.15200174 0.076094627
-0.33826017 -0.071944237 0.14747047
-0.33901817 0.0036787391 0.13489437
-0.35026917 0.30507874 -0.051725388
-0.36187416 0.40490374 -0.24422455
-0.34217417 -0.41085225 0.082552433
-0.35659617 -0.6485042 -0.15667152
-0.34911317 -0.5566743 -0.032547474
-0.34599018 -0.49714226 0.019253254
-0.34639716 0.084119737 0.10611963
-0.34834117 0.15176076 0.074324608
-0.34395716 -0.072215259 0.14600658
-0.35181916 -0.4975943 0.017472267
-0.36219215 0.30450577 -0.057492733
-0.35183915 -0.33831924 0.10937643
-0.36864716 -0.64978629 -0.16154432
-0.34954917 -0.16995722 0.14628744
-0.36087316 -0.55763823 -0.036232471
-0.35991117 0.15127677 0.070784569
-0.37482816 -0.65096623 -0.16631937
-0.36349016 -0.49850231 0.013905525
-0.36366916 0.083329737 0.10085964
-0.36570117 0.15103477 0.069013596
-0.36743817 0.19325674 0.041783333
-0.36128616 -0.22394425 0.13821459
-0.36759618 0.0024187565 0.12752342
-0.39313817 0.40311274 -0.26746035
-0.36698616 -0.22422427 0.13696241
-0.37517416 -0.49941629 0.010331631
-0.37249416 -0.073584259 0.13866854
-0.38067016 0.21965176 0.013915539
-0.37232217 -0.17101926 0.14129448
-0.37205318 -0.11392421 0.14538765
-0.39868018 0.36726177 -0.1709857
-0.38675117 0.082266748 0.093839645
-0.39242417 0.21912575 0.0095462799
-0.38533017 0.037443757 0.11495066
-0.40084818 0.32919872 -0.11563969
-0.39253116 0.081999719 0.092081547
-0.39109117 0.037162721 0.11320543
-0.41294217 0.32863772 -0.12151957
-0.39496815 -0.11519629 0.13877726
-0.40808916 -0.56160122 -0.051239491
-0.40159917 -0.033885241 0.12434435
-0.42574218 -0.66421229 -0.22091961
-0.40074018 -0.11559325 0.1366334
-0.41175318 -0.41617328 0.060551643
-0.43217218 -0.66589731 -0.22784376
-0.41273618 -0.075856268 0.12623835
-0.43599117 0.36495572 -0.19819069
-0.41757616 -0.4166252 0.058707237
-0.42154717 0.080546737 0.082453251
-0.42260316 0.11194074 0.067910671
-0.42003617 0.035585761 0.10328054
-0.42340416 -0.41707927 0.056860447
-0.43227616 -0.56507629 -0.065410614
-0.44358817 0.32687277 -0.14041948
-0.42387417 -0.11719221 0.12804031
-0.43326816 0.079816759 0.077453613
-0.44238618 0.25643474 -0.04524374
-0.46438816 0.39751074 -0.34132051
-0.43507317 -0.41799122 0.053163528
-0.43278718 -0.34420222 0.08391428
-0.42991316 -0.17476422 0.12259626
-0.43756717 0.034432769 0.095828533
-0.44342116 0.034045756 0.093340397
-0.45201316 0.11017674 0.05533123
-0.44803217 -0.036845267 0.10706139
-0.45777318 0.21567774 -0.019523621
-0.46651617 0.25506276 -0.05777359
-0.45514414 0.033270717 0.088358402
-0.47459319 0.32490772 -0.16155148
-0.45362517 -0.23032027 0.10788345
-0.45289519 -0.11921531 0.11726141
-0.46791115 0.18785375 -0.0017585754
-0.46004918 -0.29030222 0.09814024
-0.47862217 0.25437176 -0.06405735
-0.46772215 -0.34680122 0.072907448
-0.46470019 -0.17713326 0.11089039
-0.47991517 0.18709475 -0.0079307556
-0.47036418 -0.12044221 0.11077452
-0.48713514 -0.5730502 -0.097671509
-0.47763416 -0.0037192702 0.090929508
-0.50732714 0.35865873 -0.27413368
-0.47952315 -0.34796721 0.067711353
-0.47632918 -0.1779322 0.1069746
-0.49326816 -0.57395023 -0.10128975
-0.48891619 0.14476073 0.022723675
-0.48253819 -0.080539227 0.10029268
-0.49682716 0.25332874 -0.073504448
-0.48272118 -0.23241824 0.09807539
-0.49490616 0.14435774 0.019661427
-0.51208615 0.32251877 -0.18708563
-0.52048212 0.35749274 -0.28812456
-0.49136415 -0.34918028 0.062290668
-0.48855415 -0.23284131 0.096108437
-0.50400215 0.18556577 -0.020311356
-0.49423918 -0.08133328 0.095946312
-0.49439517 -0.23327321 0.09409523
-0.50529116 0.10694373 0.032550335
-0.51003915 0.18518174 -0.023412704
-0.51517111 0.25219077 -0.083889484
-0.50107712 -0.0051852465 0.082205296
-0.53372014 0.35629576 -0.30249548
-0.50611717 -0.42519826 0.022807598
-0.51205713 -0.51374131 -0.047193527
-0.51123714 0.10658073 0.03000927
-0.51810914 -0.51447529 -0.050152302
-0.51236916 -0.041017234 0.083138466
-0.51140314 -0.18050522 0.094287395
-0.53980911 0.29380876 -0.16551161
-0.55442911 0.35382873 -0.33261633
-0.52405715 -0.4271602 0.014541626
-0.51887113 -0.29561323 0.073806286
-0.51732016 -0.1810413 0.091545582
-0.52780712 0.073845744 0.037141323
-0.53097916 0.14191973 0.0012454987
-0.52360916 -0.083400249 0.08464241
-0.52593714 0.028535724 0.05829668
-0.53005612 -0.042241275 0.076126575
-0.54249215 0.21050376 -0.0632267
-0.52992415 -0.23665327 0.077600479
-0.54238713 -0.51743525 -0.062041759
-0.58674812 0.34672576 -0.42163849
-0.56241816 -0.58683723 -0.15429974
-0.55530816 0.14008874 -0.012714386
-0.56102115 0.20914376 -0.074892521
-0.54989612 0.026656747 0.046181679
-0.57731313 0.31659877 -0.2521944
-0.55593216 0.026140749 0.042816639
-0.55373114 -0.23893625 0.066544533
-0.55992812 -0.044747233 0.061308384
-0.57346815 0.20817173 -0.083280563
-0.55888915 -0.12762123 0.072405338
-0.57380515 0.13849574 -0.025052547
-0.56539315 -0.087063253 0.063937664
-0.56649512 -0.010101259 0.052282333
-0.57408512 0.02458477 0.032699585
-0.59606415 0.17882276 -0.075357437
-0.59580511 0.10050577 -0.013183594
-0.58996314 -0.047286272 0.046401501
-0.61028314 0.24402177 -0.16084051
-0.58878314 -0.18757921 0.058429241
-0.61430115 -0.59828621 -0.20181847
-0.60478413 -0.5276863 -0.10476446
-0.59543216 -0.089719236 0.049049377
-0.61102712 0.20522577 -0.10858059
-0.61676311 0.24341577 -0.16655874
-0.59655911 -0.30349022 0.037665367
-0.60202312 -0.048311234 0.040416241
-0.60285515 -0.013359249 0.032079697
-0.60448414 0.021966755 0.015762329
-0.60257715 -0.3041063 0.034866333
-0.62361813 0.20423472 -0.11705732
-0.60868913 -0.30488425 0.031195641
-0.60693413 -0.13205022 0.048625469
-0.61884111 0.066644728 -0.0121665
-0.62165713 -0.43988425 -0.039894581
-0.62281215 0.020380735 0.0055594444
-0.62378514 -0.36406022 -0.0039377213
-0.61901212 -0.13317126 0.042644501
-0.63637316 -0.53300029 -0.12679338
-0.62484711 -0.19092327 0.041714668
-0.65589112 0.23974776 -0.20107031
-0.63097113 -0.19163221 0.038033485
-0.63819414 -0.24772328 0.023970604
-0.63722211 -0.13493127 0.033218384
-0.64960313 0.064115763 -0.029343605
-0.65894812 0.17366272 -0.11751842
-0.64735115 0.01824975 -0.0080933571
-0.64556015 -0.30963725 0.0088014603
-0.64325011 -0.19306523 0.030601501
-0.69140816 -0.63587528 -0.36617661
-0.66403615 0.094632745 -0.055487633
-0.67559612 0.19903076 -0.16277266
-0.65976411 0.017057717 -0.015839577
-0.67578512 -0.54183024 -0.16453075
-0.67045212 0.09390974 -0.060869694
-0.67829812 0.17178774 -0.13309336
-0.68234116 0.19818974 -0.17030859
-0.67194015 -0.44786125 -0.07456255
-0.66286016 -0.25075525 0.0090146065
-0.68050611 0.12885273 -0.099369526
-0.71235716 0.27253973 -0.39020157
-0.68465215 -0.44996625 -0.08371973
-0.67651415 -0.31365424 -0.01000452
-0.69347012 0.12745476 -0.11029673
-0.70948714 0.19480175 -0.20062637
-0.69125116 0.01368475 -0.038050652
-0.69356012 -0.099624276 -0.0069737434
-0.69388014 -0.25459129 -0.0098056793
-0.70632416 0.058527768 -0.068143368
-0.71087611 -0.45541626 -0.10809374
-0.71269512 0.057878733 -0.072651386
-0.71953917 0.12463772 -0.13226652
-0.70606416 -0.10101825 -0.014905453
-0.70634711 -0.25613922 -0.017373562
-0.73150313 0.16568673 -0.18460035
-0.73689812 0.19137275 -0.2312274
-0.72546113 0.056575716 -0.081683636
-0.73068815 -0.45954627 -0.12652063
-0.71762311 -0.20182127 -0.014457703
-0.76266712 0.22458875 -0.34846544
-0.72670013 -0.32054025 -0.042293549
-0.73117715 -0.10382628 -0.030830383
-0.74837714 0.08507973 -0.12623262
-0.76458114 0.18790275 -0.26212072
-0.74214113 0.0082007647 -0.073932648
-0.75062412 -0.46371323 -0.14507151
-0.73689812 -0.14649028 -0.029965401
-0.75007015 -0.38321322 -0.091133595
-0.74430615 -0.26134628 -0.04315567
-0.77598214 -0.57421023 -0.30683565
-0.75010514 -0.10595125 -0.042833328
-0.75103211 -0.063616276 -0.050498486
-0.77895814 0.18578273 -0.2812624
-0.76398414 -0.46651524 -0.15752268
-0.75074416 -0.26233321 -0.0481143
-0.77227813 0.11889577 -0.1768446
-0.77122712 0.051179767 -0.11974573
-0.77911812 0.11799175 -0.18401241
-0.78740913 0.15787977 -0.25153637
-0.76965415 -0.38664728 -0.1069293
-0.78597212 0.11708575 -0.19119453
-0.79469216 0.15670675 -0.2617054
-0.78480113 0.049225748 -0.13383961
-0.79284215 0.11617577 -0.19839573
-0.80199814 0.15552872 -0.27190542
-0.77708012 -0.067111254 -0.071852684
-0.78276813 -0.38895327 -0.1175127
-0.78197515 -0.15264326 -0.064087391
-0.80529416 -0.47644621 -0.20226049
-0.81420714 0.11284077 -0.22525263
-0.82406014 0.15197074 -0.30270433
-0.79552114 -0.1120773 -0.078365326
-0.79502016 -0.15450329 -0.074427605
-0.83888513 0.14957672 -0.32339573
-0.82663912 -0.48220628 -0.22845745
-0.81609911 -0.39527124 -0.14674759
-0.82982016 0.07432276 -0.20664263
-0.81573516 -0.27235025 -0.098192692
-0.85571814 0.14559174 -0.35882664
-0.82773513 -0.0025012493 -0.14482832
-0.85094911 0.10657674 -0.27601767
-0.83160216 -0.33860725 -0.12906456
-0.85836816 0.10530972 -0.28626442
-0.85769016 0.070440769 -0.2356863
-0.84031612 -0.21925431 -0.10547447
-0.86469913 0.069462717 -0.24298859
-0.87056416 -0.49494129 -0.28665733
-0.85915416 -0.3443802 -0.15732861
-0.85438615 -0.1630972 -0.12206078
-0.86381316 -0.079514265 -0.14776468
-0.86866313 -0.0082702637 -0.18340254
-0.88209713 0.034787774 -0.23777866
-0.87079513 -0.080716252 -0.15527153
-0.87296915 -0.045571268 -0.17114353
-0.86757714 -0.22416431 -0.13178062
-0.86809117 -0.16547424 -0.13553238
-0.87534714 -0.12356228 -0.14504766
-0.88319111 -0.010957241 -0.20193768
-0.88544315 -0.41051024 -0.21827269
-0.89049011 -0.012309253 -0.21125031
-0.88186115 -0.16786522 -0.1490674
-0.89184713 -0.084344268 -0.17789936
-0.89780813 -0.013664246 -0.22058535
-0.89396316 -0.35169822 -0.19305277
-0.89033711 -0.28591424 -0.16708755
-0.88876814 -0.16906625 -0.15585756
-0.91156316 0.02960676 -0.27559757
-0.93787414 0.084184766 -0.46280861
-0.89889812 -0.085561275 -0.18547869
-0.90514815 -0.015025258 -0.22995043
-0.90097415 -0.3531763 -0.20025158
-0.89515913 -0.22922426 -0.15887737
-0.90958416 -0.17268831 -0.1763134
-0.91809815 -0.29119521 -0.19392872
-0.93442214 -0.091701269 -0.22365046
-0.93054515 -0.17634326 -0.19691133
-0.94158012 -0.092940271 -0.23134041
-0.94965911 -0.023286283 -0.28672266
-0.94875711 -0.094183266 -0.23905373
