# .PCD v0.7 - Point Cloud Data file format
VERSION 0.7
FIELDS x y z
SIZE 4 4 4
TYPE F F F
COUNT 1 1 1
WIDTH 1
HEIGHT 1024
VIEWPOINT 0 0 0 1 0 0 0
POINTS 1024
DATA ascii
0.62974179 0.74181068 -0.39232826
0.61337578 0.74241668 -0.34391403
0.57660574 0.54655874 -0.3847971
0.56889176 0.62511671 -0.30004025
0.57091677 0.23573267 -0.38620996
0.56546277 0.65662873 -0.32569695
0.56413174 0.068742692 -0.37536001
0.56082177 0.50408769 -0.33826494
0.56261677 0.26797867 -0.35837793
0.55279374 0.62671471 -0.24831724
0.54802179 0.7442987 -0.19484711
0.55284774 0.50532168 -0.31336308
0.54426378 0.71099168 -0.21623421
0.55823976 -0.21352625 -0.37439108
0.54841876 0.035206676 -0.32849216
0.54991078 -0.16642028 -0.34554911
0.54756576 0.15053368 -0.31874228
0.54688478 0.24254769 -0.31096411
0.54666579 0.27227068 -0.30845213
0.54635578 0.31411368 -0.30491304
0.54204077 0.65844572 -0.25558901
0.54579777 0.3895857 -0.29853296
0.53966779 0.15312672 -0.293993
0.54311079 -0.31870329 -0.33374596
0.54271173 -0.26410127 -0.32914114
0.53265375 0.041267693 -0.27903414
0.53117377 0.24700171 -0.2617712
0.53018779 0.3928557 -0.25027227
0.53652775 -0.49704635 -0.32422495
0.53818679 -0.72739029 -0.34357405
0.52426177 0.12878072 -0.24752331
0.52349079 0.47722471 -0.23843193
0.53187579 -0.94391429 -0.33725023
0.52698976 -0.25573635 -0.2796669
0.51770878 0.013255715 -0.2372551
0.51765478 0.046479702 -0.23661137
0.51821476 -0.10826629 -0.24327612
0.51366478 0.58516771 -0.18909121
0.52353477 -0.86853731 -0.30663204
0.52000976 -0.36501527 -0.26466131
0.52246279 -0.71543336 -0.29386616
0.51881176 -0.19367528 -0.25038815
0.51441079 -0.6687783 -0.2659173
0.50407678 0.3956807 -0.20960236
0.50594378 -0.55100036 -0.2323041
0.49771973 0.3224687 -0.20094633
0.49414471 0.6296097 -0.15698814
0.49248073 0.71243972 -0.13653517
0.48999175 0.74543768 -0.10593224
0.49981871 -0.77073526 -0.2267499
0.49851975 -0.18724132 -0.21078825
0.49199072 -0.1439293 -0.19990301
0.49144772 0.20594668 -0.19315624
0.49120173 0.36413971 -0.19010115
0.49239472 -0.40518332 -0.20493126
0.48898074 -1.0652653 -0.16248989
0.49357072 -0.96976733 -0.21954203
0.48554572 -0.14235032 -0.18985319
0.48143676 0.58713669 -0.13821411
0.48234573 -1.0613343 -0.14963627
0.48560974 -0.18394029 -0.19065332
0.47340575 0.71297169 -0.10718012
0.47140974 0.74574769 -0.081818104
0.47168174 0.55639368 -0.15647936
0.47294775 -0.28988826 -0.17274427
0.47331873 -0.53887033 -0.17751312
0.46627975 -0.095634282 -0.15908813
0.46622673 -0.060194314 -0.15840912
0.46617272 -0.023449302 -0.15770197
0.46575874 0.25711668 -0.152318
0.46230173 0.63117671 -0.10739708
0.46709073 -0.64593732 -0.16963005
0.46699974 -0.58404732 -0.16844511
0.45997974 -0.13609028 -0.1499691
0.45930472 0.32733369 -0.14108801
0.45616072 0.63142073 -0.099765301
0.46035773 -0.39522135 -0.15493536
0.46108574 -0.89620829 -0.1645031
0.46098974 -0.83037627 -0.16324615
0.45357972 -0.092663288 -0.13927603
0.45307472 0.25894469 -0.13255119
0.44919673 0.71345568 -0.080979347
0.45442474 -0.68056929 -0.15051413
0.45378074 -0.23209429 -0.14194632
0.44704673 0.060282707 -0.12652826
0.44666573 0.32893071 -0.12139702
0.44660872 0.36932069 -0.12062502
0.44170773 0.74610567 -0.054672241
0.44102272 -0.1314553 -0.12039328
0.44053873 0.21389872 -0.11380625
0.44047374 0.26075971 -0.11291313
0.44208172 -0.88788533 -0.13480806
0.43454474 0.10026968 -0.10784626
0.43452173 0.14444172 -0.10752916
0.43468672 -0.088248312 -0.10980415
0.43448573 0.2145887 -0.10702515
0.43434474 0.48467869 -0.10508108
0.43438673 0.40289068 -0.10566998
0.43436572 0.44313771 -0.10538197
0.43141174 0.71375972 -0.064670086
0.42861775 0.063288689 -0.10269403
0.42871675 -0.12888128 -0.10407591
0.42856175 0.17361867 -0.10190201
0.42848074 0.33062869 -0.10077429
0.42401674 0.74631768 -0.038504124
0.42882374 -0.33479834 -0.10555601
0.42917073 -0.63177025 -0.11040306
0.42276073 -0.08648932 -0.098362923
0.42262873 0.17421371 -0.096491337
0.42260674 0.21570468 -0.096194267
0.42303672 -0.62981236 -0.10226393
0.42300573 -0.5687623 -0.10182619
0.41685775 -0.1271373 -0.093255043
0.41557273 -0.99013531 -0.074886322
0.41726273 -0.93487334 -0.099050999
0.41077372 0.2168147 -0.085403919
0.40785074 0.71416068 -0.043066025
0.40642574 0.74652767 -0.022426128
0.40976775 -0.9888593 -0.070831299
0.41099173 -0.22278929 -0.088552952
0.40481773 0.3324267 -0.07919836
0.40479773 0.37249669 -0.078912258
0.39907074 0.034446716 -0.075962067
0.39685273 0.59087068 -0.043008327
0.39474973 0.74666667 -0.01175499
0.39820474 -0.98641634 -0.063088894
0.39319074 0.035163701 -0.070600033
0.39326674 -0.12367731 -0.071734905
0.39294174 0.5603497 -0.06684494
0.39352173 -0.66198635 -0.075586319
0.38732174 0.035878718 -0.065246105
0.38739574 -0.12281829 -0.066380024
0.38735974 -0.046688318 -0.065835953
0.38709572 0.51806772 -0.061800003
0.38718173 0.33376369 -0.063118935
0.38146272 0.036591709 -0.059903145
0.37929973 0.59152269 -0.026463032
0.38132474 0.3342067 -0.057778358
0.38129175 0.40632468 -0.057264328
0.38127375 0.44624269 -0.056979179
0.37558073 0.1068297 -0.05407095
0.37568474 -0.12110633 -0.055696964
0.37566572 -0.079888284 -0.055403233
0.37554872 0.17892069 -0.053556919
0.37552974 0.22011071 -0.053264141
0.37540773 0.4877477 -0.051353931
0.37544474 0.40670168 -0.051933289
0.37588373 -0.55865633 -0.058822155
0.36977473 0.03801167 -0.04924202
0.36984575 -0.12025332 -0.05037117
0.36982775 -0.07907331 -0.050076008
0.36957374 0.4880507 -0.046036243
0.36967275 0.26694572 -0.04761219
0.36703074 0.7148537 -0.005628109
0.36991173 -0.26765335 -0.051422119
0.36988872 -0.21616125 -0.051054001
0.36399972 -0.078260303 -0.044761181
0.36185074 0.59216571 -0.0101161
0.36376774 0.44726169 -0.041019917
0.36415973 -0.43905735 -0.047336102
0.36372474 -0.9792583 -0.040325165
0.36410773 -0.32326734 -0.046508312
0.36423773 -0.61666036 -0.048604012
0.36403573 -0.15992731 -0.045342922
0.35810074 0.10876471 -0.03812933
0.35808173 0.15241671 -0.037818909
0.35806975 0.18065971 -0.03761816
0.35802272 -0.97815931 -0.036842346
0.35846373 -0.7234093 -0.044063091
0.35837072 -0.50863326 -0.042531013
0.35231173 0.072202682 -0.033099174
0.35227674 0.15301871 -0.032525063
0.35239273 -0.11771029 -0.034452915
0.35236073 -0.041991293 -0.033913136
0.35074672 0.63442469 -0.0071482658
0.35271272 -0.86084735 -0.039749146
0.35248074 -0.32120728 -0.035903931
0.35256073 -0.50743628 -0.037230015
0.34646875 0.1818127 -0.027038097
0.34656274 -0.041216314 -0.028625965
0.34654772 -0.0053192973 -0.028369904
0.34643173 0.2689417 -0.026420116
0.34684974 -0.72063327 -0.033464909
0.34076172 -0.0045782924 -0.023095131
0.33873475 0.59301472 0.011534691
0.34111673 -0.85782826 -0.029166222
0.34105974 -0.71925032 -0.028180122
0.34103075 -0.64997733 -0.027687073
0.33490974 0.18295771 -0.016501904
0.33478475 0.48984769 -0.014321327
0.33483073 0.37734669 -0.015120029
0.33428374 0.6651237 -0.0056409836
0.33480072 0.44894171 -0.014613152
0.32915774 0.15541071 -0.011445045
0.32902274 0.4901447 -0.0090699196
0.32778475 0.63506371 0.012733936
0.32939473 -0.43228734 -0.015621185
0.32932574 -0.26082635 -0.014404297
0.32349274 -0.072630286 -0.0078220367
0.32347974 -0.03813529 -0.0075778961
0.32173574 0.59349573 0.023607731
0.32332975 0.33857271 -0.0049042702
0.32374772 -0.71512532 -0.01238203
0.32372072 -0.64603734 -0.011892319
0.31778073 -0.001776278 -0.0031661987
0.31763673 0.33893371 -0.0005531311
0.31761974 0.3784737 -0.000248909
0.31715575 0.66549569 0.0081787109
0.31796172 -0.43032229 -0.0064539909
0.31793374 -0.36515129 -0.0059542656
0.31649774 -1.0081522 0.020134926
0.31221673 -0.11237431 -0.0011091232
0.31207675 0.2257027 0.0014848709
0.31218573 -0.037080288 -0.00053215027
0.31193572 0.56349874 0.0040750504
0.31054574 0.5937447 0.029745102
0.31104973 0.6353237 0.020446777
0.31199974 0.4105697 0.0029020309
0.31093472 -1.0073453 0.022573948
0.31257275 -0.96905029 -0.0076751709
0.31252372 -0.85140133 -0.0067763329
0.30688775 -0.78664732 -0.0033731461
0.30099672 -0.070617318 0.0050158501
0.30085972 0.27217472 0.007642746
0.30135673 -0.96720827 -0.0018463135
0.30128375 -0.78582132 -0.00046300888
0.30122674 -0.6428113 0.00063180923
0.29525673 0.30046368 0.010756969
0.29554373 -0.42775035 0.005179882
0.29427072 -1.0049363 0.029882908
0.29568473 -0.78499734 0.0024466515
0.29565573 -0.71097028 0.0030107498
0.29543474 -0.15109932 0.0072979927
0.29558975 -0.54382133 0.0042901039
0.28983173 -0.11045933 0.010503769
0.28971574 0.18619972 0.012775898
0.28968275 0.27273667 0.013437748
0.28872675 -1.0041363 0.032315731
0.28900474 -1.0742793 0.026810646
0.29003674 -0.64131236 0.00644207
0.28416374 0.11527967 0.01512289
0.28414774 0.15853667 0.015453815
0.28402072 0.49171269 0.018002987
0.28409272 0.30099672 0.016543865
0.28151372 0.74772167 0.068347931
0.28428572 -0.20485532 0.012673855
0.27860275 0.07875967 0.017733097
0.27847874 0.41183171 0.020279884
0.27678573 0.71598572 0.054888725
0.27896973 -0.90235436 0.010243893
0.27874872 -0.31125128 0.014750957
0.27334774 -0.78172028 0.014052868
0.27311674 -0.14911729 0.018877029
0.27324373 -0.49521029 0.016232014
0.26744074 0.15954769 0.024117947
0.26738873 0.3017897 0.025203705
0.26602373 0.59472769 0.054157734
0.26736075 0.38051069 0.02580595
0.26734874 0.41224769 0.02604866
0.26765072 -0.42457128 0.019655704
0.26660174 -1.0693403 0.041897774
0.26772773 -0.63833427 0.01802969
0.26197773 -0.10809332 0.024952888
0.26193872 0.0024207234 0.025795937
0.25942573 0.74787772 0.080093861
0.26199174 -0.14813328 0.024646759
0.25633174 0.16021669 0.029880047
0.25629175 0.27440768 0.030750751
0.25643775 -0.14764333 0.027528763
0.25081274 0.080637693 0.032145023
0.24914274 0.71626168 0.069632053
0.25098374 -0.42268229 0.028310776
0.25006273 -0.99869227 0.048979759
0.25110373 -0.77847636 0.025610924
0.24533275 -0.10668731 0.033588886
0.24512273 0.52327967 0.038392067
0.23974472 0.04969871 0.037647724
0.23972273 0.11813271 0.038169861
0.23969972 0.18908972 0.038712025
0.23957673 0.56520367 0.041577816
0.23962674 0.41327968 0.040420055
0.23989874 -0.4214313 0.034066677
0.24003375 -0.84036934 0.030889988
0.23980874 -0.14618129 0.036154747
0.23993573 -0.53691328 0.033190727
0.23415774 0.22992671 0.041886806
0.23405072 0.56533271 0.044442654
0.23369774 0.6667257 0.052866936
0.23427773 -0.14569533 0.039027691
0.22872674 -0.064762294 0.042504787
0.22809872 0.63656867 0.057799816
0.22896674 -0.83870435 0.036640644
0.22775373 -1.0613933 0.066212654
0.22890273 -0.63319528 0.038197994
0.22302474 0.52387869 0.049844742
0.22324574 -0.19917428 0.044351101
0.21765573 0.051240683 0.049105644
0.21764673 0.082860708 0.049345016
0.21760273 0.23081267 0.050470829
0.21766974 0.0057026744 0.048759937
0.21615873 0.71658969 0.087209702
0.21552174 0.74818468 0.10344172
0.21776174 -0.30499327 0.046408653
0.21214773 0.051623702 0.05196476
0.21217173 -0.029295325 0.051352024
0.21199773 0.56584466 0.055871964
0.21090673 0.59592468 0.084274769
0.21203074 0.45345369 0.055016994
0.21127973 -1.0586452 0.074555874
0.21230474 -0.4879483 0.047879696
0.20666873 -0.028872311 0.054207802
0.20651074 0.52432269 0.058405876
0.20649873 0.56597173 0.058722019
0.20656273 0.34379569 0.057033062
0.20654173 0.4145017 0.057569981
0.20623773 -0.99324727 0.065679073
0.20685874 -0.69865429 0.049142838
0.20584874 -1.0581273 0.076045036
0.20671573 -0.19765234 0.052931786
0.20111774 0.16351467 0.058512688
0.20110974 0.19129169 0.058722973
0.20117073 -0.028451324 0.057061672
0.19995874 0.5961557 0.090107918
0.20142573 -0.89039826 0.050095081
0.20132673 -0.59162927 0.052803993
0.20121673 -0.19714725 0.05578804
0.20130974 -0.53218031 0.053253651
0.19560674 0.23198372 0.061878681
0.19567673 -0.02803129 0.059913635
0.19559373 0.27740568 0.062222004
0.19576374 -0.35203826 0.05746603
0.18826273 0.74837267 0.11792707
0.19048773 -0.77047932 0.054223061
0.19045073 -0.69699931 0.055278778
0.18462974 0.27794272 0.067912102
0.18282874 0.7484107 0.1208148
0.18458973 -0.99201632 0.069087029
0.18514274 -0.95008636 0.05284071
0.18511273 -0.88923526 0.05371809
0.17918374 0.16481167 0.069894791
0.17925273 0.0084027052 0.067807674
0.17940073 -0.30165136 0.063356876
0.17932473 -0.14121032 0.065661907
0.17388374 -0.10120928 0.067433834
0.17386574 -0.060818315 0.068012714
0.17372873 0.2330457 0.072232723
0.17370774 0.27841371 0.072882652
0.17378174 -0.99146032 0.070614815
0.17406173 -0.4846853 0.061929703
0.16836573 0.1222617 0.071838856
0.16819774 0.49511269 0.077189922
0.16816573 0.56683767 0.078219891
0.16733873 0.59672868 0.10454273
0.16823374 0.4158107 0.076051712
0.16793573 -1.0548313 0.085528851
0.16870373 -0.6273073 0.06108284
0.16305174 -0.10079831 0.069834709
0.16292274 0.19299072 0.074051857
0.16301873 -0.026367307 0.070903778
0.16195273 0.59678268 0.1058197
0.16247073 0.66769969 0.088866711
0.16342373 -0.94850135 0.057664871
0.15752573 0.16541368 0.074852943
0.15735473 0.56695068 0.080612659
0.15743273 0.38452768 0.077995777
0.15741873 0.41599071 0.078446865
0.15786274 -0.62666333 0.06348896
0.15196973 0.5255127 0.081213951
0.15202874 0.38462371 0.079191685
0.15167473 0.66777372 0.091477871
0.14656873 0.52557766 0.082407951
0.14661273 0.4161697 0.08083868
0.14659673 0.45516071 0.081398964
0.14563273 0.71712673 0.11592484
0.14689973 -0.30015635 0.070566654
0.14697273 -0.48323834 0.067943096
0.14135374 0.055018723 0.076854706
0.14139873 -0.059648275 0.075212955
0.14115573 0.5671187 0.084197998
0.14122574 0.38481569 0.08158493
0.14127474 0.6373207 0.079773903
0.14119874 0.4552407 0.082594872
0.14151074 -0.34912729 0.071060658
0.14169773 -0.83053327 0.064149857
0.14145073 -0.19394326 0.07328701
0.14142974 -0.13971931 0.074063778
0.14158073 -0.52842236 0.068490028
0.13595274 0.055185676 0.078053951
0.13585873 0.30692971 0.081661701
0.13576074 0.56717467 0.085391998
0.13587373 0.63736469 0.081084728
0.13617173 -0.52812731 0.069689751
0.13044873 0.3460277 0.083415985
0.13040873 0.45540071 0.084982872
0.13061674 -0.98928428 0.076764107
0.13091773 -0.94617033 0.064879894
0.13066274 -0.24393332 0.074959755
0.12416274 0.71722567 0.12109804
0.12524274 -0.19328129 0.076879978
0.11960275 0.52589971 0.088377953
0.11966374 0.34623268 0.085803986
0.11880174 0.7172507 0.12238884
0.12007975 -0.88471627 0.068151951
0.11997875 -0.58657634 0.072432041
0.11982774 -0.13888431 0.078855038
0.11440774 -0.058694303 0.081194878
0.11421774 0.52596366 0.089570045
0.11429774 0.27972168 0.086042881
0.11452275 -0.41216731 0.076128006
0.11469574 -0.94502532 0.068480968
0.10902875 -0.098790288 0.081813812
0.10893775 0.19435871 0.086011887
0.10892474 0.23458868 0.086586952
0.10900574 -0.024521291 0.082876682
0.10899474 0.010715723 0.083380699
0.10884274 0.4958967 0.090328693
0.10882074 0.56744969 0.091354847
0.10822774 0.59730369 0.11855268
0.10885575 0.4557167 0.089755058
0.10776674 0.74866569 0.13966608
0.10927474 -0.88398325 0.070550919
0.10359374 0.056175709 0.085223675
0.10371474 -0.3473593 0.079442024
0.10387575 -0.88361931 0.071746826
0.10381774 -0.69167435 0.074501991
0.10369974 -0.2982173 0.080147743
0.10368275 -0.24278736 0.080943108
0.10378575 -0.58567226 0.076023102
0.098142743 0.2800687 0.089621067
0.098134741 0.30770469 0.090015888
0.098443739 -0.76455832 0.074648857
0.098374739 -0.52609825 0.078068733
0.092824742 0.056500673 0.087610722
0.092032745 0.7173717 0.12883711
0.093050741 -0.76422226 0.075844765
0.087367743 0.34684071 0.092954636
0.087536745 -0.29750633 0.083729744
0.087494738 -0.13765728 0.086022854
0.08200974 0.28041172 0.093194008
0.082154743 -0.29727125 0.084920883
0.082226738 -0.58448327 0.080802917
0.07667274 0.12482369 0.092156887
0.076628745 0.3081367 0.094779968
0.071307741 0.08854568 0.09282589
0.071200743 0.56782568 0.099681854
0.071233742 0.4173817 0.097529888
0.071513742 -0.82595527 0.079720974
0.071103744 -1.0479263 0.10584688
0.065914743 0.19541472 0.095542908
0.065960743 -0.023097277 0.092414856
0.065873742 0.38611668 0.098270893
0.066029742 -0.34564233 0.087792873
0.060082741 0.59775668 0.12995672
0.060311742 0.66838169 0.11359596
0.06063474 -0.24100435 0.090479851
0.055207744 0.057615697 0.095943928
0.055181742 0.1956737 0.097920895
0.055174738 0.23581868 0.098494053
0.055215739 0.012414694 0.09529686
0.055165745 0.28097367 0.099140644
0.055295743 -0.40931928 0.08925581
0.055419743 -0.82588327 0.07975769
0.055273741 -0.29611027 0.09087801
0.049817741 0.19580168 0.099107742
0.049759738 0.52670771 0.10383797
0.049608745 0.66845071 0.11618567
0.049328744 0.71756172 0.13912773
0.050026745 -0.98730528 0.081968784
0.044503741 -0.09648633 0.09610796
0.044491738 -0.0224033 0.097168922
0.044396743 0.5680877 0.10561275
0.044425741 0.3864747 0.10301876
0.044422738 0.63808572 0.10328293
0.044569738 -0.40907633 0.090338707
0.044405743 -1.0481503 0.10475206
0.044633739 -0.62112725 0.084719658
0.044621743 -0.58323228 0.085724831
0.039097741 0.19605672 0.10148096
0.03905274 0.49677971 0.10577965
0.039048739 0.52682871 0.10620785
0.039085738 0.28130472 0.10270071
0.039042741 0.56813872 0.10679865
0.039170742 -0.24024832 0.094582081
0.039156742 -0.18988931 0.095914841
0.039248742 -0.52392733 0.087065697
0.033745743 0.16860169 0.10227108
0.033729739 0.28141469 0.10388565
0.033953741 -0.98765528 0.080607891
0.033821739 -0.24027836 0.094350815
0.02839574 0.12610871 0.1028471
0.028387738 0.19630969 0.10385084
0.023082739 -0.055973291 0.098773956
0.023023741 0.28163171 0.1062541
0.023016741 0.3480117 0.10720396
0.023006739 0.63824868 0.10847902
0.023170741 -0.4786073 0.087574959
0.017695742 0.16885471 0.10450172
0.01765074 0.52706671 0.11094475
0.017672742 0.30929071 0.10783195
0.012361741 0.12615567 0.10314083
0.012385739 -0.022083282 0.099211693
0.012087738 0.71772271 0.14810467
0.011998741 0.74896169 0.16267586
0.012493739 -0.68964136 0.081525803
0.012482738 -0.62138736 0.083333015
0.01241274 -0.19004333 0.094760895
0.0070197415 0.12613267 0.10291004
0.0070047397 0.2365647 0.10583782
0.006970739 0.63836873 0.11236811
0.0071677398 -0.94283926 0.074596882
0.0071327407 -0.68969035 0.081295967
0.007056741 -0.13595432 0.095964909
0.0016937405 -0.022139311 0.098751068
0.0016547404 0.30927372 0.10753489
0.001718739 -0.2404803 0.092963696
0.0017577391 -0.5835793 0.083873749
-0.0038042609 0.59821671 0.14187479
-0.0037552603 0.6687597 0.12798882
-0.0035792608 -0.98850727 0.077467918
-0.0035972595 -0.62153232 0.082640648
-0.0090052597 0.058237672 0.10042095
-0.0091132596 0.59820968 0.14165688
-0.0089402609 -0.88220835 0.075510979
-0.0089432597 -0.82649136 0.076984882
-0.0089532603 -0.68984532 0.080604076
-0.0089842603 -0.24055433 0.09250164
-0.01435326 0.1260367 0.10198784
-0.01434526 -0.056179285 0.097159863
-0.01436126 0.30921972 0.10684395
-0.01432826 -0.4095093 0.087793827
-0.01430626 -0.88226926 0.075279713
-0.01432326 -0.52436233 0.08475399
-0.01970326 0.3869057 0.1086731
-0.019739259 0.71776772 0.15063381
-0.01968926 -0.19025326 0.093374729
-0.01968326 -0.47896028 0.085725784
-0.02504326 0.6687507 0.12760878
-0.02504326 0.41820869 0.10927296
-0.02504326 -0.98901725 0.075698853
-0.02504326 -0.76338232 0.077967644
-0.02504326 -1.0489043 0.10189295
-0.02504326 -0.58382928 0.082720757
-0.02504326 -0.13615829 0.094577789
-0.030389261 0.058124721 0.099497795
-0.030383259 0.30916268 0.10615301
-0.030382261 0.34802368 0.10718298
-0.03036426 0.66874868 0.12751389
-0.030344259 0.71776468 0.15044498
-0.030400259 -0.40964735 0.08710289
-0.03041226 -0.94328129 0.072977066
-0.03039326 -0.13619429 0.094347954
-0.035729259 0.1962387 0.10292864
-0.035727259 0.2363947 0.10399389
-0.03573826 0.012848675 0.098068714
-0.035725258 0.28155369 0.10519075
-0.035686262 0.6687457 0.12741899
-0.035621259 0.74899071 0.16495991
-0.035732262 -1.0490413 0.10145092
-0.035752259 -0.29619932 0.089875698
-0.035762258 -0.52456534 0.08382988
-0.041067258 0.2815327 0.10496092
-0.04104726 0.56839168 0.11256504
-0.041115262 -0.40974331 0.086640835
-0.04644626 -0.096643329 0.094703674
-0.04639126 0.4970437 0.11044407
-0.046411261 0.28151071 0.1047287
-0.04638426 0.56838167 0.11233568
-0.046518259 -0.98954427 0.073946953
-0.046459258 -0.24083734 0.090883732
-0.046449259 -0.13630831 0.093652725
-0.051779263 0.05800271 0.098574638
-0.051763259 0.1961627 0.10223675
-0.051754259 0.28148872 0.10449982
-0.05159926 0.5981437 0.13991404
-0.051491261 0.74898672 0.1646781
-0.057242259 -0.76376235 0.076579094
-0.062502258 -0.096759319 0.09401083
-0.062448263 0.23627472 0.1028409
-0.062224261 0.5981257 0.13947678
-0.062423259 0.3867667 0.10683203
-0.067793258 0.23624867 0.10261106
-0.067834258 0.012646675 0.096682072
-0.067779258 0.30901468 0.10453987
-0.067901261 -0.34565628 0.087192059
-0.067891262 -0.29647624 0.088493824
-0.073194258 -0.022603333 0.095517635
-0.072852261 0.59810668 0.13904095
-0.073417261 -0.94500434 0.067157745
-0.073239259 -0.24106336 0.089731693
-0.073229261 -0.19066632 0.091065884
-0.078520261 0.089257717 0.09825182
-0.078166261 0.59809768 0.13882303
-0.078451261 0.38670871 0.10613966
-0.078435257 0.45688069 0.10800171
-0.078072257 0.71774572 0.14959288
-0.078734264 -0.76454425 0.073698044
-0.083861262 0.12566471 0.098988056
-0.083890259 0.012537718 0.095989704
-0.083821259 0.28134668 0.10311699
-0.083804257 0.34782371 0.10487986
-0.08395426 -0.24115932 0.089272022
-0.089221261 0.089190722 0.097789764
-0.089473255 -0.6916343 0.073649883
-0.089441255 -0.62298036 0.076780796
-0.094549261 0.1683107 0.099658966
-0.094617255 -0.056731284 0.093695641
-0.094529256 0.23611468 0.10145664
-0.094450258 0.49691468 0.10837269
-0.094515257 0.28129572 0.10265589
-0.094981261 -0.99329627 0.061567783
-0.094935261 -0.82962835 0.065666676
-0.094828255 -0.62339425 0.075074673
-0.094657257 -0.19085228 0.090146065
-0.094641261 -0.13668931 0.09157896
-0.099935256 0.05769372 0.096498013
-0.099985257 -0.097052276 0.092398643
-0.099291258 0.71773571 0.14921379
-0.10006526 -0.34597933 0.085806847
-0.10003126 -0.24130929 0.088577747
-0.10016326 -0.52597928 0.077832699
-0.10527626 0.089084685 0.097099781
-0.10526426 0.12553167 0.098065853
-0.10518726 0.34773371 0.1039567
-0.10440426 0.74896967 0.16373587
-0.10548226 -0.41089725 0.081397057
-0.11064126 0.057618678 0.096037865
-0.11046726 0.52692568 0.10847998
-0.11055826 0.28121668 0.10196304
-0.11028026 0.56875467 0.12185669
-0.11006526 0.59802473 0.13723087
-0.11050726 0.41792569 0.10558891
-0.10990126 0.71772969 0.14902401
-0.11081626 -1.0547233 0.083449841
-0.11594026 0.1958167 0.099468708
-0.11581026 0.52691066 0.10824966
-0.11560225 0.56876767 0.12225199
-0.11538426 0.59801173 0.1369381
-0.11588026 0.34768569 0.10349607
-0.11618126 -0.29753828 0.083200932
-0.11633725 -0.52714932 0.072716713
-0.12129326 0.19578469 0.099239826
-0.12127626 0.23596972 0.1003027
-0.12070526 0.59799767 0.13664389
-0.12665626 0.16811568 0.098278046
-0.12654726 0.4178637 0.10489702
-0.12741026 -0.88873136 0.052806854
-0.12736826 -0.83250833 0.05537796
-0.12713726 -0.52793527 0.069302082
-0.13192627 0.3476117 0.10280275
-0.13152726 0.6686787 0.12568665
-0.13222927 -0.13773328 0.085440636
-0.13643326 0.71771467 0.1485467
-0.13820426 -0.83348131 0.051939964
-0.13770926 -0.24308026 0.078938007
-0.13762127 -0.13801432 0.083740711
-0.14281826 0.08845067 0.092405796
-0.14274827 0.16784567 0.096035957
-0.14268826 0.23582268 0.099143028
-0.14291626 -0.023870289 0.087269783
-0.14260726 0.3864477 0.103374
-0.14218226 0.66866869 0.12549305
-0.14257126 0.4566617 0.10523701
-0.14174226 0.71771067 0.14845085
-0.14325826 -0.41341627 0.069460869
-0.14704926 0.71770769 0.14835596
-0.14892726 -0.69649434 0.054811954
-0.14873126 -0.48371136 0.064550877
-0.15359826 0.088018715 0.089011669
-0.15287027 0.56880367 0.12377882
-0.15263727 0.5979107 0.13488388
-0.15313627 0.63829267 0.11108208
-0.15328926 0.41775471 0.10374594
-0.15401727 -0.34934735 0.069003105
-0.15453726 -0.89125931 0.044195652
-0.15428427 -0.62804627 0.056246758
-0.15424827 -0.58980036 0.057997704
-0.15888627 0.19499367 0.092218876
-0.15869527 0.38625368 0.10097075
-0.15862526 0.45657969 0.10418892
-0.15991527 -0.83544636 0.045049667
-0.15970826 -0.62847733 0.05452776
-0.15961027 -0.53032625 0.059023857
-0.16439126 0.087583721 0.085613728
-0.16393526 0.52674472 0.10571384
-0.16491327 -0.41488135 0.062613964
-0.16541126 -0.9998033 0.040678024
-0.16498627 -0.48487532 0.059407711
-0.16916026 0.6382727 0.11078787
-0.16882527 0.6686427 0.12500668
-0.17025127 -1.0608563 0.064495087
-0.17523427 0.055557668 0.080764771
-0.17503327 0.23478168 0.088972092
-0.17528526 0.010044694 0.078680992
-0.17568827 -0.35074329 0.062156677
-0.17567426 -1.0614253 0.062762737
-0.18056327 0.12356067 0.082186699
-0.18073626 -0.025629282 0.075352669
-0.18013127 0.4963457 0.099263668
-0.18038227 0.27998072 0.0893507
-0.17931926 0.59775871 0.13135576
-0.17853327 0.74893671 0.16241074
-0.18181527 -0.95539927 0.032735825
-0.18174426 -0.89382732 0.035557747
-0.18109927 -1.0619953 0.061030865
-0.18099226 -0.24561226 0.0652771
-0.18093327 -0.19483626 0.067600727
-0.18548927 0.5263927 0.098951817
-0.18687826 -0.63065434 0.045919895
-0.18635526 -0.19514227 0.065889835
-0.18629026 -0.14058429 0.068389893
-0.19166526 -0.10090333 0.068511963
-0.19157226 -0.026139319 0.071938992
-0.19006027 0.59761769 0.12783289
-0.19240926 -0.70013833 0.041027069
-0.19191526 -0.30218828 0.059281826
-0.19171527 -0.14087433 0.066679955
-0.19674827 0.16589469 0.079044819
-0.19666126 0.23407573 0.082171917
-0.19656727 0.30723071 0.08552599
-0.19493027 0.71761471 0.14413166
-0.20212926 0.19349068 0.078615665
-0.20285027 -0.35251534 0.05356884
-0.20764527 0.12250668 0.073663712
-0.20758626 0.16549772 0.07563591
-0.20838127 -0.41786933 0.048863888
-0.20829226 -0.35287225 0.051848888
-0.20847726 -0.48803425 0.045642853
-0.21328026 -0.027168334 0.065097809
-0.21254727 0.4957557 0.089091778
-0.21382926 -0.4182483 0.047139645
-0.21471126 -1.0067832 0.018285751
-0.21398327 -1.0680563 0.042111874
-0.21344127 -0.14204329 0.05982399
-0.21860026 0.053702712 0.067106724
-0.21918827 -0.35359132 0.048401833
-0.22027826 -0.90017831 0.013729095
-0.22403526 0.053467691 0.065396786
-0.22420727 -0.061954319 0.060094833
-0.22370127 0.27866668 0.075735092
-0.22236127 0.59719169 0.117239
-0.22305126 0.63777769 0.095863819
-0.22491327 -0.53527534 0.038221836
-0.22908826 0.30628967 0.075304985
-0.22795826 0.56812072 0.10939169
-0.23068927 -0.63539529 0.027045727
-0.23480926 0.12143672 0.065113068
-0.23452027 0.30613071 0.073596954
-0.23566027 -0.41980028 0.040108681
-0.23660527 -0.78124034 0.012350082
-0.23608427 -1.0726902 0.027654648
-0.23547627 -0.30494034 0.045514107
-0.23596627 -0.53691435 0.031114101
-0.23584527 -0.49054229 0.034676075
-0.23960426 0.52549171 0.081974983
-0.24000126 0.27816468 0.070611
-0.23983127 0.38427371 0.075485706
-0.23978026 0.4158217 0.076934814
-0.23729427 0.74874067 0.14811707
-0.24166727 -0.59839427 0.02288866
-0.24150527 -0.5377363 0.027550697
-0.24594526 -0.028737307 0.054797649
-0.24772127 -0.78318834 0.0051817894
-0.25140026 -0.029001296 0.05307579
-0.24939026 0.59681273 0.10791206
-0.25178126 -0.2499063 0.042691708
-0.25287926 -0.6389333 0.012759686
-0.25671926 0.052040696 0.055098057
-0.25666425 0.083774686 0.056559086
-0.25495625 0.56777573 0.10204887
-0.25480726 0.59673667 0.10603285
-0.25553325 0.63746572 0.086670876
-0.25494725 0.66800272 0.10230303
-0.25731826 -0.25055635 0.039144993
-0.25844327 -0.63982332 0.0091776848
-0.26212126 0.083544672 0.054837704
-0.26022726 0.59665966 0.10415506
-0.26480526 -0.90857625 -0.015027046
-0.26463625 -0.85121429 -0.010611057
-0.26743925 0.16326571 0.056799889
-0.26772425 0.0058076978 0.049547672
-0.26638627 0.63736069 0.083599091
-0.26698425 0.4151907 0.0683918
-0.26946327 -1.0798913 0.0052990913
-0.27263826 0.3050077 0.061615944
-0.27574626 -1.0174463 -0.015776157
-0.27562726 -0.78810132 -0.012813091
-0.27906728 -0.1061843 0.036252022
-0.27893728 -0.065206289 0.039413929
-0.27794826 0.38331869 0.063512802
-0.27660728 0.66782671 0.096188068
-0.28133127 -1.0184373 -0.01891613
-0.28143525 -0.85429931 -0.021454334
-0.28401425 0.082538724 0.047310829
-0.28438225 -0.031184316 0.038529873
-0.28268728 0.63720167 0.078985691
-0.28944626 0.11909568 0.04662466
-0.28930625 0.16243571 0.04991293
-0.28908026 0.27663267 0.055177689
-0.28745326 0.56735373 0.093204975
-0.28745726 0.66773772 0.093124866
-0.29184327 -0.60622728 -0.0093951225
-0.29512826 0.081633687 0.04021883
-0.29576826 -0.10789132 0.025569916
-0.29551327 -0.032229304 0.031417847
-0.29427326 0.41454971 0.059823036
-0.29590526 -0.14836431 0.022439957
-0.30056727 0.11823469 0.039532661
-0.29831725 0.66764867 0.090059757
-0.30320227 -0.64702332 -0.019634247
-0.30167827 -0.20428431 0.014588833
-0.30745327 -0.25648129 0.0070166588
-0.31252927 -0.10960931 0.014848709
-0.31076628 0.38246471 0.052949905
-0.31755528 0.047779679 0.023502827
-0.31813225 -0.11018628 0.011263847
-0.31689125 0.22937471 0.037571907
-0.31785527 -0.034336329 0.017141819
-0.32095727 -1.0276994 -0.048636913
-0.32303226 0.079351723 0.022414684
-0.32190526 0.38192371 0.045869827
-0.32164025 0.45308271 0.05138588
-0.32468927 -0.36589324 -0.012092113
-0.32450128 -0.31538928 -0.0081791878
-0.32389125 -0.15136331 0.0045309067
-0.32849225 0.11606169 0.021723747
-0.32935426 -0.1113413 0.0040869713
-0.32919827 -0.070133328 0.0072827339
-0.32806528 0.2286427 0.030456066
-0.32893026 0.00059467554 0.012767792
-0.33276826 -0.86677325 -0.065701008
-0.33183226 -0.72298527 -0.046562195
-0.32971928 -0.20746434 -0.0033693314
-0.33468327 -0.035929322 0.0063867569
-0.33307028 0.38137969 0.03877306
-0.34044427 -0.071243286 9.1075897e-05
-0.33926725 0.2279067 0.023322105
-0.34030727 -0.03646332 0.0027918816
-0.33432326 0.74835968 0.12092781
-0.34187227 -0.43438125 -0.028088093
-0.34346625 -0.72632325 -0.059560299
-0.34215325 -0.50596726 -0.033642292
-0.34504226 0.18655872 0.016563892
-0.34593827 -0.036998332 -0.00080490112
-0.34469426 0.2735877 0.023324966
-0.34458128 0.30170369 0.025508881
-0.34195027 0.56655574 0.076562881
-0.34442326 0.3412877 0.028584957
-0.35066327 0.18616271 0.012980938
-0.35049626 0.22716671 0.016170025
-0.34837127 0.63643771 0.056717873
-0.35514927 -0.72967935 -0.072612286
-0.35248828 -0.26185834 -0.021836281
-0.35227728 -0.21003532 -0.017811298
-0.35359725 -0.50807226 -0.042994976
-0.35145625 0.71674472 0.10014868
-0.35770327 -0.15501028 -0.017105103
-0.36688328 -0.73305535 -0.08572197
-0.36868027 -0.07404232 -0.017957211
-0.36837527 -0.003002286 -0.012429237
-0.36707526 0.30040371 0.011198044
-0.36690527 0.3400867 0.014287949
-0.37365326 -1.1160783 -0.10831833
-0.37283927 0.2718727 0.0054106712
-0.37007028 0.59465373 0.054931641
-0.36689126 0.74822772 0.1118021
-0.37925425 -0.81425631 -0.10932922
-0.37470627 -0.15685332 -0.027982235
-0.37700027 -0.51385033 -0.069024086
-0.37919426 0.11208367 -0.010616302
-0.38020626 -0.11661428 -0.02843523
-0.38002327 -0.075171292 -0.025206089
-0.37970826 -0.0040403008 -0.019665241
-0.37751427 0.49164069 0.018974781
-0.38569027 -0.88340533 -0.12500334
-0.38458225 -0.73815632 -0.10549498
-0.38403127 -0.66586435 -0.095785141
-0.38570526 -0.075737298 -0.028838158
-0.38401827 0.29942071 0.000415802
-0.38192028 0.63578171 0.036810875
-0.38082728 0.66667771 0.055771828
-0.38333926 0.45054871 0.012206078
-0.37906426 0.71647972 0.086338997
-0.38768828 -0.37624526 -0.06322813
-0.39317927 -1.0127513 -0.15846109
-0.39085728 0.041464686 -0.023289204
-0.39139527 -0.07630533 -0.032474041
-0.39020926 0.18336469 -0.012217999
-0.38949928 0.3388747 -8.1062317e-05
-0.38463226 0.71641767 0.083060741
-0.39849126 -0.94876933 -0.15370226
-0.39644527 -0.74158132 -0.11874914
-0.39431727 0.52169168 0.010614872
-0.40149528 -0.63056231 -0.11021328
-0.40209025 0.072810709 -0.028028965
-0.41024426 -0.89404225 -0.16329002
-0.40407425 -0.21763027 -0.060943127
-0.40579027 0.4905977 0.0010280609
-0.40671128 0.29809767 -0.014023304
-0.40633026 0.37777668 -0.0077929497
-0.40617627 0.4098607 -0.0052852631
-0.41762826 -0.95982635 -0.19251633
-0.41296425 0.18174368 -0.026716232
-0.41146627 0.49038771 -0.002573967
-0.41131726 0.52112174 -0.00017118454
-0.41971928 -0.67570734 -0.13560295
-0.42002326 -0.0086023211 -0.051831245
-0.42379826 -0.4520973 -0.11182308
-0.42572325 -0.6773963 -0.14242697
-0.42537126 -0.63697934 -0.13683033
-0.42442328 -0.5256083 -0.12176514
-0.42692626 -0.12382931 -0.073820114
-0.42873827 -0.33357334 -0.10222197
-0.42728525 -0.16537929 -0.079447269
-0.43082726 -0.57539332 -0.13496304
-0.43145427 0.036770701 -0.058466911
-0.43250126 -0.082707286 -0.074662209
-0.42966226 0.26837772 -0.030755997
-0.42603028 0.56422669 0.025399685
-0.42931527 0.33672369 -0.025403976
-0.42702326 0.6348927 0.01004076
-0.42379126 0.71597868 0.060019016
-0.43576327 -0.45491326 -0.12511206
-0.43471128 -0.33484733 -0.10883808
-0.43845227 -0.083700299 -0.08122015
-0.43573928 0.22133172 -0.039830208
-0.43424526 0.48954171 -0.0170331
-0.43503228 0.33641368 -0.029037952
-0.43143526 0.66584373 0.025835037
-0.44116026 -0.38813627 -0.12252712
-0.44896826 -0.9156723 -0.2416563
-0.44500026 -0.68676329 -0.1811161
-0.44229728 0.15025967 -0.05588007
-0.45641726 -1.0453893 -0.26847124
-0.45393527 0.17755967 -0.065018177
-0.45184025 0.4077507 -0.034296036
-0.45162725 0.44770271 -0.031162262
-0.45769826 -0.22796834 -0.12021112
-0.45697325 0.5195787 -0.029138088
-0.45841727 0.3346647 -0.050055981
-0.45543227 0.63432771 -0.0068221092
-0.46816427 -0.54090834 -0.19121027
-0.46615726 0.14729768 -0.082046032
-0.46806726 -0.05296129 -0.10935831
-0.47195527 -0.39659035 -0.16495991
-0.47470325 -0.54376435 -0.20426035
-0.47147226 0.21735972 -0.078958035
-0.47373626 -0.016871333 -0.11093616
-0.46925625 0.44664571 -0.047655106
-0.47451428 0.51879072 -0.044241905
-0.46894526 0.71546769 0.033447742
-0.48348728 0.2160207 -0.092114925
-0.48193026 0.37294871 -0.070646286
-0.47828326 0.63387167 -0.02038908
-0.48738226 -0.17637128 -0.14579391
-0.49022928 0.1443007 -0.10844517
-0.48951527 0.21534771 -0.098716259
-0.48904026 0.26259172 -0.092246056
-0.50731122 -0.68490827 -0.34105396
-0.49712926 0.060286701 -0.12649536
-0.49673826 0.098649681 -0.12123632
-0.49869826 -0.093802333 -0.14761591
-0.49833226 -0.057845294 -0.14268732
-0.49507427 0.2619707 -0.098848343
-0.49395326 0.3719537 -0.083770275
-0.51165128 -0.097260296 -0.17082119
-0.52011526 -0.48753726 -0.28208494
-0.51540023 0.057725668 -0.1465683
-0.51054323 0.51677072 -0.083445072
-0.52376127 -0.36262429 -0.25523329
-0.52490526 -0.10112429 -0.19682407
-0.53078324 -0.066044331 -0.19983196
-0.51873922 0.56095374 -0.046802998
-0.52469325 0.32868269 -0.12245417
-0.52425122 0.36943969 -0.11683702
-0.53473026 -0.25028026 -0.24998903
-0.53298026 0.13882971 -0.15653515
-0.53156626 0.25820267 -0.1387701
-0.52476728 0.5606637 -0.053327084
-0.52028823 0.71487468 0.002948761
-0.54268926 -0.30844033 -0.27853727
-0.54597121 -0.15121633 -0.24833727
-0.53483123 0.5154047 -0.10987234
-0.53737223 0.2866537 -0.14145803
-0.52964121 0.66386867 -0.045373917
-0.55696326 -0.38668132 -0.38494921
-0.54563522 0.16571069 -0.17428017
-0.54467422 0.2088517 -0.16246605
-0.54305023 0.32701871 -0.14250803
-0.53779322 0.63200468 -0.077865124
-0.55232626 0.16432971 -0.18727732
-0.54741424 0.4832277 -0.1275301
-0.54873121 0.36740169 -0.14355803
-0.53817725 0.71453667 -0.015183926
-0.54904222 0.55947769 -0.079927921
-0.57074124 -0.20783126 -0.34106302
-0.56927621 0.011045694 -0.25489616
-0.57132226 -0.077414274 -0.27926302
-0.56366426 0.2536267 -0.18806934
-0.57436323 0.083602667 -0.24772501
-0.56586921 0.48207968 -0.14762592
-0.56549722 0.51367474 -0.14323997
-0.58295923 0.0075777173 -0.28162003
-0.57357723 0.55825973 -0.10721922
-0.60719222 0.031170726 -0.36158228
-0.59302223 0.4369027 -0.2012291
-0.60382026 0.27636272 -0.25887489
-0.59833825 0.5570277 -0.13476133
-0.60860425 0.35957471 -0.24866104
-0.60257423 0.66183871 -0.11979532
-0.61358225 0.43443871 -0.24074936
-0.63434023 0.2691977 -0.34182692
-0.62941921 0.3565917 -0.28878593
-0.62488621 0.62873173 -0.17914391
-0.63756323 0.5825547 -0.25357914
-0.62317222 0.71292371 -0.10134411
-0.65653926 0.34904069 -0.39267111
-0.65341425 0.50575566 -0.29968929
-0.66148823 0.50456572 -0.32362604
-0.65910423 0.62679172 -0.24046803
-0.69509226 0.49937969 -0.42806911
-0.69313926 0.57665771 -0.4086709
-0.67996824 0.62560672 -0.27786732
-0.68866724 0.71119171 -0.19555235
-0.70333421 0.65751469 -0.28193903
