# .PCD v0.7 - Point Cloud Data file format
VERSION 0.7
FIELDS x y z
SIZE 4 4 4
TYPE F F F
COUNT 1 1 1
WIDTH 1
HEIGHT 1024
VIEWPOINT 0 0 0 1 0 0 0
POINTS 1024
DATA ascii
0.81772703 0.081810236 0.15163326
0.82010204 0.11784524 0.13672113
0.80989802 0.051131248 0.16553831
0.809367 0.11764824 0.13327217
0.79499704 -0.058367729 0.2245183
0.80405605 0.11750627 0.13117218
0.78560102 -0.09568274 0.24902344
0.80789804 0.18807423 0.10664129
0.797589 0.0055342317 0.17247009
0.79912001 0.079201221 0.12664509
0.78505599 0.0021622777 0.1447053
0.76827604 -0.099939764 0.21761227
0.77727801 0.07462424 0.084606171
0.760378 -0.10291475 0.19634819
0.76696205 -0.067916751 0.15281439
0.773404 0.18517125 0.072642326
0.77361703 0.27455926 0.071225166
0.76854002 0.11091924 0.067168236
0.76892805 0.18442225 0.064575195
0.75819004 -0.040035725 0.098568439
0.75994301 0.18291825 0.04838419
0.75676501 -0.0070557594 0.069907188
0.71705103 -0.22520971 0.33884716
0.71183401 -0.22533774 0.3373332
0.75164503 0.068272233 0.027146339
0.75137001 0.10691226 0.029030323
0.75104803 0.15218526 0.031238079
0.74746704 0.27354723 0.055785179
0.71953601 -0.18980479 0.24724627
0.74677604 0.15120125 0.021312237
0.74656802 0.18052024 0.022742271
0.74275005 0.27302027 0.049074173
0.74167603 0.30269325 0.056481361
0.715801 -0.19172871 0.23493719
0.74331903 0.032636225 0.0056014061
0.74249101 0.15021324 0.011348248
0.74093103 -0.012996733 0.022172451
0.73447502 0.063833237 -0.012787819
0.73420501 0.10269523 -0.010888577
0.73060703 0.22236824 0.014389038
0.727292 0.30130327 0.037682056
0.72040802 -0.12434572 0.046058178
0.72411001 -0.08589077 0.019880295
0.726035 0.22165924 0.0062704086
0.72891104 -0.017513752 -0.014063835
0.71537203 -0.12493277 0.041396141
0.72407901 0.17645925 -0.020561695
0.66842705 -0.27282071 0.37542725
0.70003104 -0.20515978 0.15055227
0.720891 0.14522225 -0.038906574
0.71948105 0.17568827 -0.028809547
0.71302605 0.29978526 0.017410278
0.71487302 0.17491627 -0.03707695
0.67600703 -0.24064779 0.24301243
0.69278502 -0.20964873 0.12210131
0.70076001 -0.16264975 0.064628124
0.70127004 0.34119427 0.019798279
0.66213304 -0.33501279 0.30366945
0.70766705 0.096612275 -0.068573952
0.69178104 -0.12355572 0.047395229
0.70016104 0.26804227 -0.01377964
0.68526405 -0.21391881 0.094970226
0.69306403 0.060558259 -0.046160698
0.63505703 -0.31937981 0.38287115
0.67808402 0.38267925 0.022457123
0.67761302 0.41600826 0.025963306
0.62750202 -0.31613672 0.39904737
0.67100501 -0.083020747 0.032782078
0.67577302 -0.015101731 -0.0029459
0.66648203 0.41597524 0.02397728
0.631338 -0.29500079 0.24763107
0.65808302 0.38135526 0.0010714531
0.64117104 -0.25918877 0.13039827
0.66464305 0.16988325 -0.093444824
0.62550205 -0.30204177 0.20792627
0.65382004 0.099009275 -0.054483891
0.64618701 -0.013591766 0.004691124
0.65142 0.33742326 -0.035877705
0.64552903 0.41522425 0.0097904205
0.63283801 -0.21061373 0.108181
0.643296 0.031487226 -0.01730299
0.64785904 0.099272251 -0.052922726
0.63309205 -0.12017673 0.062346458
0.63946104 0.063051224 -0.0321908
0.64851904 0.26078427 -0.10339499
0.62469 -0.15809178 0.083916187
0.63352603 0.063324273 -0.030642986
0.61886704 -0.15774775 0.08539629
0.62259203 -0.012399733 0.010786057
0.60972905 -0.11885077 0.0683074
0.63136899 0.21224827 -0.10542774
0.62678105 0.33514524 -0.068595886
0.60073102 -0.2565558 0.14054728
0.60642904 -0.079486728 0.049324989
0.61530304 0.41336024 -0.022435665
0.59496802 -0.25618374 0.141994
0.61937803 0.21269125 -0.10225201
0.60517001 0.41273224 -0.033240795
0.59800202 0.064947248 -0.021375656
0.60031199 0.10134727 -0.04046154
0.59100103 -0.045441747 0.036478043
0.60691005 0.33330125 -0.094988823
0.58073103 -0.20738876 0.12134314
0.59885204 0.17248225 -0.076077938
0.58732104 -0.01063472 0.019908428
0.57196105 -0.25470579 0.14778042
0.57821304 -0.15536577 0.095730305
0.58294004 0.49909824 0.0089774132
0.60011405 0.28831226 -0.13504362
0.56621701 -0.25433874 0.14922428
0.57559502 -0.010052741 0.02294302
0.59191102 0.33190423 -0.1149106
0.58037001 0.45518026 -0.017393589
0.563191 -0.11624175 0.080199242
0.563887 -0.0094737411 0.025974274
0.58036304 0.26046425 -0.11534166
0.58186805 0.33096725 -0.12825394
0.54305601 -0.3508507 0.20464134
0.56262201 0.066542268 -0.012138844
0.57437801 0.26066625 -0.11374569
0.57609701 0.28908426 -0.12860489
0.55892104 0.10312623 -0.029603004
0.501683 -0.36265075 0.46889925
0.54351604 -0.15335977 0.1045661
0.550861 0.067068279 -0.0090656281
0.55302501 0.10337722 -0.028055668
0.54001504 -0.11495876 0.086129189
0.53184003 -0.25215781 0.15788126
0.51845801 -0.4714067 0.27533817
0.54498702 0.067330241 -0.0075297356
0.55131501 0.17432326 -0.063501835
0.556454 0.26126623 -0.10896587
0.56051105 0.32987726 -0.14484787
0.54870903 0.45402727 -0.040453911
0.55220503 0.37351125 -0.12268257
0.51469702 -0.34890175 0.21170521
0.52041203 -0.25143874 0.16076136
0.53144002 0.036752224 0.011791229
0.52267301 -0.11400676 0.090569019
0.53414905 0.49825624 -0.012556553
0.538113 0.45363924 -0.048172951
0.53290004 0.45339426 -0.052876949
0.53261101 0.26205826 -0.10260296
0.503295 -0.25036871 0.16507912
0.50029105 -0.20252872 0.1417222
0.50807202 0.037825227 0.017883301
0.50981903 0.068887234 0.0016670227
0.513004 0.49756724 -0.027888775
0.52196103 0.40824926 -0.11101198
0.51722801 0.45265126 -0.067083836
0.49598002 -0.54819274 0.13010836
0.50770503 0.49739426 -0.031731606
0.49172699 -0.15041375 0.1177783
0.49205703 -0.040403724 0.062017441
0.49955904 0.53047526 -0.0087656975
0.50674701 0.45215225 -0.07658577
0.480524 -0.24895477 0.17082834
0.48599201 -0.15009075 0.1192441
0.49058801 0.03862226 0.022444248
0.49408603 0.53040326 -0.010838985
0.44877404 -0.43925273 0.42028141
0.49225301 0.17656827 -0.047852993
0.48861104 0.53033125 -0.012911797
0.46916205 -0.2482537 0.17369938
0.49097401 0.45140025 -0.090880871
0.47076702 -0.0049607754 0.050126076
0.48112905 0.49652025 -0.051006794
0.49091703 0.37228626 -0.14654493
0.455051 -0.29925478 0.20351601
0.463085 -0.14880878 0.12509823
0.47460902 0.17722923 -0.043174744
0.484945 0.37244424 -0.14492655
0.48042601 0.45089626 -0.10044098
0.45364302 -0.11027473 0.10827827
0.46668202 0.53004026 -0.021214962
0.475142 0.45064226 -0.10522985
0.46142304 0.14992827 -0.025604725
0.44791305 -0.10996872 0.10975122
0.45814103 0.57506728 0.0072760582
0.47091603 0.33247524 -0.12071085
0.42856401 -0.50881171 0.30360031
0.44418204 -0.070962727 0.091070175
0.44587404 -0.03811574 0.073969364
0.46291602 0.29262727 -0.098289013
0.467049 0.37291524 -0.14007282
0.42712605 -0.40206873 0.26346827
0.43015701 -0.3432138 0.23283005
0.43844205 -0.070670724 0.092552185
0.45623803 -0.65813577 -0.088947773
0.43990099 0.071921229 0.019984245
0.42124104 -0.29709876 0.21202326
0.42385 -0.24548876 0.18516445
0.43409902 0.072169244 0.021505356
0.43590701 0.10825324 0.0027303696
0.43804002 0.15082926 -0.019423008
0.42503601 -0.10875672 0.11563301
0.43942803 0.17853427 -0.033840656
0.428617 -0.037270725 0.078441143
0.415618 -0.2967428 0.21343899
0.43897301 -0.64411771 -0.02911377
0.42057204 -0.19785571 0.16199017
0.433577 0.17874926 -0.032288551
0.424568 -0.0027797222 0.062137127
0.40483004 -0.40052772 0.26901627
0.41744602 -0.14628774 0.13678122
0.42244202 -0.63137579 0.025211334
0.41671401 0.072909236 0.026067257
0.39876902 -0.29568076 0.21768618
0.374089 -0.42482877 0.48123503
0.409437 0.042253256 0.043646336
0.41471505 0.15172023 -0.013250828
0.407305 -0.0019747615 0.066631317
0.41289103 0.57521224 0.0064191818
0.42349905 0.33381426 -0.10793781
0.42628205 0.44897726 -0.13793564
0.38814402 -0.39938271 0.27317429
0.36854905 -0.42404974 0.48440504
0.40514201 0.073399246 0.029103279
0.40686202 0.10943025 0.010382175
0.40741605 0.57514727 0.0043540001
0.417588 0.33397925 -0.1063447
0.42106003 0.40673226 -0.14413071
0.42074502 0.44884226 -0.14070797
0.38258803 -0.39900374 0.27455902
0.39001405 -0.24345577 0.19374323
0.37399805 -0.49359775 0.36804438
0.39264899 -0.068362772 0.10438442
0.40616703 0.52921522 -0.044151783
0.39358604 0.073886275 0.032139301
0.39855403 0.18002725 -0.022988796
0.40044802 0.22046024 -0.043998718
0.409181 0.40701726 -0.14089966
0.383367 -0.14443475 0.1455183
0.37944901 -0.10637277 0.12736845
0.39897001 0.49479824 -0.091359615
0.39098102 0.57495224 -0.0018439293
0.376091 -0.5985328 0.16499901
0.39582604 0.37475726 -0.12079287
0.36309105 -0.33883572 0.24965239
0.36973804 -0.5962528 0.17442942
0.34095204 -0.42019176 0.50017834
0.37132305 -0.034506738 0.093308449
0.38921702 -0.70213079 -0.1112237
0.36372203 -0.59481871 0.18018723
0.36913002 0.044014275 0.054197311
0.37874901 0.52871925 -0.056868553
0.379152 0.26699823 -0.061516762
0.380849 -0.69490671 -0.08110857
0.36947 0.18107623 -0.015260696
0.35990804 -0.033962727 0.096273422
0.37326902 0.52861226 -0.059581757
0.36692405 0.60603929 0.014436245
0.376324 0.33512324 -0.095207691
0.348409 -0.29255176 0.23040009
0.333857 -0.4858048 0.40014744
0.35107201 -0.10491073 0.13468599
0.34084302 -0.33740973 0.25524521
0.34509301 -0.24080074 0.20515203
0.36434704 -0.68067276 -0.021757603
0.35666001 0.15390223 0.0021281242
0.34850502 -0.033422768 0.099237442
0.367724 0.40799725 -0.12963295
0.369488 0.44851926 -0.15064001
0.33528805 -0.33705676 0.25664234
0.33725405 -0.29186678 0.2332201
0.33949202 -0.24047279 0.2065773
0.33978605 -0.58912981 0.20307446
0.34904903 0.11173123 0.025631428
0.360367 0.49395525 -0.11057377
0.35225403 0.57463026 -0.012936592
0.348149 -0.66671574 0.036459446
0.33383203 -0.58771777 0.20876312
0.33572602 -0.065552771 0.11912537
0.35131204 0.52817625 -0.070453644
0.357638 0.44877124 -0.14739561
0.321697 -0.39490175 0.28976822
0.326114 -0.29118669 0.23603916
0.32789004 -0.5863117 0.21443605
0.33472002 0.045495272 0.063216209
0.32843202 -0.10375673 0.14053011
0.35001403 0.40841126 -0.12481689
0.31864703 -0.3360008 0.26083231
0.29757503 -0.4152478 0.51990223
0.32438403 -0.065000772 0.12206507
0.33636802 0.22261524 -0.026884556
0.340312 0.52795726 -0.075900555
0.33056301 0.22280723 -0.025334835
0.32681102 0.60643327 0.021821022
0.30515802 -0.39380479 0.29390907
0.30756801 -0.33530176 0.26362324
0.31348002 -0.19180679 0.18933344
0.31558102 -0.14082474 0.16293621
0.31305301 -0.064451754 0.12500429
0.31663901 -0.65604472 0.079447269
0.30787802 -0.1914978 0.19076824
0.30995402 -0.14052874 0.16438437
0.28875104 -0.47763872 0.43379021
0.31623703 0.15539223 0.012851238
0.31734502 0.18292427 -0.001396656
0.31896704 0.22319126 -0.02223587
0.32080501 0.26880127 -0.045851707
0.321935 0.29683924 -0.060370922
0.32807904 0.44939324 -0.13932371
0.30038503 -0.23820579 0.21653223
0.31059602 -0.65455472 0.08533144
0.30227903 -0.19118869 0.19220114
0.27668104 -0.41463876 0.52112436
0.30614102 0.046709239 0.070713997
0.30736503 0.077450275 0.054812431
0.30879202 0.11330324 0.036265373
0.30020803 -0.10233277 0.14782238
0.31754303 0.52796829 -0.077462673
0.31499001 0.26897925 -0.044289589
0.31257302 0.57476526 -0.012866974
0.30966103 0.60659826 0.024974346
0.30917802 0.26915628 -0.042727947
0.31628102 0.44964024 -0.13610077
0.28924102 -0.23756671 0.21937323
0.29854503 -0.65158975 0.097052097
0.30003402 0.18353027 0.0032124519
0.29302302 0.0032162666 0.096446037
0.31007403 0.49311826 -0.13031673
0.30614203 0.52798325 -0.078024864
0.33606005 -0.86314178 -0.47591877
0.28367403 -0.23724878 0.22079229
0.29253903 -0.65011573 0.10288811
0.28748003 -0.13935673 0.17017221
0.29159102 0.11396623 0.040813446
0.29321402 0.15622926 0.018964291
0.30449802 0.44988427 -0.13288164
0.32586205 -0.84931779 -0.42036295
0.29283002 0.29768026 -0.052527905
0.31673402 -0.83876371 -0.37803888
0.27879903 0.078603268 0.062338352
0.27600104 0.0039682388 0.10089922
0.28425303 0.57485425 -0.012822628
0.29273003 0.45012826 -0.12966585
0.30783302 -0.82872975 -0.3378129
0.28121203 0.29801226 -0.049395561
0.25954202 -0.2871877 0.25291109
0.26870403 0.11484122 0.046866417
0.27125204 0.18452728 0.01087904
0.27950102 0.41003025 -0.10562563
0.28097501 0.45037025 -0.12645054
0.25023603 -0.39021981 0.30769014
0.24109003 -0.4761858 0.4368701
0.26550603 0.18472427 0.012410164
0.26695603 0.22488624 -0.0083270073
0.25778201 -0.02921474 0.12286425
0.26457101 0.60675025 0.025779247
0.25034001 -0.23535872 0.22929907
0.25600702 0.079514265 0.068347454
0.25335002 0.0049612522 0.10682821
0.26625103 0.52802622 -0.080003738
0.25894603 0.60676426 0.025783062
0.26195401 0.41042626 -0.10084295
0.26337203 0.45073026 -0.12164068
0.24356604 0.049318254 0.087159157
0.25611103 0.41055724 -0.099251747
0.24916601 0.37839025 -0.080997944
0.23152503 -0.13648677 0.18460608
0.23682702 0.18570328 0.020057201
0.22264802 -0.23381078 0.23637724
0.21903104 -0.5668627 0.29156542
0.23860702 0.41094926 -0.094477654
0.22669601 0.22617424 0.0024523735
0.23540103 0.49319726 -0.13401985
0.23410103 0.45132324 -0.11363268
0.23601103 -0.77982676 -0.14356995
0.21313202 -0.18637979 0.21507645
0.21525702 0.050476253 0.094610214
0.22961202 0.49324024 -0.13356495
0.20923203 -0.13536274 0.19036627
0.21362501 0.60707724 0.031299114
0.22010103 0.37908524 -0.0730896
0.19748601 -0.32853878 0.29145145
0.20395702 0.050934255 0.097586155
0.20048901 -0.059137762 0.15427303
0.20949301 0.22671723 0.0070610046
0.21204501 0.49355525 -0.12873888
0.20208102 0.60729623 0.03654623
0.18654603 -0.32788372 0.29422712
0.17805102 -0.47565877 0.43514633
0.17257202 -0.41208375 0.52601433
0.20515102 -0.77100575 -0.10956383
0.19318503 0.57550526 -0.0031199455
0.19571403 0.33991528 -0.046323776
0.18335703 0.11803126 0.069480419
0.18660203 0.22743428 0.013198376
0.19214502 0.52811122 -0.082942963
0.18739003 0.57563025 -0.0004658699
0.19207904 0.41197526 -0.081785679
0.17576101 0.05206728 0.10501719
0.17665303 0.082614243 0.089305401
0.17255002 -0.057858765 0.16155815
0.17448401 0.008344233 0.12750721
0.16697001 -0.057605743 0.16301537
0.17517501 0.22778922 0.016262054
0.18283302 0.49407226 -0.12070894
0.16200003 -0.2304858 0.25190926
0.16637501 0.11865222 0.073987007
0.16946703 0.22796625 0.017794132
0.17153603 0.30107427 -0.019791603
0.16757303 0.60794723 0.052223206
0.17582202 0.45248324 -0.097670555
0.14657602 -0.4755677 0.43374825
0.15888104 0.052738249 0.10946941
0.15973002 0.083261251 0.093783379
0.16866201 0.52874529 -0.071128845
0.16889602 0.41247824 -0.075452805
0.15522403 -0.63064575 0.17699432
0.15372103 -0.13261276 0.20473433
0.16534802 0.49437824 -0.11589956
0.16310903 0.41260326 -0.073870659
0.14413103 -0.2805258 0.28230238
0.14552504 -0.22959781 0.25613737
0.14680302 -0.18292272 0.23215914
0.14942303 0.11926723 0.078489304
0.15433002 0.30154127 -0.015143871
0.13086903 -0.47565079 0.43252516
0.14283603 0.083903253 0.098255157
0.13998103 -0.02399075 0.15366507
0.14697102 0.57649028 0.018030167
0.13579002 -0.18235874 0.23499918
0.14389902 0.34122324 -0.032266617
0.12658802 -0.32435572 0.30946732
0.12883502 -0.023509741 0.15658617
0.14101803 0.45316124 -0.088131905
0.10858703 -0.33728075 0.56331301
0.12254003 -0.56754172 0.28303337
0.13341603 0.38110724 -0.04948473
0.10655004 -0.41686273 0.49983311
0.12123102 0.12027925 0.085980415
0.11853004 0.010672271 0.14221525
0.12845403 0.41334525 -0.064400673
0.11380002 -0.18124175 0.24067736
0.11727601 0.18965524 0.051996231
0.09643501 -0.41800976 0.49393225
0.11256501 0.22970325 0.033069134
0.11886701 0.49518225 -0.10310793
0.087462038 -0.3346498 0.57542038
0.10051301 -0.27809775 0.29345942
0.10171902 -0.22727072 0.26739407
0.10282403 -0.18068779 0.24351215
0.097341031 -0.18041277 0.24492836
0.099691033 0.16295224 0.070502281
0.094731033 -0.054381728 0.1818924
0.10288602 0.30291623 -0.0012335777
0.10109404 0.57745326 0.039007187
0.10506603 -0.75513172 -0.050186634
0.089638025 -0.27750075 0.2962451
0.081229031 -0.4197427 0.4850502
0.095555037 0.23021322 0.037640095
0.098064035 0.34235525 -0.019822598
0.099667013 0.41395226 -0.056529999
0.085030019 -0.56812871 0.27871323
0.08366102 -0.053897738 0.18479013
0.091488034 0.30321723 0.0018501282
0.089675009 0.57769126 0.044224262
0.093216032 0.38201824 -0.038525581
0.080481023 0.055791259 0.13018513
0.084232032 0.23055124 0.040684223
0.077167034 0.16369724 0.076520443
0.072605014 -0.053415775 0.18768644
0.078575015 0.23071927 0.042205334
0.080105036 0.30351526 0.0049324036
0.078145027 0.57806325 0.052686214
0.057047024 -0.33611178 0.56680107
0.096301019 -0.91959178 -0.38974094
0.060890019 -0.4220798 0.47314739
0.076694012 0.41443124 -0.050245762
0.055792019 -0.4226687 0.47015905
0.068175018 0.27611423 0.022184372
0.06952101 0.34304827 -0.012068748
0.04691802 -0.33674872 0.56321907
0.057079017 -0.27573073 0.30459499
0.056675017 -0.020461738 0.17553139
0.064598024 0.38265726 -0.030719757
0.053574026 -0.17824173 0.25625324
0.053889021 0.12264425 0.10390234
0.051790029 0.013371229 0.15979624
0.03678003 -0.33739078 0.55962944
0.071159035 -0.91066873 -0.35611391
0.040476024 -0.42444575 0.46117401
0.051698029 0.30425227 0.01262331
0.048237026 0.61017025 0.10703135
0.04614003 -0.63248575 0.16420221
0.03843002 -0.48747373 0.37445736
0.035361022 -0.42504275 0.45817041
0.043471023 0.16479725 0.085528374
0.039503023 -0.051990747 0.19636106
0.04332003 0.57965922 0.089726448
0.048050031 0.41502124 -0.042406559
0.034614027 -0.31913471 0.33294916
0.03986302 0.27688324 0.02983427
0.041056022 0.34373027 -0.0043315887
0.042331025 0.41513824 -0.040841579
0.043043017 0.45501626 -0.061237812
0.042990029 -0.75687075 -0.0597229
0.025115028 -0.4262408 0.45214701
0.02783303 -0.08946377 0.21863937
0.034533024 0.53352427 0.021876335
0.024623021 -0.2739948 0.31293201
0.02718702 -0.12660277 0.23761606
0.022905022 -0.48977876 0.36339521
0.022993028 -0.05128777 0.20069408
0.024107024 0.014465272 0.16710234
0.029028028 0.30483425 0.018766403
0.03169103 -0.75721574 -0.061508656
0.02172102 -0.12635177 0.23904133
0.022169024 0.23237026 0.057382107
0.022827029 0.53427422 0.037010193
0.00974603 -0.42827976 0.44200516
0.016546026 0.23253226 0.058896065
0.019313022 0.49932325 -0.02917099
0.0092440248 -0.22251678 0.29124737
0.011208028 -0.57892776 0.22874546
0.0073260218 -0.49210477 0.35227299
0.0082090199 0.058505237 0.14932919
0.0070090294 -0.018424749 0.18860102
0.014402017 0.45554325 -0.053367615
0.0053780228 0.53539121 0.059566021
0.0033900291 0.58124423 0.12654209
0.0075960308 0.38390225 -0.015163898
0.017580017 -0.90903676 -0.35158682
0.00075902045 0.30555028 0.026428223
-0.0037689805 0.38414726 -0.012060642
-0.020122975 -0.27305675 0.57342434
-0.011528969 0.23333526 0.066461086
-0.010528982 0.30583423 0.029491425
-0.0078939795 -0.75849378 -0.067896843
-0.021101981 -0.43269575 0.42025042
-0.01616697 0.30597526 0.031019211
-0.030329973 -0.27330172 0.57185507
-0.013552979 -0.75868475 -0.068823814
-0.021912977 -0.12436974 0.25042343
-0.023809969 -0.64427972 0.1118474
-0.026003972 -0.58560777 0.19850302
-0.028832972 0.19419724 0.091178417
-0.028339982 0.23381025 0.070991993
-0.026063979 0.41651124 -0.022109985
-0.0092209727 -1.0747358 -0.71128082
-0.033995971 -0.22036779 0.30243826
-0.032793969 -0.12388176 0.25326538
-0.034481972 -0.49841177 0.32234144
-0.03654398 0.016811252 0.18313503
-0.032597974 0.34545127 0.015706062
-0.023710981 -0.91129172 -0.3614316
-0.042039976 0.017020226 0.18458939
-0.029616982 -0.91162574 -0.36286163
-0.046324983 0.12602323 0.13064337
-0.043884978 0.34570926 0.018780231
-0.028627977 -1.0663418 -0.68042374
-0.050164983 -0.21957672 0.30662727
-0.049093977 -0.12315673 0.25752401
-0.05202198 -0.43858576 0.39170313
-0.052240983 0.09094727 0.15007305
-0.047279969 -0.76290369 -0.086764812
-0.055055976 -0.17304981 0.28446913
-0.057172969 -0.43987477 0.38551235
-0.058072969 0.060910225 0.16692924
-0.063577972 0.061107278 0.16839409
-0.063282974 0.091326237 0.15301704
-0.061880976 0.23474723 0.080040455
-0.064326979 -0.015586734 0.20741606
-0.061174974 0.30708528 0.043234348
-0.069079973 0.061302245 0.16985607
-0.068797976 0.091515243 0.15448713
-0.066057973 0.38546225 0.0049581528
-0.076262973 -0.22814977 0.5617671
-0.075879976 -0.084989727 0.24581718
-0.075259976 -0.015160739 0.21030521
-0.074962974 0.018260241 0.19331026
-0.072640978 0.27983522 0.060279369
-0.072396979 0.30735826 0.046283245
-0.071419977 0.41739625 -0.009680748
-0.079614975 -0.35678673 0.45978212
-0.059698977 -1.0663807 -0.68118095
-0.080723979 -0.014948726 0.21175003
-0.077345975 0.38569626 0.0080442429
-0.077551976 0.46008825 0.020487309
-0.084749974 -0.35782373 0.45453024
-0.086045973 -0.28051972 0.53273439
-0.082435973 -0.21801674 0.31500626
-0.081911974 -0.5067358 0.28341436
-0.083087973 -0.44637978 0.35433722
-0.085073978 0.50859821 0.14253616
-0.090569973 0.12746227 0.14247704
-0.096823975 -0.22767472 0.56403542
-0.092444979 -0.12125772 0.26887321
-0.096336976 0.092447221 0.16183424
-0.095601976 0.19616526 0.10913706
-0.096387975 0.50982821 0.16546345
-0.09402898 0.41782925 -0.0034809113
-0.088806979 -0.91511273 -0.37746477
-0.10203698 0.062461257 0.17862701
-0.10132698 0.16932124 0.12434721
-0.10114697 0.19632626 0.11063004
-0.10254698 -0.014107764 0.21752024
-0.10058697 0.28054225 0.067856312
-0.10040498 0.30803323 0.053892136
-0.10640398 -0.28437376 0.51217842
-0.10389598 -0.21699476 0.3205862
-0.10148898 -0.5994097 0.1367631
-0.10778998 0.019474268 0.20201302
-0.10599898 0.30816627 0.055413246
-0.10693397 -0.60050273 0.13191938
-0.11282898 0.092999279 0.16623735
-0.11226697 0.46587124 0.11670113
-0.11711697 -0.23123872 0.54422045
-0.11238497 -0.60159874 0.127069
-0.11888698 -0.01348573 0.2218442
-0.11870997 0.019874275 0.20491123
-0.12221098 -0.23213577 0.53924513
-0.11685897 -0.66356778 0.028128147
-0.11784398 -0.60269773 0.12220621
-0.12246297 0.41999725 0.028967381
-0.12356398 0.46749026 0.14364624
-0.12064998 -0.78062272 -0.15988159
-0.12913898 0.12868828 0.15280628
-0.12799698 0.38672924 0.021902084
-0.12819998 0.42107224 0.045158386
-0.13130197 -0.36851776 0.40066528
-0.13045998 -0.16961575 0.30414438
-0.13023898 -0.11963874 0.27878618
-0.12790897 -1.0719328 -0.70274401
-0.13562897 -0.11940974 0.28020239
-0.14029098 0.46955025 0.17795515
-0.14101498 -0.11918277 0.28161621
-0.14573897 0.09408623 0.17503023
-0.14550197 0.17063522 0.13622522
-0.14580998 0.51098424 0.18667126
-0.14515798 0.28164923 0.079948425
-0.14751497 -0.29313672 0.46574402
-0.15093897 0.19774526 0.12404823
-0.15140797 0.021056235 0.21359825
-0.15225798 -0.37347972 0.37580204
-0.15291697 -0.23891973 0.50180531
-0.15027897 -0.67062175 -0.0021367073
-0.15707797 -0.081652761 0.2671833
-0.15637298 0.23729926 0.10557413
-0.15621297 0.30934823 0.069070339
-0.16215898 0.094621241 0.17941999
-0.16190597 0.23744422 0.10707235
-0.16170998 0.34831825 0.050911427
-0.16308197 -0.29727876 0.4439044
-0.16766597 0.064709246 0.19612217
-0.16752498 0.17127824 0.14215231
-0.16776797 -0.011655748 0.23479414
-0.16737798 0.28219128 0.085982323
-0.16765997 0.43092224 0.19385242
-0.16857098 -0.13036674 0.54153013
-0.17324698 -0.081006765 0.27144623
-0.17858598 0.022022247 0.22082424
-0.17845897 0.30986124 0.075126171
-0.17859398 0.47266126 0.22983313
-0.17869398 -0.3797667 0.34440517
-0.18401597 -0.080578744 0.27428818
-0.18401597 -1.0781918 -0.72629976
-0.18401597 -0.79620075 -0.22347593
-0.18401597 -0.53641379 0.14727306
-0.18953598 0.23816425 0.11455202
-0.19501898 0.19897026 0.13594437
-0.19486298 0.02259326 0.22515631
-0.19510497 0.35110325 0.08677721
-0.19456798 -0.30672276 0.39425945
-0.19448197 -0.24946678 0.44389439
-0.19522297 -0.62623477 0.019073009
-0.20066398 0.31036723 0.08117342
-0.20017998 0.43569624 0.26603699
-0.19986698 -0.30834877 0.38572931
-0.20279898 -1.0803688 -0.7343936
-0.19973397 -0.25080478 0.43657017
-0.20034298 -0.47809577 0.20391941
-0.20583197 0.096020222 0.19111109
-0.20620997 0.31049228 0.082684994
-0.20592298 0.35716626 0.16494608
-0.20675297 -0.68723273 -0.072841644
-0.21127898 0.096193254 0.19257116
-0.21425797 -0.94404876 -0.49022484
-0.21006298 -0.19078374 0.47130728
-0.21164498 -0.54487669 0.10875225
-0.21129197 -0.4811697 0.18945312
-0.21507898 -0.045517743 0.50818205
-0.21699697 0.19957024 0.14187908
-0.21502797 -0.08221972 0.51788521
-0.22240198 0.17284727 0.15693712
-0.22772898 0.13170928 0.17926741
-0.22711897 -0.041354775 0.26667738
-0.22689298 0.36756226 0.29904318
-0.22621697 -0.25823569 0.39594841
-0.23074497 -0.0091607571 0.49119043
-0.23360997 0.23929024 0.12649441
-0.23262398 -0.0093037486 0.25201845
-0.23490697 -0.63950074 -0.038675785
-0.23085098 -0.14094174 0.47767305
-0.23334397 -0.48737872 0.16030121
-0.23815797 0.024088264 0.236691
-0.23993498 0.42027226 0.033073425
-0.23738497 -0.31988871 0.32530832
-0.24483198 -0.9538728 -0.52810287
-0.23888898 -0.48894274 0.15296745
-0.24376698 0.067214251 0.21645832
-0.24391198 0.097212255 0.20131922
-0.24408197 0.13219428 0.18366528
-0.24174097 -0.19842172 0.42747307
-0.25987497 -1.0988748 -0.80301762
-0.24675697 -0.14559972 0.44962215
-0.24646698 -0.088606775 0.47729731
-0.25558499 0.23984027 0.1324544
-0.25155497 0.023168266 0.48769903
-0.25528699 0.39647126 0.1587801
-0.25458699 -0.40472972 0.22046041
-0.25177896 -0.090073764 0.46797132
-0.25676396 -0.0098567605 0.48659945
-0.27921599 -1.1065857 -0.83153963
-0.26951498 -0.65144169 -0.090466976
-0.26839998 0.19850826 0.39762115
-0.27255598 -0.50025272 0.099997997
-0.27288496 -0.054205775 0.45081806
-0.27270699 0.053916276 0.46279144
-0.27360597 -0.15347975 0.40225315
-0.27817997 0.12652326 0.44663239
-0.27899098 0.22540826 0.39504528
-0.28554696 0.41657525 -0.022265911
-0.28372097 0.15993726 0.42804527
-0.28365597 -0.057058752 0.43195915
-0.28334898 0.017971277 0.45045137
-0.28341097 0.051769257 0.44671535
-0.29114896 0.41672325 -0.019939899
-0.30536199 -1.1189017 -0.87707901
-0.30072898 -0.9719907 -0.59762478
-0.28399697 -0.098992765 0.41138506
-0.28892696 0.12456626 0.43046045
-0.28906599 -0.058493733 0.42248535
-0.29032499 0.26066226 0.35035229
-0.29619399 0.38612425 0.014150143
-0.29674798 0.41687024 -0.017616749
-0.29238197 -0.3376807 0.23254299
-0.31197196 -1.1223358 -0.8897686
-0.29055998 -0.21423876 0.33688736
-0.29449397 -0.059932768 0.41297913
-0.29536897 0.22233027 0.365242
-0.29582596 0.25969124 0.340312
-0.29715699 0.29816628 0.26764917
-0.29947799 -0.42080975 0.14102125
-0.30925298 -0.83804178 -0.39232063
-0.29487297 -0.10201174 0.39227438
-0.30086499 0.22129726 0.3552494
-0.30779296 0.34385026 -0.0055146217
-0.30509797 0.091138244 0.40906239
-0.30518398 -0.021704733 0.40475607
-0.30799797 -0.28239274 0.26457024
-0.31417298 -0.5784477 -0.043043613
-0.31203797 0.21860123 0.3291254
-0.319116 0.41742626 -0.008787632
-0.31661397 -0.42697179 0.11065722
-0.31211597 -0.16628778 0.32539701
-0.311364 -0.10690576 0.36129904
-0.31625199 -0.025216758 0.38049221
-0.31861097 0.25314623 0.27242422
-0.32371199 0.34724826 0.038610458
-0.32055497 -0.34715676 0.18329811
-0.31844097 -0.22415972 0.28019619
-0.32174498 0.11744225 0.37159729
-0.32179099 0.0067182779 0.36958408
-0.32974797 0.38641825 0.018945217
-0.32330698 -0.17006576 0.30276203
-0.322487 -0.11044174 0.33892918
-0.32738197 0.0050122738 0.357337
-0.35142598 -0.98910177 -0.66294575
-0.33291799 0.083458245 0.34814024
-0.33304098 -0.030631721 0.34311104
-0.33497298 0.21189123 0.26405144
-0.33657098 0.24604523 0.19868803
-0.33854997 0.081902266 0.33580923
-0.34651598 0.38654324 0.021109104
-0.34993997 -0.59422278 -0.11416483
-0.34420496 0.080339253 0.32342815
-0.34462297 0.10970426 0.30748701
-0.34610298 0.18267822 0.25096941
-0.34425098 0.035074234 0.32167339
-0.34988499 0.078769267 0.31099224
-0.35042 0.10774022 0.29123116
-0.35032597 -0.077856719 0.29469204
-0.35749197 0.27702326 0.029863358
-0.37183899 -0.8649708 -0.50033569
-0.362059 -0.59971976 -0.13891459
-0.35708696 0.13890928 0.24481201
-0.35886097 0.20336127 0.18129015
-0.36279997 0.30672824 0.040289402
-0.362876 0.34709126 0.03755331
-0.37335396 -0.75007772 -0.33755398
-0.36177295 -0.041225731 0.26998329
-0.36675498 -0.36379075 0.097042084
-0.39102098 -1.0106248 -0.74536371
-0.37215698 -0.54108369 -0.090509892
-0.37560597 0.22553027 -0.014510632
-0.37405699 0.30648226 0.037682056
-0.37822497 -0.54371977 -0.10277462
-0.38009897 0.38660926 0.022972107
-0.37869799 -0.36923075 0.068802357
-0.37375498 -0.12758976 0.23061037
-0.38536298 0.30613524 0.0338974
-0.38069797 -0.1902107 0.18232012
-0.37966299 -0.13001776 0.21526146
-0.39103398 0.30592424 0.031562328
-0.38933897 -0.31569171 0.084039211
-0.39366698 0.12469822 0.12097311
-0.39107299 -0.017039776 0.19916439
-0.39654696 0.34674925 0.03417635
-0.39744896 0.41832724 0.0069613457
-0.39682996 -0.37755179 0.025643349
-0.39383596 -0.2529918 0.11590099
-0.40862197 -0.70696878 -0.32981777
-0.39720297 -0.054385722 0.17928743
-0.40239096 0.30550224 0.026902199
-0.40216598 0.34668326 0.033516407
-0.40304297 0.41836825 0.0077672005
-0.43162498 -1.0332267 -0.8317399
-0.39980996 -0.2553128 0.10270405
-0.41362 0.17092627 -0.13412857
-0.43852198 -1.0372868 -0.84724474
-0.43017799 -0.89197481 -0.60829163
-0.41776198 -0.62505376 -0.25273895
-0.42116198 0.16576326 -0.18434954
-0.40913796 -0.02368474 0.15156507
-0.40928197 0.011801243 0.14752626
-0.41380996 0.30497622 0.021038055
-0.41371998 0.38657025 0.023539066
-0.41530299 0.45743224 -0.020665646
-0.43043596 -0.77538776 -0.44344759
-0.42788297 -0.71680176 -0.37212086
-0.41036898 -0.20112979 0.1171813
-0.42609799 0.10996926 -0.0074219704
-0.421924 -0.10682076 0.10375023
-0.42651296 0.45753825 -0.018488884
-0.42398798 -0.26480877 0.048762321
-0.422198 -0.14881873 0.096441269
-0.44023398 0.13113624 -0.22873497
-0.42855299 0.0021722317 0.075333118
-0.43384796 -0.39456773 -0.062492847
-0.43012798 -0.26734674 0.034343243
-0.43389198 -0.033524752 0.081085205
-0.43667197 0.41845626 0.010337353
-0.43782198 0.45748526 -0.018939972
-0.43830997 -0.33703971 -0.031348705
-0.44165197 -0.0043767691 0.026264191
-0.47011396 -0.91056573 -0.682374
-0.44913197 0.45743126 -0.019390583
-0.47025299 -0.79703379 -0.53405666
-0.45480797 0.45737624 -0.020067692
-0.47702497 -0.8008827 -0.55016279
-0.47379199 -0.74029279 -0.47301483
-0.46569097 -0.5818727 -0.27972174
-0.46578899 -0.082295775 -0.012804985
-0.46848997 0.49673924 -0.074674606
-0.48222998 -0.65555775 -0.38937283
-0.47367898 -0.23133481 -0.063276768
-0.49120697 0.033526242 -0.3240428
-0.47920999 -0.13168776 -0.059844971
-0.47753799 0.45714024 -0.023031712
-0.48915598 -0.35940278 -0.15191364
-0.50989401 0.016044259 -0.46938086
-0.48730096 0.34456927 0.0097112656
-0.49291298 -0.18143272 -0.10928392
-0.49912399 -0.14073974 -0.11934185
-0.50404197 -0.037484765 -0.22172165
-0.49460497 0.45695925 -0.025257587
-0.50226295 -0.36548376 -0.18468094
-0.50086898 -0.30078673 -0.15566254
-0.50800699 -0.10704774 -0.18362665
-0.49907899 0.41751924 -0.0010967255
-0.51144993 -0.43163371 -0.254035
-0.53009099 -0.024599731 -0.51083994
-0.504758 0.34359926 -0.0019688606
-0.514539 -0.30831075 -0.19844866
-0.53528595 -0.77345669 -0.61518669
-0.52260298 -0.11564773 -0.24294281
-0.522349 -0.37536275 -0.23792887
-0.53288198 -0.61771572 -0.44586468
-0.53619397 -0.060332775 -0.39319992
-0.52518398 0.49689525 -0.069018841
-0.52310801 0.45662525 -0.029418945
-0.53089201 0.49686724 -0.069248676
-0.56352794 -0.78901076 -0.68175697
-0.58783698 -0.08787775 -1.0155087
-0.53660202 0.49683824 -0.069477558
-0.53455698 0.45645124 -0.031726837
-0.58013701 -0.10865575 -0.75698662
-0.57710302 -0.15024972 -0.48163176
-0.55063295 0.41638824 -0.01549387
-0.57772696 -0.55004573 -0.49261999
-0.57132697 -0.3402487 -0.37991095
-0.57039297 -0.28166878 -0.36347389
-0.61298096 -0.085966766 -0.99876976
-0.56262493 0.52605224 -0.12543774
-0.55619299 0.38343224 -0.013883591
-0.58099794 -0.46845973 -0.44408655
-0.56839997 0.52601528 -0.1258688
-0.56198996 0.38323227 -0.016366959
-0.56322694 0.45601025 -0.037502766
-0.58738601 -0.41466677 -0.45022964
-0.58609498 -0.34874976 -0.42817354
-0.58817995 -0.23758769 -0.46379566
-0.60172701 -0.72389972 -0.69521999
-0.59780395 -0.65706575 -0.62821293
-0.59942496 -0.20622575 -0.55127954
-0.56779301 0.38303027 -0.018854618
-0.56896996 0.45592025 -0.038659573
-0.59495902 -0.41945672 -0.47609568
-0.59363794 -0.35327375 -0.45387173
-0.60511798 -0.25028777 -0.54413795
-0.61695194 -0.73399675 -0.74042463
-0.58254796 0.49639824 -0.075101852
-0.61150497 -0.48864877 -0.54853582
-0.61373699 -0.25675273 -0.58502769
-0.64399993 -0.22125578 -0.97364664
-0.58621001 0.45565125 -0.042130947
-0.591079 0.41532224 -0.029224873
-0.62707496 -0.32145369 -0.60135984
-0.65625298 -0.13630676 -0.96204185
-0.60021198 0.49589124 -0.083539963
-0.63369697 -0.44397974 -0.60844469
-0.60611099 0.49572125 -0.086355686
-0.66976798 -0.082855761 -0.97029877
-0.61201596 0.49555126 -0.089176655
-0.60889697 0.38123125 -0.041592598
-0.60956699 0.45498425 -0.051815987
-0.67738897 -0.88308477 -1.0865726
-0.67563099 -0.17876577 -0.96078968
-0.61435699 0.41462624 -0.038255692
-0.65987396 -0.52247679 -0.72354364
-0.65938401 -0.39937377 -0.71617365
-0.62384397 0.49520925 -0.094822884
-0.669034 -0.40815973 -0.76631975
-0.67382002 -0.36086977 -0.83743668
-0.688739 -0.082066774 -0.96269894
-0.63284898 0.52499825 -0.142869
-0.62732899 0.45431125 -0.061897755
-0.638749 0.52488923 -0.14472771
-0.63300198 0.37970024 -0.061496735
-0.694628 -0.38031173 -0.95398283
-0.64465398 0.52477926 -0.14658689
-0.639094 0.37927327 -0.067084789
-0.70744497 -0.13541275 -0.95181465
-0.64519894 0.37884524 -0.072682858
-0.70656699 -0.64120877 -0.93941498
-0.71112496 -0.44973075 -1.003778
-0.71499699 -0.00081777573 -0.966712
-0.71502596 -0.18001175 -0.96712399
-0.73872399 -0.079254746 -0.93652678
-0.68282998 0.37552625 -0.11662483
-0.68022394 0.41140726 -0.082355976
-0.75756997 -0.078506768 -0.92907286
-0.76498199 0.053135276 -0.94100857
-0.70442098 0.41021425 -0.098556995
-0.777592 0.08678323 -0.93659973
-0.71713495 0.52265429 -0.18519497
-0.78224295 -0.039179742 -0.91411686
-0.78322399 0.087798238 -0.9261837
-0.71663296 0.40956226 -0.10746861
-0.725555 0.49208525 -0.14602566
-0.72276497 0.40922526 -0.11208677
-0.79418898 0.057001233 -0.9023428
-0.81190097 0.058888257 -0.88311481
-0.819839 -0.037920773 -0.90041161
-0.81789398 0.09242028 -0.87795401
-0.75411099 0.44897926 -0.14151192
-0.82780099 -0.077807724 -0.91764688
-0.824655 0.14006227 -0.88167858
-0.83450896 -0.078213751 -0.92032671
-0.77002496 0.48951825 -0.19060183
-0.774773 0.51957023 -0.24433899
-0.83539099 0.14226228 -0.85766554
-0.77642995 0.48914725 -0.19702101
-0.84282798 0.0090962648 -0.86895084
-0.77923995 0.40552124 -0.16341686
-0.77953798 0.44734326 -0.16672087
-0.794231 0.51852524 -0.26427794
-0.85292399 0.096089244 -0.83882475
-0.79202497 0.40461126 -0.17606497
-0.85859799 0.096840262 -0.8309269
-0.86267298 0.14694422 -0.80609274
-0.87158495 0.063663244 -0.8328557
-0.87007695 0.098159254 -0.8169117
-0.86825299 0.14770228 -0.797616
-0.82135999 0.51661026 -0.30153084
-0.86719799 0.20219928 -0.786448
-0.86750996 0.23456824 -0.78974771
-0.81775498 0.40277624 -0.20152664
-0.81807899 0.44485524 -0.20492887
-0.88151795 0.099466264 -0.80298376
-0.87794995 0.20391524 -0.76593065
-0.88501197 0.14987028 -0.77327681
-0.89896399 0.010558248 -0.85075998
-0.85618496 0.48363626 -0.29341078
-0.89495897 0.24335724 -0.68187094
-0.91344398 0.066392243 -0.80310297
-0.86240298 0.36165124 -0.29621363
-0.85694796 0.39985624 -0.24204254
-0.916776 0.10216027 -0.77303791
-0.86373496 0.39923024 -0.2508626
-0.92589498 0.06659323 -0.7999506
-0.91340399 0.21133924 -0.67803478
-0.92872095 0.10280323 -0.76550579
-0.88664997 0.48002926 -0.3583889
-0.91533995 0.24701226 -0.63601875
-0.87736797 0.39797324 -0.26857567
-0.93865198 0.066468239 -0.79980993
-0.94723296 0.10314327 -0.760221
-0.90047598 0.43756926 -0.319067
-0.93442196 0.25144923 -0.58086395
-0.96018398 0.10277724 -0.76243591
-0.95358098 0.15607327 -0.7011528
-0.922539 0.43515027 -0.35736656
-0.96569699 0.15637827 -0.69663477
-0.95061797 0.25313222 -0.55894184
-0.92853999 0.35682625 -0.35734797
-0.96235198 0.25349826 -0.55325985
-0.98536295 0.15553427 -0.7033186
-0.98189098 0.21607727 -0.61676264
-0.98815197 0.25247526 -0.56260872
-0.99542898 0.25162423 -0.57197762
