# .PCD v0.7 - Point Cloud Data file format
VERSION 0.7
FIELDS x y z
SIZE 4 4 4
TYPE F F F
COUNT 1 1 1
WIDTH 1
HEIGHT 128
VIEWPOINT 0 0 0 1 0 0 0
POINTS 128
DATA ascii
0.38234881 -0.51749945 -0.44808388
0.35769582 -0.62721741 -0.33820581
0.33820781 -0.36122441 -0.32040977
0.33082381 -0.35668945 -0.2958765
0.30985981 -0.2838074 -0.24232864
0.26627582 -0.54958642 -0.22246265
0.2564308 -0.019366443 -0.12697363
0.24997982 0.021570563 -0.11546755
0.25040781 -0.20706642 -0.12659788
0.25366381 -0.54712939 -0.21135855
0.24358982 -0.098991394 -0.10501671
0.23063481 -0.050152421 -0.07776165
0.2242718 -0.048482418 -0.066334724
0.21683381 0.1184606 -0.022754669
0.21792981 -0.046818435 -0.054945469
0.22015581 -0.32386947 -0.12034273
0.22028081 -0.89131546 -0.30498362
0.20399581 0.16221356 0.0083703995
0.21404281 -0.89067042 -0.30268574
0.2030618 -0.45600545 -0.14925575
0.1939408 -0.13398838 -0.047932625
0.17848481 -0.45243037 -0.13217068
0.17611781 -0.19359243 -0.047449589
0.1755598 -0.13070238 -0.027448654
0.16853581 0.36399359 0.013414383
0.16162381 0.093464613 0.052765369
0.16279781 -0.03756243 0.0079674721
0.15147181 -0.12793243 -0.010364532
0.14337881 0.13132161 0.08261919
0.13948281 -0.12660646 -0.0021615028
0.14281981 -0.53323436 -0.1491766
0.1367498 -0.53274345 -0.14699459
0.12539881 0.17372358 0.10747814
0.12155481 -0.12462747 0.010106564
0.1250558 -0.58724236 -0.16430044
0.11355481 0.25110859 0.12038231
0.1185628 -0.53127944 -0.14045858
0.11190781 -0.44676638 -0.10548782
0.1125098 -0.53079438 -0.13828468
0.096182808 0.1360476 0.12115812
0.097775809 -0.1222204 0.025063515
0.097616807 -0.97159743 -0.33836555
0.096148811 -0.79212141 -0.24495077
0.08064881 0.52527457 -0.0091614723
0.081105806 -0.30896342 -0.041916847
0.074515812 -0.18396842 0.0087404251
0.067037806 0.13825756 0.13920021
0.06786681 -0.028212428 0.071349144
0.068306811 -0.12054038 0.035384178
0.059581809 -0.79336143 -0.25046778
0.050325811 -0.027309418 0.077454567
0.051126808 -0.24158239 -0.0059375763
0.050905809 -0.18255341 0.017036438
0.046880804 -0.66041338 -0.19486666
0.032249808 0.18037456 0.16464233
0.032474808 0.45803258 0.13243818
0.03478381 -0.66116536 -0.19824362
0.026612809 0.10549259 0.14696646
0.027876807 -0.36644638 -0.06000948
0.021462807 0.57161158 0.030219555
0.014951807 0.30015159 0.17848635
0.015031807 0.41825461 0.16005135
0.016697807 -0.70924938 -0.22166348
0.0092188064 0.22760659 0.17828751
0.0035218075 0.14130461 0.16418934
0.0037608072 -0.071597457 0.07285738
-0.0021341927 0.53259861 0.11265039
-0.001767193 -0.44494236 -0.097545624
-0.0019791927 -0.18134642 0.024045467
-0.007798193 -0.30701244 -0.031878471
-0.013717193 -0.98874342 -0.40316868
-0.025451193 -0.18116343 0.025154114
-0.032017194 -0.71398437 -0.24184656
-0.036613192 0.2288146 0.18959427
-0.042453192 0.10749161 0.16291714
-0.04854919 -0.024596393 0.09615612
-0.04963319 -0.44761145 -0.11075544
-0.053764194 0.22914958 0.19281435
-0.053802192 0.68725258 0.18654823
-0.059454195 0.30194861 0.19734335
-0.061134189 -0.30912745 -0.043310642
-0.060896195 -0.24212945 -0.0092434883
-0.065085195 0.73217762 0.20843029
-0.067315191 -0.36939836 -0.075436592
-0.070894197 0.3501116 0.19687557
-0.076592192 0.3020826 0.19888926
-0.076434188 0.81652558 0.2153492
-0.08211419 0.68838257 0.21739912
-0.082519189 0.46131557 0.17871523
-0.091794193 -0.45220447 -0.13328552
-0.093337193 -0.67748737 -0.26924753
-0.099775188 0.14249557 0.17467833
-0.12456619 -0.68635547 -0.30755949
-0.1292022 0.84889859 0.13257217
-0.13411419 0.18197757 0.17967129
-0.1338622 0.37921458 0.19340134
-0.15101019 -0.31797636 -0.090629578
-0.15152518 0.49423158 0.16980934
-0.15252219 0.84876657 0.12224436
-0.1628802 0.46100259 0.17565012
-0.17166319 -0.46815836 -0.2114048
-0.17033818 -0.3844614 -0.15300846
-0.16934019 -0.3214004 -0.10901356
-0.16618419 0.76600862 0.27904844
-0.16885319 0.4939386 0.16576624
-0.1683562 0.8160066 0.18685055
-0.18003818 0.4194926 0.17805433
-0.18314119 0.76598859 0.2786665
-0.20385219 -0.48165846 -0.2778697
-0.21217319 0.68960458 0.25317049
-0.2413002 -0.20438945 -0.11168766
-0.24087419 0.6892246 0.24381638
-0.24657419 0.84822756 0.080587387
-0.25117421 0.13489258 0.11484432
-0.2459572 0.7654826 0.2605834
-0.25157419 0.73366857 0.26200056
-0.25172719 0.76540756 0.25782537
-0.26213321 0.22214061 0.13174248
-0.27633819 0.52941561 0.064588547
-0.27684918 0.65663254 0.19732523
-0.28284618 0.65634757 0.19071436
-0.29232618 0.4132486 0.10130358
-0.29379818 0.48708558 0.066188335
-0.2981132 0.24871957 0.10189438
-0.3068172 0.09081459 0.035634518
-0.31612819 -0.064792395 -0.17761564
-0.32054219 0.48209959 -0.0080986023
-0.32894918 0.2885046 0.064259529
