# .PCD v0.7 - Point Cloud Data file format
VERSION 0.7
FIELDS x y z
SIZE 4 4 4
TYPE F F F
COUNT 1 1 1
WIDTH 1
HEIGHT 128
VIEWPOINT 0 0 0 1 0 0 0
POINTS 128
DATA ascii
0.42886579 -0.74209088 -0.49180508
0.4001548 -0.72818786 -0.43425083
0.39988878 -0.68285185 -0.42956781
0.38856578 -0.89808279 -0.45293283
0.38501278 -0.55157381 -0.38837099
0.37098378 -0.54547185 -0.36030769
0.34972978 -0.4549318 -0.31034088
0.3468248 -0.79295784 -0.37645292
0.33562478 -0.37420589 -0.27529001
0.3353408 -0.31689686 -0.26948214
0.31860578 -0.65389389 -0.30711794
0.3158128 -0.87884778 -0.38193607
0.30825278 -0.30682188 -0.21545076
0.2955218 -0.36025387 -0.20375967
0.28353378 -0.43393987 -0.20872879
0.28265479 -0.35710889 -0.18777275
0.27808177 -0.081347883 -0.2245841
0.26547879 -0.51369482 -0.21513891
0.2501598 -0.29124588 -0.13237476
0.23125678 -0.16870087 -0.10938692
0.22581778 -0.34498888 -0.12620687
0.21606779 -0.56090683 -0.19753981
0.19823779 0.27415615 -0.012449741
0.19234279 0.19636118 -0.013467789
0.18286778 -0.86172587 -0.32034779
0.17594078 -0.21690589 -0.064381123
0.16691978 0.20390719 0.05217123
0.15533279 -0.62879986 -0.20316172
0.14976878 -0.6770038 -0.22634172
0.14651679 -0.94391078 -0.3572979
0.12414078 0.28965616 0.1371913
0.12688078 0.034792185 0.00067710876
0.12472878 0.49375916 0.10787916
0.12773478 -0.21280378 -0.041851044
0.12179878 -0.15716285 -0.042478085
0.12082978 -0.85977381 -0.31418371
0.10756178 0.13478518 0.091582298
0.11549078 -0.94517785 -0.3626318
0.098168775 -0.33044678 -0.052958965
0.10149378 -0.76345783 -0.26458406
0.089814782 0.13694417 0.10859203
0.097492777 -1.0220978 -0.40888596
0.091736779 -0.093806803 -0.020948887
0.077558778 0.21596116 0.15637922
0.078655779 0.61181915 0.072544098
0.078746781 -1.0233359 -0.41360188
0.065777779 0.53244215 0.17681932
0.066289783 -1.0255427 -0.42170811
0.048647784 0.17734116 0.1610899
0.04836078 0.26599216 0.19395494
0.043819778 0.0033631921 0.041014194
0.031832784 0.045938194 0.080271244
0.02580378 0.089038193 0.11653805
0.019834781 0.64860618 0.15301323
0.01948978 0.39040214 0.23207331
0.021076782 -0.49483579 -0.13150597
0.013855781 0.26785713 0.21120501
0.01465578 -0.15291482 -0.017975807
0.0023647808 0.34252918 0.23467112
0.003190781 -0.67941278 -0.238379
-0.0033412189 0.34270614 0.23651505
-0.0032502189 0.09112215 0.13221931
-0.003345219 0.50331819 0.24069309
-0.002770219 -0.95962185 -0.41756773
-0.0031082192 -0.27184886 -0.030864716
-0.0090462193 0.46241117 0.24689293
-0.0090462193 -0.40882689 -0.08976078
-0.014930218 -0.042492807 0.028641224
-0.015223219 -0.77383488 -0.30760908
-0.020914219 -0.21028084 -0.028657913
-0.026148219 0.57796717 0.2387743
-0.037514217 0.34375715 0.24755192
-0.048878223 0.34410316 0.25122213
-0.054573216 0.57866716 0.25060797
-0.062012218 -0.042578876 0.028271198
-0.071608223 0.34442419 0.25475025
-0.077203222 0.39316416 0.2635951
-0.080424219 -0.21300882 -0.044033051
-0.088811219 0.30061215 0.24341631
-0.08856722 0.80427516 0.26336193
-0.088598222 0.57926017 0.26085711
-0.095701218 -0.69884783 -0.32052803
-0.10003722 0.34447217 0.25558901
-0.10020222 0.77174515 0.2437501
-0.10559322 0.39320618 0.26442909
-0.10580122 0.77194417 0.25040531
-0.11599022 -0.80572289 -0.43637609
-0.11758622 0.85551918 0.22632217
-0.12630822 0.0051041842 0.053971291
-0.12926921 0.22227317 0.21239424
-0.14052521 -0.21862382 -0.07553196
-0.13954021 0.50540519 0.27128506
-0.16102521 -0.73740178 -0.483459
-0.15606721 0.0021611452 0.034033298
-0.16095421 -0.42926389 -0.18990898
-0.15900421 -0.28485686 -0.10056782
-0.15705021 0.34383214 0.24994993
-0.15691721 0.69746721 0.2558322
-0.15669921 0.57946312 0.26542902
-0.16800222 0.50511813 0.2679019
-0.17854221 0.80513513 0.29914331
-0.18761721 0.17847419 0.17271519
-0.19676422 0.69740212 0.25529528
-0.20377721 0.26750517 0.21076393
-0.20244221 0.57881212 0.25574017
-0.21503621 0.038566172 0.029831886
-0.20841022 0.39143115 0.24668694
-0.22355121 -0.010673821 -0.053699017
-0.22543322 0.082784176 0.072627068
-0.21995722 0.62070417 0.24218225
-0.22623922 0.34123516 0.22476101
-0.24807322 -0.31228286 -0.24852896
-0.23745722 0.38997418 0.2311573
-0.23729222 0.41980416 0.23588133
-0.24328321 0.38968116 0.22804213
-0.24519122 0.85457015 0.17473125
-0.2609182 0.61920917 0.21553087
-0.26063722 0.41863918 0.22284698
-0.26143122 0.69510317 0.20218992
-0.27818722 0.50099915 0.21367407
-0.29585621 0.16558117 0.068725109
-0.29097021 0.61740816 0.1829133
-0.30416521 0.28995419 0.14533901
-0.31561822 0.33357614 0.14828014
-0.31161723 0.80338717 0.23470306
-0.33687821 0.25180918 0.068948269
-0.33326221 0.41166818 0.14288425
-0.37780121 0.36574119 -0.036906719
