# .PCD v0.7 - Point Cloud Data file format
VERSION 0.7
FIELDS x y z
SIZE 4 4 4
TYPE F F F
COUNT 1 1 1
WIDTH 1
HEIGHT 128
VIEWPOINT 0 0 0 1 0 0 0
POINTS 128
DATA ascii
0.43907243 -0.44022691 -0.36942053
0.44002041 -0.78769588 -0.48239994
0.42972842 -0.11973488 -0.31881475
0.42100742 -0.57250285 -0.37615585
0.41750842 -0.69379985 -0.42035151
0.38523242 0.067939103 -0.18325663
0.39961743 -0.77489591 -0.43273783
0.39147943 -0.95216191 -0.50935793
0.38893542 -0.86700487 -0.46386862
0.36657742 0.31867611 -0.17091656
0.33960542 0.26168913 0.0014681816
0.30106941 0.048056126 -0.047064781
0.29660743 0.38879514 0.049349308
0.30472142 -0.26494086 -0.12596369
0.30107442 -0.07621491 -0.047163486
0.28923643 0.18601012 0.084355354
0.28870744 0.27203912 0.095988274
0.31140143 -0.8505069 -0.40377092
0.28307542 0.34437609 0.093566418
0.29652444 -0.75229394 -0.34601974
0.26443943 0.053108096 -0.011990547
0.26806441 -0.14377892 -0.10032177
0.27100241 -1.0059239 -0.47596979
0.24141541 0.15853614 0.13183832
0.26100442 -0.84334195 -0.37808561
0.25605842 -0.60935986 -0.24933672
0.23466942 0.30832112 0.15954208
0.23026343 0.1095711 0.12475538
0.24398944 -0.92595088 -0.41829681
0.21162643 0.3518551 0.16890049
0.19965643 0.28225911 0.18826532
0.20107043 -0.24793184 -0.036649704
0.17684942 0.1666801 0.1949563
0.18164343 -0.9204309 -0.39966488
0.17206043 -0.18904984 -0.04552269
0.15447842 0.40135312 0.18636417
0.15483843 0.42928612 0.17213535
0.15778042 -0.1173799 0.055909157
0.15546142 -0.3807199 -0.085277557
0.14904642 0.61580813 -0.06299448
0.15426642 -0.73598886 -0.28451872
0.13660443 0.31547713 0.22655249
0.14957543 -0.83393586 -0.34501553
0.14022642 -0.057506919 0.066971302
0.14212643 -0.73578894 -0.28398466
0.12573743 0.12109613 0.20898008
0.12052142 0.43069512 0.1881423
0.12104941 0.4696821 0.16185617
0.12887143 -0.64584386 -0.22783756
0.11597941 0.5086441 0.13041544
0.12392042 -0.73550189 -0.28319168
0.098783419 -0.6454159 -0.22655392
0.066253416 -0.29549992 -0.0087618828
0.068363413 -0.59580791 -0.19480467
0.05275242 0.47154212 0.1848135
0.046921421 0.048193097 0.20539808
0.042344421 -0.16851389 0.070684433
0.040330421 -1.0013189 -0.46468973
0.03069542 -0.052939892 0.09459734
0.025497418 -0.2951299 -0.0071549416
0.026471421 -0.59533787 -0.19309664
0.018825419 0.58693016 0.18799925
0.0075944187 0.86172915 0.1627841
0.0017964188 0.40591609 0.2358923
0.0030414183 -1.0048709 -0.47766685
-0.0038295817 0.12767708 0.25736046
-0.015004582 0.12810111 0.26056337
-0.031699583 0.24789709 0.27853441
-0.037308581 0.32002914 0.26943922
-0.048438579 0.17681313 0.27357817
-0.053727582 0.70995712 0.31446648
-0.059592582 0.1767481 0.27313709
-0.061043579 0.89403009 0.088361263
-0.066080585 -0.04140687 0.16846037
-0.071279585 0.81128609 0.21706343
-0.077109583 0.004748106 0.1974144
-0.077761583 0.8612451 0.13514137
-0.081280582 0.74025613 0.32714319
-0.10416158 0.20960009 0.27535629
-0.11651658 0.81090611 0.20261145
-0.12068959 -0.24975288 -0.049021721
-0.12088958 0.2473951 0.27505922
-0.12133858 0.78062308 0.24935627
-0.13225958 -0.75837791 -0.37633991
-0.13849658 -0.7596699 -0.38147783
-0.13823858 0.78045213 0.2440033
-0.14332257 0.1760481 0.26873446
-0.14387457 0.51660711 0.24237108
-0.15071557 0.0028101206 0.18567419
-0.15400158 0.59293509 0.28998137
-0.17661458 -0.77265489 -0.43344593
-0.16703857 0.048879087 0.21186113
-0.16511957 0.59294212 0.29036427
-0.17117357 -0.17367792 0.042669296
-0.17851058 0.4319371 0.20384645
-0.18881957 0.3586511 0.23859024
-0.18916558 0.086382091 0.22620726
-0.20361957 -0.30959988 -0.080475807
-0.21936458 -0.68968487 -0.41259289
-0.20523958 0.28910112 0.25193405
-0.23900057 -0.69781494 -0.44658089
-0.23226158 0.73838311 0.27987051
-0.25197759 -0.4993459 -0.28472948
-0.24039158 0.083717108 0.20849848
-0.23974858 0.12304813 0.2264533
-0.27133259 -0.66245794 -0.48153687
-0.24955258 0.59126008 0.26484442
-0.26793957 -0.4093219 -0.22491264
-0.26236558 0.31480712 0.22331142
-0.27362558 0.2857691 0.22316647
-0.28026259 0.77896512 0.19909716
-0.29683357 0.50457311 0.078356266
-0.29664558 0.20131212 0.21181107
-0.31621256 0.076010108 0.15570831
-0.32860458 0.8090241 0.1350112
-0.33579257 0.032707095 0.10529041
-0.34517759 -0.14139485 -0.08323288
-0.34376457 0.30930811 0.17321825
-0.35097858 0.50117707 0.033224106
-0.38475057 -0.22914183 -0.26907682
-0.37310156 0.024915099 0.05284214
-0.39383358 0.10459912 0.093990326
-0.40227759 0.060639083 0.048670292
-0.40015858 0.3914901 0.084337234
-0.40965158 0.27375114 0.11748028
-0.44200158 0.18236411 0.061287403
-0.44476959 0.38548213 0.019058228
-0.45882857 0.44792414 -0.10497189
