# .PCD v0.7 - Point Cloud Data file format
VERSION 0.7
FIELDS x y z
SIZE 4 4 4
TYPE F F F
COUNT 1 1 1
WIDTH 1
HEIGHT 128
VIEWPOINT 0 0 0 1 0 0 0
POINTS 128
DATA ascii
1.1540499 0.020159304 -0.09684515
1.1310228 0.059017301 -0.10812807
1.1009028 -0.065236688 -0.11273909
1.0885549 -0.06493175 -0.11231232
0.9788388 0.060237288 -0.11799002
0.95406383 -0.062972665 -0.11543512
0.86041278 -0.013072729 -0.094928265
0.84465182 0.061698318 -0.12097406
0.83242881 0.061879277 -0.1207552
0.77605581 -0.058531642 -0.10320711
0.75763482 -0.057949662 -0.10086823
0.75095481 0.02677232 -0.093466282
0.73876381 0.027018309 -0.092665195
0.68298984 -0.0081297159 -0.075469017
0.6870138 -0.1064527 -0.13093996
0.65849781 -0.007181704 -0.070580006
0.64648783 0.10979629 -0.16219711
0.59282881 0.0694713 -0.081488132
0.54852581 -0.0022037029 -0.042529106
0.51323181 0.073319316 -0.056606293
0.50622779 0.14614129 -0.16475534
0.48787284 -0.044239759 -0.026479244
0.47928184 -0.16138172 -0.10510206
0.44544381 0.0030043125 -0.010905266
0.42965382 -0.15515673 -0.069336891
0.39149082 0.042384326 -0.00036525726
0.38562882 -0.084101677 -0.0032720566
0.36882484 0.12641227 -0.041923046
0.36759484 -0.082962751 0.0035047531
0.36133882 -0.037284732 0.015455723
0.35536182 0.0074452758 0.017209053
0.35559481 -0.082208753 0.0080137253
0.31955481 0.0091593266 0.028347015
0.30181381 -0.078999758 0.027385712
0.28398183 0.047210276 0.032201767
0.27843782 -0.1421597 0.0056018829
0.27203482 0.011107326 0.041142941
0.26076281 0.13105428 -0.0068011284
0.24863082 -0.14010274 0.017700672
0.24312182 0.16310829 -0.030216217
0.24318981 -0.20530069 -0.038082123
0.23149583 0.19855332 -0.075158119
0.22470082 0.012973309 0.053700924
0.19533782 -0.20076072 -0.012147903
0.18942682 0.20040232 -0.059075356
0.16577181 -0.073182702 0.063569069
0.15972781 0.13432533 0.019011974
0.14788882 0.13461733 0.021399021
0.14097083 0.23932129 -0.14149714
0.13635382 0.051952302 0.066011906
0.11090082 -0.28121471 -0.11650801
0.099781819 0.20285833 -0.036981106
0.094522819 -0.19568968 0.01767683
0.089148819 -0.13361168 0.057339668
0.083279818 0.08954531 0.05898571
0.06893982 -0.27740574 -0.095048904
0.071492821 -0.13340271 0.058877945
0.059266821 0.13616431 0.034838676
0.042408824 0.053299308 0.077092648
0.024800822 0.053401291 0.078221798
0.01906082 0.017027318 0.083850861
0.019031823 -0.070507646 0.082657814
-0.016694188 -0.13248074 0.066500664
-0.063854188 0.089920282 0.065611839
-0.069694176 -0.13268769 0.067024708
-0.080932185 0.053321302 0.080966949
-0.080747172 -0.070534706 0.085661888
-0.10402019 -0.026496649 0.091212749
-0.11840217 0.24267328 -0.10365725
-0.11806618 0.13606232 0.039592743
-0.12445317 0.24262732 -0.10382318
-0.12163918 -0.026605725 0.091263771
-0.12188818 -0.070787668 0.085785866
-0.14537819 0.016535282 0.086448669
-0.21532218 0.24187928 -0.10619593
-0.21708719 -0.1337117 0.067965984
-0.23028718 -0.27184868 -0.053064346
-0.22889118 -0.13381875 0.068031788
-0.23498718 0.088718295 0.064949036
-0.24228118 -0.27190173 -0.052624226
-0.2482812 -0.27193165 -0.052412033
-0.24582319 0.052068293 0.080367088
-0.2760002 0.24132329 -0.10764217
-0.26311117 0.015560329 0.086425781
-0.27853119 -0.19563365 0.033148766
-0.28411317 0.13473129 0.038346767
-0.2808072 -0.072141647 0.086211681
-0.30193621 0.1345613 0.038232803
-0.31430119 -0.27236569 -0.050323963
-0.32160318 0.16611427 0.013374805
-0.3225472 0.051307321 0.080163002
-0.32605517 -0.19615972 0.033509731
-0.3461802 0.051050305 0.080111027
-0.34708518 -0.1350857 0.068604946
-0.35705119 -0.028729677 0.091882706
-0.3811152 -0.073301673 0.086443901
-0.38655722 -0.029084682 0.09194994
-0.38702321 -0.073377728 0.086456776
-0.40981221 0.2399413 -0.11044312
-0.40475518 0.014005303 0.086448669
-0.40934217 -0.19724166 0.034023762
-0.42809618 0.23973531 -0.11078405
-0.43432522 0.013628304 0.086462021
-0.43972218 -0.029772758 0.092063904
-0.45307022 0.16471231 0.012660027
-0.48058021 0.13256431 0.037333965
-0.48704422 -0.030438662 0.092157841
-0.48981619 0.085927308 0.06438303
-0.54060018 -0.19935668 0.034523964
-0.54097718 0.01211828 0.086527824
-0.54284018 -0.13798475 0.069228649
-0.55878621 0.011843324 0.086539745
-0.63607419 0.010574281 0.086612701
-0.65845519 -0.27788973 -0.047160149
-0.65414017 0.1301173 0.036851883
-0.66324121 0.1619013 0.01196003
-0.66926718 0.16181028 0.011946678
-0.67487222 0.19729728 -0.032740116
-0.69308519 0.19702733 -0.032824993
-0.68374121 0.0097312927 0.086667061
-0.68462121 0.046194315 0.079845905
-0.68370217 -0.078230739 0.086966991
-0.71936119 -0.27943075 -0.047933102
-0.7541402 0.19587028 -0.034990311
-0.75399417 0.16027927 0.010207653
-0.76016819 0.16007131 0.0093040466
-0.75273919 0.081609309 0.0628438
-0.79394519 -0.29089272 -0.10118198
