# .PCD v0.7 - Point Cloud Data file format
VERSION 0.7
FIELDS x y z
SIZE 4 4 4
TYPE F F F
COUNT 1 1 1
WIDTH 1
HEIGHT 128
VIEWPOINT 0 0 0 1 0 0 0
POINTS 128
DATA ascii
0.28088009 -0.69513452 -0.092016697
0.2731961 -0.76624656 -0.049508572
0.2746821 -0.61769152 -0.088171482
0.25046709 -0.25218248 -0.087369442
0.23907509 0.014471471 -0.10837841
0.2356641 -0.55600452 -0.0055603981
0.23228011 0.017750502 -0.085730553
0.2305651 -0.2968365 -0.032642365
0.2261281 0.096046507 -0.082235336
0.2252831 -0.067323565 -0.055360794
0.21989709 0.1477595 -0.075929642
0.2193421 0.021816492 -0.057767391
0.2116781 -0.29095256 -0.0022964478
0.2070341 0.10061151 -0.048258781
0.2035851 -0.93075252 0.071464539
0.2044041 -0.66127157 0.043034554
0.1999051 -0.11997449 -0.0081944466
0.18556009 -0.92716646 0.083468437
0.18750709 -0.17286646 0.0090923309
0.18247309 0.22968048 -0.027388573
0.1692301 -0.16981149 0.026265621
0.1639351 0.15714246 -0.0022125244
0.15112309 -0.1673975 0.039793491
0.14711809 0.40111846 -0.056137562
0.1446161 -0.47350049 0.068543434
0.1393211 -0.052573562 0.036801338
0.1331581 -0.16565752 0.049480438
0.12823009 0.3551265 -0.0073785782
0.1202831 -0.91862357 0.11184359
0.11576711 0.2359035 0.025954247
0.11555511 0.073587477 0.03942728
0.1151671 -0.22394049 0.0641222
0.085092105 -0.79209054 0.11189556
0.073505104 -0.53168249 0.097212315
0.0677981 -0.2213515 0.077742577
0.061923102 -0.16105056 0.075119495
0.061711103 -0.57179856 0.10214043
0.055964105 -0.27395546 0.084157467
0.050227106 0.11520046 0.059397221
0.044376105 0.28567946 0.048342228
0.0453021 0.59401345 -0.12853336
0.044233106 -0.10569048 0.075699329
0.038419105 0.19931847 0.056614399
0.038359106 -0.0035965443 0.070265293
0.039096102 0.51647747 -0.098576546
0.032494105 0.16516548 0.060350418
0.032466106 0.040366471 0.068405628
0.033144102 0.63968551 -0.12587547
0.026511103 -0.34330249 0.088977337
0.020682104 0.23957247 0.057375431
0.020655103 -0.046744466 0.0728302
0.014760103 -0.0035735369 0.070360661
0.014932103 0.7206825 -0.12753153
0.0088581033 0.59525752 -0.10784054
0.0088581033 0.92542148 -0.1359868
0.0088581033 -0.53126955 0.098707199
0.0028091036 0.5517565 -0.1006937
-0.0032648966 0.6743325 -0.11526251
-0.0028748969 -0.79290557 0.10843229
-0.0088418964 -0.0036594868 0.069807529
-0.0093928967 1.0051755 -0.14047146
-0.0087938961 -0.34346855 0.088152409
-0.008785896 -0.41857255 0.091497421
-0.021495897 0.83453751 -0.12532568
-0.026512897 -0.16090655 0.075835228
-0.032586895 0.31599748 0.046554565
-0.032265894 -0.97294354 0.099196434
-0.032229893 -0.92035747 0.10500145
-0.038310893 -0.22186148 0.074852467
-0.044546895 0.35895449 0.03175354
-0.044738896 0.40683246 0.0073065758
-0.045749895 0.75361848 -0.12142467
-0.050298899 0.23900348 0.052620411
-0.050496899 0.3587755 0.02993536
-0.050115898 -0.27598453 0.073589325
-0.050023898 -0.53466749 0.084121227
-0.056201898 0.16432947 0.053922653
-0.057931893 0.9255355 -0.12626743
-0.056001894 -0.34622347 0.074716568
-0.063698895 0.51655149 -0.09722662
-0.061809897 -0.6507895 0.083176613
-0.067993894 -0.0055865049 0.057366371
-0.074028894 0.1981535 0.047323227
-0.076373897 1.0051715 -0.14467955
-0.079679891 -0.47347558 0.067874432
-0.091892898 0.23756748 0.040484428
-0.093589894 0.47442448 -0.073883533
-0.091495894 -0.73501348 0.067220211
-0.097902894 0.28420448 0.035277367
-0.10380189 0.16217947 0.037320614
-0.1037299 -0.0080235004 0.041615486
-0.10717089 0.67183852 -0.16588736
-0.1070369 0.96801049 -0.15780878
-0.1034589 -0.65712452 0.057996273
-0.10366389 -0.16629255 0.045608521
-0.1034899 -0.58278847 0.056119442
-0.1097559 0.0730775 0.035923481
-0.11072289 0.40439349 -0.019448757
-0.1132049 0.9250955 -0.16167974
-0.10956889 -0.35200155 0.046656609
-0.1095349 -0.42788649 0.04857254
-0.1157959 0.16124648 0.030046463
-0.11582989 0.23611951 0.028154373
-0.1157729 0.11135346 0.031305313
-0.12201289 0.31270546 0.01551342
-0.1217799 0.11085749 0.027664661
-0.1261199 0.96776348 -0.19835663
-0.1336219 -0.94244146 0.029425621
-0.1337249 -0.054530501 0.024528503
-0.13983691 0.10936147 0.016715527
-0.14109389 0.4024455 -0.040877342
-0.13971891 -0.66612053 0.022138596
-0.14589891 0.15889049 0.011790276
-0.1459419 0.23397148 0.009888649
-0.14649691 0.35436946 -0.014557362
-0.14580791 -0.66771948 0.015777588
-0.1519499 -0.17302752 0.0077233315
-0.1642209 0.19153148 -0.006310463
-0.17196791 0.39943945 -0.074146748
-0.1783109 0.39840847 -0.085643768
-0.1764839 -0.12158453 -0.018098354
-0.18467391 0.3973735 -0.097176552
-0.1888489 0.18837249 -0.03205061
-0.1894839 -0.50073147 -0.054105759
-0.2013859 0.22699147 -0.050007343
-0.2032859 -0.51355755 -0.11218834
-0.2142569 0.14767247 -0.076250553
-0.2347519 0.2960065 -0.14468956
