# .PCD v0.7 - Point Cloud Data file format
VERSION 0.7
FIELDS x y z
SIZE 4 4 4
TYPE F F F
COUNT 1 1 1
WIDTH 1
HEIGHT 128
VIEWPOINT 0 0 0 1 0 0 0
POINTS 128
DATA ascii
0.52278429 0.30867571 0.025083065
0.43968332 0.19635272 0.36411142
0.45472631 0.35001773 0.020409107
0.42741132 0.31418973 0.083482265
0.39597031 0.10888171 0.2937603
0.40741131 0.28924674 0.12806225
0.36337331 0.14587474 0.2917943
0.35213533 0.10963273 0.29717636
0.35022533 0.36751774 0.23935127
0.34178331 0.18897671 0.28819227
0.33980531 -0.075173259 0.32101727
0.34035632 -0.0015922785 0.31187344
0.31192333 -0.16718829 0.33462715
0.30473831 0.36990175 0.26750422
0.29623932 -0.074297249 0.32439518
0.2925173 0.18968475 0.29204702
0.29105932 -0.034351289 0.31986904
0.28088731 0.07946974 0.30660725
0.27543533 0.079556763 0.30703402
0.27481231 0.26119274 0.31954432
0.27161533 0.33094573 0.27408743
0.2473233 -0.073366284 0.3281951
0.23185232 0.080232739 0.31043816
0.23161432 0.035266757 0.3160181
0.22676232 0.14790875 0.30247736
0.21586531 0.14805675 0.30333042
0.21607731 0.19070172 0.29804039
0.21530432 0.035523713 0.31729126
0.21430932 0.30907476 0.34206915
0.21456932 -0.11189526 0.33557606
0.20086032 0.37039873 0.26915836
0.19341631 0.00096476078 0.3233161
0.19518131 0.41045472 0.27520418
0.18241931 -0.032459259 0.32832813
0.17901431 0.41009474 0.26957846
0.19102232 -0.40123427 -0.083102703
0.16565232 0.33728576 0.34538507
0.15813632 0.36814174 0.23859024
0.15098631 0.25929171 0.29476833
0.14372732 0.43523073 0.16559505
0.14345832 -0.33853924 -0.029373646
0.12673232 -0.34159625 -0.046569824
0.11236832 0.081893742 0.31979418
0.11284332 0.33357275 0.29964542
0.11554031 0.40421674 0.18522406
0.10703732 0.11316872 0.31635427
0.096400321 0.19209576 0.30744505
0.096471325 0.21967071 0.30402946
0.081995316 0.40576473 0.20624733
0.074995317 0.33297372 0.29173803
0.069554314 0.33301771 0.29216719
0.063628316 0.082490742 0.32361841
0.063974321 0.26013774 0.30162621
0.067983314 0.54251873 0.046406269
0.066627316 0.47361875 0.13270235
0.070356317 -0.3519783 -0.10464287
0.058470316 0.22004676 0.30702543
0.05261232 -0.030549288 0.33847332
0.053045318 0.22009873 0.3074522
0.053193316 0.30546576 0.29688311
0.036934316 0.33327276 0.29474735
0.038042314 0.43744874 0.19705915
0.031465314 0.30564076 0.29860115
0.025770318 0.082921743 0.32659245
0.025901318 0.19280374 0.31299829
0.020636316 0.33339471 0.29603624
0.0095193163 0.038294733 0.33341026
-0.00018968433 0.51510775 0.12698936
-0.00068468228 0.43908674 0.22151136
0.0026913173 -0.53761828 -0.42332268
-0.0057816822 0.51530075 0.13057518
-0.0064916834 0.37261373 0.29335833
-0.012082683 0.0037527084 0.33940744
-0.028220683 0.41293174 0.3057704
-0.033641681 0.0016537309 0.32415104
-0.044414684 0.44709274 0.34247732
-0.051301681 -0.37479532 -0.23055983
-0.055269681 0.19351476 0.31940126
-0.060651682 0.15109372 0.3250761
-0.072618678 -0.84908831 -0.92875862
-0.076790683 0.083946705 0.33466816
-0.076943681 0.26126373 0.31276035
-0.092921682 0.40607172 -0.27745485
-0.090954684 -0.22950721 -0.052040577
-0.098390684 0.11525476 0.33252525
-0.098673686 0.33417875 0.30548334
-0.10405168 0.30658472 0.30932522
-0.12657067 -0.93287826 -1.0905147
-0.12627168 0.34062475 -0.11833191
-0.13864468 -0.86655223 -1.0044007
-0.13324669 -0.30862427 -0.19814968
-0.14958268 -0.76375329 -0.86497974
-0.13611868 0.11554974 0.33550549
-0.15424868 -0.6867373 -0.75782681
-0.14173368 0.22163874 0.32284117
-0.15474668 -0.01448828 0.20824909
-0.15802568 0.26177275 0.31918144
-0.20915368 -0.77873325 -0.93210983
-0.19675668 -0.2474283 -0.15878487
-0.20579869 -0.17317128 -0.058951855
-0.21316268 -0.066669285 0.088523388
-0.21133669 -0.022164285 0.1539011
-0.21893668 -0.067497253 0.082913399
-0.22989169 -0.32618725 -0.29737186
-0.22079669 0.021575749 0.20954323
-0.26100767 -0.89941823 -1.1453047
-0.25852168 -0.41488624 -0.44680166
-0.28537267 0.065134764 -0.8781538
-0.27732867 -0.18466425 -0.1302228
-0.31095669 -0.8046633 -1.0473056
-0.30655369 -0.72350323 -0.92725372
-0.30732569 -0.5015533 -0.60875177
-0.33704069 -0.03030324 -0.87760162
-0.33497068 -0.43004322 -0.52710581
-0.32169169 -0.037368238 0.047579288
-0.33204368 -0.19355226 -0.18487978
-0.33068269 -0.083684266 -0.02588892
-0.4029277 -0.74722326 -1.0351176
-0.42091969 -0.18227232 -0.99969769
-0.41284767 -0.36024022 -0.48636198
-0.40021667 -0.20474124 -0.25314474
-0.42585367 -0.28739321 -0.39158869
-0.46290067 -0.64164424 -0.92923069
-0.48790467 -0.76841521 -1.1306248
-0.50950468 -0.77384222 -1.1549587
-0.48680869 -0.46069324 -0.68738461
-0.51481569 -0.35988522 -0.82581568
-0.66394168 -0.6888783 -1.1510067
