# .PCD v0.7 - Point Cloud Data file format
VERSION 0.7
FIELDS x y z
SIZE 4 4 4
TYPE F F F
COUNT 1 1 1
WIDTH 1
HEIGHT 128
VIEWPOINT 0 0 0 1 0 0 0
POINTS 128
DATA ascii
0.49603945 0.64322561 -0.40226412
0.40447044 0.5785476 -0.047933102
0.39259642 0.70245159 -0.04847908
0.36816144 0.65695965 -0.037838936
0.38054144 0.27866763 -0.35559607
0.36947644 0.3706736 -0.16370916
0.35091245 0.65661561 -0.04815197
0.34477144 0.42311561 -0.044672966
0.34363642 0.5022316 -0.024045944
0.31994045 0.57992566 -0.024263859
0.31533444 0.70252764 -0.050314903
0.28440145 0.21410865 -0.024423122
0.28365844 0.42591962 -0.0083661079
0.27849445 0.18360859 -0.024774075
0.26165244 0.57898861 -0.046402931
0.24755941 0.18719959 0.0075368881
0.24844341 0.46021661 -0.013986111
0.24415542 0.65657258 -0.054438114
0.23873542 0.78995264 -0.067800999
0.23632841 -0.083634377 -0.16021109
0.23080043 0.46010861 -0.016317844
0.22368343 0.26255059 0.015782833
0.22469942 0.42588863 -0.011271
0.20918642 0.62378466 -0.074481964
0.19047742 0.54563057 -0.048930168
0.19036542 0.62501764 -0.045459747
0.18196443 0.1036486 0.033021927
0.19295242 0.82180464 -0.31661415
0.17901742 0.57835865 -0.062486172
0.18356642 -0.29925436 -0.21139383
0.17271042 0.54558063 -0.050427914
0.15882042 -0.20372337 0.021635056
0.15356942 0.31081259 -0.0013999939
0.14321242 0.62455463 -0.057939053
0.13507143 0.10367864 0.031955242
0.13742442 0.65633464 -0.064356804
0.12371242 0.18849063 0.01568222
0.11888543 0.45926163 -0.03250885
0.11155942 0.069744647 0.034634113
0.11168042 0.10336959 0.028847218
0.11370942 0.57817364 -0.06799078
0.10582942 0.10328364 0.02800703
0.10510142 -0.13770241 0.064283848
0.095405422 0.50162065 -0.043374062
0.088024423 0.021072626 0.039819241
0.07679642 0.18786561 0.0089302063
0.076337419 0.020876646 0.038142204
0.071920425 0.54524863 -0.058906078
0.070434421 -0.5141744 0.041265011
0.064467423 -0.052943408 0.049351215
0.066611424 0.82442564 -0.10419416
0.052312419 -0.42953032 0.08698988
0.046573423 -0.24817735 0.080407143
0.04667642 -0.19514936 0.071342945
0.041690424 0.2605986 -0.0089631081
0.04183542 0.33955961 -0.022789955
0.035273425 -0.053492367 0.045176983
0.029049424 -0.30672139 0.088096142
0.029185424 -0.62071937 0.072507858
0.024084425 0.30935961 -0.02009201
0.026555425 -0.91954035 -0.33464003
0.018834425 0.7345286 -0.11411715
0.018366424 0.45839462 -0.047064781
0.0007804241 0.65530658 -0.094151974
0.0016724244 -0.98225838 -0.29870176
-0.0051585753 0.70118862 -0.10336494
-0.0058215763 -0.73183733 0.086591244
-0.011419576 0.14058661 0.0043129921
-0.023132576 0.50066066 -0.060551167
-0.034958575 0.10102761 0.0078072548
-0.034859575 -0.5459854 0.12054682
-0.040876575 0.21599561 -0.013220787
-0.046710577 0.067105591 0.0120368
-0.046744578 0.14000964 -0.00075387955
-0.058410577 -0.019179404 0.025456905
-0.070583574 0.38064861 -0.046506882
-0.070630573 0.42316461 -0.054145813
-0.069843575 -0.30915338 0.074634075
-0.076900579 0.62280762 -0.10194778
-0.075673573 -0.30931038 0.07380724
-0.08275158 0.54385865 -0.085540771
-0.082459576 0.38049763 -0.048372746
-0.086755574 -0.98922139 0.1389761
-0.094266579 0.33790064 -0.042607784
-0.098553576 -1.0466053 0.11399412
-0.097848579 -0.97710437 0.18130112
-0.099319577 -0.14121038 0.040874004
-0.10566458 0.099763632 -0.0023169518
-0.11739258 0.06577462 0.0019278526
-0.11488758 -1.0233045 0.19329023
-0.11666158 -0.25212437 0.057785034
-0.11597957 -0.54845637 0.10984612
-0.12389158 0.30739564 -0.041851997
-0.12807858 -0.36232239 0.075438023
-0.13476057 -0.0570454 0.020926952
-0.14371057 -0.97736937 0.18101692
-0.14483558 -0.61080736 0.11655807
-0.15391557 0.33612061 -0.062987804
-0.15856558 0.016383588 0.0045671463
-0.16517958 0.21396959 -0.031661034
-0.16446958 0.01625663 0.0037231445
-0.17924757 -0.72133833 0.13090801
-0.18594958 -0.50370437 0.091763973
-0.19491158 0.18281764 -0.037134171
-0.18973558 -0.97947234 0.17465305
-0.20758557 -0.86214739 0.15146399
-0.24119158 -0.023304403 -0.0011839867
-0.23652057 -0.86344737 0.14745998
-0.23790058 -0.61430234 0.10355997
-0.24711758 -0.023456395 -0.0021009445
-0.25462857 0.09357059 -0.050753117
-0.25282758 -0.059951365 0.0035400391
-0.24933457 -0.6539194 0.10883522
-0.25390157 -0.8642444 0.1450572
-0.25719956 -0.31466037 0.048192024
-0.26746458 0.090245605 -0.078108788
-0.27171656 -0.80043334 0.13125896
-0.28188756 -0.14604133 0.014361858
-0.34105057 -0.86841339 0.13303995
-0.36733156 -0.21588141 -0.046175003
-0.36436057 -0.86957842 0.12983322
-0.37549958 -0.92700535 0.1382761
-0.37602657 -0.87016743 0.128232
-0.38832057 -0.80594534 0.11516905
-0.39116958 -0.51157933 0.062563896
-0.39938256 -0.87136537 0.12502384
-0.45085555 -0.56558341 0.044454098
-0.46540755 -0.73418242 0.09130621
