# .PCD v0.7 - Point Cloud Data file format
VERSION 0.7
FIELDS x y z
SIZE 4 4 4
TYPE F F F
COUNT 1 1 1
WIDTH 1
HEIGHT 128
VIEWPOINT 0 0 0 1 0 0 0
POINTS 128
DATA ascii
0.84459734 0.18472975 0.1297226
0.83550638 0.065055788 0.11443233
0.80476034 -0.42803717 0.051005363
0.78507835 -0.013157189 0.10713243
0.78447735 -0.28176618 0.071602345
0.75249034 0.18703777 0.13561535
0.74564338 0.21706277 0.061550617
0.73603034 -0.16681623 0.08975935
0.78057134 0.28432477 -0.46207237
0.67262834 -0.16466725 0.093887329
0.71136737 0.25983077 -0.2579155
0.66048539 -0.47129822 0.054020405
0.68707639 0.26033479 -0.25598049
0.63943738 0.10802978 0.1320076
0.69916737 0.28595978 -0.4551816
0.63059539 -0.051093221 0.11147261
0.61342537 -0.050602198 0.11257935
0.58931834 -0.3440392 0.075186729
0.57913935 -0.049643159 0.11478567
0.54885536 0.072696805 0.1328187
0.53510338 -0.16037226 0.10279131
0.63876837 0.36742777 -1.0649014
0.50181735 0.19253576 0.15153742
0.50904137 -0.34126818 0.08041954
0.49775434 0.073876798 0.13607168
0.54977137 0.28883076 -0.44152832
0.47060436 -0.46402621 0.066489697
0.46103334 -0.15826917 0.10756063
0.46035439 -0.10435021 0.11474037
0.44899738 -0.10405624 0.1154685
0.43333137 -0.21690917 0.10147572
0.46931338 0.29030478 -0.43363428
0.40552133 -0.26886725 0.096281528
0.38988334 0.11350578 0.14785957
0.39189136 0.26607078 -0.22950459
0.35441637 -0.26745117 0.09956646
0.34874636 -0.26729918 0.099930286
0.38301337 0.29183179 -0.42474031
0.31146836 0.077702761 0.14787054
0.32301235 0.25055277 -0.094193459
0.27701336 0.16334778 0.16130066
0.30236536 0.26766878 -0.22038555
0.27574837 -0.33435619 0.095476627
0.27417436 -0.1536212 0.11950159
0.26622137 0.11574376 0.15565062
0.23583737 0.22748578 0.10332251
0.23260337 0.11629778 0.15776157
0.23519436 -0.2119112 0.11414671
0.22637635 0.1972338 0.16885567
0.28300837 0.34374976 -0.79862452
0.21920335 -0.33293927 0.099089622
0.22507435 0.26899379 -0.21210051
0.20740536 -0.26381326 0.10895967
0.19613236 -0.26356018 0.10967541
0.24961036 0.37340981 -1.0178933
0.22356635 0.32498181 -0.64066648
0.17612737 0.19793677 0.17199564
0.17969337 -0.3320092 0.10160446
0.16597337 0.044287801 0.15226555
0.16015035 0.080258787 0.15738058
0.16277736 -0.33162618 0.10268068
0.16233838 -0.26282728 0.11182261
0.20975736 0.37396777 -1.0126696
0.13031638 0.27055079 -0.20142174
0.10668737 0.27092677 -0.19866848
0.048241362 0.16651177 0.1755867
0.043715358 -0.095732212 0.1411376
0.028233364 -0.45187426 0.094904423
-0.0016096383 0.11949879 0.17238235
-0.0070586354 0.082501769 0.1678133
-0.0063896328 -0.14843321 0.13719559
-0.023283638 -0.094770193 0.14532566
-0.030932635 0.25642878 -0.054765701
-0.039653637 -0.25916421 0.12454844
-0.061906636 -0.32740521 0.11684847
-0.084869638 0.12035781 0.17754269
-0.08997564 -0.25844526 0.12769127
-0.11141464 0.25760978 -0.044617653
-0.13468763 -0.14678526 0.14519167
-0.13462864 -0.40048826 0.11157751
-0.15135963 0.16842276 0.18793631
-0.16812563 -0.2052362 0.13948059
-0.17912464 0.0060427785 0.16811943
-0.19598565 -0.20495021 0.14120531
-0.20122164 0.084333777 0.17982435
-0.20117964 0.1213128 0.18471956
-0.22929864 -0.14586318 0.15104866
-0.23427764 0.1689828 0.19303751
-0.27160466 0.25978976 -0.023098469
-0.30871364 0.38030779 -0.93756342
-0.30213463 -0.32468319 0.13176727
-0.31822065 -0.14522326 0.1565237
-0.32858765 0.049399793 0.18292046
-0.35788065 -0.32431817 0.13519335
-0.41068363 0.20257878 0.20817757
-0.41260564 -0.14478624 0.16230249
-0.41638064 0.1697278 0.20417452
-0.44215763 0.26185578 0.0017604828
-0.43916664 0.049771786 0.18967152
-0.50491667 0.35353476 -0.68564129
-0.46979564 -0.3978442 0.13223839
-0.47996664 -0.25549424 0.15170431
-0.49210563 -0.39780426 0.13359642
-0.60164464 0.33508378 -0.52121258
-0.59829563 0.16980577 0.21521139
-0.60630667 -0.091421247 0.18110943
-0.62553167 0.20262176 0.22120667
-0.65672362 0.2640788 0.035918713
-0.66650462 0.28060579 -0.088363647
-0.66729063 -0.091593266 0.1847806
-0.74802965 0.35566378 -0.64396334
-0.74094665 0.28126276 -0.075637341
-0.73759663 -0.39849019 0.14838171
-0.74917966 -0.033859193 0.20357561
-0.88746566 0.38530076 -0.8377533
-0.86330163 0.33721781 -0.47514343
-0.79712063 -0.25653017 0.17078733
-0.80599362 -0.14440227 0.1932373
-0.83152765 -0.32527018 0.16376829
-0.88066262 -0.25717926 0.17647362
-0.88307863 -0.091971159 0.20392847
-0.88481367 0.20148778 0.23677349
-0.89658761 -0.20512319 0.18433237
-1.0527716 0.38631278 -0.8060813
-0.97468364 -0.20605028 0.18894148
-1.0137826 -0.20658016 0.19124031
-1.0341287 -0.40190518 0.16660929
-1.0421536 0.047361791 0.22954655
