# .PCD v0.7 - Point Cloud Data file format
VERSION 0.7
FIELDS x y z
SIZE 4 4 4
TYPE F F F
COUNT 1 1 1
WIDTH 1
HEIGHT 128
VIEWPOINT 0 0 0 1 0 0 0
POINTS 128
DATA ascii
1.001742 -0.047226608 -0.13702822
0.98259503 0.12745237 -0.086150169
0.96831101 0.30791837 -0.40790081
0.89769804 0.0071923733 -0.040637016
0.87181801 -0.27336657 -0.026524067
0.82493901 0.072298408 0.067369938
0.84133202 0.29621339 -0.18471909
0.74874401 0.34397238 -0.00059700012
0.72503704 0.28003538 0.17538214
0.71235204 0.08847338 0.18571615
0.70833802 0.27942342 0.16730213
0.74102503 0.45038438 -0.2291398
0.68883801 0.089069366 0.18822718
0.681077 0.12550837 0.20882797
0.67297703 0.45546439 -0.15831184
0.62105006 0.21385837 0.23355198
0.64503103 0.4229174 -0.11699724
0.59729302 -0.089802623 0.099145889
0.57747602 -0.04164362 0.12726402
0.56593305 0.092006385 0.20125389
0.55643803 0.039829373 0.17366886
0.53303707 0.040382385 0.17614698
0.54080802 0.38085437 -0.10090399
0.52165902 0.31526238 0.0027151108
0.52350706 -0.32880962 -0.024395943
0.49799106 0.041189373 0.1798439
0.47607905 0.00070136786 0.15979195
0.46004507 0.1303274 0.23200274
0.48951706 0.45033038 -0.2498579
0.44685805 0.0013703704 0.16287279
0.43853906 0.41667038 -0.21922016
0.42741606 -0.32581663 -0.013830185
0.40230906 0.13143337 0.23797894
0.40852505 -0.084900618 0.11936808
0.41343707 0.26800841 0.025647163
0.42657906 0.41629541 -0.22512102
0.38504705 0.20366341 0.12203503
0.33929205 0.20159537 0.10057402
0.34370607 -0.32342958 -0.0047469139
0.34292307 0.33552039 -0.13041687
0.30405405 -0.12949765 0.10474777
0.26570705 0.2238934 0.021481991
0.27551204 0.4114514 -0.29942894
0.25564805 -0.034308612 0.16118002
0.23142804 -0.38091767 -0.025677204
0.21205504 0.19569039 0.041162014
0.20622104 0.19541436 0.03844595
0.19204605 0.12268138 0.1572051
0.15158404 0.36738938 -0.29064989
0.13973606 -0.03225559 0.1730752
0.13453604 -0.12610757 0.12235498
0.11225705 0.19090438 -0.0051689148
0.10846505 0.36580539 -0.31150913
0.10614805 -0.31778264 0.020415783
0.093642049 -0.07864058 0.15205288
0.088581048 0.18974942 -0.01612711
0.064725049 -0.1892786 0.094377041
0.058879051 -0.37704766 -0.0075259209
0.052718051 0.32430738 -0.26984882
0.04696605 0.1877014 -0.035356045
0.047257051 -0.12464964 0.13126183
0.04108705 -0.37670064 -0.0056819916
0.041355051 -0.1888876 0.096764088
0.03588805 0.046360373 0.20444298
0.035005048 -0.45615065 -0.048465252
0.0097780488 0.29497141 -0.24233484
0.0012660511 0.044300377 0.18906498
-0.013374951 0.2108584 -0.10869026
-0.021778952 -0.029918611 0.189363
-0.049170952 -0.54142058 -0.087164879
-0.070783958 0.10842937 0.038053036
-0.073537961 -0.02930063 0.19451189
-0.092468947 0.20698541 -0.14526892
-0.10192595 0.29015636 -0.29513502
-0.11126295 0.077703416 0.069332123
-0.16051295 -0.075361609 0.17746592
-0.16888696 -0.53945458 -0.074963093
-0.19278996 -0.24607456 0.087327003
-0.20086895 0.072380364 0.029517174
-0.22101097 0.099832416 -0.029268265
-0.22666295 -0.45200562 -0.02188015
-0.23075195 -0.37264466 0.021800041
-0.23388796 0.029800415 0.085501194
-0.25258192 -0.074567616 0.18645811
-0.26021093 -0.37234461 0.024702072
-0.26861992 -0.24535358 0.094769955
-0.26531693 -0.12103367 0.16229105
-0.29429895 -0.53793561 -0.062477112
-0.31355894 0.23527938 -0.31557703
-0.33247393 0.16799742 -0.20888996
-0.33909893 0.23401839 -0.32737207
-0.32825795 0.064611375 -0.026737213
-0.34781894 0.19396341 -0.262465
-0.35378194 -0.038864613 0.13928413
-0.35760295 -0.12045062 0.17118692
-0.37740594 0.061551392 -0.04832983
-0.37717193 -0.1844126 0.13810873
-0.37489593 -0.12036562 0.17284107
-0.41553593 0.018016398 0.0065169334
-0.44607195 -0.31119359 0.075343132
-0.44334796 -0.24432158 0.11157513
-0.46080795 -0.24426663 0.11322784
-0.504807 0.11724538 -0.21498394
-0.50292397 -0.53663361 -0.042374134
-0.53064096 -0.24413562 0.11979103
-0.57562196 0.1544404 -0.31847286
-0.54841495 -0.087876558 0.11794615
-0.58394295 0.048326373 -0.13843918
-0.59666598 0.047493398 -0.14395714
-0.65319699 0.10828036 -0.2806592
-0.64058095 -0.094922662 0.079728127
-0.63779896 -0.18405163 0.16253281
-0.67741394 -0.66955757 -0.098680019
-0.69026095 -0.098777652 0.059225082
-0.72911096 -0.035651624 -0.071861267
-0.70802897 -0.13456357 0.11174488
-0.75519598 -0.0053145885 -0.13891697
-0.79161894 0.099678397 -0.34150314
-0.76540595 -0.45065165 0.028936863
-0.81033897 0.063158393 -0.28822899
-0.84511995 0.096292377 -0.3649168
-0.78555298 -0.31172264 0.10660982
-0.81610996 -0.10871661 0.0075907707
-0.80314195 -0.18867457 0.15377998
-0.83941895 -0.14535058 0.058549881
-0.93627 0.024454415 -0.28987122
-0.91518694 -0.24592757 0.15455818
-0.93855596 -0.24617362 0.15659618
