# .PCD v0.7 - Point Cloud Data file format
VERSION 0.7
FIELDS x y z
SIZE 4 4 4
TYPE F F F
COUNT 1 1 1
WIDTH 1
HEIGHT 128
VIEWPOINT 0 0 0 1 0 0 0
POINTS 128
DATA ascii
1.0433292 0.045783699 0.017501831
1.0135523 0.23272169 -0.05849123
1.0006393 0.011927724 0.036392689
1.0000143 -0.16424632 0.040987492
0.99238527 0.20644569 -0.030078411
0.97023028 -0.021249294 0.050638676
0.92213726 -0.059502304 0.071613789
0.84195727 -0.26472533 0.080831528
0.82138723 0.13560569 0.062695503
0.84761924 -0.62313926 -0.17877817
0.80313426 0.10449773 0.075061798
0.80122226 0.28234768 -0.014694214
0.77938527 -0.26239932 0.086948872
0.78720427 0.43182069 -0.16026115
0.74134123 0.24337268 0.014775753
0.70528823 -0.38879633 0.037121773
0.69670123 -0.52947724 -0.058445454
0.69171524 0.35602969 -0.067052364
0.64000022 0.10658771 0.076675892
0.65801626 -0.61186528 -0.14724731
0.60964525 -0.1465503 0.10729361
0.59829324 0.21760172 0.034139633
0.61154324 -0.67018425 -0.22617149
0.52042425 -0.14528835 0.10879183
0.51749724 -0.66760325 -0.22133636
0.51468527 0.54108071 -0.37785053
0.48702025 -0.14487028 0.10934162
0.46834427 -0.3843143 0.042519569
0.45183325 0.21875572 0.035872459
0.44550425 0.3576377 -0.064524174
0.42055029 -0.0065402985 0.10470152
0.42014128 -0.6058253 -0.13568211
0.39492327 0.17631769 0.053211689
0.3871913 -0.0062652826 0.10516262
0.34669328 0.28576368 -0.01034832
0.33255327 -0.30957627 0.077390671
0.32391527 0.46549872 -0.19510937
0.27255127 0.2466737 0.019421577
0.25964826 0.064891696 0.098543644
0.26397127 0.39616573 -0.10784435
0.26496926 0.43440169 -0.15547848
0.25414824 -0.25493824 0.095776558
0.22801328 0.28618771 -0.0088715553
0.22604728 -0.086392283 0.11628962
0.22050828 -0.086366296 0.11636782
0.21545427 0.10972071 0.081773758
0.17719227 0.28631073 -0.0081934929
0.15476727 -0.52080524 -0.043748379
0.14909127 -0.52077734 -0.043645382
0.13192427 -0.086059272 0.11763954
0.12071227 -0.52066028 -0.043144226
0.11492827 0.3964287 -0.10588837
0.097361267 0.4658857 -0.19212246
0.09312427 -0.19547832 0.10729885
0.071006268 -0.045760274 0.11413479
0.053661264 -0.38108027 0.049934864
0.037690267 -0.19542933 0.10811567
0.036243267 -0.46283531 0.0044927597
-0.0031947345 -0.46286333 0.0050325394
-0.0065207332 -0.045761287 0.11527777
-0.013290733 0.1774267 0.058861732
-0.077258736 -0.66184425 -0.20516729
-0.10061273 -0.52087331 -0.040158272
-0.10091373 -0.19568229 0.11010075
-0.12266673 -0.086234272 0.12140846
-0.13623573 0.17720568 0.060777664
-0.13886975 0.2862677 -0.0034012794
-0.14777474 -0.38163924 0.052599907
-0.16387974 0.46574771 -0.18794727
-0.16418974 0.17711973 0.061229706
-0.16859074 0.3309077 -0.035683155
-0.16193272 -0.19596529 0.11094666
-0.17292674 -0.0053412914 0.11331367
-0.18303774 0.39623672 -0.10108519
-0.17825975 -0.046261311 0.11786175
-0.22076373 0.35831672 -0.054993153
-0.24882774 0.4343147 -0.14750051
-0.24836074 -0.52213132 -0.0390625
-0.25468373 0.21951967 0.046099663
-0.26333976 0.39602071 -0.099586487
-0.26141572 0.24648571 0.027607918
-0.25686073 -0.25546229 0.10316467
-0.26136774 -0.14329231 0.12051058
-0.27112073 -0.52240431 -0.038956165
-0.27105075 -0.38266826 0.053930759
-0.27283275 -0.0059083104 0.11484671
-0.30663472 0.4341417 -0.1463995
-0.30790275 0.1089617 0.089855671
-0.31132573 -0.14371932 0.12117386
-0.32089275 0.17639071 0.063846588
-0.32341176 0.064158678 0.10750389
-0.35151476 0.24603868 0.029292583
-0.38073075 0.54141068 -0.36385441
-0.35648376 0.02804172 0.11237049
-0.35576975 -0.14415431 0.12175465
-0.36842275 0.2459417 0.02961874
-0.37938374 -0.5239923 -0.038686275
-0.37488174 0.10849571 0.091032505
-0.37938178 -0.25673032 0.10475969
-0.38637877 -0.31100225 0.087166786
-0.39277172 -0.46643829 0.0077176094
-0.41659677 0.43372169 -0.14419222
-0.42481673 0.24558669 0.030729771
-0.50309175 0.50213468 -0.26154327
-0.47271073 -0.0487113 0.12246656
-0.48924673 -0.46824634 0.0076436996
-0.57807875 0.5408597 -0.35672045
-0.55671877 -0.52761829 -0.039069176
-0.56131476 0.3289367 -0.028326511
-0.57736373 0.46424872 -0.17974949
-0.60019976 0.1376127 0.083075523
-0.62556976 0.43259472 -0.13958931
-0.62548172 -0.26060629 0.10775757
-0.68577373 0.35442972 -0.060162544
-0.67598075 0.023125708 0.10885859
-0.69812173 -0.32076824 0.068217754
-0.69277173 -0.15181327 0.10969448
-0.72301376 -0.015149295 0.094288826
-0.73563772 0.23896372 -0.00032520294
-0.75517672 0.38871473 -0.14675808
-0.74838477 0.16786671 0.032557487
-0.76358873 -0.10045934 0.087407589
-0.82576972 0.45337871 -0.31469154
-0.82176375 0.23381668 -0.039083481
-0.81374073 0.013203681 0.055055618
-0.82586676 0.012313724 0.050321579
-0.83739275 -0.16492927 0.049721718
-0.85019177 0.010520697 0.04082489
