# .PCD v0.7 - Point Cloud Data file format
VERSION 0.7
FIELDS x y z
SIZE 4 4 4
TYPE F F F
COUNT 1 1 1
WIDTH 1
HEIGHT 128
VIEWPOINT 0 0 0 1 0 0 0
POINTS 128
DATA ascii
1.0476074 0.016205788 -0.22375727
0.90870237 -0.13150918 -0.12488222
0.89498937 -0.28544617 -0.35726452
0.8485474 -0.027625203 -0.016559124
0.80235237 0.22032279 0.032598495
0.77714139 0.22273183 0.052499771
0.77991438 0.48004383 -0.080893517
0.7855534 -0.34673917 -0.3621254
0.73838437 0.56341481 -0.13397932
0.72960341 -0.32094824 -0.22559738
0.67192739 0.29802781 0.074296474
0.69853437 0.63865578 -0.21252632
0.68708438 -0.23541117 -0.089098454
0.65203136 0.4140678 0.041610718
0.64249736 0.45400983 0.019601822
0.67180341 -0.39126813 -0.31536627
0.65468037 0.66913879 -0.25656033
0.59401137 -0.057045162 0.051091671
0.59751338 0.56775981 -0.064715385
0.49520439 -0.051881194 0.078408718
0.49497038 0.59919381 -0.095894337
0.44893539 -0.0068721771 0.093329906
0.43750238 -0.0064831972 0.095385551
0.43826038 -0.092590213 0.082032681
0.43122038 -0.27506518 0.0039868355
0.39438838 -0.20724916 0.052869797
0.39015338 -0.27118921 0.023135662
0.38619038 0.45290083 -0.013343334
0.3767854 0.29904079 0.064252853
0.36940637 -0.047439158 0.1010437
0.36368439 0.14828581 0.10274458
0.36792138 0.41305679 0.0094428062
0.35092437 0.4127968 0.0053286552
0.32823539 0.4124428 -0.00015735626
0.32359639 0.45201182 -0.028537273
0.31874537 0.48410881 -0.052587509
0.29613239 -0.14573121 0.098879814
0.2855714 -0.48983717 -0.098115444
0.2675004 -0.086606145 0.1128726
0.25617141 0.069944799 0.11547089
0.25156239 0.22938579 0.079057693
0.23428339 0.18580681 0.091377735
0.22509739 0.37132579 0.0020728111
0.22368638 -0.31480122 0.06194973
0.22321038 -0.25933218 0.08214283
0.20544438 0.03397882 0.12082386
0.17741939 0.070379794 0.11697769
0.17969838 -0.47283721 -0.020487309
0.14784439 0.55906582 -0.24842739
0.13870539 -0.38317919 0.057220459
0.12713939 0.18504483 0.082853794
0.11551739 -0.00017720461 0.12910557
0.11193439 0.51732481 -0.20240736
0.10057738 0.55616784 -0.3032074
0.093168385 0.11632979 0.10459185
0.082657382 0.5550648 -0.32396746
0.076383382 0.34055579 -0.014308453
0.076514386 0.4770638 -0.1637435
0.070648387 0.2550928 0.042999744
0.048163384 0.070147812 0.11437368
0.030921385 0.22679383 0.052384853
0.031439386 -0.040998161 0.13720465
0.030325387 -0.58990717 -0.045191288
-0.0027836114 0.14670682 0.08331871
-0.0022856146 -0.30212522 0.1271596
-0.024162613 0.47236282 -0.23415041
-0.042280614 0.47100282 -0.25444746
-0.035601616 -0.18945312 0.14834976
-0.037973613 -0.57852817 0.0052814484
-0.042250611 -0.44989622 0.087802887
-0.054889619 -0.5757432 0.017751694
-0.058741614 0.069429815 0.11020088
-0.07611762 0.11410379 0.088388443
-0.081241608 -0.72635114 -0.13742447
-0.084453613 0.2909438 -0.025660515
-0.084079608 -0.62246215 -0.0097751617
-0.081499621 -0.44755018 0.099677563
-0.091381609 0.3351028 -0.073999405
-0.10540861 0.18100584 0.049488544
-0.10350962 0.033691823 0.11968565
-0.12271062 0.46347281 -0.3665185
-0.15676962 0.43277481 -0.29960442
-0.15296061 0.24909484 -0.011817455
-0.18109062 -0.36573923 0.14867973
-0.19367561 -0.49252617 0.11492586
-0.20522061 0.031635821 0.10831976
-0.21009663 -0.6949712 -0.005654335
-0.26423961 -0.18779421 0.16580677
-0.2906056 0.28167081 -0.11453152
-0.2998946 -0.043741167 0.12946653
-0.32631961 -0.90052521 -0.22585535
-0.30892861 -0.18804622 0.1668539
-0.3257336 -0.18827319 0.16655684
-0.33701763 -0.4360342 0.1651969
-0.36799061 -0.045549154 0.12167072
-0.38995561 0.2373268 -0.11474323
-0.4067806 0.27403682 -0.1871171
-0.39518961 -0.085213184 0.1356535
-0.3995856 -0.54856515 0.15248871
-0.40310061 -0.29518723 0.1807785
-0.43885362 0.27064484 -0.22029209
-0.40846461 -0.36129522 0.18385983
-0.41075662 -0.13906419 0.15337658
-0.42985362 0.059268832 0.051254749
-0.48855364 0.23052281 -0.1739254
-0.48312759 -0.58729613 0.16191769
-0.50133461 -0.14135313 0.14691544
-0.52432561 0.12811679 -0.045639515
-0.52807164 -0.050437212 0.10185146
-0.56585759 0.15905583 -0.11552525
-0.54191363 -0.48041117 0.19415569
-0.5586096 -0.36161113 0.19534874
-0.58364564 -0.091073155 0.1144495
-0.62486362 -0.47986817 0.20517778
-0.66819763 -0.0571872 0.071083546
-0.68494564 -0.60102916 0.1237936
-0.72124964 -0.059843183 0.059500694
-0.74715763 0.040854812 -0.056916237
-0.77788663 0.10548484 -0.20845556
-0.7915656 0.10370779 -0.22168732
-0.75925261 -0.099953175 0.077466488
-0.75154459 -0.30170214 0.18177986
-0.81699461 -0.028569162 -0.0092821121
-0.82369459 -0.066649199 0.026996613
-0.86609364 -0.16336823 0.05532074
-0.89826864 -0.03533721 -0.045484543
-0.89835262 -0.11588717 -0.0061964989
-0.96675658 -0.095323205 -0.14536333
