# .PCD v0.7 - Point Cloud Data file format
VERSION 0.7
FIELDS x y z
SIZE 4 4 4
TYPE F F F
COUNT 1 1 1
WIDTH 1
HEIGHT 128
VIEWPOINT 0 0 0 1 0 0 0
POINTS 128
DATA ascii
0.28787199 -0.23621076 -0.097641945
0.27419499 -0.22965878 -0.060374737
0.26668298 -0.16678685 -0.023293018
0.27304298 -0.55799884 -0.34565687
0.27089098 -0.63534981 -0.45624065
0.23844299 0.097714186 0.25409508
0.25189498 -0.35711581 -0.11276197
0.23303898 0.058404207 0.24355412
0.23291098 -0.35316783 -0.092679024
0.23990998 -0.54770476 -0.29826975
0.21699399 0.17432219 0.203794
0.20863298 0.1015842 0.28236008
0.20802899 -0.34955484 -0.074489117
0.19574498 -0.34845084 -0.069052696
0.20433599 -0.61536378 -0.36728668
0.20163198 -0.54218978 -0.2734437
0.16858898 0.10060823 0.27380419
0.18274198 -0.71807975 -0.51278496
0.15723199 0.22125918 0.26719332
0.15093298 0.26959622 0.28990412
0.14586598 0.14751822 0.26011705
0.14543498 -0.015836775 0.27910805
0.15047899 -0.20867676 0.056817055
0.15918899 -0.55331177 -0.32701683
0.14793198 -0.35391885 -0.098999023
0.14609198 -0.28298181 -0.014699936
0.13378698 -0.014781773 0.2858901
0.12803398 0.1508072 0.28609514
0.12756398 0.18725717 0.30951405
0.11630498 0.066484213 0.29901409
0.11045298 0.30089819 0.30576992
0.10661298 -0.3690328 -0.17919779
0.09304598 0.15518618 0.32057714
0.097938985 -0.21995181 -0.0092148781
0.095481984 -0.077338755 0.15640926
0.087863982 0.10195619 0.28238297
0.081538983 0.22816122 0.3264432
0.091866985 -0.58177775 -0.46251965
0.082575984 -0.37785584 -0.22589397
0.081508979 -0.30535382 -0.13849974
0.080335982 -0.22568184 -0.042505741
0.073462985 -0.15691477 0.031588078
0.063639984 0.40051818 0.3998909
0.070440985 -0.38233083 -0.24954367
0.073067985 -0.58976477 -0.50041676
0.058703981 0.27361518 0.32600594
0.046986982 0.23243421 0.36364222
0.048720982 -0.03604275 0.1428709
0.047489982 0.30034518 0.29957008
0.04292598 -0.03762275 0.13229227
0.044012982 -0.16595882 -0.023433685
0.035876982 0.27339619 0.32377911
0.034573983 0.59387922 0.53719902
0.037509982 -0.092869818 0.056490898
0.024059981 0.35428017 0.41388988
0.024644982 0.063969195 0.27973032
0.02361998 0.4795312 0.5146451
0.018139981 0.43772018 0.49620008
0.013257981 0.021455228 0.2368269
0.009158981 -0.47371382 -0.73005199
0.0090539809 -0.33436781 -0.66994095
0.0092449812 -0.64886183 -0.77957296
0.0018409807 -0.048849761 0.057261944
0.0014009806 0.63660824 0.56171608
-0.0096040191 0.5557012 0.56648207
-0.010629019 -0.26245481 -0.60775805
-0.015094019 0.63715124 0.57190418
-0.023631018 -0.2595368 -0.59006977
-0.027023017 0.18663019 0.30299616
-0.027046017 0.22481221 0.29649305
-0.02684702 0.2765922 0.35361099
-0.027270019 0.095426202 0.2323761
-0.03011002 -0.25808376 -0.58125687
-0.030676018 -0.64121085 -0.74344873
-0.032786019 0.22467422 0.29529715
-0.031617019 0.66762817 0.56337214
-0.03713502 0.63652718 0.56026506
-0.04273602 0.66671717 0.54460192
-0.043218017 0.43514919 0.46564913
-0.043507017 0.54589921 0.4184041
-0.050571017 0.14181322 0.21287298
-0.049131017 0.54594517 0.41913033
-0.056658018 -0.46023983 -0.65909004
-0.056454018 -0.39490086 -0.62989187
-0.055771019 0.22411323 0.29050732
-0.054755017 0.54599023 0.41985607
-0.062627017 -0.31924075 -0.58246279
-0.067215018 -0.064612806 -0.36306381
-0.068662018 -0.24946278 -0.52883291
-0.073980018 -0.11902779 -0.41040277
-0.076786019 0.43484819 0.46234894
-0.084409021 0.29995418 0.29604197
-0.096615016 -0.54761177 -0.70299673
-0.090277016 0.29891717 0.28597403
-0.11501702 -0.0011377931 -0.19161272
-0.11992602 -0.30577677 -0.50411987
-0.11930902 0.054171205 -0.078841686
-0.11108702 0.43100423 0.41703129
-0.12621902 -0.30430382 -0.49552202
-0.13249701 -0.30283481 -0.48694181
-0.12659702 0.21203822 0.18529797
-0.13777801 -0.23242277 -0.42473412
-0.13406202 0.12764621 0.10044527
-0.13138202 0.2643292 0.23999929
-0.13839702 0.0079442263 -0.12532997
-0.16969302 -0.47217482 -0.72017193
-0.15697902 0.2059142 0.13208199
-0.16127601 0.056912184 -0.057274818
-0.15017001 0.54670519 0.43213034
-0.18538702 -0.31376976 -0.54892302
-0.17864802 0.29026121 0.20310116
-0.18691002 0.20365518 0.11296129
-0.18494102 0.33219719 0.18572235
-0.17917801 0.5113712 0.39869928
-0.19870602 0.20363021 0.11307096
-0.21608302 -0.052199781 -0.27363777
-0.22362602 -0.24977976 -0.52777672
-0.22497402 -0.1119948 -0.36046076
-0.23048303 -0.25196081 -0.54078007
-0.22538802 0.041438222 -0.17266178
-0.22933902 0.10176021 -0.1045599
-0.23396702 -0.0092808008 -0.2478261
-0.24058202 -0.010967791 -0.25984383
-0.24230902 0.098825216 -0.12766266
-0.24722002 -0.012659788 -0.27190208
-0.26193103 0.09437722 -0.16262293
-0.27906102 0.31630522 0.022881031
-0.28352401 0.24461317 0.059940338
