# .PCD v0.7 - Point Cloud Data file format
VERSION 0.7
FIELDS x y z
SIZE 4 4 4
TYPE F F F
COUNT 1 1 1
WIDTH 1
HEIGHT 128
VIEWPOINT 0 0 0 1 0 0 0
POINTS 128
DATA ascii
0.28956175 -0.80822563 0.011173248
0.28531975 -0.75714266 -0.027375698
0.25658175 -0.78631961 0.088847637
0.23677075 -0.60113668 -0.010883808
0.24350074 -0.45726764 -0.19015646
0.22294176 -0.66859567 0.041596413
0.22973375 -0.44794762 -0.14814758
0.23153576 -0.40727067 -0.19850063
0.21870676 -0.5999887 -0.0068717003
0.21600875 -0.27139366 -0.2854476
0.19733775 -0.73348963 0.27735758
0.20102376 -0.60157669 -0.013920784
0.18200675 -0.62291372 0.21740341
0.19905674 -0.1601367 -0.34065342
0.17848074 -0.53692067 -0.060954571
0.17987774 -0.43911266 -0.10946035
0.17844474 -0.14866865 -0.27507973
0.16538875 -0.88332272 -0.02175951
0.16312174 -0.32079971 -0.16354036
0.15761176 -0.25233769 -0.18698835
0.13863575 -0.77966464 0.33882427
0.14612976 -0.1388967 -0.21952343
0.14384775 -0.44181168 -0.12270975
0.14310575 0.052436352 -0.35735655
0.14002176 -0.13921261 -0.22148943
0.12942575 -0.4646107 0.24545622
0.13046876 0.092748344 -0.35289478
0.11717175 -0.45598066 0.28190947
0.12819675 -0.023148656 -0.24441862
0.12618575 -0.39602172 -0.14840555
0.11054575 -0.51703465 0.32729864
0.11109374 -0.45170164 0.29998732
0.10458175 -0.71478462 0.34242964
0.11528575 -0.20134962 -0.21504068
0.11388475 0.38356835 -0.47398043
0.10074675 -0.36144161 0.2428565
0.10306075 -0.2020247 -0.21896648
0.095450751 -0.31844461 0.21700239
0.087612748 -0.59028566 0.34168053
0.095220752 0.29991436 -0.50291061
0.091457747 0.066058278 -0.26334953
0.085295752 0.065816283 -0.26513243
0.085308753 0.10483831 -0.26601982
0.079274751 -0.18968868 0.14066124
0.059399754 -0.7167747 0.33454037
0.043652751 -0.12469769 0.20430422
0.042616747 -0.34604561 0.3122344
0.033707753 0.10374534 -0.0012307167
0.035868749 0.35613233 -0.27634478
0.037288755 0.5177893 -0.45716143
0.031474754 -0.23069668 0.28308725
0.029687753 0.23241836 -0.27887774
0.025671752 -0.79135263 0.29632235
0.025527751 -0.72155762 0.31695747
0.020171752 -0.16612267 0.26386261
0.019801753 -0.66098762 0.32445621
0.017258754 0.32451034 -0.27346277
0.014216753 -0.72417164 0.3074584
0.014657753 -0.061810613 0.22325754
0.015099751 0.037030339 0.13890123
0.014232753 -0.29970467 0.30448341
0.0095327515 0.11496532 0.076857567
0.0091797523 0.039988279 0.15779161
0.0045127515 0.36679536 -0.17231846
0.0042047519 0.42103934 -0.083967686
0.0038247518 0.18396533 0.024743557
-0.0018712487 0.42269236 -0.066725731
-0.001752248 0.46940732 -0.11209536
-0.0028652474 -0.34576964 0.31321764
-0.0079062479 0.30002832 -0.055015564
-0.025671247 -0.060128689 0.23287249
-0.031362247 -0.16519666 0.26861334
-0.03128925 -0.40898061 0.31042957
-0.031296246 -0.34725165 0.30644941
-0.037123248 -0.11558163 0.25401258
-0.04386425 0.42584932 -0.03374958
-0.049439248 0.27306432 0.060577393
-0.051560245 0.69667137 -0.42540359
-0.048770249 -0.0093436241 0.21399546
-0.054762244 0.085012317 0.1715703
-0.054342248 -0.11599267 0.25182629
-0.059918247 -0.23165965 0.27821255
-0.068333246 0.54483831 -0.10861444
-0.069457248 0.61357433 -0.26967669
-0.072189249 0.084933341 0.17116261
-0.071591251 -0.11682868 0.24735546
-0.071735248 -0.06083262 0.22901058
-0.079593249 0.38320434 -0.011742592
-0.090724252 0.27356035 0.065023422
-0.10222125 0.86409134 -0.42802858
-0.10197125 0.19524831 0.11057043
-0.10739225 0.12455636 0.14424229
-0.10607325 -0.36085773 0.24497652
-0.11324925 0.12428832 0.14245653
-0.11348725 0.15882534 0.1253686
-0.12030725 0.27290535 0.059928417
-0.12692125 0.51120633 0.014968395
-0.13154525 0.82062435 -0.27937651
-0.13112624 0.65951234 -0.25274849
-0.12416025 -0.013320684 0.1906743
-0.13058224 0.082061291 0.15272141
-0.13586324 0.62039334 -0.16579056
-0.12949724 -0.17497361 0.21814251
-0.13782024 0.23976135 0.071742535
-0.13589825 -0.014802694 0.18189621
-0.15052825 0.30889732 0.024186611
-0.16213626 0.70550132 -0.25827551
-0.16170424 0.23793632 0.057575226
-0.16357926 0.38101232 -0.031921387
-0.16118725 0.19137734 0.082262516
-0.17459825 0.7052623 -0.26250982
-0.17823026 0.07531631 0.10868835
-0.17858025 0.11714131 0.093836308
-0.18022625 0.43120134 0.023971558
-0.18827625 0.86737734 -0.31758261
-0.18630725 0.26775736 0.018208504
-0.18610525 0.43142533 0.02644825
-0.18534026 0.18806934 0.05777359
-0.19387725 0.78665334 -0.29153538
-0.19241625 0.48016232 0.011690617
-0.20014624 0.78655833 -0.29367161
-0.20772526 0.50022733 -0.11415482
-0.20812425 0.54307836 -0.12892675
-0.23116225 0.73859233 -0.29118156
-0.23744425 0.73847938 -0.29331779
-0.23958725 0.54032034 -0.16355944
-0.24516125 0.86662632 -0.34093666
-0.24863625 0.37706333 -0.068218708
