# .PCD v0.7 - Point Cloud Data file format
VERSION 0.7
FIELDS x y z
SIZE 4 4 4
TYPE F F F
COUNT 1 1 1
WIDTH 1
HEIGHT 128
VIEWPOINT 0 0 0 1 0 0 0
POINTS 128
DATA ascii
0.33074987 -0.7900399 -0.21864462
0.31511286 -0.64464688 -0.28810644
0.31093886 -0.49083996 -0.33915186
0.29789788 -0.91088092 -0.16675663
0.28584787 -0.91208398 -0.17156363
0.29238686 -0.49208188 -0.34573364
0.28732187 -0.34268594 -0.37862682
0.28222987 -0.29129398 -0.4124155
0.27880687 -0.60719299 -0.31677675
0.25614685 -0.3443799 -0.38860846
0.24325885 -0.41779494 -0.37959242
0.23329586 -0.79877698 -0.25610685
0.19733685 -0.72632492 -0.30426884
0.20015885 -0.2269429 -0.41973972
0.19213286 -0.61370897 -0.34782171
0.18634085 -0.54928088 -0.36875772
0.18137985 -0.10534191 -0.42948675
0.16959785 0.15583909 -0.47413445
0.16844386 -0.34928095 -0.41666651
0.16193186 -0.42288995 -0.40700483
0.15603885 0.029000044 -0.43020868
0.14954285 0.12515008 -0.42121458
0.15009585 0.20160908 -0.45290565
0.12881985 -0.61688995 0.44666243
0.12399986 -0.55294693 0.39879513
0.13715686 -0.23002589 -0.43878841
0.13052586 0.16246009 -0.41949081
0.11814485 -0.54893696 0.41500139
0.10572186 -0.60086596 0.50843716
0.11189085 -0.06119597 -0.44827271
0.10075586 -0.53703499 0.46312428
0.10544086 0.069422066 -0.43963385
0.094810858 -0.72540998 0.49732447
0.10549186 -0.29632688 -0.44418764
0.098677859 0.29051006 -0.39980984
0.086516857 -0.014139891 -0.45246649
0.078200862 -0.60285389 0.50043344
0.067294858 0.20460409 -0.42755556
0.067429855 0.068135083 -0.44970369
0.062666856 -0.27467394 0.33008051
0.056230858 -0.79367089 0.47571135
0.056185856 -0.42273593 0.48434639
0.054735858 0.067699075 -0.45306683
0.041836858 0.39264309 -0.38189173
0.035612859 0.25565404 -0.42205763
0.028673857 -0.10575199 0.27715826
0.022952856 0.39230907 -0.38569164
0.022952856 -0.15249288 0.34409046
0.017306857 -0.14948392 0.36059332
0.010245857 0.67832506 -0.4503355
0.0041508563 0.60090411 -0.35115051
-0.00045314245 0.14419407 0.12566423
-0.0017811432 0.52556407 -0.25462151
-0.0065511428 0.22104204 0.069176197
-0.0078781433 0.52696407 -0.23494768
-0.011631142 0.08317107 0.22587633
-0.016514145 -0.089657903 0.37010956
-0.023670144 0.19690305 0.15273619
-0.025685143 0.48986304 -0.1359148
-0.021484144 -0.7340579 0.46587324
-0.021448143 -0.53503895 0.47091341
-0.022311144 -0.040585876 0.34739542
-0.029027142 0.15569508 0.21283913
-0.034302142 0.089508057 0.27022219
-0.036183145 0.33702606 0.054638386
-0.037842143 0.48988807 -0.13549757
-0.032675143 -0.42911196 0.45665455
-0.041357141 0.26822007 0.1317625
-0.041764144 0.31025004 0.08933115
-0.044880141 0.65404308 -0.23524857
-0.038142145 -0.61159492 0.46660423
-0.049044143 0.42248905 -0.044019699
-0.04421014 -0.25715995 0.41754818
-0.043722142 -0.53675795 0.46412516
-0.043942142 -0.37084389 0.44319248
-0.05129214 0.049056053 0.28684425
-0.050050143 -0.19435298 0.39628649
-0.055895146 -0.14648688 0.37751055
-0.064498141 0.23072606 0.15058517
-0.069098145 0.56529903 -0.20078182
-0.069186136 0.12045807 0.23246145
-0.071741149 -0.4702549 0.44839239
-0.071799144 -0.43200791 0.44446516
-0.080037147 0.047224045 0.27501535
-0.08115615 0.15441906 0.20380116
-0.088537142 0.26539505 0.10754919
-0.083628148 -0.26007795 0.40354347
-0.083187148 -0.37382293 0.43014336
-0.093901142 0.22897607 0.13641024
-0.089274138 -0.26049995 0.40153837
-0.097807139 0.08536309 0.24217653
-0.09822014 0.11862004 0.21959925
-0.10683414 0.76901603 -0.25034761
-0.095278144 -0.19754791 0.38016939
-0.095603138 -0.14934993 0.3624115
-0.09601815 -0.095087886 0.33975554
-0.10520114 0.19726807 0.15672636
-0.10570015 0.22826904 0.13072538
-0.10632415 0.26430005 0.098237514
-0.10270615 0.0067360401 0.28662014
-0.12558915 0.65264404 -0.2602787
-0.12510915 0.30541807 0.045400143
-0.13011715 0.26282704 0.085787296
-0.13797314 0.76862204 -0.26038742
-0.13723715 0.56342006 -0.22797346
-0.12460114 -0.097077966 0.32886124
-0.13466914 0.19542605 0.14259338
-0.13087815 -0.048114896 0.30347347
-0.15013514 0.60675204 -0.25128174
-0.15268114 0.41670609 -0.10756969
-0.14025214 -0.26434994 0.38344955
-0.14754015 -0.09868896 0.32012415
-0.16117515 0.30329806 0.02643013
-0.16942915 0.81589705 -0.27862787
-0.16598314 0.26059204 0.067041397
-0.16322415 0.14916307 0.16581726
-0.17993915 0.48371708 -0.21237469
-0.18046415 0.52706909 -0.23060942
-0.16548514 -0.050591946 0.2893796
-0.17928515 0.30222708 0.016911507
-0.18816714 0.68629807 -0.28235054
-0.18533415 0.30186808 0.013733387
-0.18977314 0.41449308 -0.13156748
-0.18686415 0.14758408 0.15456533
-0.20051515 0.73439306 -0.27981853
-0.20091115 0.81545305 -0.29241848
-0.21045515 0.90545404 -0.3952508
-0.24816816 0.90550905 -0.39072943
