# .PCD v0.7 - Point Cloud Data file format
VERSION 0.7
FIELDS x y z
SIZE 4 4 4
TYPE F F F
COUNT 1 1 1
WIDTH 1
HEIGHT 128
VIEWPOINT 0 0 0 1 0 0 0
POINTS 128
DATA ascii
0.69191098 0.60764152 -0.24517822
0.68437999 0.6083535 -0.23246908
0.65016997 0.64527452 -0.20328331
0.65327996 0.69224048 -0.23779106
0.62515801 0.64530849 -0.20479631
0.610542 0.61145353 -0.18065739
0.60211498 0.56626153 -0.15487814
0.60014999 0.64533746 -0.20630312
0.60301799 0.69229549 -0.24082136
0.59673697 0.69230151 -0.24119711
0.57316399 0.61149752 -0.18291044
0.55977398 0.4322595 -0.25283718
0.55938196 0.4783625 -0.24774027
0.54202199 0.61152554 -0.18478107
0.54389501 0.6453895 -0.20968437
0.54523098 0.43430752 -0.22746134
0.52333999 0.61153948 -0.18590117
0.51327199 0.43503749 -0.2203722
0.50224495 0.44034952 -0.15251446
0.48995799 0.56677353 -0.15481806
0.44460797 0.52379847 -0.12576818
0.41050097 0.4471035 -0.071145058
0.39825699 0.44710153 -0.071869373
0.38562998 0.40316749 -0.065484047
0.363107 0.48939049 -0.10519314
0.34327999 0.40233552 -0.077567101
0.31981897 0.4450525 -0.10224724
0.311492 0.37305248 -0.052660465
0.29392099 0.40301847 -0.071623325
0.27401197 0.27795351 -0.032218456
0.269651 0.40252751 -0.078438282
0.263643 0.19242948 -0.081934452
0.26141897 0.24777448 -0.021295071
0.25275499 0.1460315 -0.12178326
0.23379897 0.14772451 -0.10826826
0.23101898 0.19935149 -0.022183418
0.23169596 0.27698952 -0.043142319
0.21357296 0.1548425 -0.049405098
0.20805997 0.32021248 -0.07002449
0.20069197 0.15773249 -0.025619507
0.19408196 0.20128852 -0.0062460899
0.18802796 0.20124048 -0.0068254471
0.18314297 0.27606249 -0.053598404
0.17097497 0.27586251 -0.055850506
0.17346197 0.012269497 -0.16138411
0.17227598 0.059598505 -0.11108351
0.15746497 0.12582451 0.0031328201
0.15772897 0.20108253 -0.0089483261
0.15232396 0.24604052 -0.040678501
0.14623997 0.24597353 -0.041430473
0.14766596 0.019087493 -0.11248827
0.13889498 0.1637885 0.023524761
0.14015597 0.24590552 -0.042182446
0.11579997 0.24569851 -0.044543266
0.11497297 0.075500488 0.0081276894
0.10829497 0.13180751 0.050174713
0.10452297 -0.019483447 -0.11055851
0.09094397 0.20141751 -0.0071411133
0.072739966 0.20149648 -0.0066394806
0.071852967 0.085844517 0.085849762
0.047969967 0.045304477 0.076334953
0.036826968 -0.06654048 -0.11723518
0.02986997 0.05003953 0.11059284
0.012201969 -0.17812955 -0.14171124
-0.00014003087 -0.11118746 -0.11190844
-0.005912031 0.049772501 0.10861874
-0.037215032 -0.23465645 -0.13345528
-0.037152033 -0.11296451 -0.1231451
-0.04330603 -0.23255646 -0.12130213
-0.053871032 -0.081010461 0.081299782
-0.059143029 -0.0256145 0.1559329
-0.065610029 -0.077461481 0.1041069
-0.092647031 -0.29633844 -0.12207127
-0.11344203 0.048441529 0.10000181
-0.11942503 0.048354506 0.099476814
-0.11805003 -0.06656754 0.17452383
-0.12920503 -0.22881949 -0.098619461
-0.13481404 -0.28729844 -0.071773052
-0.13583203 -0.067012548 0.1720295
-0.15944903 -0.28842854 -0.077432156
-0.15362804 -0.067463517 0.16953993
-0.15892003 -0.1228385 0.19501686
-0.15956303 -0.067615509 0.16870975
-0.16612503 -0.02780652 0.14318562
-0.18411604 -0.28950548 -0.082714081
-0.18332203 -0.068231463 0.16539192
-0.20264304 -0.2903235 -0.086677074
-0.21385904 -0.029013515 0.13650274
-0.22032604 -0.3421315 -0.06371212
-0.22295503 -0.17426753 0.21864748
-0.23881604 -0.3429215 -0.067243099
-0.23578003 -0.12426448 0.18869781
-0.25115401 -0.34345353 -0.069597244
-0.25732702 -0.34372151 -0.070777416
-0.26822403 -0.41001749 -0.036040306
-0.28936401 -0.12629855 0.1785059
-0.29865003 -0.48842347 -0.034172058
-0.29434901 -0.29263449 0.19938087
-0.32159302 -0.48206353 -0.0030994415
-0.32134202 -0.28315544 0.25049782
-0.34205103 -0.41305244 -0.047883511
-0.34630701 -0.23531544 0.22109985
-0.34776703 -0.17960453 0.19323254
-0.359721 -0.18015754 0.19067574
-0.375512 -0.53072047 0.01116991
-0.38164702 -0.53105855 0.0099697113
-0.40621701 -0.53242052 0.0051636696
-0.42059201 -0.35299253 0.25621986
-0.43750501 -0.64558244 -0.0089092255
-0.44723001 -0.59442747 0.028617859
-0.470411 -0.63366449 0.044082642
-0.48888102 -0.47256148 0.28417683
-0.51340002 -0.63632751 0.035823822
-0.52967399 -0.70706046 0.060444832
-0.527861 -0.35875249 0.23514366
-0.54682302 -0.47214651 0.29063272
-0.59046 -0.70916045 0.056881905
-0.59661704 -0.70957744 0.055715561
-0.61511904 -0.71087253 0.05207777
-0.59060699 -0.57029152 0.32404661
-0.60257602 -0.43124247 0.25654173
-0.61832803 -0.47653544 0.27686882
-0.63330102 -0.53494453 0.30428076
-0.639301 -0.65000546 0.30271149
-0.67507404 -0.53769946 0.29633951
-0.681054 -0.53809845 0.29520464
-0.68574303 -0.57656455 0.30648375
-0.69206202 -0.57775247 0.30206394
