# .PCD v0.7 - Point Cloud Data file format
VERSION 0.7
FIELDS x y z
SIZE 4 4 4
TYPE F F F
COUNT 1 1 1
WIDTH 1
HEIGHT 128
VIEWPOINT 0 0 0 1 0 0 0
POINTS 128
DATA ascii
0.47687605 0.084362388 0.51375914
0.46542808 0.085454404 0.52195501
0.45314908 0.0027683973 0.47423315
0.43854806 0.054387391 0.52218008
0.42134607 0.087614417 0.53654909
0.41047105 0.1242364 0.53876781
0.40695107 0.053647399 0.51383114
0.40002406 0.087648392 0.53524494
0.40225407 -0.0026276112 0.4294219
0.38700408 0.051079392 0.49177408
0.33356908 0.082134426 0.48464108
0.33628207 -0.012495577 0.35024309
0.25223106 0.070391417 0.38198996
0.23456208 0.18218738 0.41019392
0.21817209 0.11104643 0.41147995
0.24298708 -0.20331955 -0.18060493
0.20732708 0.1542964 0.41040897
0.20798208 -0.31045055 -0.20118523
0.16544709 0.17737544 0.36044407
0.17914508 -0.31561959 -0.2334919
0.15433007 0.14966643 0.36514091
0.14973508 0.10276639 0.33618212
0.15872209 -0.052128613 0.042042732
0.13549408 0.055700421 0.25479174
0.13293608 0.14773244 0.34639311
0.14685509 -0.15408558 -0.15194416
0.13009009 0.054965436 0.24850082
0.12838309 0.10003841 0.31157398
0.14235207 -0.12384057 -0.20464897
0.12467508 0.054228425 0.2421999
0.12302008 0.099351406 0.30538988
0.11142008 0.1457684 0.32743883
0.12441908 -0.12374759 -0.20443916
0.11715408 -0.19806957 -0.14969301
0.10720608 -0.0052086115 0.027482986
0.099554077 -0.15482861 -0.15828419
0.085187078 0.094488382 0.26176596
0.084492087 0.17104644 0.29641771
0.084096074 -0.004997611 0.028688908
0.079741076 0.093785405 0.25548172
0.078920081 0.14272642 0.29825306
0.083261088 -0.25591362 -0.24058485
0.072706074 0.027789414 0.020137787
0.066862077 0.028271437 0.024065018
0.06256108 0.1411764 0.28344488
0.070151076 -0.15703857 -0.17424726
0.07056208 -0.083714604 -0.19907427
0.061018076 0.028824389 0.028593063
0.064169079 -0.15670156 -0.17199898
0.049214076 0.031119406 0.047593117
0.046177078 0.16790843 0.2651
0.047812078 -0.26272762 -0.28471231
0.029947076 0.20574641 0.22462606
0.025946077 0.00054442883 0.072228909
0.024005074 0.16716141 0.25752211
0.024359081 0.20566243 0.22368479
0.027970079 -0.073324621 -0.1210351
0.018768076 0.20560139 0.2229929
0.014601078 -0.0011096001 0.058867931
0.012897078 0.16682643 0.25414705
0.0073360763 0.16667742 0.25263786
-0.0025019236 -0.0036075711 0.038730145
-0.0032609217 0.083375394 0.16292095
-0.006945923 -0.1624046 -0.21251011
-0.014137922 0.033283412 0.065094948
-0.019849923 0.032486379 0.058407784
-0.018651923 -0.21807957 -0.28497791
-0.018364923 -0.27554655 -0.36723185
-0.025243923 -0.067134619 -0.074547291
-0.037116922 0.076843381 0.10539579
-0.042819921 -0.12121361 -0.18810129
-0.049577922 -0.73468661 -1.1063581
-0.056130923 -0.6315316 -0.98858786
-0.06540592 0.1289534 0.16818714
-0.067196921 -0.22706461 -0.34490108
-0.065292925 0.27978939 0.20035076
-0.072960921 -0.17054659 -0.26930904
-0.070830926 0.25246942 0.21884871
-0.081753924 -0.4689976 -0.7974062
-0.088182926 -0.46730864 -0.78762913
-0.088717923 0.072111428 0.063962936
-0.087403923 0.28412938 0.25217915
-0.094119921 -0.39374363 -0.70983887
-0.093894921 0.1254524 0.13557291
-0.09730792 -0.1748336 -0.29905605
-0.096395925 -0.081485569 -0.18294096
-0.10758592 -0.021983564 -0.10831118
-0.10907392 -0.13163161 -0.26333809
-0.11354792 -0.0228706 -0.11536121
-0.11448193 -0.084371567 -0.2046051
-0.10962492 0.28470039 0.25918007
-0.12177692 -0.55485964 -0.90117693
-0.11755992 -0.2961266 -0.49847221
-0.12206192 0.15643042 0.15278912
-0.12654792 -0.085682571 -0.21438789
-0.13954492 -0.1351586 -0.28855419
-0.14540592 0.1518364 0.10821486
-0.15190992 0.11727339 0.059708118
-0.16254893 -0.30926263 -0.58185911
-0.18871792 -0.31678557 -0.62949228
-0.18974192 -0.14726961 -0.37552214
-0.19050291 0.0097764134 -0.12973928
-0.19994892 -0.25996864 -0.5626502
-0.19496591 0.057145417 -0.066021919
-0.19312292 0.11243039 0.015174866
-0.19195493 0.14749539 0.066673756
-0.19013593 0.19817144 0.14679909
-0.20327193 0.004920423 -0.17002916
-0.21290292 -0.26241863 -0.57870197
-0.21127892 -0.20530665 -0.5097661
-0.20865592 -0.15049058 -0.39846611
-0.19595993 0.27459538 0.14023685
-0.22579192 0.19245541 0.088004112
-0.23838292 -0.1055876 -0.36277199
-0.24019492 -0.00038558245 -0.21340418
-0.24828392 -0.044292569 -0.2843132
-0.23586392 0.24473238 0.13415575
-0.23584493 0.27405143 0.13480902
-0.26436591 0.27369338 0.13144779
-0.27839792 0.099062383 -0.10755587
-0.28594992 0.18460941 0.007999897
-0.28114894 0.31548542 0.13892794
-0.30308494 -0.010290563 -0.29410791
-0.29293194 0.35588241 0.12788677
-0.30860394 0.12740541 -0.12612915
-0.30771393 0.23647541 0.043224812
-0.34130892 0.2678864 0.06526804
-0.35409394 0.17526841 -0.086785316
