# .PCD v0.7 - Point Cloud Data file format
VERSION 0.7
FIELDS x y z
SIZE 4 4 4
TYPE F F F
COUNT 1 1 1
WIDTH 1
HEIGHT 128
VIEWPOINT 0 0 0 1 0 0 0
POINTS 128
DATA ascii
0.59432495 -0.0045077801 -0.42150927
0.56468892 0.087381184 -0.45472431
0.55306995 0.043066204 -0.38142824
0.53782392 -0.020412803 -0.25441599
0.51841593 -0.018839836 -0.24475002
0.52694494 0.044615209 -0.37148237
0.5058049 -0.018438816 -0.24279022
0.48872188 0.12331319 -0.47340631
0.48036188 0.15839124 -0.54940605
0.50519991 0.30991518 -0.96748114
0.45425189 -0.013922811 -0.21443319
0.45987689 0.092593193 -0.41966105
0.4516829 0.016612232 -0.27755022
0.4492299 0.063259184 -0.23500204
0.4440209 0.020064235 -0.252913
0.4428739 0.063609183 -0.23271322
0.4350239 -0.01222074 -0.20364809
0.43248489 0.033189237 -0.1582303
0.41840589 -0.046789765 -0.12564707
0.4492459 0.2288422 -0.69509697
0.4629699 0.31180322 -0.94849443
0.43572289 0.22944623 -0.68991327
0.4072299 -0.095087767 -0.14624214
0.3993369 -0.044647813 -0.11234713
0.4338479 0.2702052 -0.78202724
0.38689089 -0.043897748 -0.1079731
0.3957679 0.093676209 -0.41438532
0.38292888 0.093974233 -0.4126091
0.3785679 0.1260882 -0.45611
0.38116589 0.16321123 -0.51222801
0.35789889 0.03592521 -0.1421423
0.33403391 0.074129224 -0.15839434
0.33129689 -0.086224794 -0.093091011
0.32563689 0.0028692484 -0.10360909
0.3277539 0.074585199 -0.15520906
0.3333669 0.12728924 -0.44802332
0.3193869 0.0034291744 -0.099955082
0.30766889 0.12771523 -0.44545031
0.29447788 0.0056102276 -0.08569622
0.2974219 0.16289121 -0.5184412
0.2777299 0.078186214 -0.12981939
0.2635099 0.008213222 -0.068603992
0.25662988 0.08992219 -0.44995022
0.25716591 0.12521523 -0.46802235
0.24665989 0.080402195 -0.11403227
0.24471189 -0.078755736 -0.048404217
0.23293789 -0.035804749 -0.05994606
0.22676389 -0.035135746 -0.055653095
0.23162389 0.12477422 -0.47241831
0.2219099 0.082156241 -0.10144901
0.21402389 -0.075838804 -0.030589104
0.20214789 -0.032476783 -0.038543224
0.20274089 0.047475219 -0.063687325
0.1960139 -0.03181684 -0.034281254
0.17864189 0.098088205 -0.3864131
0.1806839 0.12247622 -0.49278212
0.17214689 0.04970324 -0.048180103
0.16657189 0.085977197 -0.073766232
0.15908189 -0.06965673 0.0077757835
0.15403089 0.049597204 -0.049276352
0.1409999 0.020486236 0.014108658
0.1305259 0.082484186 -0.10076523
0.11691089 0.022188187 0.025660992
0.098742895 -0.018610835 0.052266598
0.092756897 -0.018052816 0.055941582
0.09436889 0.035907209 -0.14928818
0.088308901 0.034515202 -0.15943003
0.074843898 -0.016386747 0.066929817
0.033214897 -0.12598181 0.031298637
0.033266895 -0.056537747 0.090614796
0.026522895 0.13605422 -0.3806963
0.026849896 0.070286214 -0.19364119
0.021346895 -0.12105882 0.061121941
0.0096478947 -0.010476828 0.10631895
0.0094878953 -0.11968279 0.069495678
0.0035268962 0.027944207 0.065454006
-0.025608104 -0.0074948072 0.12644577
-0.025915105 -0.11559582 0.094483852
-0.048998106 -0.0055317879 0.13980484
-0.07854411 -0.10960484 0.13146591
-0.0839331 -0.0027837753 0.15867901
-0.095352113 -0.043683767 0.17414856
-0.10115911 -0.043371797 0.1762619
-0.10712411 -0.0010117292 0.17096472
-0.1186891 -0.00013279915 0.17709398
-0.11909711 -0.10506475 0.15978765
-0.1532831 0.0023732185 0.19471264
-0.16503811 -0.099954844 0.19197702
-0.1759281 -0.037405729 0.21641064
-0.2334851 0.0075421929 0.2320056
-0.24489811 0.0081872344 0.23679256
-0.27808911 -0.087637782 0.27103996
-0.29811209 -0.15106678 0.21798658
-0.3112421 -0.025311828 0.29959583
-0.3403891 0.00073826313 0.1918087
-0.33920911 -0.081119776 0.31377983
-0.3747091 0.002371192 0.20475674
-0.37979209 -0.13623273 0.30836296
-0.39079711 -0.13502181 0.31607676
-0.40726212 -0.13321579 0.32761383
-0.45511511 -0.014493823 0.37821293
-0.47261211 -0.12613773 0.37335157
-0.48882309 -0.12440383 0.38468456
-0.4863371 -0.066081762 0.41525078
-0.49960509 -0.12325478 0.39222097
-0.51384008 -0.064758778 0.4255867
-0.52115107 -0.12107575 0.40666389
-0.52629608 -0.0099967718 0.4128809
-0.53187007 -0.11995077 0.41411495
-0.57739609 -0.11052585 0.47291374
-0.58637506 -0.0068638325 0.43854856
-0.58827609 -0.1100018 0.47700596
-0.60283905 -0.0062507391 0.44410563
-0.62112308 -0.056377769 0.48668766
-0.62627405 -0.10819185 0.49134302
-0.63710606 -0.10768175 0.49544001
-0.64711308 -0.0053437948 0.45451069
-0.67116809 -0.015753746 0.39016771
-0.68215311 -0.01527977 0.39442682
-0.71504307 -0.013876796 0.40720463
-0.71060807 -0.04902482 0.54139471
-0.71711707 -0.10262179 0.53382301
-0.73691809 -0.012954831 0.41572762
-0.74384105 -0.16693783 0.49913502
-0.74928105 -0.10897183 0.50082779
-0.76349509 -0.17127883 0.47758675
-0.76258308 -0.11200476 0.48485661
-0.76185709 -0.058369756 0.49064779
