# .PCD v0.7 - Point Cloud Data file format
VERSION 0.7
FIELDS x y z
SIZE 4 4 4
TYPE F F F
COUNT 1 1 1
WIDTH 1
HEIGHT 128
VIEWPOINT 0 0 0 1 0 0 0
POINTS 128
DATA ascii
0.22132045 0.68670624 0.0247159
0.23059645 0.33592826 -0.36422634
0.21393844 0.76544827 0.059766769
0.22728246 0.24715328 -0.44309235
0.22540745 0.28791526 -0.39428139
0.19969246 0.72946227 0.12097883
0.20082545 0.76547128 0.090811729
0.20648044 0.39088225 -0.22557545
0.19343345 0.72951925 0.13024998
0.19761345 0.42942527 -0.15173817
0.20483246 0.25359827 -0.3534112
0.18686245 0.34598026 -0.19764328
0.18684246 0.15916824 -0.38384104
0.17130245 0.56487226 0.084630966
0.16997746 0.59931326 0.12454557
0.16882046 0.65392625 0.15943289
0.16872145 0.68840623 0.1624198
0.15841146 0.56583428 0.11613178
0.15674946 0.68849027 0.16900587
0.17330146 0.0066862702 -0.56502724
0.15820245 0.39920527 -0.070848465
0.16169046 0.30189526 -0.18499804
0.15080646 0.68852025 0.17121887
0.15193045 0.39955226 -0.064522266
0.15793045 0.16907227 -0.26668215
0.14643346 0.76549429 0.12067699
0.14449446 0.43600225 -0.017399311
0.13836345 0.43617025 -0.01409626
0.13227145 0.43628225 -0.011945248
0.12994145 0.17865026 -0.1533041
0.12365845 0.51902825 0.08660984
0.12198745 0.72965527 0.15042591
0.12371245 0.76546824 0.084568977
0.12347046 0.17971027 -0.14083529
0.12468645 0.26549226 -0.18886614
0.11576146 0.60034323 0.16371965
0.12180945 -0.0010277629 -0.3243413
0.11801445 0.30302927 -0.16905928
0.10544646 0.094575286 -0.15885115
0.10515845 0.14762425 -0.14616442
0.10001644 0.51882124 0.080423832
0.10587345 0.22149026 -0.17764711
0.098269448 0.60019529 0.15743971
0.096363455 0.43570226 -0.024804115
0.089260459 0.48451027 0.025840759
0.093544453 0.22143126 -0.17867947
0.093927458 0.26496625 -0.19696903
0.086635455 0.14800727 -0.14223242
0.083473459 0.48407525 0.015278816
0.086775452 0.34903926 -0.14919138
0.081211448 0.22137028 -0.17970943
0.075511456 0.30066925 -0.20564747
0.068304449 0.049614251 -0.14791346
0.068329453 0.095559239 -0.14932823
0.068877451 0.22130823 -0.1807394
0.061839454 0.019981265 -0.12885618
0.06542445 -0.18667877 -0.34509706
0.062111452 0.14777827 -0.14526939
0.043239452 0.021589279 -0.11409044
0.04598745 -0.22336173 -0.31083441
0.037383452 0.051083267 -0.13402414
0.037673451 0.094941258 -0.15624714
0.029932454 -0.05818373 -0.026479244
0.031252451 0.051039279 -0.13453245
0.031254455 -0.15880877 -0.13470507
0.02917745 0.16378826 0.035326958
0.022906452 0.11570328 0.060349941
0.017291449 -0.051781714 0.026864529
0.010932453 0.11614823 0.064867973
0.012535453 -0.19453275 -0.1021452
0.01205945 -0.14791971 -0.052521229
-0.0074145496 -0.039281726 0.13108063
-0.018459547 -0.22049975 -0.014122009
-0.024121549 -0.32346976 -0.098912239
-0.031132547 -0.035668731 0.16114092
-0.030706547 -0.21287173 0.039012909
-0.037062548 -0.067514718 0.18170786
-0.036614548 -0.26200879 0.0104146
-0.042920548 -0.067571759 0.18123674
-0.042840548 0.0013532639 0.13561869
-0.042790547 0.045232236 0.10656977
-0.054640546 0.0012462735 0.13466692
-0.066432551 -0.24277771 0.13864565
-0.06653855 -0.29585874 0.077575684
-0.078246549 0.0010252595 0.13276577
-0.078095548 -0.23717678 0.17602587
-0.07790155 -0.14845276 0.23174381
-0.084042549 -0.036179721 0.15689373
-0.085136548 -0.44125569 -0.093801022
-0.084361546 -0.29487371 0.083927631
-0.089536548 -0.14858574 0.23082495
-0.095809549 -0.036299765 0.15595198
-0.09549655 -0.11357474 0.20713282
-0.097146548 -0.37901676 -0.062932014
-0.10334554 -0.43907678 -0.081127167
-0.10756755 -0.24010074 0.15669155
-0.10699655 -0.14879173 0.22944784
-0.11264054 -0.18274176 0.24931574
-0.12157255 -0.38136172 -0.076933384
-0.12760654 -0.5002197 -0.072098255
-0.12772055 -0.43943775 -0.083001137
-0.12640256 -0.30133474 0.042921543
-0.13028854 -0.14907473 0.22761774
-0.13676655 -0.06857574 0.17369175
-0.13732454 -0.24444079 0.1280508
-0.13611355 -0.14914775 0.22716188
-0.13850954 -0.30320668 0.031089783
-0.15247154 -0.44429076 -0.11069012
-0.16131555 -0.24795771 0.10492563
-0.15942454 -0.14944375 0.22533655
-0.16428754 -0.50252378 -0.084252357
-0.17724654 -0.18908972 0.20592594
-0.18809555 -0.55267179 -0.054917336
-0.22692154 -0.78841269 0.089389801
-0.22814655 -0.68316472 0.040984631
-0.23337455 -0.7273078 0.069922924
-0.25027353 -0.78519678 0.10407495
-0.26348355 -0.72967374 0.059984684
-0.27242553 -0.89001477 0.15290356
-0.27321655 -0.82130873 0.12840891
-0.27813953 -0.8887527 0.15821886
-0.27911955 -0.8212887 0.12868881
-0.29861555 -0.79117072 0.079529762
-0.31304255 -0.88638079 0.16911077
-0.32493654 -0.88732278 0.16574669
-0.36682653 -1.0666678 0.27563477
-0.37249655 -1.0660487 0.27813768
-0.40139255 -1.0661837 0.27910185
