# .PCD v0.7 - Point Cloud Data file format
VERSION 0.7
FIELDS x y z
SIZE 4 4 4
TYPE F F F
COUNT 1 1 1
WIDTH 1
HEIGHT 128
VIEWPOINT 0 0 0 1 0 0 0
POINTS 128
DATA ascii
0.34055716 -0.82600439 0.070223331
0.29973117 -0.68023229 0.034666538
0.27219117 -0.78430831 0.22225761
0.27571815 -0.60492539 0.024775505
0.25521415 -0.71938431 0.20295429
0.24861117 -0.71572936 0.21683359
0.25517318 -0.5935334 0.072324276
0.23197119 -0.64177632 0.18788433
0.21500017 -0.57171631 0.16348839
0.19071017 -0.68573534 0.33079147
0.19544317 -0.56185329 0.20471525
0.19018419 -0.44349337 0.01822567
0.17738818 -0.51878536 0.20915937
0.16575018 -0.67387438 0.37590361
0.17099118 -0.51580632 0.22195625
0.15720017 -0.54373538 0.2804904
0.15093018 -0.54091036 0.29231453
0.15634719 -0.25272536 -0.077673435
0.14841318 -0.29833829 -0.019579411
0.14946018 -0.2485323 -0.054879665
0.13846217 -0.53532636 0.31569433
0.13990317 -0.55218136 0.062034607
0.14025818 -0.48789132 0.049695492
0.14061117 -0.43908429 0.037430286
0.12171517 -0.7096113 0.49516726
0.13389218 -0.5527873 0.059216499
0.11850917 -0.58796632 0.40266562
0.12843318 -0.43933129 0.035925388
0.11245218 -0.58541036 0.41289425
0.11940017 -0.13243437 -0.089943409
0.097037181 -0.74736536 0.57054949
0.10039718 -0.58037531 0.43305063
0.10168017 -0.51984537 0.38057566
0.11011118 -0.49081135 0.035576344
0.093140185 -0.64224231 0.49646854
0.09842518 -0.36526835 0.012114525
0.08959718 -0.51494431 0.4011426
0.092671171 -0.29530334 -0.0050597191
0.093917176 -0.12774932 -0.062179565
0.075458184 -0.63520133 0.52337456
0.076546177 -0.5708034 0.47140741
0.076558173 0.017678618 -0.12590647
0.063435167 -0.023747325 -0.090071678
0.051383171 -0.68095839 0.60042763
0.063136175 -0.066958308 -0.072925568
0.047156174 -0.55952835 0.51667356
0.051827174 0.096004665 -0.14276648
0.050221171 -0.1818763 -0.040506363
0.050690178 -0.06652832 -0.070380688
0.045456175 0.096980631 -0.13547468
0.033656176 -0.72225738 0.65989828
0.044254173 -0.12632334 -0.054454327
0.037991177 -0.30344939 -0.048846722
0.027986173 -0.72008932 0.66763544
0.032099176 -0.066569328 -0.070912361
0.017115172 -0.66808629 0.64791441
0.018763173 -0.48834932 0.51304531
0.019977171 0.02216661 -0.09547472
0.020107176 0.059924662 -0.10697174
0.014596175 0.22433668 -0.17571259
0.0058131777 -0.66401339 0.6629734
0.013558175 -0.067415357 -0.076539516
0.0080581717 0.18469167 -0.14997673
0.0074501745 -0.023108363 -0.086567402
-0.00014382601 -0.7097764 0.7045126
0.00056117401 -0.60713232 0.63103962
-0.0057298243 -0.70774031 0.7118063
-0.0049328245 -0.13246334 -0.092184544
-0.011077825 0.021182656 -0.10261536
-0.016860824 -0.70384538 0.72576952
-0.010990825 -0.13624036 -0.11509562
-0.023256827 0.22672164 -0.15504837
-0.023096826 0.30588168 -0.18553638
-0.027768824 -0.65220034 0.70675325
-0.029703826 0.019387603 -0.11524343
-0.033155825 -0.59549534 0.67591047
-0.042144828 0.057062626 -0.12815952
-0.042137824 0.097698629 -0.13080835
-0.041908823 0.40330964 -0.21849155
-0.054557826 0.43538964 -0.22482157
-0.054510824 0.52354568 -0.27848053
-0.067171827 0.093420684 -0.16319752
-0.067219824 0.43590367 -0.21870375
-0.067235827 0.48041368 -0.23725939
-0.067275822 0.56065869 -0.28224754
-0.073454827 0.22554463 -0.16547632
-0.073479824 0.30648768 -0.17969942
-0.073573828 0.48070467 -0.23350954
-0.073609829 0.52528566 -0.25404167
-0.073643826 0.56120765 -0.27394152
-0.092427827 0.35220867 -0.19485331
-0.092513829 0.43624765 -0.21452856
-0.10605383 0.73682761 -0.36053658
-0.10524082 0.48116767 -0.2274127
-0.11143683 0.27107668 -0.20739555
-0.11158283 0.48109466 -0.2283206
-0.11174683 0.56266069 -0.25180531
-0.12427983 0.48089063 -0.23084974
-0.13064682 0.48065168 -0.23386955
-0.13073182 0.52606863 -0.24273729
-0.13709682 0.52595764 -0.24422264
-0.14432983 0.77300566 -0.32179737
-0.14487782 0.85748065 -0.37013054
-0.14355883 0.56250465 -0.2538743
-0.15033883 0.69042861 -0.28830051
-0.15054283 0.73912263 -0.30496931
-0.14982483 0.47967464 -0.24625444
-0.15006383 0.60796064 -0.26583767
-0.15634783 0.43244869 -0.25924063
-0.15708582 0.77322662 -0.31565046
-0.16331382 0.73922467 -0.30234861
-0.16272283 0.52480865 -0.26004076
-0.18218082 0.56062269 -0.28179073
-0.18217982 0.60698164 -0.28175974
-0.18896082 0.73912066 -0.3044467
-0.18990882 0.91668665 -0.3587513
-0.19553582 0.77327365 -0.31377745
-0.19575483 0.82247865 -0.32568073
-0.19595382 0.85830963 -0.33656836
-0.19521482 0.60610163 -0.29624176
-0.19631982 0.91672266 -0.35654545
-0.20238082 0.85831666 -0.33617544
-0.21486183 0.73854363 -0.31781864
-0.23500082 0.91672868 -0.35537958
-0.24124283 0.77201569 -0.34687138
-0.24805883 0.77146661 -0.36159468
-0.25456482 0.91658068 -0.36348248
-0.26792282 0.85719067 -0.37920237
