# .PCD v0.7 - Point Cloud Data file format
VERSION 0.7
FIELDS x y z
SIZE 4 4 4
TYPE F F F
COUNT 1 1 1
WIDTH 1
HEIGHT 128
VIEWPOINT 0 0 0 1 0 0 0
POINTS 128
DATA ascii
0.32494467 0.89095461 0.081226349
0.31518868 0.81409466 0.16372442
0.31461167 0.84941661 0.17667437
0.30470568 0.72441065 0.12775946
0.30529368 0.89115763 0.11400747
0.29324368 0.67721564 0.11267042
0.29142869 0.75909263 0.15691423
0.2792047 0.75922966 0.16186428
0.2748937 0.64486766 0.11765623
0.2685737 0.64517868 0.12490225
0.26801068 0.67825764 0.13991833
0.2670947 0.75930262 0.16430855
0.26669368 0.81432366 0.17499542
0.26655769 0.89155763 0.1786046
0.2506977 0.59820461 0.11786842
0.24643569 0.51581967 0.06548357
0.23880568 0.56393659 0.11185455
0.22530869 0.72535962 0.15628052
0.22705869 0.51795465 0.10056639
0.22160769 0.47266862 0.080684185
0.20841768 0.84873366 0.11668062
0.20158269 0.72503763 0.1449194
0.20206068 0.81354463 0.12780428
0.19601569 0.5648756 0.12820435
0.19585969 0.59906662 0.13399839
0.18995468 0.75848067 0.12925959
0.18602268 0.34608161 0.04627943
0.17787069 0.67799366 0.12996817
0.17836869 0.47465962 0.1096034
0.17811769 0.51919067 0.11986637
0.16623668 0.47477764 0.11109447
0.15403068 0.5982666 0.11645126
0.15506969 0.31650865 0.066815376
0.15479869 0.34895265 0.079770565
0.15445969 0.67675865 0.095960617
0.14867169 0.34917563 0.08230257
0.14381368 0.21472865 0.019086361
0.14205369 0.51869166 0.11073637
0.13627669 0.39434665 0.096062183
0.13019869 0.56329864 0.097130299
0.13009769 0.51823461 0.10288429
0.1242997 0.34964061 0.087399483
0.1181357 0.39417863 0.093594551
0.10628069 0.51656067 0.074510574
0.10080469 0.13552165 0.02852726
0.10013869 0.47276163 0.079436302
0.094038695 0.34918261 0.081503391
0.088460691 0.13662463 0.038071156
0.081954695 0.34873062 0.075984478
0.082082696 0.43609563 0.063741207
0.076330692 0.094049633 0.028943539
0.069882691 0.26532465 0.066879272
0.069879696 0.34801066 0.067287445
0.069945693 0.39159465 0.05970335
0.063846692 0.21909666 0.060696602
0.057767693 0.2189576 0.059290409
0.057803694 0.34691864 0.054180622
0.051692694 0.21871066 0.056842327
0.045930695 -0.038273394 -0.0061244965
0.039530694 0.21816164 0.051404476
0.039540693 0.26364064 0.049093246
0.033447694 0.18634063 0.047624588
0.033805694 -0.1305334 -0.054894447
0.033467695 0.26296264 0.041992188
0.027356695 0.18596661 0.04410553
0.027497694 -0.07760638 -0.0093765259
0.021294694 0.0056106448 0.020767212
0.015159694 0.094800651 0.034897327
0.0090466933 0.0057946444 0.022155285
-0.0093173059 0.057512641 0.022893429
-0.015458307 0.092712641 0.01749754
-0.033959307 -0.12267536 -0.0024094582
-0.033893306 0.0039476156 0.0083112717
-0.034212306 -0.29468733 -0.043973446
-0.040256307 0.087685645 -0.024372578
-0.040050305 -0.036746383 0.0050215721
-0.046555307 -0.2942794 -0.041532516
-0.046435304 -0.23387831 -0.026315689
-0.046307307 -0.16923636 -0.010025501
-0.052390307 -0.07662338 -0.0022745132
-0.070964307 -0.078424394 -0.014648438
-0.071045302 -0.040484369 -0.021803379
-0.071574308 -0.41955441 -0.068405628
-0.071404308 -0.36017233 -0.053453445
-0.077343307 -0.042037368 -0.032994747
-0.077187307 -0.23292738 -0.020250797
-0.089772306 -0.081981361 -0.039213657
-0.1021713 -0.1287244 -0.042000771
-0.1207423 -0.35852534 -0.043692589
-0.13985731 -0.36353642 -0.070802689
-0.14611731 -0.49487239 -0.073291779
-0.14658031 -0.57934135 -0.094518661
-0.15200531 -0.41806036 -0.059183598
-0.15277931 -0.57910937 -0.093284607
-0.16465431 -0.49422032 -0.06961441
-0.17218231 -0.70676941 -0.12182379
-0.17755732 -0.57819432 -0.08836174
-0.18396331 -0.49942333 -0.095044613
-0.19113731 -0.75247139 -0.12890244
-0.20298031 -0.82609731 -0.10614777
-0.20271932 -0.63278335 -0.097370625
-0.20915131 -0.5816794 -0.1039114
-0.20572831 -0.90087336 0.20357227
-0.21538432 -0.82558841 -0.10370064
-0.21569431 -0.70516342 -0.1135726
-0.22158231 -0.82533342 -0.10246658
-0.22190331 -0.70494133 -0.11240482
-0.24016832 -0.82457632 -0.098763466
-0.24121132 -0.87185138 0.046282291
-0.25156531 -0.93014842 0.095939159
-0.2611843 -0.71620637 -0.16026258
-0.27950731 -0.71581632 -0.47350454
-0.2788493 -0.95011836 0.022497177
-0.2816703 -0.8961094 -0.046255589
-0.28820533 -0.77125436 -0.20549583
-0.28875533 -0.90167731 -0.06756258
-0.29219031 -0.83754736 -0.1495018
-0.30489531 -0.7114684 -0.45264578
-0.30305833 -0.9129234 -0.1105814
-0.3120763 -0.75256139 -0.31710863
-0.3175393 -0.70930439 -0.44222975
-0.30713832 -0.97304732 -0.0618577
-0.3139933 -0.85407239 -0.21576166
-0.3143183 -0.97886735 -0.083255768
-0.32484132 -0.93005842 -0.17608547
-0.33458132 -0.76866943 -0.38651657
-0.33793131 -0.7131564 -0.45889282
-0.37306532 -0.79623336 -0.5051775
