# .PCD v0.7 - Point Cloud Data file format
VERSION 0.7
FIELDS x y z
SIZE 4 4 4
TYPE F F F
COUNT 1 1 1
WIDTH 1
HEIGHT 128
VIEWPOINT 0 0 0 1 0 0 0
POINTS 128
DATA ascii
0.60314721 -0.093325794 -0.020581722
0.58983517 0.13382423 -0.12805748
0.58306617 0.023502231 -0.052209854
0.54774916 -0.001229763 0.025211334
0.54041618 -0.12809974 0.11162949
0.52177018 -0.6236698 0.20116615
0.50958318 -0.49663872 0.28223705
0.51459616 -0.12083977 0.15358734
0.5500682 0.35258025 -0.3564229
0.51641619 0.29060823 -0.15566778
0.47802922 -0.11343879 0.19565344
0.4582212 -0.61295074 0.23987436
0.47843921 0.29483122 -0.11430264
0.44353521 -0.30308479 0.36673927
0.4461692 -0.48451382 0.33044147
0.45082822 -0.78527576 0.1120944
0.4209632 -0.29956979 0.38269615
0.42532021 0.12679726 0.075394154
0.38198921 -0.50341278 0.40690041
0.38240221 -0.011811793 0.22600842
0.37092721 -0.29272372 0.41361046
0.34830222 -0.0082867742 0.24755907
0.33930621 -0.40662771 0.40846634
0.35611323 0.26466024 0.0063881874
0.33049822 -0.76765174 0.17051029
0.3264972 -0.60919875 0.24685812
0.32316822 0.061472237 0.20548725
0.32530421 -0.76931781 0.1640234
0.3122012 -0.17932981 0.41829014
0.33452022 0.48306724 -0.24331474
0.29994223 -0.61266679 0.23141909
0.29990822 -0.90175575 0.11611938
0.27389222 -0.035860777 0.3250165
0.26385123 -0.45897275 0.43157721
0.25730622 -0.34988481 0.46082449
0.2678802 0.24408722 0.082844257
0.2520712 -0.21930176 0.46003628
0.25935122 0.17012823 0.15426826
0.2622112 0.24429721 0.084575176
0.25547221 0.067868233 0.24878836
0.23072721 -0.21778673 0.46714735
0.23593821 0.14208722 0.18820715
0.21686222 0.069840252 0.26163149
0.21238022 0.10180223 0.23354006
0.25151521 0.52385819 -1.1108298
0.21385521 0.48953423 -0.15041351
0.20519722 0.42059726 -0.05939579
0.20126721 -0.96370572 0.065660477
0.19836122 -0.70476574 0.15814447
0.19519621 0.27297121 0.080785275
0.17794821 0.56243122 -1.0864739
0.14091721 -0.21387976 0.48489618
0.15088022 -0.96433479 0.062140465
0.12746121 0.53005022 -0.17882156
0.1158222 0.53007025 -0.17870092
0.1114682 0.52664924 -1.0617809
0.088754207 -0.11456972 0.46918821
0.089962207 -0.50524276 0.38776731
0.087221205 0.17651123 0.20287752
0.091833204 0.64972222 -1.0724597
0.0645862 0.10697621 0.26939821
0.063267201 -0.023955762 0.39536428
0.051799204 -0.16462773 0.49108934
0.052220203 0.6143682 -1.0682979
0.044136204 -0.78703576 0.089727402
0.032033205 0.10694021 0.26887226
0.032475203 0.64959222 -1.0764647
0.022022203 0.35760623 0.027490139
0.0060732039 0.52607024 -1.0734787
0.0046992041 -0.34021181 0.50094223
-0.033598796 0.52502525 -1.0930276
-0.040809795 0.49257123 -0.10784149
-0.067605793 -0.78936678 0.081232071
-0.083297797 0.20932424 0.16376019
-0.10382079 0.46018624 -0.088669777
-0.095114797 -0.11521178 0.46557045
-0.1295258 0.52689326 -0.23159885
-0.13976879 0.24692523 0.10530806
-0.16485779 0.73848224 -1.0445046
-0.14131179 -0.92356175 0.034603119
-0.14538479 0.24670321 0.10335636
-0.14605679 -0.59162575 0.31140852
-0.17155778 0.17191124 0.16614819
-0.18930478 -0.59276479 0.30794907
-0.21876478 0.4180392 -0.091972828
-0.22085379 0.14081621 0.17743111
-0.22386178 0.067849219 0.24739027
-0.27599379 0.51858723 -1.2090297
-0.2817018 0.55769622 -1.1813197
-0.23642479 -0.34504575 0.48276949
-0.25984478 0.26757926 0.030313492
-0.24838379 -0.22172576 0.4470973
-0.26935178 -0.91378278 0.072768211
-0.30763379 0.41338325 -0.14849186
-0.31414378 0.05900526 0.18706226
-0.33518279 0.1306802 0.10114431
-0.32971179 0.026724219 0.20553207
-0.3239978 -0.22832876 0.41592836
-0.3445448 0.087980211 0.13464832
-0.3323938 -0.13511473 0.35899925
-0.3660138 0.37054622 -0.15442657
-0.3487868 -0.51541573 0.35370207
-0.37186378 0.15659821 0.046601295
-0.37622479 0.23158121 -0.029028893
-0.3576788 -0.47064477 0.38527536
-0.38339779 -0.68924481 0.2268815
-0.40177178 0.15309721 0.019096375
-0.37983179 -0.41495878 0.37275028
-0.4594298 0.80242026 -0.80727959
-0.4412998 0.36315423 -0.23812771
-0.45244578 0.29234725 -0.14220953
-0.45541278 0.11487025 -0.018408775
-0.45147079 -0.028665781 0.11785316
-0.52168781 0.80120021 -0.87384748
-0.4710528 0.069418252 0.001950264
-0.48261079 0.3397212 -0.15733862
-0.53519082 0.58788222 -0.5419898
-0.46996179 -0.31371671 0.31551933
-0.4973658 1.6212463e-05 0.029771328
-0.49981979 0.031348228 -0.0021266937
-0.51530379 0.29327625 -0.12788963
-0.55635381 0.050838232 -0.13238478
-0.6084038 0.62646824 -0.7522378
-0.59180981 0.35938722 -0.27161264
-0.58623379 -0.10169476 -0.075944901
-0.6207248 0.39267522 -0.39458895
-0.6078608 0.16637522 -0.18669748
-0.63333482 -0.044558764 -0.27056885
