# .PCD v0.7 - Point Cloud Data file format
VERSION 0.7
FIELDS x y z
SIZE 4 4 4
TYPE F F F
COUNT 1 1 1
WIDTH 1
HEIGHT 128
VIEWPOINT 0 0 0 1 0 0 0
POINTS 128
DATA ascii
0.91868728 -0.25821877 -0.068749428
0.87857324 -0.014335752 -0.084537506
0.86575025 0.025987267 -0.081152439
0.85497731 0.11137331 -0.089838505
0.80983227 -0.41594172 0.071954727
0.79842228 0.10906428 -0.11864758
0.79860729 -0.14574075 -0.11981058
0.77753323 -0.14864373 -0.14192152
0.75207227 0.40658325 -0.056326389
0.7398873 0.10316026 -0.17759037
0.69638228 0.33358127 -0.048355579
0.68038923 0.36684829 -0.021248341
0.66625828 -0.37223577 -0.091864586
0.66312325 -0.27399969 -0.20124865
0.61725128 0.5359273 0.045215607
0.64652926 0.19056928 -0.21530724
0.57162124 -0.57747567 0.33872938
0.64105523 0.19009626 -0.22051239
0.64438426 0.0028502941 -0.29175758
0.63337028 0.0015842915 -0.30287933
0.61667228 0.22173226 -0.22295046
0.58785325 0.32663429 -0.14252329
0.55500025 0.49819827 0.11392879
0.54299325 0.54070425 0.11603165
0.57316124 -0.086953759 -0.37197542
0.54302925 0.35975426 -0.12478447
0.54366225 0.32381129 -0.18020058
0.49538928 0.50240928 0.17069578
0.53801924 -0.34969378 -0.2876482
0.52119327 0.32254428 -0.19729948
0.53251725 -0.3506707 -0.2936902
0.53025526 0.082246304 -0.38159466
0.53375924 -0.052269697 -0.41188335
0.50913328 0.041478276 -0.41758156
0.46461123 0.3555643 -0.1841073
0.48285425 -0.098986745 -0.4667964
0.42638028 -0.54537368 0.0021767616
0.44181126 0.20815027 -0.37703562
0.41893625 0.31667328 -0.2752924
0.41360223 0.35278529 -0.22278023
0.32345527 -0.48151767 0.5574894
0.39649123 0.35184425 -0.23576641
0.41544724 0.070598304 -0.49172354
0.39594924 0.31532925 -0.29286242
0.39077628 0.3515293 -0.24010563
0.41809428 -0.20005667 -0.51871824
0.40752023 -0.31608367 -0.47564459
0.37539023 0.16665727 -0.47144938
0.24774927 -0.40792167 0.61430264
0.34792227 -0.21048772 -0.59220934
0.32868427 -0.27501369 -0.59318256
0.21755928 -0.52528071 0.52350855
0.29066223 -0.33590376 -0.60074043
0.18142727 -0.2241807 0.6373744
0.17905325 -0.35018873 0.66788149
0.17572024 0.41495526 0.49976873
0.24020028 -0.22673368 -0.70498848
0.13596025 0.49023527 0.44133568
0.11592427 0.45449328 0.49456167
0.10251024 0.20598525 0.61744452
0.11568627 0.48836526 0.41369343
0.11531526 -0.54792368 0.41943169
0.096206248 -0.35648668 0.63223267
0.094280243 0.51394427 0.30956459
0.040115267 0.1829893 0.68053436
0.053011268 -0.50214875 0.44620752
0.037150264 0.24503326 0.6374588
0.018162251 0.28262126 0.59106255
0.013307244 0.44424927 0.35650778
-0.021457732 -0.38015473 0.51411152
-0.057315752 -0.18000174 0.59841251
-0.067565739 0.12648225 0.58550978
-0.069653749 0.27263927 0.49374056
-0.058312744 0.47213426 0.17689943
-0.077415749 -0.45018268 0.40146637
-0.11321874 0.2292363 0.49227047
-0.12500975 0.11874229 0.52508354
-0.19258875 -0.4157207 0.34121466
-0.20144075 0.39382327 0.56179857
-0.22174874 -0.042782724 0.45251465
-0.24497175 0.3537733 0.61741352
-0.24308974 0.46667328 -0.41659021
-0.24895874 -0.047196746 0.42403841
-0.25416774 -0.27055776 0.37539339
-0.26356474 0.41602129 -0.014581203
-0.27082574 0.063320279 0.37873459
-0.30975273 0.057687283 0.3378644
-0.31084076 0.41112226 -0.077758312
-0.31428275 0.35588127 0.63926649
-0.32703075 0.20036328 0.23599863
-0.34451675 0.2390703 0.17569447
-0.39699075 0.23247027 0.11452961
-0.39488673 0.04525727 0.24850178
-0.43794674 -0.46888471 0.091226578
-0.46617973 0.4158923 -0.61456156
-0.46331674 -0.53670478 0.0055217743
-0.46459574 -0.25570178 0.18101549
-0.48167375 -0.14270568 0.18416643
-0.49433672 0.030553281 0.1441474
-0.49379373 -0.2001977 0.1619215
-0.50587374 -0.69908273 -0.23347235
-0.50497574 0.21877229 -0.011193275
-0.54399872 0.46468529 0.61767864
-0.57362574 0.053933263 0.038350582
-0.61088777 0.20519125 -0.13430738
-0.60253674 -0.064269781 0.04611063
-0.61210674 0.094166279 -0.032762527
-0.62060678 -0.10919976 0.03544569
-0.63716578 0.090609252 -0.060075283
-0.65911472 0.15679127 -0.13731527
-0.66211975 -0.43060768 -0.081784248
-0.68724477 -0.74704778 -0.42990255
-0.67850876 -0.3545717 -0.055200577
-0.71082771 0.14969528 -0.1968503
-0.76039577 -0.60734975 -0.30318546
-0.85865873 -0.79373467 -0.61760139
-0.84089577 -0.023291707 -0.22788143
-0.90487576 -0.48394167 -0.33098841
-0.96575272 -0.65796268 -0.51828861
-0.99759674 0.038443267 -0.45227861
-1.0153818 -0.013337731 -0.44022226
-1.0727177 -0.37690878 -0.4436655
-1.1098807 0.055557251 -0.6067152
-1.0933368 -0.19207275 -0.45805359
-1.1175928 -0.44674873 -0.50361347
-1.1606817 -0.03606075 -0.59725142
-1.1613488 -0.45618677 -0.54843664
-1.0950907 0.29549229 0.056774616
