# .PCD v0.7 - Point Cloud Data file format
VERSION 0.7
FIELDS x y z
SIZE 4 4 4
TYPE F F F
COUNT 1 1 1
WIDTH 1
HEIGHT 1024
VIEWPOINT 0 0 0 1 0 0 0
POINTS 1024
DATA ascii
1.0368984 -0.035142779 0.033282757
1.0311323 -0.035256743 0.031628609
1.0080564 -0.035726786 0.024974823
1.0171124 -0.0069087744 -0.038262367
1.0333154 0.063499212 -0.19472122
0.99379635 -0.0073747635 -0.044975281
1.0222384 0.16515225 -0.43216038
0.94705236 -0.071399748 0.076551437
1.0218354 0.19336021 -0.47655344
0.99799037 0.12458324 -0.3469882
1.0099194 0.16494322 -0.4357996
0.95877439 -0.0080917478 -0.055021286
0.97366333 0.062371254 -0.21206617
0.99190336 0.12447423 -0.34876919
0.93464136 -0.026411772 0.080391407
1.0115864 0.19149822 -0.49628735
0.96768934 0.062255263 -0.21379662
0.98581535 0.12436426 -0.35055161
0.95598733 0.022157252 -0.1255064
0.92366934 -0.033660769 0.027954578
0.91972035 0.0080852509 0.058149815
0.95731938 -0.22465581 -0.22938156
0.91774338 -0.12193972 0.027492523
0.95186639 0.090253234 -0.28345442
0.90033138 0.016351223 0.11607265
0.91131437 -0.18103582 0.030926704
0.97351038 0.19149721 -0.50127649
0.90608335 -0.085250795 -0.021983624
0.90751034 0.079660237 -0.080972195
0.92503434 0.098231256 -0.21968842
0.94313937 0.12358224 -0.36300421
0.90334839 -0.044096768 -0.048026562
0.96053034 0.19172722 -0.50066328
0.91348237 0.10347223 -0.1770196
0.89706534 -0.088675797 -0.046142578
0.89299434 -0.18796474 -0.013688564
0.88798535 -0.092126787 -0.070464611
0.88973236 -0.049058735 -0.084595203
0.88342237 -0.093861759 -0.082686424
0.88057935 -0.052397788 -0.10917521
0.92780036 0.19255722 -0.49655628
0.87670034 0.15110326 -0.12748241
0.87896633 0.020723224 -0.14620638
0.86560136 0.15594625 -0.085948467
0.86122137 -0.31119472 -0.049490452
0.85360634 0.028865218 -0.087200165
0.84867036 -0.36494273 -0.045496464
0.84364635 0.20212322 -0.10589123
0.82443935 -0.071736753 0.058850765
0.82636434 -0.029899776 0.042341709
0.81207538 0.17929423 0.11437368
0.84679139 0.22512525 -0.18566751
0.81634039 0.012480259 0.077516556
0.81800133 0.049151242 0.063156605
0.81799734 -0.11449677 0.063191414
0.82439435 -0.36416274 -0.044197559
0.82145435 -0.30475277 -0.018589497
0.79718536 0.10889822 0.14171171
0.79861838 0.14149421 0.12914038
0.79154533 0.18824625 0.19121552
0.80147034 -0.020692766 0.10410166
0.81833035 -0.36396974 -0.04387331
0.78911036 0.11144125 0.16129541
0.78736234 0.14730924 0.17675638
0.79722536 -0.17780882 0.036849499
0.77365434 0.18891925 0.19516039
0.78041637 0.22839123 0.13439846
0.79411238 -0.23757476 0.01132679
0.77589238 0.019236207 0.12225342
0.82402337 0.31148124 -0.3137064
0.79126638 -0.3038488 -0.017000198
0.78810537 -0.23740679 0.011638641
0.77406037 -0.066939771 0.085347652
0.78523433 -0.3036707 -0.016683578
0.80205137 0.31934226 -0.2266736
0.81582636 0.34030426 -0.35347843
0.75602639 0.22959822 0.14309263
0.76000637 -0.019743741 0.10615969
0.79126638 0.32320124 -0.18395138
0.77009135 -0.23690778 0.01256752
0.74636638 0.14807922 0.17871857
0.75625038 -0.066520751 0.086235523
0.76474035 0.29014122 0.006790638
0.75041938 0.25379723 0.085573673
0.76112336 -0.30297178 -0.015423298
0.75535637 -0.1767078 0.038987637
0.73466939 0.14829326 0.17927456
0.74226236 -0.019349754 0.10703373
0.74048036 0.019997239 0.12398863
0.75510037 -0.30279976 -0.015111446
0.75209337 -0.23641771 0.013494492
0.73043233 0.11258221 0.16411972
0.72696638 0.18973923 0.19737339
0.73896533 0.25358123 0.082242489
0.73276138 0.060710251 0.1417675
0.75704938 0.33167022 -0.0912714
0.78013939 0.38916224 -0.31281853
0.72113633 0.18983823 0.19764757
0.73252738 -0.065972745 0.087414742
0.75717634 0.35771221 -0.15111351
0.76936436 0.39262724 -0.26904535
0.74010235 -0.23609573 0.014109612
0.73459536 -0.11242276 0.067398548
0.72453237 -0.018963754 0.10790443
0.74529433 0.33147126 -0.094743252
0.71129239 0.14871323 0.18038559
0.76626039 0.43101424 -0.3607626
0.70700538 0.11301923 0.16523838
0.70365936 0.19013321 0.19847059
0.71055937 0.22870523 0.12994766
0.71272033 -0.018709779 0.10848475
0.73353434 0.33127123 -0.09821558
0.75644839 0.43356526 -0.32577562
0.71953535 -0.17580074 0.040800571
0.70486635 0.22859126 0.12830544
0.71029437 0.25303221 0.07392168
0.73345834 0.35732526 -0.15815258
0.74181336 0.39494222 -0.24185658
0.69201434 0.19032723 0.19901752
0.71015638 -0.23530978 0.015637398
0.68945134 0.11333925 0.16607475
0.70417237 -0.23515576 0.01594162
0.68037635 0.19051826 0.19956541
0.69107538 -0.065047801 0.089460373
0.69307035 0.25269723 0.068934441
0.67627436 0.14932323 0.18203974
0.68708533 -0.11131674 0.06976366
0.71176738 0.39447623 -0.25082827
0.68377137 -0.17492872 0.042597771
0.66606838 0.11375725 0.1671834
0.66461235 0.14952123 0.18258762
0.67067337 0.22789925 0.11846876
0.67142737 -0.017846763 0.11049652
0.66982734 0.021435261 0.12741756
0.68294835 -0.30081779 -0.011390209
0.65159833 0.19062722 0.19779253
0.66151339 -0.064411819 0.090909481
0.66829938 -0.2342518 0.017757416
0.66591233 -0.17450577 0.043489456
0.64595735 0.19050425 0.19618845
0.67997038 0.35643125 -0.17397833
0.65996033 -0.17436677 0.043785572
0.64130735 0.14990926 0.18368244
0.65280837 0.25189823 0.057309628
0.65435737 0.28810626 -0.025431633
0.63888234 0.062502265 0.14627171
0.63302737 0.062608242 0.1465497
0.63198835 -0.063797772 0.092347622
0.65614438 0.35602427 -0.18100548
0.66358238 0.39370924 -0.26517439
0.67120236 0.43231821 -0.35140753
0.64321834 -0.3588838 -0.034728527
0.64096737 -0.29973274 -0.0092554092
0.61802638 0.15028626 0.18477058
0.63686037 0.28777021 -0.030507565
0.62284636 0.022332251 0.12967062
0.62132138 0.062817216 0.14710569
0.62399036 0.25131422 0.049018383
0.61698139 0.022440255 0.12995052
0.60639435 0.15047121 0.18531275
0.61822134 0.25119627 0.047362804
0.61111635 0.022548258 0.13022947
0.62055337 -0.23310274 0.020150661
0.62730837 0.32939225 -0.12940741
0.63228238 0.35560924 -0.18802929
0.63943636 0.39331722 -0.27234554
0.64676636 0.43194926 -0.3587265
0.59476638 0.15065324 0.18585253
0.60667437 0.25095826 0.044048786
0.63339335 0.39321727 -0.27413654
0.59023339 0.11503822 0.17074966
0.59634435 0.22633922 0.097206593
0.60089839 0.25083822 0.042393684
0.59208333 0.063328207 0.14848661
0.60053837 -0.17302781 0.046724796
0.58440936 0.11513126 0.17102146
0.58767134 0.022972226 0.1313448
0.61436236 0.35529423 -0.19329548
0.62841433 0.43166822 -0.36421633
0.59235233 -0.10927576 0.074406624
0.58867234 -0.17277175 0.047306538
0.57276738 0.11531723 0.17156363
0.57731634 -0.016023755 0.11502171
0.59767836 0.32884526 -0.13805628
0.60240537 0.35508221 -0.19680452
0.60920334 0.39281726 -0.28130245
0.58274138 -0.17264479 0.047596455
0.57144433 -0.015916765 0.11530161
0.56871635 0.063723207 0.14958477
0.58111733 -0.29827279 -0.0062475204
0.57885236 -0.23215073 0.022216797
0.57680935 -0.17251879 0.047886372
0.57463133 -0.10891873 0.075265408
0.55991834 0.15118426 0.18746662
0.56715935 -0.062521756 0.095473766
0.57198733 0.25023323 0.034119606
0.59043735 0.35486823 -0.20031452
0.57088137 -0.17239374 0.048176765
0.56872636 -0.10880178 0.075550556
0.55411536 0.15127021 0.1877346
0.56695133 -0.2318868 0.022804737
0.56282437 -0.10868472 0.075836658
0.54831338 0.15135622 0.18800259
0.56668735 0.28638524 -0.050783634
0.56100237 -0.23175675 0.023095608
0.54251134 0.15144026 0.18826962
0.56799233 0.32828826 -0.14669943
0.58551234 0.43099922 -0.37702131
0.55915135 -0.35676676 -0.03047657
0.53671235 0.15152526 0.18853664
0.54882038 0.24974024 0.027508736
0.56647736 0.35443527 -0.20732737
0.57284737 0.39220524 -0.29204845
0.54302335 0.24961627 0.025855541
0.56048238 0.35432625 -0.2090826
0.53722036 -0.23124677 0.024260521
0.52043539 0.11611724 0.17398977
0.53518438 -0.35620171 -0.029280186
0.52561837 0.24924022 0.02090168
0.5314824 0.28566921 -0.060904503
0.52737337 -0.29704982 -0.0035843849
0.5088194 0.11628723 0.17452574
0.50773239 0.15193623 0.18986559
0.51590937 0.22456723 0.074388504
0.52560735 0.28554726 -0.062589169
0.54248834 0.39168322 -0.30099916
0.50194037 0.15201622 0.19013166
0.51014835 0.22443724 0.072761536
0.50696039 -0.014791787 0.1183486
0.51345837 -0.23075181 0.025418758
0.51166636 -0.17119676 0.051046371
0.52038038 0.32737422 -0.16051531
0.52424437 0.39136624 -0.30636835
0.50525337 -0.35551971 -0.027797222
0.49797636 -0.1074627 0.078939438
0.4882654 0.024636209 0.13601255
0.50845337 0.32714224 -0.16396856
0.47980136 0.11670125 0.17585659
0.47299737 0.15240824 0.19145155
0.47545636 0.065187216 0.15392447
0.50597739 0.39104521 -0.31173754
0.48564637 -0.2961567 -0.0015425682
0.46721137 0.15248525 0.19171572
0.48441935 0.28468722 -0.074380398
0.49437636 0.35309726 -0.22835541
0.47785437 -0.23003978 0.027140617
0.46142638 0.15256023 0.19197845
0.46728039 -0.060748756 0.10020638
0.47029036 -0.17041379 0.05302763
0.46746135 0.24795622 0.0044116974
0.46266639 -0.10684079 0.080612659
0.44986236 0.15271026 0.19250345
0.45819837 0.22324425 0.058138371
0.48158836 0.39061123 -0.31889343
0.46340138 -0.35461277 -0.025743484
0.46182835 -0.29566973 -0.0003862381
0.44408137 0.15278423 0.19276571
0.45241535 0.22310925 0.056515694
0.45090735 -0.10664076 0.081164837
0.44157237 0.18575525 0.13878059
0.4438324 -0.060367763 0.10130262
0.45145637 -0.35436279 -0.025161266
0.44821739 -0.22947282 0.028561592
0.44667435 -0.16998678 0.054149628
0.44502938 -0.10654181 0.081441402
0.43252236 0.15293026 0.19328976
0.43578136 0.025427222 0.1384387
0.43475038 0.065769255 0.15579367
0.46327037 0.39028221 -0.32425928
0.43915039 -0.10644382 0.081717491
0.42995536 0.025512218 0.13870859
0.42096835 0.15307325 0.19381046
0.42625535 -0.060089767 0.10212183
0.44611835 0.35217124 -0.24235916
0.43669939 0.32570821 -0.18465948
0.41296637 0.18504322 0.13085461
0.41766739 0.22228825 0.046785831
0.41151339 0.066086233 0.15685368
0.43402839 0.35193521 -0.24585962
0.42160839 -0.35375875 -0.023713589
0.41565239 -0.10605973 0.082816601
0.40448737 0.11769724 0.1792798
0.41946536 0.28329021 -0.092881203
0.40570736 0.066163242 0.15711737
0.41564339 -0.35364074 -0.023426533
0.4017514 -0.013157785 0.1232357
0.40084136 0.025921226 0.14004183
0.40830737 -0.29463571 0.0021877289
0.4053874 -0.16927677 0.0560956
0.4023664 -0.2945258 0.0024695396
0.39804137 -0.10578173 0.083636761
0.39737439 0.24635226 -0.015331268
0.40170234 0.28289926 -0.097921371
0.38920337 0.026079237 0.14057159
0.40669936 0.32509226 -0.19327354
0.41431439 0.38938624 -0.3385644
0.3915174 0.24621522 -0.016974449
0.40376335 0.35133821 -0.25460529
0.40818137 0.38927221 -0.34035349
0.38902539 -0.22841376 0.03137064
0.37556839 0.11805022 0.18058157
0.37856835 0.18417221 0.12135649
0.38283837 0.22145021 0.037070751
0.37943339 -0.059385717 0.10428762
0.3858304 -0.35306972 -0.021995544
0.37089038 0.066612244 0.15869474
0.39591235 0.38904321 -0.34392834
0.37987137 -0.35295874 -0.021710396
0.3670854 0.18387824 0.11819458
0.37391335 -0.35284871 -0.021427631
0.37004137 -0.16870373 0.057749748
0.36539239 0.22102422 0.032217503
0.36093038 -0.012591779 0.12510347
0.37663639 0.32446623 -0.20188046
0.36673939 -0.29388982 0.0041594505
0.36610836 0.28210521 -0.10799551
0.35431135 0.02653724 0.1421566
0.37061739 0.32433921 -0.20360231
0.37343436 0.35073125 -0.26334763
0.37748736 0.38869625 -0.34929228
0.36199939 -0.35263175 -0.020860195
0.36080635 -0.2937867 0.0044398308
0.35947037 -0.22792071 0.032757759
0.35826635 -0.16851979 0.05829668
0.36459535 0.32421225 -0.20532322
0.37134135 0.38858026 -0.35107946
0.35604435 -0.35252577 -0.020578384
0.34792536 0.22059423 0.027368546
0.34268939 0.026683211 0.1426816
0.3612864 0.35048527 -0.26684237
0.34765637 -0.22773081 0.03330946
0.3464964 -0.16833979 0.058841705
0.33851838 -0.058813751 0.10615873
0.34827936 0.28170222 -0.11302853
0.33610839 0.067035258 0.16025972
0.35904038 0.38834625 -0.35465336
0.34301138 -0.29348582 0.0052776337
0.32934737 0.11857921 0.18264771
0.33180237 -0.012210786 0.12642384
0.3387084 0.24496222 -0.031747341
0.3423304 0.28156626 -0.11470652
0.34651238 0.32382822 -0.21048546
0.33472937 -0.16816372 0.059385777
0.32598037 -0.012136757 0.12668753
0.32526237 0.026897252 0.14346647
0.34048039 0.32369924 -0.21220541
0.31809837 0.15156823 0.17610645
0.32105535 0.18268025 0.10556173
0.33444536 0.32356924 -0.21392536
0.33695638 0.34998822 -0.27383327
0.32768035 -0.42958671 -0.052518368
0.32628238 -0.35200876 -0.019172192
0.32296735 -0.16799074 0.059927464
0.31203139 0.11876625 0.18341637
0.31597137 -0.10458773 0.087413788
0.31223238 -0.22718376 0.034953594
0.30348235 -0.058354795 0.10774946
0.30269736 -0.011849761 0.12773752
0.30974638 -0.4292708 -0.051670551
0.30843639 -0.35171181 -0.018333435
0.3012414 0.21942425 0.014451504
0.29764736 -0.05828172 0.10801268
0.30339438 0.24410522 -0.041582584
0.28895336 0.11900723 0.1844368
0.2922104 0.18191421 0.097679615
0.29181236 -0.058208764 0.10827637
0.29559636 -0.29272872 0.0074887276
0.29255539 -0.10427672 0.088478565
0.28318638 0.11906523 0.18469048
0.28384137 0.15062022 0.16683245
0.28399736 0.067622244 0.16258478
0.3035534 0.38727427 -0.37073851
0.29182237 -0.42896479 -0.05082655
0.28863737 -0.22683877 0.036039829
0.28065538 0.18160421 0.094529629
0.27942938 -0.011574745 0.1287818
0.28570336 0.24367023 -0.046494484
0.2788294 0.027435243 0.14554548
0.27487439 0.18144822 0.092954636
0.27431238 -0.057995737 0.10906363
0.27302939 0.027499259 0.1458025
0.29119137 0.38703126 -0.37431145
0.27783036 -0.29246181 0.0083098412
0.27684337 -0.22667176 0.036581516
0.26848036 -0.057926774 0.10932446
0.28001338 0.32238525 -0.2293973
0.26330638 0.18113524 0.08980751
0.26198739 -0.011377752 0.12955856
0.26793438 -0.42857271 -0.049707413
0.26682937 -0.35105675 -0.01639843
0.27263039 0.38666421 -0.37967443
0.26088738 -0.35096771 -0.016124249
0.25915939 -0.22642881 0.037387371
0.25833637 -0.16710871 0.062877655
0.2503624 -0.011249781 0.13007641
0.26371437 0.34845525 -0.29479456
0.24283637 0.11945623 0.18646574
0.25025439 0.24278623 -0.056313515
0.25759438 0.34832525 -0.29654121
0.23803237 0.14932626 0.15449667
0.24072838 -0.16688675 0.063672543
0.24082637 0.27919322 -0.14318037
0.24534437 0.34806222 -0.30003119
0.23407738 -0.10356277 0.091110706
0.22665538 0.027983248 0.14785576
0.23212737 -0.42801982 -0.048045635
0.22883438 0.27890426 -0.14652634
0.22526237 -0.35045475 -0.014487267
0.22457938 -0.29171675 0.010746479
0.22312537 -0.16667372 0.064464569
0.21403937 0.11971521 0.18772364
0.22536737 0.32116425 -0.24485922
0.21726038 -0.16660482 0.064727783
0.21654837 -0.10336477 0.091892719
0.20932437 0.14850026 0.14679956
0.21928237 0.32102627 -0.24657631
0.20389538 -0.010768771 0.13213253
0.21467037 0.34739822 -0.30876017
0.20486638 -0.10323673 0.092412472
0.19856037 -0.057158768 0.11243677
0.19881137 0.27817523 -0.1548872
0.20238237 0.34713024 -0.31225252
0.19438137 -0.22561282 0.040315628
0.18631437 0.14782822 0.1406498
0.18648337 -0.010601759 0.13289642
0.18794237 -0.16627282 0.066036701
0.18204938 0.17888421 0.067818642
0.17996837 0.068621218 0.1671505
0.18373337 -0.34990579 -0.012600422
0.18261437 -0.2254768 0.040842533
0.17375137 0.12004924 0.18947172
0.17527737 -0.056928754 0.11346149
0.17454137 0.028470218 0.15013647
0.17621838 -0.16614574 0.066556454
0.16799937 0.12009424 0.18972158
0.16224737 0.12013924 0.18996954
0.16265137 0.068765223 0.16790152
0.16548337 -0.29098576 0.013410568
0.15649638 0.12018222 0.19021654
0.15749538 0.14697725 0.13297176
0.15874237 0.17822224 0.06154871
0.15928237 0.34617621 -0.32446527
0.15063336 0.27698421 -0.16825438
0.14561237 0.02871424 0.15139246
0.14534137 0.068903208 0.16864872
0.14816338 -0.34947771 -0.011001587
0.14776736 -0.2907868 0.014201641
0.14692438 -0.16584581 0.067851543
0.14459938 0.27683324 -0.16992331
0.14106737 -0.16578776 0.068108559
0.13659337 0.21507424 -0.030590534
0.13992137 0.31919122 -0.26888847
0.14077038 0.34576023 -0.32969952
0.12782237 0.11968625 0.18580246
0.12861437 0.14611322 0.12530565
0.13067637 0.21491122 -0.032193184
0.12848137 -0.010093749 0.1354208
0.13141938 0.23971021 -0.088968277
0.12900138 -0.10249275 0.095750809
0.12316837 -0.10244173 0.096002579
0.11130138 -0.056364775 0.11624765
0.11109237 -0.0099567771 0.13617039
0.11350138 0.23923123 -0.093858242
0.11296538 -0.42647582 -0.042643547
0.10615137 0.17670125 0.047465801
0.10752337 0.23907125 -0.095487595
0.10833438 0.27591622 -0.17993832
0.10618237 -0.22468871 0.044220448
0.10593837 -0.16546375 0.069644451
0.10567837 -0.10229272 0.096763611
0.099677369 -0.056272745 0.11675072
0.10055338 -0.29030174 0.016286373
0.093864374 -0.056227744 0.11700058
0.093707375 -0.0098267794 0.13691759
0.093441375 0.06927824 0.1708746
0.094653375 -0.29024571 0.016545773
0.087677374 0.069316208 0.17112064
0.088380374 -0.16531271 0.070408821
0.082019374 0.029186249 0.15412474
0.08285737 -0.29013675 0.017062664
0.076148376 0.11805725 0.17227364
0.076151371 0.069390237 0.17161083
0.077091374 -0.34873778 -0.007856369
0.070827372 -0.1651718 0.071165562
0.058877375 0.11750323 0.16777277
0.059225373 0.17531222 0.03497076
0.059128374 -0.1650818 0.071671486
0.053198375 -0.055936754 0.11874247
0.053598374 0.23760325 -0.11013842
0.053917374 0.31712824 -0.29289627
0.047373373 -0.0095147491 0.13889551
0.047454372 -0.22419375 0.046767712
0.041582376 0.069595218 0.17307472
0.041582376 -0.16495377 0.072423458
0.041582376 -0.10181373 0.099517822
0.035793375 -0.0094437599 0.13938761
0.035823375 0.069627225 0.17331553
0.035358373 0.34333026 -0.3593502
0.035637375 -0.42571872 -0.039243221
0.035735376 -0.16491276 0.072673798
0.029557373 0.23693722 -0.11664534
0.024106374 0.14288425 0.097789764
0.023061374 0.31636924 -0.30146551
0.023902373 -0.28965181 0.01961565
0.023975374 -0.22402281 0.047775745
0.018194374 -0.16479474 0.073422432
0.012125375 0.17388821 0.022498608
0.012640374 -0.0093127489 0.14036369
0.012788374 0.06974721 0.17428446
0.0068533756 -0.0092817545 0.1406064
0.0059183724 -0.42547971 -0.037958622
0.0063703731 -0.22390479 0.048526764
0.00032437593 0.17352724 0.01938343
0.001273375 0.069803238 0.17476559
-0.0020536259 0.34244126 -0.36981249
0.00065937266 -0.16468579 0.074166775
0.00082437322 -0.1015628 0.10124779
-0.0055806264 0.17334521 0.017826557
-0.0059666261 -0.42539078 -0.037447453
-0.005559627 -0.28944772 0.0208745
-0.0053626262 -0.22383076 0.049024582
-0.010440625 0.11523825 0.14980555
-0.010921627 0.14176822 0.088646412
-0.012623627 0.23575222 -0.12802362
-0.013292626 0.27273226 -0.2132802
-0.011649627 -0.34802979 -0.0040225983
-0.018158626 0.21067226 -0.072202206
-0.022030629 0.11485326 0.14681768
-0.022618629 0.14139122 0.085601807
-0.025519624 0.27240324 -0.21660948
-0.022718623 -0.16455382 0.075153828
-0.027508624 0.069930255 0.17596579
-0.033315629 0.34168726 -0.37853146
-0.029122628 -0.28930372 0.021874428
-0.036137626 0.21014124 -0.076992512
-0.03326463 0.069953263 0.17620468
-0.035298623 -0.34788173 -0.0030183792
-0.035013624 -0.28926975 0.022122383
-0.042838626 0.23489022 -0.1361413
-0.043883629 0.27190524 -0.22160435
-0.040902629 -0.28923672 0.022370815
-0.045243628 0.11407524 0.14084673
-0.04604663 0.14063126 0.079517841
-0.045478627 -0.055397749 0.12289858
-0.050009623 0.27173924 -0.22327042
-0.052110627 0.34123021 -0.38376331
-0.057519622 0.31434023 -0.32374048
-0.052679628 -0.28917474 0.022866726
-0.056865625 0.11368221 0.13786364
-0.057776622 0.14024824 0.076477528
-0.062272623 0.27140325 -0.22659922
-0.057774626 -0.1643818 0.076621532
-0.062682629 0.11348522 0.13637352
-0.065373629 -0.4250198 -0.034924507
-0.064457625 -0.2891168 0.023358822
-0.068076625 0.029947221 0.16042137
-0.069878623 -0.2234928 0.051736832
-0.074135624 -0.0089297891 0.1439786
-0.080691628 0.27089721 -0.23159122
-0.083499625 0.34045821 -0.39248133
-0.077250622 -0.42495972 -0.034426212
-0.081271626 0.13947421 0.070401669
-0.079612628 0.029984236 0.16089678
-0.079297625 0.070114255 0.17810345
-0.081604622 -0.22344381 0.052223682
-0.085972622 0.11269122 0.13041353
-0.087153628 0.13927925 0.068884373
-0.085702628 -0.0088917613 0.14445639
-0.086462632 -0.10116571 0.10488939
-0.096254632 0.20833725 -0.092941284
-0.091149628 0.030019224 0.1613698
-0.10112862 0.31321424 -0.33573055
-0.099193633 -0.22337681 0.05295372
-0.10346763 0.11208922 0.12594938
-0.10230863 0.070177257 0.17904663
-0.10450162 -0.16420382 0.078556538
-0.11434662 0.20778525 -0.097721577
-0.10928063 -0.055173755 0.12553358
-0.10972762 -0.10109276 0.10584641
-0.12175062 0.23258924 -0.15722942
-0.11744262 -0.2889058 0.025556564
-0.11618263 -0.16416782 0.079036713
-0.11554463 -0.10107678 0.10608578
-0.12784062 0.23240823 -0.15885019
-0.12136063 -0.10106081 0.10632277
-0.13393563 0.23222727 -0.16047049
-0.13863163 0.31223124 -0.34600639
-0.13068862 -0.42474371 -0.032208443
-0.12984963 -0.34746176 0.00092172623
-0.12921363 -0.28887075 0.0260396
-0.14003262 0.23204523 -0.1620903
-0.14228763 0.26917523 -0.2482233
-0.13575763 -0.34744471 0.0011644363
-0.13299163 -0.10103279 0.1067977
-0.14022562 -0.22325581 0.054634571
-0.13880762 -0.10102075 0.10703373
-0.14351863 -0.0087487698 0.14681768
-0.14757362 -0.34741372 0.0016484261
-0.14537862 -0.16409582 0.080228806
-0.14881863 0.030149221 0.16372061
-0.15566863 -0.055072784 0.12742281
-0.16701463 0.26847225 -0.25487423
-0.15780763 -0.22321874 0.055351734
-0.16610263 0.16823423 -0.024086475
-0.15982462 0.070287228 0.18138266
-0.17485562 0.20591027 -0.11363935
-0.16726562 -0.055055737 0.12789059
-0.17224362 -0.42463976 -0.030510426
-0.17370863 0.10962826 0.10812569
-0.17571062 0.13628721 0.046158791
-0.17242162 -0.0087057352 0.1479845
-0.17958063 0.10941923 0.10664368
-0.17886062 -0.05504179 0.12835741
-0.18531163 -0.50880677 -0.06610918
-0.19006662 0.16744226 -0.030276299
-0.18341362 0.030191243 0.16511345
-0.18624763 -0.1640318 0.081882477
-0.18532762 -0.1009478 0.10891676
-0.19114363 -0.10094279 0.10914946
-0.19721463 0.10878825 0.10219669
-0.20731263 0.23001021 -0.17990351
-0.19883263 -0.22316474 0.057006836
-0.20710263 -0.0086807609 0.14937544
-0.22660063 0.30986726 -0.36998129
-0.21364464 -0.055019736 0.12975073
-0.21288262 -0.0086787343 0.1496067
-0.21158163 0.070326209 0.18346262
-0.21749161 -0.28873175 0.029611588
-0.21543862 -0.16401273 0.083051682
-0.23187362 0.22925425 -0.18637562
-0.21733363 0.070327222 0.1836915
-0.22436462 -0.34731573 0.0047445297
-0.22444363 -0.0086777806 0.15006638
-0.22377463 0.030207217 0.16672659
-0.22314362 0.070128262 0.18241882
-0.22926264 -0.2887308 0.030080795
-0.24177264 0.20378524 -0.13112259
-0.22896363 0.069907248 0.18098164
-0.23295464 -0.16401273 0.083747387
-0.23901562 -0.50877374 -0.063960552
-0.23846261 0.10729623 0.091837406
-0.25032663 0.22868121 -0.19122839
-0.24436863 0.10708123 0.090358734
-0.25027561 0.10686523 0.088880539
-0.24843164 -0.05502677 0.13113165
-0.2561866 0.10664821 0.087402821
-0.26225263 0.16501224 -0.048820496
-0.26620162 0.20299524 -0.13747454
-0.26493365 0.13316321 0.02351141
-0.26828861 0.16480523 -0.050364494
-0.26002562 -0.05503577 0.13158941
-0.2672146 -0.42461175 -0.026722431
-0.26091862 -0.1009478 0.11192369
-0.26801562 0.10621321 0.084449768
-0.27843463 0.20259726 -0.14064837
-0.26490462 -0.0086987615 0.15166759
-0.26673365 -0.10095376 0.11215162
-0.29618561 0.30794322 -0.38881731
-0.27634364 -0.2887668 0.031936646
-0.27254963 -0.10096079 0.11237955
-0.2798596 0.10577524 0.081495762
-0.27742064 -0.055054784 0.13227367
-0.2857846 0.10555524 0.080021381
-0.28143263 0.030167222 0.16900253
-0.30888265 0.30758625 -0.39224243
-0.2867406 -0.22320682 0.06048584
-0.28417963 -0.10097581 0.11283684
-0.2927236 -0.50883871 -0.061852455
-0.2985146 0.16376525 -0.058076382
-0.28901565 -0.055071771 0.13272667
-0.28802764 -0.0087287426 0.15257359
-0.2871986 0.030159235 0.16922951
-0.29260063 -0.22321779 0.060713768
-0.29381061 -0.0087377429 0.15279961
-0.30115765 -0.34739882 0.0077633858
-0.29718065 -0.16408175 0.086272717
-0.31062865 0.16334522 -0.061160564
-0.31062865 -0.50888282 -0.06115818
-0.32135665 0.20118624 -0.15175438
-0.30489564 0.066977262 0.16233444
-0.31469762 -0.16411978 0.08695364
-0.31603265 0.03010726 0.17035246
-0.33489364 0.16249824 -0.067325592
-0.33069861 -0.34747881 0.0089035034
-0.32489163 -0.10105973 0.11441946
-0.34096766 0.16228521 -0.068864346
-0.33660662 -0.34749776 0.0091304779
-0.33520365 -0.28890377 0.034218788
-0.33070761 -0.10107476 0.11464453
-0.3521136 0.20016223 -0.15968037
-0.33652365 -0.10109073 0.11486864
-0.34120661 -0.055187762 0.1347537
-0.34006262 -0.0088387728 0.15459681
-0.33910263 0.030053258 0.17124748
-0.34535861 -0.22335476 0.062752724
-0.34389764 -0.1642018 0.088079453
-0.35920864 0.16164225 -0.073483467
-0.35122061 -0.22337478 0.062977791
-0.34815764 -0.10112578 0.11531782
-0.35838062 -0.50905174 -0.059331417
-0.36087364 0.12968421 -0.00056219101
-0.3518756 0.065121233 0.15089655
-0.35708565 -0.22339576 0.063201427
-0.36689663 0.12946224 -0.0020632744
-0.3713876 0.16121024 -0.076563358
-0.38564265 0.26196826 -0.31300735
-0.3729226 0.12923926 -0.0035653114
-0.37748164 0.16099322 -0.078101635
-0.39195061 0.26177323 -0.31466722
-0.39280665 0.22412723 -0.22838831
-0.39826161 0.26157725 -0.31632757
-0.38968062 0.16055822 -0.081179619
-0.3953166 0.19870424 -0.17077017
-0.37371463 0.029949248 0.17258072
-0.37724763 -0.10122782 0.11643076
-0.37948465 0.029929221 0.17280054
-0.38640463 -0.22351581 0.06431675
-0.38306564 -0.10125071 0.11665154
-0.40189064 0.16012025 -0.084254265
-0.3863306 -0.0089897513 0.15637255
-0.39570665 -0.34774774 0.011374474
-0.4001776 -0.50926477 -0.057760239
-0.42354661 0.26078826 -0.32296658
-0.39647365 -0.16440481 0.090082645
-0.40914965 0.12788725 -0.012569427
-0.42401963 0.22309822 -0.23645639
-0.42987663 0.26059026 -0.32462549
-0.40586364 -0.2892018 0.036901474
-0.42627865 0.19764525 -0.17868757
-0.4365316 0.22268224 -0.23968458
-0.44254863 0.26019126 -0.32794523
-0.42294061 0.10033125 0.046180725
-0.42730761 0.12720323 -0.017067432
-0.44279164 0.22247422 -0.2412982
-0.42755264 -0.42522472 -0.020607471
-0.42526764 -0.3479138 0.012478828
-0.43860561 0.15879321 -0.093475342
-0.44489563 0.19700325 -0.18343544
-0.41987765 0.029769242 0.17433882
-0.4311806 -0.3479498 0.012697697
-0.42569262 -0.16454977 0.091183662
-0.43601465 -0.50949377 -0.056434631
-0.42682964 -0.0091627836 0.15790844
-0.43333161 -0.22375673 0.066078663
-0.44549662 0.12651426 -0.021561623
-0.45732665 0.19657224 -0.18659925
-0.46793467 0.25938725 -0.33458328
-0.44300961 -0.34802574 0.013136387
-0.4469676 0.099389255 0.040315628
-0.45156562 0.12628323 -0.023059368
-0.43840361 -0.0092187524 0.1583457
-0.45763761 0.12605125 -0.02455759
-0.44642764 0.061286211 0.12810278
-0.45483762 -0.34810573 0.013572693
-0.45093364 -0.22386271 0.066734791
-0.48042864 0.22121125 -0.25097561
-0.46321166 -0.42547482 -0.019296169
-0.45492065 -0.16471773 0.092273712
-0.46666962 -0.34819072 0.014006615
-0.48159564 0.15721726 -0.10422516
-0.46306562 -0.05571574 0.13937378
-0.46424663 0.060549259 0.12384081
-0.47510266 -0.42556673 -0.018862247
-0.46661562 -0.16479081 0.09270668
-0.48775065 0.15698922 -0.10576057
-0.46887165 -0.055749774 0.13958979
-0.47019261 0.060302258 0.1224227
-0.47467864 -0.055784762 0.13980579
-0.47313464 -0.0094067454 0.15964556
-0.47620863 -0.10173374 0.12014961
-0.49414665 0.12464821 -0.03353548
-0.50007266 0.15653324 -0.10882854
-0.49033666 -0.3483718 0.014870644
-0.48615265 -0.22410172 0.068032742
-0.49517864 0.097474217 0.028599739
-0.51343763 0.19460422 -0.20083332
-0.48629463 -0.055856764 0.14023781
-0.48805165 0.059557259 0.11816359
-0.49888766 -0.42576474 -0.018001556
-0.49425864 -0.28978175 0.040169716
-0.48785967 -0.1018098 0.12057972
-0.51968962 0.19438225 -0.20241356
-0.49050665 -0.0095107555 0.16029263
-0.48916662 0.029411256 0.17694378
-0.50015461 -0.28982872 0.040383816
-0.52594465 0.19416022 -0.20399332
-0.49494362 0.029376209 0.1771574
-0.51078266 -0.42587072 -0.017573357
-0.51331264 0.096746266 0.024210453
-0.50963962 -0.22427982 0.068889618
-0.50953162 -0.056011736 0.14109468
-0.51784664 -0.28997475 0.041024685
-0.54473567 0.19349021 -0.20873547
-0.51534164 -0.056051791 0.14130974
-0.52862966 -0.42603773 -0.016934395
-0.54301363 0.12274224 -0.045490265
-0.52526265 -0.0097397566 0.16157675
-0.57007462 0.25608426 -0.36113548
-0.52398163 0.028954208 0.17651558
-0.54052967 -0.42615575 -0.016513348
-0.53554267 -0.29013079 0.041661739
-0.53096366 -0.16525978 0.095066547
-0.55569065 0.15444726 -0.1226263
-0.56355965 0.19281423 -0.21347523
-0.56984067 0.19258821 -0.21505547
-0.53685266 -0.0098217726 0.16200256
-0.56139761 0.12201726 -0.049970627
-0.56808966 0.15397722 -0.12569046
-0.58143961 0.21774226 -0.27676821
-0.56753266 0.12177426 -0.051462173
-0.58778465 0.21752024 -0.27838039
-0.54767865 0.027911246 0.1709938
-0.57367063 0.12153125 -0.052954197
-0.55977964 0.056517243 0.10117245
-0.56023467 -0.16550976 0.096123695
-0.57354063 -0.5107798 -0.051516533
-0.56839663 -0.22479373 0.071006775
-0.56363267 -0.10238582 0.12334776
-0.56765866 -0.056453764 0.14321661
-0.56548667 0.027121246 0.16685581
-0.57178164 0.056002259 0.098347664
-0.57685566 -0.29052979 0.043134689
-0.57427466 -0.22484976 0.071216583
-0.57194763 -0.16561574 0.096542835
-0.59210765 0.12079626 -0.057429314
-0.60760862 0.19121826 -0.22453022
-0.61320162 0.21662825 -0.28482533
-0.57778764 0.055743217 0.096933365
-0.58015364 -0.22490782 0.071426392
-0.57743162 -0.01013577 0.16348267
-0.61956567 0.21640325 -0.28643656
-0.57737464 0.026591241 0.16410065
-0.58379662 0.055483222 0.09552145
-0.58603364 -0.2249667 0.071634769
-0.58366162 -0.16572577 0.096961498
-0.59971762 -0.5667538 -0.074494362
-0.62593466 0.21617824 -0.28804731
-0.61783063 0.15207124 -0.1379385
-0.60602665 -0.4268828 -0.014220238
-0.60047567 -0.29077977 0.04396677
-0.64732665 0.25351423 -0.38104963
-0.61665964 0.09250921 -0.00059747696
-0.62290561 0.11956024 -0.064881325
-0.60063463 -0.01033175 0.16432047
-0.61228865 -0.29091173 0.044378757
-0.60955966 -0.22521073 0.07246542
-0.60709864 -0.16595572 0.09779644
-0.65144366 0.21527225 -0.29449034
-0.62390262 -0.42710572 -0.013604164
-0.61819667 -0.29097873 0.044585705
-0.61544263 -0.22527379 0.072672367
-0.61030966 -0.10281175 0.1250205
-0.62743765 -0.51145977 -0.049664497
-0.62888563 0.091999233 -0.0035104752
-0.63578665 -0.56724471 -0.073271275
-0.64142966 0.11881024 -0.069350243
-0.65817863 0.18935722 -0.23715734
-0.62721264 -0.22540373 0.073083401
-0.62468362 -0.16613871 0.098416805
-0.63592565 -0.29118675 0.045201778
-0.63054663 -0.16620177 0.098623753
-0.65379465 0.11830723 -0.072327614
-0.67701566 0.21435624 -0.30093241
-0.63803464 0.053117216 0.082829475
-0.63640964 -0.16626471 0.098828793
-0.65382963 -0.5675078 -0.072666168
-0.65998566 0.11805522 -0.073817253
-0.63701767 0.023901224 0.15034676
-0.65950966 0.090711236 -0.010787487
-0.64126366 -0.010705769 0.16577768
-0.65012664 0.052584231 0.080014706
-0.66340262 -0.51196772 -0.048451424
-0.64913964 -0.057210743 0.14613247
-0.65617663 0.052317262 0.078606606
-0.66563964 -0.42766482 -0.01218462
-0.65957361 -0.29147774 0.046016693
-0.65664566 -0.22574478 0.074108601
-0.68661064 0.14938623 -0.15475941
-0.66812563 -0.3502838 0.021120548
-0.68477565 0.11703825 -0.079769611
-0.66573864 -0.16659671 0.099852562
-0.66449666 -0.010935783 0.16660261
-0.67431563 -0.22596079 0.074718475
-0.69022465 0.089406252 -0.018055439
-0.69719565 0.11652625 -0.082743168
-0.70544964 0.14864123 -0.15934324
-0.67030567 -0.010995746 0.16680765
-0.72192067 0.21273023 -0.31220722
-0.68041563 0.051239252 0.072978497
-0.68323362 -0.29178578 0.046825409
-0.69547462 -0.42809981 -0.011184216
-0.69939363 -0.51251978 -0.04725647
-0.71802562 0.14814126 -0.16239738
-0.68410164 -0.057584763 0.14736366
-0.73478562 0.21226025 -0.31542921
-0.68497664 0.021700263 0.13937569
-0.68774062 -0.011179745 0.16742182
-0.74122566 0.21202421 -0.31704044
-0.70098865 -0.29202777 0.047428608
-0.69210464 -0.1036908 0.12789774
-0.70690763 -0.29211074 0.047626495
-0.72103167 0.088085234 -0.025316238
-0.69936663 -0.011305749 0.16783142
-0.70742565 -0.057850778 0.14817762
-0.70518064 -0.011369765 0.16803455
-0.76056564 0.21131325 -0.32187033
-0.71687967 0.049603224 0.06455183
-0.72533065 -0.42856175 -0.010194302
-0.73210263 -0.56877977 -0.0700984
-0.73812866 -0.56888682 -0.069905281
-0.74701965 0.11445224 -0.094631195
-0.71909362 -0.05798775 0.14858246
-0.74415863 -0.56899482 -0.069710255
-0.73516166 0.048776209 0.060341835
-0.73033261 -0.16740781 0.10207462
-0.75193065 0.086747229 -0.032570362
-0.73316061 0.019454241 0.12843037
-0.74244165 -0.29262871 0.048819542
-0.75621665 -0.56921476 -0.069325447
-0.75812167 0.08647722 -0.034021378
-0.73426664 -0.011702776 0.16904783
-0.79288262 0.21011621 -0.32992125
-0.73919863 0.019170225 0.1270647
-0.74208766 -0.16756672 0.10247278
-0.79210967 0.18428922 -0.27027845
-0.75347567 0.047942221 0.056135654
-0.76118761 -0.42915577 -0.0090246201
-0.75726765 -0.35160476 0.02410078
-0.74796766 -0.16764778 0.10267162
-0.76545966 -0.51364774 -0.045113564
-0.77051663 0.085936248 -0.036920547
-0.78748065 0.14534521 -0.1791873
-0.79853064 0.18404025 -0.2718544
-0.76716661 -0.42925876 -0.0088295937
-0.76022261 -0.29290181 0.049409389
-0.77431166 -0.56955475 -0.068751335
-0.80495566 0.18379223 -0.27342939
-0.81232262 0.20939124 -0.33475256
-0.76277363 -0.22717375 0.077716827
-0.75755167 -0.011983752 0.16985464
-0.76339066 0.018027246 0.12160254
-0.77182162 0.047103226 0.051932812
-0.77912766 -0.42946881 -0.0084443092
-0.77800965 -0.29318374 0.049995422
-0.78950965 -0.51409477 -0.044347286
-0.81285566 0.14430922 -0.18528938
-0.77163863 -0.058648765 0.15038967
-0.81920862 0.14404821 -0.18681335
-0.78157163 0.017163217 0.11751366
-0.80449063 -0.57014674 -0.06780529
-0.80778766 0.08429724 -0.045610428
-0.81592661 0.11153221 -0.11095238
-0.84480566 0.20816922 -0.34280348
-0.81401265 0.084021211 -0.047058582
-0.79371065 0.016583264 0.11478758
-0.81656861 -0.57039279 -0.067430496
-0.82024163 0.083745241 -0.048504353
-0.85782665 0.20767725 -0.34602356
-0.79833561 -0.012504756 0.17125177
-0.81361365 -0.29377574 0.051156521
-0.81955063 -0.29387778 0.05134964
-0.83164066 -0.51492578 -0.043028355
-0.86943966 0.18127024 -0.28918934
-0.82186061 -0.22810477 0.079668522
-0.88392365 0.20668423 -0.35246563
-0.83469164 -0.35294682 0.026603699
-0.82096565 -0.10541278 0.13228273
-0.85144764 0.082353234 -0.055737495
-0.87018263 0.14194024 -0.19900656
-0.82683563 -0.10550171 0.13247871
-0.85098362 -0.43082279 -0.0061674118
-0.84216166 -0.16907078 0.10580873
-0.87898165 0.10880822 -0.12576818
-0.90183765 0.17998523 -0.29706621
-0.91008866 0.20568126 -0.35890532
-0.86297363 -0.43106478 -0.0057945251
-0.84805661 -0.16916782 0.10600138
-0.88530862 0.10853225 -0.12724829
-0.84571564 -0.013915777 0.16752768
-0.86897063 -0.43118781 -0.0056095123
-0.86114067 -0.29462272 0.052685738
-0.87702662 -0.5716998 -0.065587521
-0.85619366 -0.10595578 0.13345051
-0.88307965 -0.57183772 -0.065405369
-0.89797664 0.10797721 -0.13020849
-0.91499865 0.14006126 -0.20967054
-0.86524564 -0.059988797 0.15353775
-0.87898266 -0.29495877 0.053249836
-0.89191866 -0.51621681 -0.041185379
-0.92141664 0.13979024 -0.21119261
-0.93434262 0.17868525 -0.30494356
-0.87909764 0.012444258 0.095758438
-0.87599564 -0.015442789 0.16091681
-0.94737566 0.17816025 -0.3080945
-0.90497863 -0.43194872 -0.0045032501
-0.89290464 -0.22935075 0.081957817
-0.95389766 0.17789721 -0.30966949
-0.88868964 -0.060356796 0.15431261
-0.90632266 -0.35434979 0.028850555
-0.90278763 -0.29541975 0.05399847
-0.91360265 0.040456235 0.019817829
-0.90874165 -0.29553777 0.05418539
-0.9669556 0.17736822 -0.31281853
-0.93934464 0.078364253 -0.075950623
-0.97349268 0.17710322 -0.31439543
-0.90910763 -0.10682875 0.13518143
-0.95518166 0.10544926 -0.14352131
-0.93224561 0.039561212 0.015642643
-0.91889566 -0.17040175 0.10828972
-0.91802067 -0.060834706 0.15527344
-0.91854167 -0.017611742 0.15167856
-0.92822164 0.010016263 0.084919453
-0.93846762 0.039262235 0.014251709
-0.92848766 -0.23002678 0.083084583
-0.93442261 -0.23014277 0.08327055
-0.95092565 0.038660228 0.01146841
-0.97092766 0.076907218 -0.083157539
-0.93563461 -0.061132729 0.1558466
-0.94846165 -0.17095572 0.10922766
-0.95904964 0.0084742308 0.078158379
-0.96963865 0.037753224 0.0072994232
-0.95032865 -0.10755676 0.13650846
-0.95622164 -0.10766476 0.13669682
-0.97140867 0.00785321 0.075456619
