# .PCD v0.7 - Point Cloud Data file format
VERSION 0.7
FIELDS x y z
SIZE 4 4 4
TYPE F F F
COUNT 1 1 1
WIDTH 1
HEIGHT 1024
VIEWPOINT 0 0 0 1 0 0 0
POINTS 1024
DATA ascii
0.81937563 0.34640914 -0.075006008
0.81287766 0.34677511 -0.071406364
0.78547066 0.15594816 0.05594492
0.79354566 0.34778613 -0.061600208
0.79021567 0.39354414 -0.033670902
0.78718865 0.34807116 -0.058936119
0.76948166 0.11425817 0.040384769
0.76582366 0.077266157 0.020736694
0.76332867 0.11455113 0.042131901
0.77961266 0.31385016 -0.097537041
0.75965267 0.077572167 0.022492886
0.75432765 0.15778315 0.068515778
0.74607366 0.20140314 0.037007809
0.74944466 0.34956217 -0.045421124
0.72778165 0.48423415 0.14620304
0.72376567 0.15915012 0.077139854
0.72937566 0.23100811 0.026729107
0.73779464 0.34937912 -0.048923016
0.71754068 0.48344713 0.13307667
0.71766764 0.15942115 0.078858852
0.72205067 0.23235416 0.039150715
0.70732868 0.33829713 0.17250109
0.70431763 0.37043512 0.19977665
0.69833767 0.37062716 0.20142365
0.70726466 0.48265615 0.11991072
0.70548266 0.15996116 0.082294941
0.71102268 0.27599412 0.03129673
0.70650762 0.52223313 0.072855949
0.70024365 0.23635817 0.076137066
0.70735466 0.27401716 0.010137081
0.70588166 0.56368214 0.023808002
0.69346666 0.44994715 0.13903379
0.70131767 0.52186918 0.06616497
0.69593066 0.11771911 0.061234951
0.69026965 0.21025413 0.1142087
0.69177967 0.48146114 0.10007477
0.68421966 0.21050215 0.11590385
0.68584567 0.23899913 0.1005578
0.68910468 0.32944214 0.069808006
0.68920368 0.027340114 0.012646675
0.69017363 0.56269115 0.0034236908
0.69363165 0.59445316 -0.029486179
0.67985368 0.081477165 0.045193672
0.67764264 0.11856514 0.066411972
0.67863464 0.27876014 0.056888103
0.68046963 0.52040213 0.039288998
0.66609168 0.21124315 0.12097979
0.66428167 0.28124213 0.081454754
0.66909164 0.56135714 -0.023928165
0.65496463 0.44854015 0.11515093
0.66055763 0.47904515 0.060090065
0.66096568 -0.013231874 -0.0026731491
0.65854067 0.02890712 0.021409035
0.64724368 0.11995816 0.075007915
0.65060467 0.32728714 0.041338921
0.64207566 0.44945714 0.12678671
0.63590366 0.28614414 0.13003397
0.64630365 0.029527128 0.024902821
0.65641665 0.5923351 -0.077319145
0.64815563 0.35476512 0.0061817169
0.62673664 0.41469514 0.22269106
0.62816864 0.24455917 0.14928389
0.65869963 0.66793716 -0.16210032
0.62669367 0.16338813 0.10447502
0.62187564 0.28856415 0.15404987
0.61411363 0.41565913 0.23393583
0.61490268 0.28976715 0.16598988
0.63029665 -0.011610866 0.0061187744
0.62217063 0.33185917 0.09050703
0.62669468 0.35805917 0.043520927
0.64475864 0.63600814 -0.14407921
0.61463368 0.16390413 0.10786295
0.63181967 0.55899012 -0.072265148
0.61959368 0.35914814 0.055875778
0.60811365 0.33411711 0.11481476
0.63699466 0.6669631 -0.19071102
0.60259265 0.16441613 0.11124611
0.59824967 0.24570012 0.15761805
0.62108165 0.55830514 -0.086187363
0.58906966 0.41752112 0.25565195
0.63595867 0.71247411 -0.24505234
0.59657764 0.16467112 0.11293602
0.59845966 0.36238712 0.092652798
0.62608165 0.66647112 -0.20510197
0.59783566 0.48203313 0.099380016
0.59472668 0.085514128 0.06934309
0.59973162 -0.010014832 0.01486969
0.62495667 0.71206713 -0.25964832
0.60000366 0.51924217 0.011912823
0.59363163 -0.0096988678 0.016615868
0.58450067 0.36452514 0.11694574
0.57855666 0.16543114 0.11799574
0.58753663 -0.009382844 0.018358707
0.57343763 0.33968014 0.1747961
0.61391467 0.71165615 -0.27431631
0.57471764 0.12321514 0.095479965
0.58598864 -0.098421872 -0.030807972
0.58936465 0.55939013 -0.068634033
0.59613264 0.58937418 -0.14446926
0.57065064 0.36664414 0.14105177
0.60837764 0.71145016 -0.28166914
0.56407768 0.21531516 0.14949179
0.55974865 0.34187412 0.19847775
0.60282964 0.71124411 -0.28903294
0.55811167 0.21554816 0.15115786
0.57626265 0.56010616 -0.05630827
0.55690163 0.36874712 0.16498375
0.55321765 0.45574415 0.20709181
0.55958164 0.48456416 0.13435268
0.55458468 0.16643316 0.1247201
0.55215168 0.21578014 0.15281963
0.56319368 -0.0081318617 0.025317669
0.55067164 0.12427413 0.10225487
0.56147367 -0.097045839 -0.023741245
0.55711865 -0.0078208447 0.027053833
0.54325867 0.37083113 0.18873501
0.54024166 0.21624213 0.15614176
0.55670768 0.56117117 -0.037909031
0.53448063 0.45706216 0.22404194
0.54842168 0.52236319 0.059738636
0.54692167 -0.047838867 0.0073990822
0.53432065 0.48622915 0.15746069
0.52298063 0.37392712 0.22403908
0.52204567 0.45793515 0.23529577
0.53564864 0.52313316 0.071588039
0.53285867 -0.0065898299 0.0339818
0.52148867 0.41153514 0.17227173
0.52928066 0.52351618 0.077496052
0.52240366 0.088836133 0.089799881
0.51874667 0.16791314 0.13476467
0.53080863 0.56258011 -0.013532162
0.55155563 0.66437519 -0.26861
0.50965768 0.45880413 0.24651003
0.51040465 0.089378119 0.093187809
0.50874466 0.12609512 0.11405563
0.51872963 -0.094676912 -0.011423111
0.53815567 0.66489613 -0.25552416
0.50128764 0.41440612 0.20775175
0.50300968 0.48828715 0.18611908
0.50277066 0.12635213 0.11573696
0.49726561 0.24944812 0.18568563
0.49294463 0.34607714 0.24059486
0.49493161 0.16888416 0.14143276
0.49275765 0.21806216 0.16937208
0.51086766 0.59362817 -0.06333828
0.48501763 0.46052814 0.26882076
0.48346463 0.29552013 0.21488476
0.50439864 0.59394914 -0.057178974
0.4848716 0.12711817 0.12076664
0.49439463 -0.093346894 -0.0044231415
0.49055561 -0.0044708848 0.046044827
0.48875365 0.037246168 0.069734097
0.49233159 0.56466514 0.02270174
0.47817063 0.48991513 0.20886374
0.4804776 0.090717137 0.10163403
0.47891364 0.12737113 0.12244177
0.47501361 0.21873313 0.17430973
0.48832062 -0.093017876 -0.0026769638
0.47295862 0.12762415 0.12411499
0.47117764 0.16984314 0.14807796
0.47850561 -0.0038748384 0.0494771
0.47960463 0.56535214 0.034689903
0.48506364 0.59490716 -0.038768291
0.46370661 0.34698117 0.24862003
0.46240461 0.37784916 0.26613998
0.49276665 0.63661414 -0.14242792
0.46155661 0.42004216 0.27754879
0.46853462 0.091247141 0.10500097
0.46524963 0.17008114 0.14973593
0.46188861 0.25072414 0.19549704
0.47325861 0.56569517 0.040668964
0.47223562 0.59554213 -0.026550293
0.4850876 0.66695315 -0.20367718
0.44839662 0.46308213 0.30200386
0.45876461 0.038658142 0.078236103
0.44233063 0.46350414 0.30750275
0.46601361 -0.1396479 -0.022898197
0.44424963 0.25135314 0.20038366
0.45445064 -0.0026928782 0.056324005
0.45277864 0.038938165 0.079931736
0.43914363 0.37852216 0.27249908
0.43741164 0.42168117 0.29697275
0.44125462 0.49232513 0.24268866
0.43837863 0.25156116 0.20201206
0.43657362 0.29708415 0.22781992
0.44799563 0.56705618 0.064476013
0.45308563 0.59648812 -0.0083060265
0.43162763 0.42183417 0.29854488
0.43566063 0.17125815 0.15800285
0.43250963 0.25176811 0.20363665
0.44170964 0.56739414 0.070399761
0.42874163 0.34804815 0.25820875
0.45886561 0.66796517 -0.17804909
0.42786163 0.22048914 0.18741798
0.42664564 0.25197512 0.20526075
0.44037962 0.59711415 0.0037999153
0.42900762 0.52952015 0.17061567
0.42078263 0.25218213 0.20688486
0.43045563 -0.0015258789 0.063148022
0.42283762 0.52988714 0.17635107
0.43565762 -0.13795286 -0.014144897
0.41953564 0.12986314 0.13910484
0.41795161 0.17195612 0.16294909
0.42598563 -0.041591883 0.041991711
0.41321564 0.29785115 0.2342577
0.42292261 0.56840312 0.088111877
0.40907162 0.25259215 0.21012592
0.42807963 0.63939917 -0.079865932
0.40276262 0.42259312 0.3063941
0.40117562 0.46534714 0.33060884
0.40437362 0.22135115 0.19394207
0.41574061 -0.089141905 0.018153667
0.41397762 -0.040988863 0.045415878
0.41098061 0.040871143 0.09176302
0.41045663 0.56907117 0.099867821
0.39869761 0.49509013 0.28171206
0.40652263 -0.00037485361 0.069945812
0.40423962 0.56940413 0.10573196
0.40882361 0.59866613 0.033876896
0.39390361 0.34909517 0.26775599
0.39279363 0.37984413 0.28516006
0.39123961 0.42289317 0.30952787
0.39827862 0.53134614 0.19918394
0.39588761 0.13083714 0.14573288
0.40994263 -0.26395792 -0.07767725
0.40774062 -0.20209187 -0.042672157
0.38679361 0.22199017 0.19881964
0.39628562 0.59928113 0.045830727
0.37973163 0.42319113 0.31265163
0.40383762 -0.26358491 -0.075899124
0.38861263 0.00047916174 0.075028896
0.37653461 0.34961015 0.27251005
0.37330663 0.46509314 0.32527685
0.38264963 0.00076115131 0.076718807
0.38123661 0.042225122 0.10016775
0.36970362 0.38049114 0.29146099
0.39407763 0.71395713 -0.2142663
0.38346562 -0.20068783 -0.035644054
0.38125864 -0.13497192 0.0015096664
0.37206563 -0.038909853 0.057356834
0.37740663 -0.20033985 -0.033892155
0.37523264 -0.13464588 0.0032429695
0.35506862 0.29972613 0.25025988
0.35242063 0.38097215 0.29617405
0.36012462 -0.038324833 0.060754776
0.35894963 0.60110712 0.081439972
0.34765163 0.35045815 0.2804141
0.34666762 0.38113111 0.29774189
0.34700161 0.46282613 0.2918539
0.34889662 0.49375713 0.25848484
0.35127363 0.53255618 0.21662807
0.36530063 -0.19964784 -0.03039217
0.35567361 -0.086026847 0.035342693
0.35415763 -0.038033843 0.062450886
0.34881464 0.57236111 0.15802908
0.34170863 0.46236914 0.28512764
0.33640563 0.46191114 0.27839375
0.34056261 0.53177011 0.20285988
0.35320762 -0.19895989 -0.026897907
0.33702064 0.13321716 0.16220188
0.33757761 0.57206815 0.15190983
0.34581763 0.64291215 -0.0002412796
0.33519262 0.53137517 0.19595671
0.32989362 0.17534113 0.18748903
0.33772662 -0.08511287 0.040468693
0.32368463 0.38176215 0.30400801
0.32756162 0.49203515 0.23124075
0.32636464 0.097340167 0.14496994
0.32405064 0.17556113 0.18911409
0.32261062 0.22427917 0.21660709
0.33033463 -0.036879838 0.069222927
0.32792461 0.044607162 0.11521196
0.34250662 0.71558714 -0.1630373
0.32220161 0.49160215 0.22439766
0.31588462 0.25577915 0.23587465
0.31456962 0.30100214 0.26138973
0.32129762 0.57099319 0.13083982
0.34011361 0.74783516 -0.23429012
0.32906663 -0.19759887 -0.019930363
0.32716161 -0.13207787 0.017039776
0.30879861 0.30118215 0.26297569
0.30735663 0.35162216 0.29142809
0.30973363 0.45960015 0.24451494
0.32973662 0.71598911 -0.15034914
0.31144863 0.49073115 0.21066809
0.31137663 0.0040801167 0.096904755
0.31207061 0.60130113 0.082952976
0.30161461 0.35178614 0.29299784
0.31471261 0.64423114 0.029887676
0.30436763 0.45913413 0.23769999
0.30286962 0.098309159 0.15155506
0.30788562 -0.083608806 0.048984051
0.30919662 -0.1311329 0.02218771
0.29272461 0.25655013 0.24226284
0.29013762 0.35211211 0.29613066
0.29159564 0.41993517 0.26577282
0.29523662 0.48941714 0.18997192
0.29114163 0.098789155 0.15483809
0.28906661 0.17686415 0.19883966
0.28694361 0.25674117 0.24385691
0.29363763 0.0048901439 0.10191965
0.28622961 0.41943014 0.25900364
0.28981161 0.48897615 0.18304777
0.28198063 0.22569215 0.2278471
0.29002362 -0.082719862 0.054072857
0.29001462 0.59996617 0.054267883
0.29457062 -0.25706583 -0.04416132
0.27743363 0.17729312 0.20207167
0.28447261 0.59963012 0.047060966
0.29519862 0.74902916 -0.18916035
0.27892762 0.48809215 0.16915607
0.27357861 0.099502146 0.15975475
0.27040362 0.22608912 0.23104668
0.27593163 0.0056901574 0.10691977
0.26821563 0.37999111 0.2801671
0.27006564 0.41790712 0.2386179
0.27194062 0.45631313 0.19652891
0.26902163 0.047169149 0.13179207
0.26465464 0.41739714 0.23179293
0.26649663 0.45583814 0.18961906
0.26101163 0.13619417 0.18341494
0.26000664 0.17793012 0.2069087
0.26414263 0.0062201619 0.11024809
0.26315063 0.047421157 0.13344193
0.26777461 0.59861714 0.025351048
0.27613363 0.74953413 -0.16999722
0.27209464 -0.32393485 -0.075609207
0.27045062 -0.25567085 -0.037178993
0.25205061 0.37835115 0.25991583
0.26561064 0.67257816 -0.063617229
0.26442963 -0.2553249 -0.035437107
0.25020564 0.10044217 0.16629076
0.25658661 0.59793711 0.010802746
0.26196462 0.71699011 -0.12025595
0.26139963 -0.38431591 -0.10647297
0.24080963 0.25824612 0.25656366
0.24958463 0.56623214 0.038069725
0.24461363 0.45392615 0.16184282
0.25770661 0.74970114 -0.16413212
0.25239763 -0.25463587 -0.03195715
0.25195062 0.74951315 -0.171803
0.24157064 0.64065111 -0.05945015
0.24038063 -0.2539528 -0.028486252
0.23905663 -0.19265491 0.0059819221
0.23764865 -0.1274479 0.042646885
0.23276164 0.56510913 0.016313076
0.23716764 0.67123914 -0.10105324
0.24040164 0.74913615 -0.18719721
0.23104064 0.52366614 0.062144756
0.21782164 0.25898314 0.26288795
0.21833964 0.34819615 0.24876595
0.22544564 0.52324915 0.054959774
0.22748764 0.71565211 -0.16596508
0.20872164 0.13817817 0.19797182
0.21298164 -0.078967869 0.075983047
0.21204764 -0.031336844 0.10274172
0.21582964 0.56397617 -0.0055780411
0.21875463 0.63944316 -0.089323044
0.21891963 -0.38164788 -0.094058037
0.21390964 -0.12625283 0.04941988
0.20361863 0.10228312 0.17930079
0.20707963 -0.078686893 0.077658653
0.20061164 0.25952911 0.26761866
0.20462064 0.049888134 0.14987373
0.21286564 -0.3812719 -0.092292309
0.19546163 0.22860813 0.25172997
0.20448364 0.56321615 -0.020247936
0.20841964 0.66988111 -0.13888216
0.20294763 0.52156913 0.026072025
0.20327364 -0.19074792 0.016248703
0.19442064 -0.030537844 0.10772085
0.19295363 0.05037117 0.15314484
0.19879164 0.56283414 -0.027607918
0.20151363 0.63852918 -0.11189318
0.19966264 -0.31960386 -0.054561138
0.18483263 0.18061614 0.22774696
0.18397863 0.22898513 0.25489283
0.18855163 -0.030273855 0.10937786
0.18784964 0.0095721483 0.13174295
0.19683264 0.66933215 -0.15412807
0.18911564 0.44905314 0.091430664
0.19472364 -0.38015181 -0.086999893
0.19022463 -0.12507588 0.056169033
0.18200363 0.0098231435 0.13338709
0.18995965 0.63791513 -0.12701893
0.18217364 0.40957212 0.12782192
0.18350364 0.44855914 0.084310055
0.19006464 -0.46032387 -0.13043594
0.17296164 0.29977912 0.24285698
0.17787863 0.44806314 0.077176094
0.18025964 0.51987016 -0.0030560493
0.18163364 -0.31854981 -0.049335957
0.17840263 -0.12449282 0.059535027
0.16881564 0.10363013 0.18900585
0.16756164 0.18121916 0.23252487
0.16678064 0.22954613 0.25963163
0.16966064 0.051327169 0.15966988
0.16886964 0.34289116 0.18711901
0.17563064 -0.31820089 -0.047595978
0.16510864 -0.029225886 0.11599398
0.17253363 0.63698715 -0.149827
0.17184263 -0.45914382 -0.12509203
0.15997663 -0.076469839 0.091011047
0.15642163 0.29786617 0.22240686
0.15865263 0.01082015 0.13994884
0.16535564 0.59235615 -0.10777235
0.16190164 0.47850415 0.019877911
0.16260363 -0.24962789 -0.0060682297
0.16167764 -0.1885739 0.028162003
0.15145464 0.10429317 0.19384098
0.15340763 -0.028707862 0.11929178
0.15861364 0.56013113 -0.07954216
0.15217564 0.34109414 0.16632509
0.15526164 0.44606513 0.048494816
0.15853363 -0.37794882 -0.076463223
0.15479665 -0.12333983 0.066248894
0.14457564 0.18201214 0.23887968
0.14424464 0.25809813 0.25195503
0.14699763 0.011314154 0.14322376
0.15162964 0.5177201 -0.039803028
0.15165164 -0.31681782 -0.040657997
0.14890364 -0.12305385 0.067924976
0.14117263 0.011559129 0.14485788
0.14061163 0.052503169 0.16779709
0.14790064 0.59128118 -0.1304512
0.14098863 0.33988714 0.15239096
0.14759664 -0.45759183 -0.11798811
0.14390063 -0.18765885 0.033243656
0.13421063 0.29529113 0.19495392
0.13535264 0.011804163 0.146492
0.14205764 0.59092116 -0.13804197
0.14323963 0.63542318 -0.188169
0.13817264 0.44455215 0.02682972
0.13902363 0.47661415 -0.0092873573
0.14154364 -0.4572069 -0.11621809
0.13968164 -0.31613392 -0.037197113
0.13798164 -0.18735689 0.034935951
0.12736864 0.18260014 0.2436347
0.12764163 0.25605416 0.23157167
0.13538364 0.55856311 -0.1095643
0.13814664 0.66654217 -0.23133326
0.12214564 0.14134812 0.22201204
0.12420763 -0.027427852 0.12751865
0.12412263 0.33806515 0.13139009
0.12575164 0.40417415 0.056750774
0.12944864 -0.45644182 -0.11267996
0.11682063 0.10559714 0.20347786
0.11639863 0.14155412 0.22360373
0.11589564 0.22839916 0.24762297
0.11791164 0.012532115 0.15138388
0.12550963 0.63447511 -0.21136904
0.12097664 0.44302616 0.0050287247
0.12173864 0.47518313 -0.031319141
0.11308064 -0.074314833 0.10427666
0.11181563 0.29268712 0.1672821
0.11578164 -0.31477982 -0.030292988
0.10491264 0.14196217 0.22678804
0.10446763 0.18337417 0.24995804
0.10672364 -0.026670873 0.13243675
0.10859264 0.40252513 0.035143852
0.11046664 -0.37508482 -0.062500954
0.10773864 -0.12108392 0.079612732
0.099195637 0.22625613 0.22722387
0.099743634 0.25260913 0.19733286
0.10007764 0.054114163 0.17912292
0.10606264 0.55657715 -0.14745092
0.10284863 0.40197313 0.027915955
0.10434064 0.47373915 -0.053489208
0.093035638 0.18375713 0.25311565
0.095547639 -0.073523879 0.10922766
0.096319638 0.36238515 0.064994812
0.096006639 -0.12052983 0.082941055
0.088004641 0.22481716 0.21355581
0.089234635 0.29005617 0.13938808
0.091323636 0.40086317 0.013404846
0.092679635 0.47277015 -0.068347931
0.082292639 0.10687315 0.21307087
0.081977636 0.14277017 0.23313808
0.081670634 0.18372512 0.25264978
0.086252637 0.43993613 -0.038979053
0.076769635 0.22337013 0.19983673
0.081656635 0.51243615 -0.12958193
0.070528641 0.14317012 0.23630476
0.07221064 -0.072480857 0.11581182
0.071555637 0.24911815 0.16275311
0.07693664 0.5868901 -0.22262621
0.074578635 0.43889415 -0.053771973
0.064808637 0.14336812 0.23788691
0.064881638 0.18143713 0.23229504
0.066039637 -0.024936855 0.14386892
0.066465639 0.28739512 0.111269
0.070454635 0.55415714 -0.19344997
0.070938639 0.58651716 -0.2304163
0.067131639 0.33188117 0.060452938
0.069208637 0.47081515 -0.098248959
0.066728637 -0.11916286 0.09123373
0.059334636 0.10770816 0.2194438
0.059260637 0.18067014 0.22548294
0.053375639 0.14376414 0.2410531
0.054156639 0.22045314 0.17222977
0.05444064 -0.024450839 0.14712286
0.055587634 0.33062315 0.046088696
0.056973636 0.43732116 -0.076076984
0.05625964 -0.31148285 -0.01314497
0.05544664 -0.18323189 0.058466911
0.047663637 0.14396012 0.24263287
0.047986642 0.17913014 0.2118187
0.051995635 -0.59694988 -0.17097998
0.042147636 0.10832715 0.22420883
0.041955635 0.14415616 0.2442131
0.042332634 0.17835712 0.20496607
0.042644635 0.015595138 0.17245483
0.046454638 0.55252016 -0.2244482
0.045145638 -0.45124084 -0.088096142
0.044031635 -0.24335784 0.027928829
0.039581634 0.46834114 -0.13598633
0.039148636 -0.45087987 -0.086349964
0.037840635 -0.18237585 0.06347084
0.030986635 0.17680413 0.1912179
0.031488635 -0.070694864 0.12728405
0.033535637 -0.53788084 -0.13334417
0.024984637 0.10893816 0.22896481
0.025020635 0.14173216 0.22381878
0.025499636 -0.023247838 0.15524101
0.028313635 0.55128115 -0.24787617
0.026850635 -0.37027282 -0.038309097
0.019594638 0.17524415 0.17741871
0.021648636 0.46683913 -0.15882301
0.020260638 -0.18152982 0.068466663
0.013673635 0.14010513 0.21015596
0.014127636 0.21527112 0.123384
0.014526637 0.28130013 0.047154903
0.013709636 0.057430148 0.2031889
0.014780635 -0.30924684 -0.0012283325
0.0078476351 0.10954314 0.23371696
0.0081686359 -0.022537887 0.16009283
0.0092596356 0.39291817 -0.08985424
0.0087016355 -0.24156684 0.038014889
0.0023986362 -0.022303879 0.16170788
0.0031426363 0.35269314 -0.051465988
0.0034646355 0.43252113 -0.14384604
0.002955636 -0.30861884 0.002163887
0.0027066357 -0.18069285 0.073448658
-0.0034863632 0.058070123 0.20796871
-0.0025453642 0.43198013 -0.15145493
-0.002951365 -0.30830687 0.0038580894
-0.0092123644 0.058282137 0.20956182
-0.0085023642 0.46430713 -0.19721413
-0.0086353645 -0.5352239 -0.12101507
-0.014646364 0.39059013 -0.11991835
-0.014530364 0.50510514 -0.25291491
-0.014689364 -0.4476909 -0.07072401
-0.020657364 -0.068465829 0.14193964
-0.020657364 0.32227814 -0.048726082
-0.020657364 0.46328515 -0.21268511
-0.020657364 0.50463617 -0.26076698
-0.020657364 -0.30737787 0.0089297295
-0.026690364 -0.59179789 -0.14786625
-0.032212365 -0.067980886 0.14518309
-0.032577366 0.32096714 -0.063542366
-0.032503363 -0.36698884 -0.021211147
-0.032721363 -0.59141189 -0.14610004
-0.037917364 -0.020683885 0.17298269
-0.038421363 -0.36666685 -0.019509315
-0.038148366 -0.17877787 0.085025787
-0.038664363 -0.53336984 -0.112257
-0.043512367 0.059538126 0.21908998
-0.044550367 0.31964815 -0.078421116
-0.044493362 -0.44596583 -0.062096119
-0.044222362 -0.30615491 0.015672684
-0.049445365 0.10141814 0.16861486
-0.050324365 0.27364016 -0.032840252
-0.049317364 0.019165158 0.19810104
-0.049231365 0.059365153 0.21780396
-0.050903365 0.38704813 -0.16550303
-0.050980367 -0.66630882 -0.18310118
-0.056052364 0.23317212 0.0063638687
-0.057241365 0.42704114 -0.22069502
-0.055428363 -0.11369687 0.12570477
-0.056646362 -0.5322749 -0.10702133
-0.062808365 0.34577316 -0.13382912
-0.061636366 -0.23810583 0.058038712
-0.067107365 0.12846214 0.11296082
-0.069211364 0.38525414 -0.18851614
-0.068281367 -0.44461185 -0.055221081
-0.067479365 -0.23782486 0.059696674
-0.068618365 -0.53155285 -0.10353899
-0.073673368 0.20382315 0.016334057
-0.072573364 -0.066313863 0.15649509
-0.072196364 0.020024121 0.20446587
-0.075184368 -0.6647138 -0.17598629
-0.081905365 0.42480516 -0.25190496
-0.079157367 -0.23726588 0.063014984
-0.080859363 -0.5883798 -0.1320281
-0.084731363 0.12590814 0.091770649
-0.085594364 0.20226014 0.0018100739
-0.088105366 0.42424214 -0.25975037
-0.085669361 -0.36414081 -0.0059461594
-0.084991366 -0.23698789 0.064668655
-0.089827359 -0.065613866 0.16132402
-0.09331736 0.34255612 -0.17191219
-0.095577359 0.052045166 0.1627841
-0.097453363 -0.36352187 -0.0025701523
-0.099648364 -0.7120629 -0.19605207
-0.095869362 -0.11197191 0.1370697
-0.10246836 0.12333316 0.070448875
-0.10297436 0.15832317 0.029072762
-0.10334036 -0.36321384 -0.00088405609
-0.10247836 -0.23616189 0.069627762
-0.10894936 0.15749216 0.021848679
-0.10959436 0.19910812 -0.027425289
-0.10980136 -0.44229084 -0.043248177
-0.10739836 -0.11148781 0.14030504
-0.11279836 -0.064692855 0.16774797
-0.11572036 -0.44196481 -0.041542053
-0.11510636 -0.36260289 0.0024838448
-0.11979236 0.090834141 0.084488869
-0.12167136 0.19751912 -0.042134285
-0.11891636 -0.11100787 0.14353466
-0.12235136 -0.52836984 -0.087942123
-0.12573837 0.089936137 0.077383995
-0.12386036 -0.017359853 0.19694996
-0.12575637 -0.23507482 0.076222897
-0.12523137 -0.17484683 0.10962009
-0.12999837 -0.064011872 0.17255068
-0.13740636 0.37854415 -0.27419806
-0.13156837 -0.23480588 0.077867031
-0.14045836 0.22250414 -0.096940041
-0.13679637 -0.1743409 0.11287594
-0.14021136 -0.52733487 -0.082771301
-0.14271437 0.044563115 0.10686684
-0.14847536 0.30813414 -0.20750093
-0.14909936 0.33664817 -0.24150896
-0.14447336 -0.36109585 0.010876656
-0.14318536 -0.23427182 0.08115387
-0.15630136 0.37667716 -0.29792929
-0.15118237 -0.44003588 -0.031345367
-0.14899136 -0.23400587 0.082796097
-0.14835136 -0.17383784 0.11612892
-0.14767036 -0.10982388 0.15159178
-0.15271436 -0.58401185 -0.11110926
-0.15308836 -0.021394849 0.16933584
-0.16165036 0.33531415 -0.257164
-0.15341236 -0.10958987 0.15319967
-0.16607036 0.25983912 -0.17546415
-0.16060036 0.041714132 0.085660934
-0.16136736 -0.30032891 0.049056053
-0.16059136 -0.23347789 0.086073875
-0.16609237 -0.7077288 -0.17654514
-0.16942036 0.14905816 -0.051239967
-0.17051937 0.19107217 -0.10160017
-0.17350736 0.30534315 -0.23856926
-0.16638836 -0.23321587 0.087710857
-0.16488937 -0.10912591 0.15641069
-0.17083836 -0.024430871 0.14853382
-0.17980036 0.30464011 -0.24638033
-0.17476736 -0.43877691 -0.024576187
-0.17142636 -0.17284685 0.12261772
-0.18286736 0.18943816 -0.11662722
-0.17767036 0.0059251189 0.10387278
-0.18415436 -0.70658189 -0.17126036
-0.17635736 -0.10866481 0.15961885
-0.18273737 -0.026469886 0.13459587
-0.18547536 -0.35903686 0.022572994
-0.18295036 -0.1723569 0.12585497
-0.19398336 0.14561713 -0.08091116
-0.18966337 0.0039371252 0.089744091
-0.19964336 0.33126616 -0.30454111
-0.19242837 -0.43784589 -0.019514084
-0.19903536 0.10923016 -0.045527935
-0.20015736 0.14475113 -0.088367939
-0.20364936 0.25532413 -0.22172928
-0.19567837 0.0029391646 0.082659721
-0.19672136 0.035945117 0.042854786
-0.20039137 -0.58121783 -0.097288132
-0.20634736 0.14388216 -0.095844269
-0.20863236 0.21382016 -0.18030024
-0.20170936 0.0019381642 0.075556755
-0.20278837 0.034974158 0.035665035
-0.20111535 -0.23166484 0.097509861
-0.20633936 -0.58087486 -0.095566273
-0.20548336 -0.52364892 -0.06392622
-0.21032336 0.077099144 -0.023641109
-0.20668636 -0.030580878 0.10654593
-0.21629035 0.25380117 -0.23728895
-0.21786337 0.30038112 -0.29360533
-0.21141836 -0.068539858 0.1441927
-0.22120836 0.21221215 -0.19567013
-0.22161137 -0.79287583 -0.2096653
-0.22020236 -0.70432884 -0.16073132
-0.21731536 -0.52299684 -0.060518265
-0.21873836 -0.032653868 0.092433929
-0.22898737 0.25227016 -0.252913
-0.21745937 -0.17091185 0.13553667
-0.22478336 -0.03369385 0.085357666
-0.22718436 0.031064153 0.0067710876
-0.22533837 -0.29732388 0.067185879
-0.22421336 -0.23065192 0.10401583
-0.23084337 -0.034737885 0.078262806
-0.23504536 -0.52202982 -0.055418968
-0.24116637 0.072392166 -0.060446262
-0.23693736 -0.29679185 0.070467949
-0.23404436 -0.10884982 0.1600461
-0.25177437 0.18027914 -0.20043898
-0.24527036 -0.43512386 -0.0044031143
-0.24273236 -0.29652888 0.072103977
-0.24151236 -0.22990483 0.1088829
-0.24927737 -0.65389889 -0.12517405
-0.26098737 0.24840415 -0.29228497
-0.24727336 -0.22965783 0.11050177
-0.25615138 -0.70213383 -0.15025997
-0.25523838 -0.6535489 -0.12344503
-0.25983736 0.069535136 -0.082722187
-0.25521138 -0.03894186 0.04974699
-0.26743236 0.24762315 -0.30021191
-0.26608837 0.06857717 -0.090178013
-0.27086636 0.17773116 -0.22364902
-0.26133636 -0.039999843 0.042581081
-0.27176139 -0.88609391 -0.24866104
-0.25878936 -0.22916585 0.11373901
-0.26747537 -0.041060865 0.035399914
-0.26588938 -0.29548389 0.078642845
-0.26454338 -0.2289229 0.11535406
-0.27409136 -0.70105785 -0.14504433
-0.27158737 -0.5772019 -0.076734066
-0.28006637 -0.70070189 -0.14330912
-0.28492638 0.065688133 -0.11264229
-0.27803439 -0.080480874 0.066758633
-0.29141039 0.20320112 -0.28142834
-0.28994638 -0.88488787 -0.24331236
-0.29123539 0.064719141 -0.12016296
-0.29445839 0.13145715 -0.2021842
-0.28417137 -0.081584871 0.059630871
-0.29788238 0.20236713 -0.28932905
-0.28452238 -0.3542859 0.050699711
-0.29392037 -0.78827482 -0.18849993
-0.28242037 -0.11784989 0.10419703
-0.29907537 0.09447813 -0.16551495
-0.30085838 0.13055116 -0.20990419
-0.29539838 0.020081162 -0.07396698
-0.28852639 -0.11898881 0.097150803
-0.30389237 0.062774122 -0.13525391
-0.30544838 0.093534112 -0.17315292
-0.30727339 0.12964112 -0.21764135
-0.29327738 -0.22771984 0.1234169
-0.31183538 0.092587113 -0.18080711
-0.30055138 -0.29395181 0.088412762
-0.30704537 -0.57527286 -0.06653595
-0.31823838 0.091637135 -0.18848133
-0.30957839 -0.43193883 0.013914108
-0.30772337 -0.35321885 0.057263851
-0.30475539 -0.22724587 0.12663364
-0.31160536 -0.51798087 -0.033467293
-0.32298839 0.059835136 -0.15801334
-0.32660937 0.12689817 -0.24095726
-0.32893437 0.16995317 -0.29420805
-0.31880537 -0.017619848 -0.062220097
-0.31540936 -0.4316569 0.015570641
-0.32181737 -0.69825691 -0.13120699
-0.32993239 -0.78606588 -0.17800522
-0.31622237 -0.22677583 0.1298461
-0.32658437 -0.64947182 -0.10281897
-0.33142039 -0.019739866 -0.077047348
-0.33592537 -0.78570288 -0.1762619
-0.33063537 -0.57401484 -0.059767246
-0.34607738 0.12413114 -0.26442719
-0.33374238 -0.090525806 0.0020737648
-0.33590338 -0.052930832 -0.04460001
-0.35018536 0.19561112 -0.35317421
-0.34436136 -0.88136882 -0.22735214
-0.34191638 -0.7853418 -0.17452002
-0.33507738 -0.51678187 -0.026760101
-0.33871138 -0.43054289 0.02218771
-0.34436539 -0.64848584 -0.097697258
-0.35864338 -0.9645279 -0.26997614
-0.35156539 -0.69655782 -0.12260723
-0.34680039 -0.51618987 -0.023415089
-0.35256037 -0.0939309 -0.019762993
-0.34663638 -0.29197186 0.10137272
-0.34733039 -0.17973787 0.087174892
-0.35418737 -0.57277983 -0.053019047
-0.35265738 -0.51589686 -0.021745205
-0.36805236 0.052879155 -0.21169996
-0.35886037 -0.095071852 -0.027071953
-0.36120439 -0.057338834 -0.074158192
-0.35616237 -0.42971987 0.027134895
-0.37077537 -0.96373183 -0.26641226
-0.36585537 -0.78391582 -0.16756725
-0.37651837 0.082964122 -0.25829029
-0.35973537 -0.18217689 0.073005676
-0.36778638 -0.42917782 0.030427933
-0.37781039 -0.78321189 -0.16409826
-0.38758838 0.049855113 -0.23496628
-0.38468239 0.0055981278 -0.17952108
-0.37133339 -0.35038286 0.07520771
-0.40068737 0.047824144 -0.25056124
-0.38807037 -0.13765091 -0.017607212
-0.38944238 -0.57096988 -0.042942047
-0.40942338 0.078047156 -0.29768133
-0.41196239 0.11473113 -0.34381723
-0.39441139 -0.13884586 -0.024910927
-0.40336236 -0.10315186 -0.078679085
-0.40603638 -0.065174878 -0.12650299
-0.39680338 -0.42784482 0.038633823
-0.39257538 -0.29006487 0.11425304
-0.39727837 -0.1895768 0.030147076
-0.42045039 0.044755161 -0.27408695
-0.42153338 -1.0352168 -0.29315233
-0.41660038 -0.87689787 -0.20627832
-0.40033937 -0.23613089 0.080077648
-0.41087839 -0.69327587 -0.1055212
-0.40713337 -0.14124388 -0.039560318
-0.40704039 -0.57008392 -0.037921906
-0.41351539 -0.14244884 -0.046909332
-0.43370238 0.042695165 -0.28985596
-0.43602338 0.074063122 -0.32951212
-0.42787638 -0.036029875 -0.19032812
-0.42553237 -0.78046387 -0.15029097
-0.41875938 -0.56950086 -0.034581184
-0.41693738 -0.51275688 -0.0034580231
-0.44271436 0.073059142 -0.33751631
-0.42910936 -0.10784191 -0.10852194
-0.43442637 -0.03714186 -0.19801617
-0.43733239 -0.95948583 -0.24692392
-0.42461738 -0.56921083 -0.032914162
-0.44360536 -0.0040228367 -0.24911118
-0.44060338 -0.8754639 -0.1993041
-0.42547438 -0.24130684 0.051640987
-0.43453938 -0.69200689 -0.098727226
-0.43294537 -0.64376289 -0.072277069
-0.43532437 -0.19710189 -0.013258934
-0.43919039 -0.1473009 -0.076462269
-0.46287638 0.070031166 -0.36163425
-0.45416239 -0.040493846 -0.2211709
-0.44564539 -0.14852184 -0.083889961
-0.46963039 0.069016159 -0.36971331
-0.46077338 -0.04161787 -0.22892714
-0.44041738 -0.34745282 0.094611645
-0.44447237 -0.2452268 0.030155659
-0.45226139 -0.69107085 -0.093645096
-0.44606838 -0.51138383 0.0047998428
-0.44889638 -0.42552584 0.053328037
-0.44616038 -0.34721583 0.096221924
-0.45454237 -0.20091182 -0.035171032
-0.46817139 -0.11497682 -0.15377235
-0.47687536 -0.0094768405 -0.2883749
-0.45190036 -0.34698087 0.097828865
-0.46406439 -0.69045383 -0.090266228
-0.46509936 -0.15220791 -0.10627317
-0.45770338 -0.51084286 0.0080947876
-0.45763937 -0.34674686 0.099435806
-0.48220539 -1.0313249 -0.27537537
-0.47310838 -0.77781981 -0.13657808
-0.47161338 -0.15344387 -0.11376619
-0.48131138 -0.11738282 -0.16898727
-0.49029237 -0.011679888 -0.30420399
-0.48555437 -0.9565379 -0.23287725
-0.47904539 -0.77749687 -0.13487196
-0.47410738 -0.64167184 -0.060522079
-0.47139037 -0.5669449 -0.019618034
-0.47215638 -0.3013038 0.057407856
-0.49787837 -0.081323802 -0.23362398
-0.50075436 -0.04843086 -0.27581501
-0.49091339 -0.77685589 -0.1314621
-0.48285237 -0.25316685 -0.013223171
-0.50455236 -0.082501829 -0.2414031
-0.48490539 -0.30405885 0.043137074
-0.49353439 -0.68893987 -0.081840992
-0.49171638 -0.64079887 -0.055506229
-0.48889539 -0.56611782 -0.01465416
-0.50642139 -0.87166291 -0.18025494
-0.49130037 -0.30544192 0.035976887
-0.49942237 -0.68864185 -0.080160141
-0.51101434 -0.16093189 -0.15907001
-0.51836038 -0.87099391 -0.17681122
-0.50413734 -0.3082208 0.021610737
-0.51298034 -0.2125389 -0.10175991
-0.50652039 -0.3529169 0.070313931
-0.51057637 -0.30961591 0.014406681
-0.52426934 -0.16345686 -0.17430401
-0.51220638 -0.56503481 -0.0080533028
-0.53448635 -0.12714487 -0.23052931
-0.54130232 -0.055361867 -0.32333994
-0.51291537 -0.35435289 0.063216686
-0.53363436 -0.95370585 -0.21892929
-0.53091937 -0.16472381 -0.18194628
-0.51802838 -0.5647679 -0.0064082146
-0.52384835 -0.56450182 -0.0047621727
-0.53470433 -0.68688387 -0.070104122
-0.56523436 -0.024034858 -0.39257526
-0.54421037 -0.77404982 -0.1161871
-0.57907134 -0.026323855 -0.40888214
-0.54108733 -0.42165083 0.07920599
-0.56007636 -0.86870688 -0.16480303
-0.57502633 -0.13461691 -0.27741623
-0.55159438 -0.36305386 0.020310879
-0.56602937 -0.86838681 -0.163095
-0.56193835 -0.77314287 -0.11112118
-0.55612236 -0.63770884 -0.037216187
-0.56594735 -0.2231279 -0.16205597
-0.58588433 -0.096915901 -0.3361392
-0.59297734 -0.028626859 -0.42526817
-0.57197833 -0.86806887 -0.16138697
-0.56196433 -0.63743681 -0.035561085
-0.57263732 -0.22446781 -0.1696682
-0.58866632 -0.1371358 -0.29318428
-0.55871737 -0.42196292 0.079040051
-0.57374632 -0.77254683 -0.10775089
-0.56991237 -0.68518084 -0.060097218
-0.56453633 -0.56267887 0.0067219734
-0.56516635 -0.42348284 0.071966648
-0.57577837 -0.32378381 -0.058499336
-0.58238035 -0.32522291 -0.065876007
-0.57614332 -0.56216985 0.0099897385
-0.58422935 -0.37041789 -0.015862942
-0.61614233 -0.14221889 -0.3249383
-0.62415636 -0.06959784 -0.42036819
-0.58460236 -0.42806786 0.050655842
-0.59080034 -0.37190288 -0.023143291
-0.59114933 -0.63609785 -0.02730608
-0.60323334 -0.77108389 -0.099349976
-0.59919834 -0.6838029 -0.051795006
-0.59698033 -0.6358338 -0.025660038
-0.59093237 -0.50501686 0.045615673
-0.60894233 -0.33101982 -0.095547199
-0.62672234 -0.23533291 -0.23117495
-0.61072236 -0.43424183 0.022029877
-0.61674732 -0.68299383 -0.046831131
-0.63947237 -0.18551487 -0.30657721
-0.61728936 -0.43579584 0.014834881
-0.63135934 -0.86498183 -0.14439106
-0.62259233 -0.68272787 -0.045179367
-0.66250736 -0.11057991 -0.4252882
-0.62387037 -0.43735391 0.007625103
-0.63267136 -0.76966089 -0.090984344
-0.65333134 -0.18818289 -0.32247305
-0.66957432 -0.11184484 -0.43350506
-0.66028637 -0.1895228 -0.33045006
-0.64924836 -0.33983988 -0.14054298
-0.64011937 -0.6819368 -0.040229321
-0.66725934 -0.19086581 -0.33844614
-0.66795933 -0.24364883 -0.27803516
-0.65734935 -0.38698786 -0.096828938
-0.65618837 -0.76855081 -0.084317207
-0.66908038 -0.29205889 -0.2232852
-0.67488933 -0.24504882 -0.28590727
-0.64562935 -0.55923492 0.029502869
-0.69307232 -0.15650982 -0.41378212
-0.68827337 -0.19492084 -0.3625412
-0.64954132 -0.50497288 0.051054955
-0.66793633 -0.76800483 -0.080989361
-0.69531435 -0.19627982 -0.37061024
-0.70728135 -0.15915889 -0.43018103
-0.67872733 -0.86263281 -0.13089609
-0.67380732 -0.76773483 -0.079327106
-0.71441132 -0.1604889 -0.43840694
-0.68440336 -0.39314383 -0.1267581
-0.67261833 -0.63253981 -0.0043649673
-0.70387232 -0.35183889 -0.20147133
-0.71757233 -0.30228084 -0.27787209
-0.68604535 -0.55761284 0.040802956
-0.70313537 -0.76640683 -0.071043015
-0.71769136 -0.3548829 -0.21687508
-0.69583035 -0.63157588 0.0021429062
-0.73093235 -0.2563979 -0.34953499
-0.73157537 -0.30523986 -0.29362822
-0.70162934 -0.63133889 0.0037670135
-0.74506736 -0.20590991 -0.42761707
-0.70742536 -0.63110191 0.0053896904
-0.74564737 -0.30821592 -0.30945635
-0.71322232 -0.6308679 0.0070118904
-0.75222933 -0.26072389 -0.37369919
-0.71740234 -0.56191987 0.024242878
-0.72750735 -0.6781829 -0.015655041
-0.73059738 -0.63017184 0.011869907
-0.77399236 -0.3142218 -0.34133005
-0.74312836 -0.52828687 -0.050125122
-0.75874037 -0.46947485 -0.13991022
-0.77362537 -0.36723489 -0.27918911
-0.78112334 -0.31573385 -0.34934616
-0.74993134 -0.52998883 -0.057474136
-0.77410036 -0.41364485 -0.22587824
-0.78826934 -0.31725091 -0.35737801
-0.77257532 -0.47278887 -0.15502214
-0.78777635 -0.37036687 -0.29494429
-0.76357937 -0.53340489 -0.072210312
-0.80978435 -0.27244681 -0.43896627
-0.80199736 -0.37351888 -0.3107729
-0.77822036 -0.57755989 -0.040941238
-0.77734435 -0.62936491 0.020493984
-0.80745232 -0.48115784 -0.19309998
-0.79086637 -0.76265687 -0.046385288
-0.82355738 -0.42500788 -0.28046227
-0.79135334 -0.67563981 0.0021867752
-0.80491233 -0.5437718 -0.11681414
-0.83069235 -0.42664987 -0.28833294
-0.85370237 -0.28142482 -0.48873329
-0.83784336 -0.42829782 -0.29622126
-0.80453336 -0.6366269 -0.0083322525
-0.81136936 -0.63845485 -0.015577316
-0.82673532 -0.67558891 0.0065326691
-0.84032333 -0.59360582 -0.1074152
-0.87385833 -0.43660587 -0.33592892
-0.88145232 -0.39118785 -0.39914703
-0.83358532 -0.67746288 -0.00067710876
-0.84730434 -0.59541386 -0.11488104
-0.86094034 -0.55787688 -0.17721891
-0.88838732 -0.43996388 -0.35194206
-0.89612937 -0.39446288 -0.41546011
-0.90503335 -0.34214383 -0.48849726
-0.88566333 -0.50000387 -0.27839994
-0.90349734 -0.39610785 -0.42364502
-0.87511533 -0.56145388 -0.19249201
-0.87539732 -0.60269982 -0.14492035
-0.88222736 -0.56324989 -0.20015335
-0.88246137 -0.6045348 -0.15247011
-0.91766137 -0.44673985 -0.38419199
-0.88062036 -0.65702981 -0.088910103
-0.89650333 -0.56685883 -0.2155261
-0.90366638 -0.56866986 -0.22323704
-0.93240732 -0.45015782 -0.40043211
-0.96211833 -0.45705491 -0.43314028
-0.95859432 -0.51766986 -0.35783195
-0.97817737 -0.41282886 -0.50657606
