# .PCD v0.7 - Point Cloud Data file format
VERSION 0.7
FIELDS x y z
SIZE 4 4 4
TYPE F F F
COUNT 1 1 1
WIDTH 1
HEIGHT 1024
VIEWPOINT 0 0 0 1 0 0 0
POINTS 1024
DATA ascii
0.97167826 -0.046121836 0.075680256
0.94340223 -0.046842873 0.066539288
0.93774325 -0.046991825 0.064698219
0.89809525 -0.048066854 0.051681519
0.89242727 -0.04822582 0.049805164
0.86986023 0.012418151 0.2189312
0.87908626 -0.046352863 0.061208248
0.88970226 0.018357158 -0.019427776
0.85037524 0.01504916 0.23560047
0.86797422 -0.09084183 0.055817604
0.83934224 0.014750183 0.23198652
0.85680926 -0.13466984 0.050738335
0.84464526 -0.04021883 0.099879265
0.83393025 0.20801413 0.13826656
0.83781022 -0.039003849 0.10755348
0.84302026 -0.13198179 0.066310406
0.81505024 0.13527417 0.24229336
0.82665527 0.20933115 0.14977932
0.83968425 -0.19416589 0.045919418
0.83057225 0.03128618 0.071617603
0.83280122 -0.19274586 0.053722382
0.83093524 0.074290156 0.021073341
0.80094928 0.13800615 0.26353741
0.81995022 -0.081891835 0.10989428
0.81064123 -0.034181833 0.13805342
0.80068523 0.013658166 0.21913719
0.81605422 0.034453154 0.093968391
0.81544322 -0.24776083 0.050871372
0.81225628 -0.18851286 0.077012539
0.80885923 -0.1253379 0.10488415
0.79013526 0.098467171 0.21123552
0.80163926 0.037596166 0.11617041
0.80207926 -0.12402087 0.11253738
0.77484822 0.14159417 0.29055643
0.77665526 0.17823213 0.2755146
0.79289126 -0.076866865 0.14035559
0.78809726 0.24266714 0.18026829
0.79447025 0.039159179 0.12721729
0.78616822 -0.075619817 0.14792347
0.79186827 -0.18431979 0.10012054
0.76220328 0.14305013 0.30129528
0.77302527 0.012845159 0.20986128
0.76230925 0.10394013 0.25208139
0.75969422 0.24760318 0.22547722
0.76177722 0.012717128 0.20760441
0.77463925 -0.23893279 0.097286224
0.76843327 -0.1175018 0.15051937
0.74977022 0.10530514 0.26162338
0.75711727 -0.024717867 0.19812441
0.75265825 0.24882317 0.23666525
0.76492423 -0.17879087 0.13065434
0.74433625 0.10508817 0.2592473
0.74140424 0.22473615 0.28478622
0.72918624 0.074819148 0.39119959
0.76735628 -0.35910684 0.058760166
0.75509125 -0.11492282 0.16557741
0.74618524 -0.068222821 0.1929245
0.72379923 0.074664176 0.38940334
0.75446826 -0.23458081 0.12022734
0.73542625 0.017172158 0.2371006
0.71840924 0.07451117 0.3876276
0.75097823 -0.29796189 0.099538326
0.72477126 0.25365913 0.28105259
0.72887927 0.018277168 0.2444272
0.73825127 -0.1733318 0.16087532
0.71502125 0.18379217 0.31757021
0.71561223 0.22796214 0.31225634
0.73444927 -0.2302708 0.1429925
0.73162323 -0.17197782 0.16838455
0.72860926 -0.1098128 0.19546461
0.71583223 0.020477176 0.25903034
0.70892924 0.10691416 0.27000046
0.71332026 -0.062164843 0.22990417
0.71888328 0.33475918 0.17911243
0.72926623 -0.35346681 0.084305286
0.72118723 -0.22742087 0.15807152
0.69269127 0.22852516 0.31505156
0.69746023 0.29532218 0.27079439
0.68940127 0.14303613 0.29297829
0.68780023 0.25680715 0.30795622
0.69148123 0.29564214 0.27351427
0.69902527 0.33704114 0.20292234
0.70439023 -0.28739387 0.15272236
0.69587523 -0.10351485 0.23239946
0.68243724 0.18279314 0.30520344
0.67524827 0.073215127 0.37303638
0.69290423 0.33740813 0.20644331
0.68937624 -0.10226685 0.23973036
0.70129025 -0.35522479 0.072012424
0.68831825 -0.2203719 0.19543743
0.67261827 0.18129015 0.29088831
0.67141825 0.22742116 0.30240345
0.66444027 0.072880149 0.36935139
0.67919624 -0.1612969 0.22776747
0.67642725 -0.099783838 0.25433826
0.66888827 0.14081115 0.27213335
0.65903223 0.07271117 0.3675046
0.67528325 -0.21758288 0.21025229
0.66204727 0.10920018 0.28344631
0.66332322 0.14074314 0.27098942
0.66080523 0.22681117 0.29556131
0.66156626 0.25507015 0.28813744
0.65790725 0.030210137 0.32384539
0.66624928 -0.15866786 0.2424283
0.65154922 0.031275153 0.33095837
0.65980023 -0.1573599 0.24973154
0.65712023 -0.096085846 0.27611637
0.64860022 0.11196518 0.30435324
0.65135622 0.14160216 0.27698231
0.65000427 0.18149817 0.29041147
0.64878726 -0.050326824 0.30249643
0.65860826 -0.27705485 0.20496845
0.65585226 -0.21343285 0.23233557
0.65071625 -0.094861805 0.2833395
0.64525324 0.14218313 0.28125429
0.64460224 0.18126214 0.28778028
0.64988422 0.29236913 0.23486519
0.66763824 -0.35741681 0.056988239
0.64426124 0.29233718 0.23396826
0.63091725 0.073262155 0.36885738
0.64297527 -0.21068686 0.24696732
0.62784725 -0.0020698309 0.3431282
0.62463826 0.074265182 0.3758626
0.63415825 -0.15216786 0.27876329
0.62901223 0.22478914 0.2733736
0.62154722 -0.00097382069 0.35019255
0.61998624 0.036550164 0.3662653
0.62525326 -0.089999855 0.31205559
0.62502027 0.25215816 0.25590754
0.62143224 -0.14959484 0.29317045
0.61997426 0.22230613 0.24915123
0.63952523 -0.35931283 0.044234276
0.61741126 -0.20524579 0.27601337
0.61655122 0.24910516 0.22513056
0.60791826 0.22318816 0.2563014
0.59500426 0.040713131 0.39420652
0.60723823 -0.26551288 0.26356745
0.60472226 -0.20255083 0.29042721
0.60088724 -0.26408988 0.2708106
0.59840125 -0.20120984 0.29760742
0.58625525 0.15322918 0.36830139
0.59537524 0.22466815 0.26905441
0.59838825 0.25041217 0.23626328
0.60890424 0.33069217 0.1218214
0.61698526 -0.3608759 0.033878326
0.57974327 0.15451515 0.3784914
0.58874625 0.22585213 0.27957153
0.61134326 -0.36127287 0.031268597
0.57325327 0.15579617 0.3886466
0.56678426 0.15707117 0.39876556
0.56551325 0.0087421536 0.41300726
0.57112724 -0.13946289 0.35010529
0.56899226 0.22937518 0.31091452
0.58182925 0.33476716 0.16564417
0.56265527 -0.078105867 0.38262939
0.55185026 0.047877133 0.44246149
0.54871225 -0.032129824 0.41500759
0.55685222 -0.25425285 0.3210206
0.54098827 0.012975156 0.44049215
0.55240023 0.25807613 0.30737638
0.55062222 -0.25286585 0.32812357
0.54836625 -0.1906268 0.35443115
0.53850627 0.19562417 0.40474939
0.54296327 0.23401117 0.35222244
0.53357226 0.050900161 0.46289349
0.53211224 0.19682717 0.41482115
0.52881128 0.01507318 0.45413923
0.54364324 0.29736817 0.2775054
0.54850626 0.33977318 0.21959352
0.53402126 -0.13202482 0.39208746
0.52427924 -0.027716875 0.44246435
0.52145624 0.052901149 0.47643852
0.53201824 -0.2487269 0.34932947
0.52984726 -0.18672484 0.37545729
0.52579927 -0.071140826 0.42416525
0.51669127 0.017158151 0.4677186
0.53533727 0.34174913 0.24092627
0.52370322 -0.1854319 0.38243246
0.52177024 -0.12957579 0.40594625
0.51065224 0.018195152 0.47448444
0.52412426 0.30051416 0.30885649
0.51566625 -0.12835687 0.41285038
0.51742226 0.14844114 0.32221842
0.50799924 0.19983214 0.43933821
0.51091522 0.23970813 0.40309143
0.50957525 -0.12714189 0.4197402
0.50725627 0.26580018 0.37938452
0.51121926 0.30259317 0.32959127
0.49862623 0.054723144 0.48783445
0.50472522 0.11810714 0.3408556
0.50540626 0.14974713 0.33220625
0.50619823 0.18655616 0.32214642
0.50926727 0.34565514 0.28314543
0.53203923 -0.36710185 -0.0061964989
0.49455324 0.26796913 0.39965248
0.48994523 0.34854615 0.31443644
0.49259526 0.37448317 0.27960014
0.51496327 -0.36841685 -0.01445055
0.48688826 -0.2471109 0.35462856
0.47933424 -0.1211198 0.45394039
0.48085123 0.12080318 0.36068153
0.47332823 -0.1199258 0.46073151
0.47490725 0.12147313 0.36561632
0.47451124 0.30681318 0.37095737
0.47717324 0.35045516 0.33512831
0.46669924 0.0082491636 0.4015255
0.47175524 0.26131213 0.33268261
0.46737224 0.041925132 0.3923645
0.46135825 -0.11754984 0.47426653
0.46002325 -0.030745864 0.41720152
0.46698123 0.37813318 0.32129955
0.49215025 -0.37020785 -0.025583744
0.45430425 -0.059068859 0.49602127
0.45846024 0.19147414 0.36190414
0.45414925 -0.029958844 0.42204523
0.45492324 0.0097641349 0.41125727
0.45123324 0.12413418 0.38527727
0.45253924 0.19208217 0.36683655
0.45336524 0.23506814 0.3551712
0.44828725 -0.029172838 0.42688131
0.45468324 0.30366415 0.33655548
0.44512025 -0.16897684 0.47161341
0.44243523 -0.028388858 0.4317112
0.44318724 0.011270165 0.42095518
0.44797024 0.26351416 0.35255432
0.44961226 0.35009617 0.32907629
0.43917325 -0.16773683 0.47835922
0.43945625 0.12545413 0.39505816
0.44282925 0.30466616 0.34620523
0.43861425 0.080447137 0.40725231
0.44364226 -0.25021285 0.33443642
0.43416023 0.15744418 0.39145422
0.43752724 0.30430514 0.34206438
0.43054324 0.23604816 0.36279821
0.43122426 0.26364517 0.35268545
0.42141125 -0.16404182 0.49850845
0.42421424 0.19314617 0.37426519
0.42524925 0.23564714 0.35867739
0.42801425 0.34916514 0.31704521
0.41747725 -0.1168099 0.47568941
0.41731125 0.12560618 0.39478827
0.41994825 0.23524415 0.35455322
0.42194125 -0.25181788 0.32415247
0.41035724 -0.16350383 0.50088644
0.41203624 0.12514114 0.39071035
0.41277224 0.15616417 0.37931538
0.41363025 0.19229215 0.36604834
0.41464126 0.23484117 0.35042238
0.40412626 0.012623131 0.42779922
0.40997425 0.26209617 0.33612251
0.41092125 0.30248618 0.32128048
0.40218425 0.15526515 0.37111235
0.40302125 0.19143313 0.3578124
0.40464625 0.26170617 0.33197021
0.40043524 0.079679132 0.39890718
0.40562925 -0.25304586 0.31635523
0.39708126 -0.065298855 0.45222139
0.39688125 0.15481418 0.36700439
0.39271826 -0.027538836 0.43410635
0.40127924 0.34746915 0.29611158
0.39087126 0.12326813 0.37434149
0.39157224 0.15436214 0.3628912
0.38986725 0.078690171 0.39075661
0.38434225 -0.16664284 0.48109436
0.38800925 0.23280913 0.32970142
0.38307026 0.010494173 0.41161823
0.38862523 0.26053214 0.31948519
0.38928825 -0.25429481 0.30848646
0.38093325 0.15345317 0.3546505
0.38266224 0.23240018 0.3255415
0.38327023 0.26013917 0.31531239
0.37851626 0.043144166 0.39532423
0.37493125 0.12185115 0.3620162
0.37250325 0.0094211698 0.4034996
0.38038126 0.37422013 0.26891041
0.37837425 -0.25513881 0.3032012
0.36970124 -0.12032682 0.45137453
0.36960626 0.12137717 0.35789824
0.36721125 0.0088831782 0.39943361
0.37254325 0.25934917 0.30695534
0.37498125 0.37389213 0.26467419
0.36898425 0.34540713 0.2708292
0.35729426 0.041064143 0.37898922
0.35801023 0.075694144 0.36618757
0.35422525 0.15116417 0.33396721
0.35583726 0.23033816 0.30467558
0.35723126 0.29878217 0.27935219
0.37719724 -0.37980789 -0.083451748
0.34766424 -0.17110187 0.45319748
0.34971225 -0.070519865 0.41598415
0.35045326 0.22992313 0.30048847
0.34597826 0.0067181587 0.3831234
0.35101125 0.25775814 0.29018259
0.34734124 0.07468617 0.35796022
0.34555024 -0.2577278 0.28714943
0.33883226 0.18619615 0.30799961
0.33456025 -0.033714831 0.38952637
0.34189126 0.34366614 0.2496295
0.32749423 -0.12525183 0.41919136
0.32849523 -0.072876871 0.3997612
0.32735723 0.14884716 0.31316328
0.32464325 0.0045311451 0.36673832
0.33014125 0.29689616 0.25820446
0.32592425 0.072655141 0.34144926
0.33100724 0.34296316 0.24111414
0.32138425 0.11705416 0.32062721
0.32263824 0.18486214 0.29543734
0.32394925 0.25574815 0.26910448
0.31991124 0.037375152 0.3502264
0.32607824 0.37089914 0.22633839
0.31785023 -0.074063838 0.3916235
0.32061124 0.37056315 0.22205448
0.31115624 0.14744413 0.30062437
0.31307724 0.25493717 0.26063824
0.31463024 0.34190315 0.22829819
0.30251125 -0.03715384 0.36497355
0.30763224 0.25453013 0.25639725
0.30379125 0.035775125 0.33782721
0.32494524 -0.3844859 -0.11073256
0.30091023 -0.12837785 0.3989315
0.30032426 0.14650214 0.29223919
0.30095425 0.18306917 0.27861834
0.29782924 0.0017691255 0.34615231
0.29648024 -0.076454818 0.37529039
0.29551724 0.18261915 0.27440119
0.29624724 0.22571415 0.25833941
0.29244724 0.0012121797 0.34202051
0.31328624 -0.3855558 -0.11690044
0.29605725 -0.26176888 0.2625165
0.29023224 -0.12963885 0.39079523
0.28640124 -0.038890839 0.35263538
0.29193524 0.29421717 0.22838545
0.28761524 0.034164131 0.32538652
0.28488326 -0.13027185 0.38672018
0.28402424 0.14508218 0.27962637
0.28101626 -0.039472818 0.34851122
0.28578123 0.25289315 0.23938417
0.28277624 0.068533182 0.30819845
0.28501424 -0.26269382 0.25694942
0.27807525 0.11313313 0.2871666
0.27562726 -0.040056825 0.34438324
0.27625924 -0.0004658699 0.32959652
0.27735424 0.068013132 0.3040204
0.29576325 -0.38718289 -0.12622976
0.27948725 -0.26315981 0.25415516
0.27500623 -0.07886982 0.35888052
0.27263126 0.11263716 0.28296137
0.27023023 -0.040641844 0.3402524
0.27545825 0.29305518 0.21552849
0.26648825 0.06696713 0.29564857
0.26219726 0.14317113 0.26273632
0.25941625 -0.041815817 0.3319726
0.26382226 0.25123918 0.22228956
0.26288125 -0.26457089 0.24571753
0.25883225 -0.080695868 0.34652424
0.25672424 0.14269114 0.25850248
0.25507924 0.030905128 0.30036926
0.27233425 -0.38939184 -0.13880539
0.25733724 -0.26504689 0.2428875
0.25265124 -0.13410085 0.36217022
0.25078925 0.11064315 0.26609325
0.25406125 0.33794814 0.1809144
0.26646626 -0.38995081 -0.14197683
0.24655324 -0.1835888 0.37636852
0.24467425 0.064861178 0.27884626
0.24891524 0.36611217 0.16587639
0.24116725 -0.18426186 0.37227917
0.24259925 -0.08253485 0.33412647
0.23717524 -0.083150864 0.32998323
0.23433524 0.10913414 0.25338936
0.23583925 0.22096413 0.21138954
0.23226625 -0.04477483 0.31119156
0.23621824 0.24914914 0.20080614
0.24883024 -0.3916468 -0.15154648
0.22681625 -0.045370817 0.30702114
0.22733925 -0.0055718422 0.29206324
0.23220325 0.36506516 0.15278339
0.22496724 -0.1862908 0.35998154
0.22333325 0.10812318 0.2448945
0.22565524 0.28951818 0.17668629
0.22018224 -0.13798481 0.33744955
0.21782124 0.10761517 0.24063921
0.21821725 0.13929516 0.22871733
0.21957225 0.24788314 0.18785238
0.22008725 0.28912014 0.1723423
0.21841225 -0.26844388 0.2228384
0.21474725 -0.13863784 0.33331251
0.21230125 0.10710615 0.23637819
0.21313624 0.17572218 0.21053934
0.21366525 0.21920615 0.19416237
0.21400824 0.24745917 0.18352222
0.20843925 0.24703413 0.17918825
0.20582025 0.02592814 0.26251221
0.20327525 -0.18901879 0.34351635
0.20124325 0.10608518 0.22784328
0.20253624 0.21832013 0.18551731
0.20071925 0.060588181 0.24500036
0.19605924 0.13732815 0.21158361
0.19727924 0.24618113 0.17050648
0.19826524 0.33426017 0.13728046
0.19858624 0.36294717 0.12645435
0.20751025 -0.39570481 -0.17422962
0.19238925 -0.19039279 0.33525658
0.19050324 0.13683313 0.20728827
0.19090524 0.17384017 0.1933136
0.18927824 0.024245143 0.24980545
0.20158724 -0.39629585 -0.17751169
0.18747124 -0.1419248 0.31255531
0.18804924 -0.088761866 0.29247952
0.18460225 0.10454315 0.21500015
0.18532924 0.17336714 0.1889925
0.18578924 0.21698314 0.17250919
0.18732224 0.36223418 0.1176343
0.19565825 -0.39689082 -0.18080473
0.18199424 -0.14258784 0.30838823
0.17745724 -0.050801873 0.2692585
0.17378925 0.13534218 0.19436646
0.17528124 0.28590214 0.13740349
0.17053425 -0.19315988 0.31867647
0.17102225 -0.1439169 0.3000412
0.17155024 -0.090658844 0.27988815
0.16897924 0.21563715 0.15945435
0.16641325 -0.052024841 0.26081133
0.17037325 0.36115915 0.10436249
0.16804324 -0.27298886 0.19643021
0.16125025 -0.012554824 0.24138927
0.16444124 0.33200318 0.11083746
0.16470824 0.36079818 0.099927425
0.17189325 -0.39929789 -0.1940794
0.16242224 -0.27350587 0.19345236
0.15734325 0.17098314 0.16731358
0.15407024 -0.19525284 0.30619049
0.15498824 -0.092570841 0.26725245
0.15113024 0.10142618 0.18917322
0.15140525 0.13333714 0.17706442
0.15116924 -0.27454883 0.18746758
0.14856924 -0.19595486 0.30201721
0.14899425 -0.14659482 0.28328848
0.14579125 0.13283318 0.1727252
0.14485425 0.01969713 0.21568632
0.14514725 0.055130184 0.20223141
0.14017025 0.13232714 0.16838121
0.14046624 0.16953915 0.15424156
0.14137325 0.28344715 0.11096954
0.13926925 0.019122183 0.21139956
0.14174725 0.33048117 0.093099594
0.14197725 0.35934818 0.082130432
0.14804424 -0.40175289 -0.20752382
0.13836525 -0.094494879 0.25457239
0.13454024 0.13182116 0.16403055
0.13367625 0.018546164 0.20710325
0.14206725 -0.40237385 -0.21090841
0.12917724 0.16857016 0.14549828
0.12782826 -0.016122818 0.2157774
0.12807725 0.017968178 0.20280457
0.13035424 0.32971317 0.084194183
0.12303925 0.098794162 0.16750431
0.12223225 -0.016721845 0.21149158
0.12402826 0.24053413 0.11354351
0.12464725 0.32932913 0.079734325
0.12167625 -0.096433818 0.24184561
0.11893325 0.32894313 0.075269222
0.11175025 0.097732127 0.15879822
0.11218926 0.16710818 0.13234425
0.11101925 -0.017925858 0.20290136
0.10595825 -0.27882081 0.16317034
0.10061625 0.12875414 0.13781929
0.10107725 0.21015316 0.1067462
0.10147525 0.28053814 0.079874516
0.099972256 0.015060127 0.1812315
0.10017326 0.050667167 0.16763544
0.094765253 0.096130133 0.14570141
0.095746256 0.28011817 0.075409412
0.088305257 -0.060751855 0.20110416
0.090246253 0.32700014 0.052854538
0.088923253 -0.28046483 0.1539073
0.087589256 -0.20377785 0.25579643
0.087838255 -0.15409285 0.23679638
0.088107258 -0.1003539 0.21624947
0.083552256 0.12720418 0.12463856
0.083187252 0.048971176 0.15457439
0.082002252 -0.20449883 0.25156116
0.077850252 0.12668514 0.12023544
0.078013256 0.16415316 0.10588837
0.077206254 -0.021571875 0.17700338
0.077510253 0.048403144 0.15020943
0.077539258 -0.28157383 0.14768553
0.076625258 -0.15547687 0.22827625
0.072468251 0.20782113 0.084545612
0.072583258 0.23651814 0.073550224
0.070808254 -0.20594686 0.24308157
0.071224257 -0.10233587 0.20338154
0.066305257 0.093434155 0.12375927
0.066724256 0.20735115 0.080087185
0.060824253 0.16265917 0.092583179
0.060201254 -0.02341485 0.16398239
0.061069254 0.23561317 0.064601421
0.061209254 0.27757818 0.048500538
0.06386625 -0.4107278 -0.25592852
0.059752256 -0.15756685 0.21545935
0.059933253 -0.10366386 0.19477558
0.055078253 0.16215813 0.088136196
0.055425253 0.27715117 0.043993473
0.053961255 -0.20813185 0.23032141
0.054112256 -0.15826684 0.21117449
0.049444254 0.20593417 0.066681385
0.049522255 0.23470414 0.0556283
0.048332255 -0.20886379 0.22605848
0.043670256 0.20545918 0.062202454
0.043737255 0.23424816 0.051132202
0.043836255 0.27629417 0.034966469
0.043209255 0.0091361403 0.13768053
0.043293256 0.044966161 0.12390518
0.037722256 0.12301618 0.089245319
0.038030256 0.27586514 0.030444145
0.037564255 0.044388175 0.11950159
0.039604254 -0.41340286 -0.27015686
0.037532255 -0.28553885 0.12561035
0.031958252 0.12248617 0.084795475
0.032021254 0.16014516 0.070297241
0.032144252 0.23333317 0.042124271
0.031481255 -0.1610828 0.19398546
0.031572253 -0.10701483 0.17316723
0.027435252 -0.41476089 -0.27734041
0.026051253 -0.2866959 0.1192174
0.025805254 -0.16179079 0.18967628
0.020376252 0.089051127 0.088362217
0.020409252 0.12142414 0.075878143
0.020329252 0.04264617 0.10625648
0.020611253 0.32223815 -0.0015397072
0.014601253 0.088497162 0.083912373
0.014623253 0.12089115 0.071412563
0.014678253 0.20306915 0.039712429
0.014550254 -0.28786284 0.11278534
0.014397252 -0.2132929 0.20036459
0.014468253 -0.1090439 0.16013861
0.0030252531 -0.16464084 0.17238235
-0.0028117471 0.20162117 0.026148319
-0.0027447469 0.004294157 0.10244131
-0.002756747 0.040305138 0.088516235
-0.0027447469 -0.28963381 0.1030674
-0.0027057468 -0.11108881 0.14705944
-0.0085207466 -0.29022986 0.099808216
-0.014539747 0.22962618 0.0058574677
-0.014630748 0.31980515 -0.02905941
-0.015347747 -0.41960889 -0.3028326
-0.014137747 -0.16679686 0.15935516
-0.020260748 0.11766416 0.044487476
-0.020311747 0.15554214 0.029819489
-0.020411747 0.22915715 0.0012955666
-0.020533748 0.31939614 -0.033669472
-0.021486748 -0.42031485 -0.30652046
-0.026046747 0.08458215 0.052600384
-0.025848748 -0.032831848 0.098129272
-0.025967747 0.037940145 0.070685387
-0.027629748 -0.42102283 -0.31021976
-0.032027744 0.15450513 0.020758152
-0.032118745 0.19918418 0.003423214
-0.031562746 -0.074405849 0.10958052
-0.032263745 0.27062118 -0.024296761
-0.032361746 0.31857514 -0.04290247
-0.031682745 -0.29263979 0.08667326
-0.031481747 -0.11452883 0.1251502
-0.038173746 0.27017713 -0.028897762
-0.037010744 -0.22005683 0.16146231
-0.043584745 0.082884133 0.039093494
-0.043672744 0.11548716 0.026424408
-0.043896746 0.19820118 -0.0057096481
-0.043264747 -0.034756839 0.08480835
-0.044090744 0.26973218 -0.033503532
-0.049799744 0.19770718 -0.010285854
-0.049087744 -0.035401821 0.080355167
-0.049194746 -0.00064283609 0.066839218
-0.049116746 -0.29447585 0.07671833
-0.048839744 -0.11661285 0.11193848
-0.056115746 0.31692016 -0.06144762
-0.058449745 -0.4246158 -0.32889366
-0.054939747 -0.29509288 0.07338047
-0.061459742 0.15189117 -0.001999855
-0.061626747 0.19671714 -0.019453526
-0.067845747 0.26794118 -0.051995754
-0.065838747 -0.22387785 0.1396594
-0.073120743 0.11273617 0.0037112236
-0.073805742 0.26749116 -0.056634426
-0.072768748 0.033141136 0.034744263
-0.071628742 -0.22464782 0.13528156
-0.079034746 0.11218214 -0.00084877014
-0.079430744 0.19522214 -0.03325367
-0.077424742 -0.22541887 0.13089752
-0.077665746 -0.17483681 0.11115646
-0.084788747 0.078873158 0.0073676109
-0.084548749 0.031927168 0.025701523
-0.089438744 -0.42828983 -0.34786367
-0.083228745 -0.22619289 0.12650919
-0.083767742 -0.1208269 0.085359573
-0.090706743 0.078294158 0.0028114319
-0.091498747 0.22344518 -0.053904533
-0.090252742 -0.005042851 0.035381317
-0.089317746 -0.17632085 0.10232019
-0.097045742 0.14871216 -0.029507637
-0.097723745 0.26567817 -0.075248718
-0.10300674 0.14817816 -0.034117699
-0.10328375 0.19321215 -0.051739693
-0.10158875 -0.082525849 0.056166172
-0.10372575 0.26522213 -0.079920769
-0.10133974 -0.12295681 0.071991444
-0.10926674 0.19270617 -0.056375504
-0.10747574 -0.083212852 0.051678181
-0.10945775 0.22199118 -0.067844391
-0.10973474 0.26476514 -0.08459568
-0.11435574 -0.43128985 -0.36325359
-0.11414175 0.028865159 0.0029864311
-0.12060274 -0.4320479 -0.36713266
-0.12125975 0.19169116 -0.065668583
-0.11927374 -0.084591806 0.042683601
-0.12639275 0.07479316 -0.024650574
-0.12518676 -0.085284889 0.038176537
-0.12549876 -0.043925822 0.021943569
-0.12576275 -0.0088738203 0.0081834793
-0.12817976 0.31185913 -0.11768675
-0.12446674 -0.18081886 0.07567358
-0.12488074 -0.12582082 0.054086208
-0.13170876 -0.0095178485 0.0036315918
-0.13835375 0.073615134 -0.03385067
-0.13931276 0.19016016 -0.079656601
-0.13737476 -0.04526186 0.012868404
-0.13955475 0.21954316 -0.091204643
-0.13796476 0.026389182 -0.015295506
-0.14566275 -0.4351148 -0.38276958
-0.14296976 -0.087371886 0.024621487
-0.14596875 0.26199818 -0.11278772
-0.15034775 0.072431147 -0.043080807
-0.15064275 0.10542417 -0.056065559
-0.15203676 0.26153314 -0.11750746
-0.14992575 0.02514118 -0.024473667
-0.15247075 0.31013817 -0.13663864
-0.15823576 -0.43666881 -0.39066172
-0.15744375 0.18861717 -0.093700409
-0.15771675 0.21806014 -0.10529661
-0.15487975 -0.30601984 0.015070438
-0.15449075 -0.12943989 0.031573296
-0.16237776 0.07124114 -0.052334785
-0.17084076 -0.43823689 -0.39860439
-0.16081676 -0.30668789 0.011545181
-0.16043775 -0.13016886 0.027053356
-0.16911875 0.14221317 -0.085199833
-0.16679876 -0.090177834 0.006462574
-0.17715275 -0.43902582 -0.40259361
-0.16584076 -0.18614787 0.044320583
-0.17443976 0.070045173 -0.06161356
-0.17517975 0.14166313 -0.08988142
-0.17564875 0.18706214 -0.10780239
-0.17277676 -0.090883791 0.0019083023
-0.17394975 0.022629142 -0.04290247
-0.18125075 0.14111114 -0.09457159
-0.18205275 0.21606618 -0.12417984
-0.18251276 0.25919116 -0.14121342
-0.17997776 0.021997154 -0.047526836
-0.17832775 -0.13236684 0.013454437
-0.18653776 0.068843126 -0.070917606
-0.18690376 0.10197014 -0.084012508
-0.18783176 0.18602014 -0.11723757
-0.19613875 -0.44141287 -0.41463661
-0.18369675 -0.18846089 0.03079319
-0.19259876 0.068240166 -0.075579643
-0.19060075 -0.31007284 -0.0062308311
-0.20004675 0.18497217 -0.12669659
-0.19677275 -0.093724787 -0.016373634
-0.20039475 0.21455717 -0.13840961
-0.19564076 -0.19001085 0.021748543
-0.20514776 0.10022414 -0.098072529
-0.20652576 0.21405214 -0.14316559
-0.20100476 -0.24206084 0.037528515
-0.20229775 -0.13532287 -0.0047607422
-0.21229875 0.18391913 -0.13618565
-0.21266775 0.21354514 -0.14792967
-0.21693075 0.065813184 -0.094291687
-0.21584775 -0.018698871 -0.060768604
-0.21632075 0.018172145 -0.075397491
-0.21455175 -0.31283385 -0.020645618
-0.22240776 0.01752913 -0.080064774
-0.23074076 0.18233013 -0.15046358
-0.22695875 -0.097313821 -0.039363861
-0.23114276 0.21201813 -0.16225863
-0.23527175 0.063977182 -0.10839462
-0.23732075 0.21150613 -0.16704845
-0.23096575 -0.24614984 0.014913559
-0.23245275 -0.13905782 -0.02766943
-0.24308175 0.18126416 -0.16001749
-0.24019575 -0.021379828 -0.079394817
-0.25351375 -0.44876689 -0.45146465
-0.24754274 0.062745154 -0.11782885
-0.24630475 -0.022054851 -0.084068775
-0.25477174 0.13438517 -0.15134668
-0.25545675 0.18019313 -0.16959763
-0.25297576 0.014292181 -0.10349369
-0.25064775 -0.14132088 -0.041488647
-0.25984874 0.061508179 -0.12728739
-0.26165876 0.17965513 -0.17439842
-0.25800276 -0.058979869 -0.079246521
-0.25911576 0.013639152 -0.1081996
-0.25673676 -0.31777984 -0.046293736
-0.26654077 0.094310164 -0.14536667
-0.26715076 0.13324416 -0.16090059
-0.26833776 0.20892918 -0.19110155
-0.26902077 0.25247616 -0.20847845
-0.27922374 -0.45212787 -0.46816778
-0.27272874 0.093710184 -0.1501317
-0.26958275 -0.10241383 -0.071815491
-0.27570674 -0.10314983 -0.07647562
-0.27492574 -0.3199448 -0.057451725
-0.28456974 0.059015155 -0.14628744
-0.28183874 -0.1038869 -0.081142426
-0.28705576 0.20736718 -0.20561457
-0.29859176 -0.45468682 -0.48083782
-0.27934274 -0.2527948 -0.021586418
-0.28727576 -0.14589685 -0.069300652
-0.29413274 -0.10536784 -0.090498447
-0.29486975 -0.063227832 -0.10737753
-0.30034676 0.25002217 -0.23282957
-0.29152477 -0.25447685 -0.030774593
-0.30380476 0.090691149 -0.17405939
-0.30532476 0.17585516 -0.20819283
-0.30168274 -0.028198838 -0.12641573
-0.31004676 0.090083182 -0.17886543
-0.30722874 -0.064657867 -0.11680651
-0.30855876 0.008362174 -0.1460886
-0.31629875 0.089473128 -0.18367863
-0.31263775 -0.10760182 -0.10457945
-0.30986175 -0.25701386 -0.044602394
-0.31962577 -0.066093862 -0.12626171
-0.32030475 -0.030276835 -0.14064455
-0.32818174 0.054592133 -0.17979765
-0.33190677 0.24753618 -0.25735474
-0.33824676 0.24703616 -0.26228046
-0.33276376 -0.031670868 -0.15016842
-0.33743876 -0.1106059 -0.12344646
-0.34459576 0.24653417 -0.26721478
-0.34701076 0.052673161 -0.1942625
-0.34769875 0.086401165 -0.20784855
-0.34166574 -0.2092188 -0.088755608
-0.35330474 0.052030146 -0.19909763
-0.35400677 0.085783184 -0.2127037
-0.37027174 -0.46435279 -0.52833271
-0.34786075 -0.21004385 -0.093438625
-0.35613576 -0.11287886 -0.13766861
-0.35858575 0.0029811263 -0.18440866
-0.36849475 0.17031115 -0.25706148
-0.36914375 0.20046514 -0.26923752
-0.36407375 -0.035185874 -0.17409372
-0.36488074 0.0023001432 -0.18922949
-0.36070576 -0.33041483 -0.11088371
-0.37486374 0.16974914 -0.26198864
-0.37933177 0.083291173 -0.23219442
-0.38124377 0.16918617 -0.26692343
-0.37491575 -0.11516887 -0.15194941
-0.37586275 -0.07264787 -0.16914463
-0.37666374 -0.036604822 -0.18371344
-0.37273076 -0.21336383 -0.11224079
-0.38492075 0.048793137 -0.22337675
-0.37928775 -0.33273882 -0.1226306
-0.38846076 -0.074123859 -0.1787467
-0.39472476 0.19829613 -0.28905964
-0.39573976 0.24247313 -0.30694771
-0.39015475 -0.00043684244 -0.20858145
-0.39842474 0.08140713 -0.24688482
-0.40043676 0.16748714 -0.28176785
-0.39477375 -0.074863851 -0.18355656
-0.40217677 0.24195915 -0.31194639
-0.39649674 -0.0011258721 -0.21343756
-0.40400276 0.046831131 -0.23802853
-0.42307875 -0.47166985 -0.5639286
-0.41906077 -0.1205768 -0.18550968
-0.42691875 0.19555414 -0.31399775
-0.42802176 0.23989314 -0.33201981
-0.41660777 -0.21925181 -0.14539862
-0.41801974 -0.16245085 -0.16848755
-0.43044075 0.078236163 -0.27151155
-0.43144175 0.11789614 -0.28764582
-0.44970775 -0.47542185 -0.58206844
-0.42291275 -0.22010189 -0.15016365
-0.43600175 0.04352814 -0.26259279
-0.43175974 -0.1221388 -0.19516182
-0.43986776 0.19444817 -0.32402658
-0.43378475 -0.043073833 -0.22734165
-0.42788276 -0.27352387 -0.13353157
-0.43068576 -0.16407186 -0.17808962
-0.44434875 0.11667413 -0.2975955
-0.43812275 -0.12292284 -0.19999886
-0.43555275 -0.22180682 -0.15971184
-0.44976875 0.076313138 -0.28637886
-0.45081577 0.11606115 -0.30258274
-0.44562474 -0.080855846 -0.22230673
-0.45402575 0.23780614 -0.35221243
-0.46977976 -0.47827679 -0.59582758
-0.44176176 -0.34069389 -0.16256666
-0.44188675 -0.22266287 -0.16449451
-0.45729375 0.11544615 -0.3075757
-0.45854676 0.16231513 -0.3266964
-0.45202374 -0.081613839 -0.22718048
-0.46055174 0.23728216 -0.35727978
-0.47648874 -0.4792369 -0.60044384
-0.44682077 -0.2762019 -0.14779282
-0.45726976 -0.12528688 -0.21454573
-0.46824476 0.040185153 -0.28734064
-0.46918476 0.074377179 -0.30130863
-0.47157076 0.16115016 -0.33676386
-0.47472176 0.039511144 -0.29231071
-0.46698976 -0.34396785 -0.17888451
-0.48675674 0.23516816 -0.37762785
-0.47982374 -0.010233819 -0.27720881
-0.47369975 -0.22697383 -0.18852043
-0.48293674 -0.12846583 -0.2340436
-0.48630175 -0.01094687 -0.28216553
-0.47965476 -0.34562486 -0.18711853
-0.47857675 -0.2807079 -0.17169571
-0.49637076 0.11172515 -0.33769464
-0.48937875 -0.12926489 -0.23893642
-0.49062875 -0.08619684 -0.2565856
-0.49168774 -0.049688816 -0.27154684
-0.48495775 -0.28161687 -0.17649841
-0.49709576 -0.086967885 -0.26151085
-0.50947678 0.11047214 -0.34779358
-0.50466275 -0.051178873 -0.28144884
-0.53052676 -0.48705786 -0.63790274
-0.51380074 0.035434127 -0.32229185
-0.51604474 0.10984313 -0.35285568
-0.51746774 0.15702617 -0.37223482
-0.51839274 0.18769413 -0.38483143
-0.53732574 -0.4880529 -0.6426506
-0.51394773 -0.17480785 -0.24118185
-0.55778873 -0.4910658 -0.65699482
-0.54114878 0.067152143 -0.35663271
-0.53611475 -0.091630876 -0.29121876
-0.54489678 0.18539715 -0.40534782
-0.54632175 0.23033613 -0.4238615
-0.53157473 -0.2348668 -0.23220968
-0.54265374 -0.092414796 -0.29619551
-0.53709674 -0.35324889 -0.22479963
-0.53805375 -0.23575479 -0.23709965
-0.55721176 0.15343314 -0.4029417
-0.55821276 0.18424016 -0.41565466
-0.54454577 -0.2366448 -0.24199677
-0.56231374 0.10539818 -0.3885026
-0.55576175 -0.093988836 -0.3061738
-0.58521974 -0.49514085 -0.67633581
-0.55293977 -0.1798808 -0.27071142
-0.56762576 0.064475179 -0.37698078
-0.56896478 0.10475618 -0.39362574
-0.56088775 -0.13819283 -0.29323339
-0.57306677 0.22815317 -0.44461584
-0.57562578 0.10411316 -0.3987565
-0.57826275 0.18249416 -0.43116951
-0.57257074 -0.18244487 -0.28557348
-0.58060277 -0.14066988 -0.3081975
-0.59323877 0.22650218 -0.46026754
-0.58469176 -0.021854818 -0.35740662
-0.57714576 -0.24112886 -0.26659155
-0.58871073 -0.097958863 -0.33124781
-0.58999473 -0.061045825 -0.34654665
-0.59133273 -0.022596836 -0.36248255
-0.60095674 0.061092138 -0.4025898
-0.60673976 0.22539413 -0.4707427
-0.59025574 -0.24293786 -0.27647972
-0.61350578 0.22483814 -0.47599173
-0.63363475 -0.50243384 -0.71078157
-0.61436474 0.059726179 -0.41288948
-0.60148078 -0.29834789 -0.26413345
-0.60549575 -0.18676084 -0.31049061
-0.62108374 0.059041142 -0.41805077
-0.62429476 0.14732414 -0.45475578
-0.61525577 -0.10116988 -0.35144377
-0.60804975 -0.29929882 -0.26906967
-0.62930477 0.098911166 -0.44009352
-0.61462873 -0.30025285 -0.27401543
-0.63325977 0.022829175 -0.41389275
-0.63455373 0.057665169 -0.42839766
-0.63606173 0.098253131 -0.44529676
-0.62696576 -0.14652282 -0.34337664
-0.63899475 0.17717516 -0.47815943
-0.64130574 0.056975126 -0.43358374
-0.63527477 -0.10359889 -0.36667061
-0.64750475 0.22203618 -0.50236464
-0.62781674 -0.30216783 -0.28392649
-0.65142977 0.14483714 -0.47570658
-0.64484775 -0.028597832 -0.40338039
-0.65350378 0.020673156 -0.42940664
-0.65640277 0.096270144 -0.46095753
-0.65943575 0.17537516 -0.49397182
-0.65833277 -0.030116856 -0.41368341
-0.64976776 -0.25119084 -0.32135057
-0.66039878 -0.15076584 -0.36873579
-0.67311776 0.17416716 -0.50455284
-0.67490274 0.21976918 -0.52361345
-0.67684174 0.094272137 -0.47669172
-0.67032874 -0.070442855 -0.40778971
-0.66310775 -0.25304979 -0.33140564
-0.68559676 0.14169317 -0.50208378
-0.68684578 0.17295313 -0.51517153
-0.67709273 -0.071237862 -0.41294479
-0.66749573 -0.37120885 -0.31235552
-0.66979373 -0.25398284 -0.33644581
-0.69052178 0.092931151 -0.48721981
-0.69246376 0.14105916 -0.50738478
-0.68386674 -0.072035849 -0.41810656
-0.69737875 0.092258155 -0.49249744
-0.69065273 -0.072835863 -0.42327785
-0.72501075 -0.51654285 -0.77686262
-0.68557978 -0.19734281 -0.37107468
-0.68739974 -0.37402779 -0.32596159
-0.70796776 0.014842153 -0.47113752
-0.71112776 0.09090817 -0.50307846
-0.71633875 0.21632516 -0.5557456
-0.70425874 -0.07444185 -0.43364477
-0.71482474 0.014106154 -0.47638941
-0.71801877 0.090230167 -0.50838184
-0.70765674 -0.15679687 -0.40456772
-0.70072275 -0.37592584 -0.33510447
-0.70110977 -0.3128708 -0.33897972
-0.72696674 0.13786715 -0.5340147
-0.73720777 0.21458417 -0.57192564
-0.72641677 -0.037827849 -0.46568441
-0.76068276 -0.52217084 -0.80303049
-0.71689373 -0.26057881 -0.37193155
-0.73546678 0.01188314 -0.49220085
-0.73698777 0.047124147 -0.50704479
-0.73875976 0.088186145 -0.52434158
-0.72807378 -0.15941483 -0.42004681
-0.74390578 0.046407163 -0.51235485
-0.74917775 0.16741514 -0.56336784
-0.74016774 -0.039393842 -0.4761858
-0.77503878 -0.52445382 -0.81361866
-0.74173975 -0.16116983 -0.43040371
-0.73421574 -0.38073784 -0.35820866
-0.75777572 0.044967175 -0.52300072
-0.77016073 0.16554117 -0.57958841
-0.75912178 -0.080945849 -0.47543764
-0.76433074 -0.11941582 -0.46477985
-0.77717978 0.16491318 -0.58501339
-0.76780373 -0.042548835 -0.49728346
-0.75444174 -0.38367087 -0.3722477
-0.75769174 -0.26632589 -0.4026556
-0.76035774 -0.20732588 -0.42760563
-0.77866876 0.042794168 -0.53903151
-0.78276777 0.13267416 -0.57707071
-0.77123374 -0.12026888 -0.47002363
-0.77295178 -0.082592845 -0.48596859
-0.76204175 -0.32184786 -0.38471746
-0.78565574 0.042066157 -0.54439354
-0.79125077 0.16365218 -0.59588957
-0.78507376 -0.12198287 -0.48053885
-0.78682476 -0.084246814 -0.49653339
-0.77570176 -0.32387084 -0.39496756
-0.77823776 -0.2692309 -0.41812563
-0.79966676 0.040605128 -0.55514383
-0.79201275 -0.12284285 -0.48581076
-0.80536973 0.16238517 -0.60680246
-0.80864376 0.081259131 -0.57810068
-0.81094873 0.13003814 -0.59880877
-0.80074674 -0.085910857 -0.50713348
-0.78837174 -0.38863581 -0.39593363
-0.81471276 -0.087581813 -0.51776552
-0.82171273 -0.088420808 -0.52309275
-0.81270975 -0.27412289 -0.44407272
-0.84087574 0.15918815 -0.63424063
-0.81695473 -0.32999879 -0.42591286
-0.84021878 0.00051414967 -0.57240248
-0.84197778 0.036175132 -0.58759975
-0.83575076 -0.090105832 -0.53377962
-0.83769977 -0.050577819 -0.5506258
-0.84089774 -0.12892383 -0.52293777
-0.84278578 -0.09095186 -0.5391345
-0.83079576 -0.3320629 -0.4362936
-0.85826278 0.076305151 -0.61625671
-0.84792775 -0.12980181 -0.52827644
-0.83773273 -0.33309788 -0.44149542
-0.86148673 -0.001811862 -0.58867645
-0.85497075 -0.13068181 -0.53362465
-0.85889775 -0.053026855 -0.56679869
-0.85445374 -0.28007585 -0.47548342
-0.86909074 -0.1324479 -0.54434347
-0.88388073 0.15529817 -0.66746569
-0.87104774 -0.094354808 -0.56064272
-0.86451876 -0.22138983 -0.50628662
-0.88688278 0.073433161 -0.63825846
-0.88943273 0.12264818 -0.65933561
-0.87383777 -0.17829686 -0.53046083
-0.88090575 -0.17922181 -0.53581381
-0.88524973 -0.096069872 -0.57144976
-0.87259477 -0.33831483 -0.46763039
-0.87547976 -0.28308481 -0.49130058
-0.90625376 0.02940315 -0.63688946
-0.89747375 -0.13600785 -0.5658884
-0.90161574 -0.057980835 -0.59938145
-0.91569775 0.070533156 -0.66040754
-0.90218574 -0.1820088 -0.55192041
-0.92005777 0.15201014 -0.69541073
-0.90664476 -0.098657787 -0.58772659
-0.91873074 -0.0081028342 -0.63247442
-0.90368277 -0.28713387 -0.51251173
-0.90691674 -0.22716683 -0.53829241
-0.93461573 0.15068316 -0.70665264
-0.90589476 -0.40626186 -0.47930861
-0.91402477 -0.22813779 -0.54365873
-0.94191575 0.15001714 -0.71229172
-0.93033773 -0.061324835 -0.62128353
-0.94239277 0.025572181 -0.6645937
-0.93754876 -0.06216687 -0.62678242
-0.92495978 -0.29019779 -0.52850962
-0.94477177 -0.063010871 -0.63228846
-0.95490873 -0.012100816 -0.66014671
-0.95693475 0.024026155 -0.67574072
-0.93405676 -0.41058284 -0.49958849
-0.93608475 -0.34787387 -0.51521063
-0.96422678 0.023250163 -0.68132877
-0.96204478 -0.14415079 -0.61488771
-0.95349777 -0.29431981 -0.54996347
-0.96783876 -0.29639584 -0.56074286
-0.98114073 -0.19241279 -0.61166143
-0.96954077 -0.41607887 -0.5253005
-0.97177672 -0.35327882 -0.5419445
-0.97854573 -0.23699182 -0.59234047
-0.97667778 -0.41719085 -0.53049469
-0.98382676 -0.41830784 -0.53570461
