# .PCD v0.7 - Point Cloud Data file format
VERSION 0.7
FIELDS x y z
SIZE 4 4 4
TYPE F F F
COUNT 1 1 1
WIDTH 1
HEIGHT 1024
VIEWPOINT 0 0 0 1 0 0 0
POINTS 1024
DATA ascii
0.93602133 0.18848544 0.086592197
0.93054432 0.18818647 0.083162308
0.92506033 0.18788743 0.079738617
0.91957331 0.18758744 0.076315403
0.92740631 0.22855145 0.019868374
0.91408229 0.18728745 0.072890282
0.92187232 0.22826445 0.01638937
0.92141628 0.25487047 -0.024194717
0.93089134 0.086132467 -0.13826656
0.89114732 0.15193343 0.11018562
0.90524131 0.22739947 0.0059423447
0.91767633 0.29398745 -0.086025715
0.9120543 0.29372144 -0.089594364
0.90991831 0.088823438 -0.11933851
0.88655931 0.18577343 0.055735588
0.89910233 0.25374943 -0.03826952
0.90642732 0.29345345 -0.093169689
0.90366232 0.089045465 -0.11837149
0.8747173 0.15098745 0.10000944
0.91184229 0.029593468 -0.18008947
0.86374032 0.15035248 0.093216419
0.8699913 0.18485647 0.045416355
0.89775532 0.33813244 -0.16690874
0.88636333 0.33762246 -0.17419434
0.83861232 0.15752542 0.15039349
0.85546029 -0.064626575 0.018872261
0.86549228 0.25204742 -0.059439659
0.87256533 0.29183346 -0.11465073
0.84283632 0.18813246 0.070944309
0.85510528 0.22476643 -0.025494576
0.84680432 0.020614445 0.039753437
0.83495831 0.18996745 0.086204529
0.86923629 0.33685547 -0.1851325
0.8329193 0.14630044 0.055143356
0.82711732 0.19179344 0.10139465
0.84013832 -0.022775531 -0.0023984909
0.83670032 0.05774945 0.025006294
0.88264233 0.44628346 -0.34123373
0.8287313 0.14467144 0.040902615
0.83592832 -0.024760544 -0.016877651
0.8577953 0.33634043 -0.19243574
0.83502829 -0.11257756 -0.0096497536
0.82606232 0.10668647 0.01417923
0.81154531 0.19541848 0.13156223
0.84421533 0.29046547 -0.13260937
0.82183534 0.10496646 -0.00022745132
0.82287228 -0.068116546 -0.0086684227
0.85808432 0.40455043 -0.29545259
0.80964333 0.23342347 0.05051136
0.81863832 0.25631446 -0.023275375
0.82152629 0.0091784596 -0.046967506
0.85227329 0.40431547 -0.29920244
0.85925329 0.44541043 -0.35645962
0.86455834 0.47926146 -0.39998055
0.8118093 0.13808143 -0.01664257
0.78846228 0.20078945 0.17629051
0.81071234 0.25800645 -0.0075764656
0.83963233 0.36362547 -0.24655867
0.8464573 0.40408146 -0.30295658
0.7811833 0.20223343 0.18820047
0.80043232 -0.062257528 0.027965546
0.84063631 0.40384543 -0.30671358
0.80793428 0.29540247 -0.085095406
0.82807028 0.36312348 -0.25396776
0.8348093 0.40360945 -0.3104744
0.84165633 0.44475144 -0.36789656
0.8004443 0.096249461 -0.073156357
0.78474432 -0.013003528 0.059492588
0.83578032 0.44453144 -0.37171268
0.79170829 -0.11016154 0.00065040588
0.77091628 0.24198246 0.12656832
0.78214532 -0.061484575 0.030979633
0.77868032 -0.01276058 0.060483456
0.77938432 0.26469243 0.054487228
0.77261829 -0.012517571 0.06147337
0.7665593 -0.01227653 0.062464237
0.81145233 0.40266043 -0.32553864
0.76465029 0.10922545 0.027345657
0.76846731 0.30337644 -0.0058965683
0.74058431 0.24867845 0.18615866
0.7516433 0.028940439 0.089095592
0.7488963 0.070702434 0.11320353
0.78351229 0.36883748 -0.19061756
0.7674973 0.37173247 -0.15771055
0.74893934 -0.10829556 0.0077314377
0.73958731 -0.059717536 0.03797245
0.73756731 0.30961245 0.056126595
0.72993433 0.31115246 0.07144928
0.72755533 0.029845476 0.092997551
0.74325633 0.35010046 -0.049217701
0.77628434 0.44666445 -0.34838772
0.72745633 -0.059221506 0.039959431
0.73065531 -0.10751152 0.010751247
0.71820229 -0.010380566 0.070343494
0.72456729 -0.10725152 0.011755466
0.70971131 0.23927146 0.094142437
0.71848029 -0.10699356 0.012758255
0.69499129 0.16265345 0.17664766
0.70101231 0.24214947 0.12030458
0.70928031 -0.058484554 0.042937279
0.73189133 0.41544247 -0.16863775
0.71669632 -0.17324758 -0.026455402
0.6890623 0.16283947 0.1775856
0.69238234 0.24500448 0.14625645
0.69751328 0.030956447 0.09785223
0.69483232 0.072789431 0.1231432
0.71265334 0.38163644 -0.044998646
0.70631933 -0.10647953 0.014762402
0.70496929 0.38302243 -0.029203415
0.70446628 -0.17270052 -0.024421692
0.70024329 -0.10622454 0.015764236
0.67532831 0.25064343 0.1975503
0.6694653 0.28620243 0.2538023
0.69835633 -0.17242956 -0.023407459
0.6941703 -0.10596955 0.016762257
0.68508834 -0.057516575 0.046891212
0.67604429 -0.0087705255 0.077187538
0.67468131 0.36302644 0.09048748
0.69291931 0.42201847 -0.087508678
0.65385228 0.25512046 0.23746538
0.66724229 0.36442643 0.10564756
0.67459732 0.38849646 0.033231258
0.6962133 0.45922744 -0.17956877
0.6699053 -0.10496259 0.020749569
0.6580193 -0.0080935359 0.080106258
0.65557331 0.032475471 0.10461235
0.65305632 0.074235439 0.12983656
0.66784632 -0.17108655 -0.018348694
0.63439131 0.28711945 0.25924063
0.64959431 0.032689452 0.10557461
0.64512831 0.36858642 0.15071249
0.66548431 -0.23325753 -0.055047512
0.63582629 0.16448843 0.18599939
0.6411463 0.074640453 0.13174152
0.65487731 0.42842847 -0.0082983971
0.67389429 0.49364144 -0.20224953
0.6320743 0.12803245 0.16480827
0.62992531 0.16466844 0.18693066
0.62744933 0.20686042 0.21240664
0.63055831 0.37132543 0.18040943
0.65323931 -0.23269761 -0.053006649
0.62157428 0.20702946 0.21332741
0.63402832 -0.0072035789 0.083985329
0.66911232 0.53348947 -0.28037453
0.64349431 -0.17003155 -0.014322758
0.61072528 0.33089542 0.26638842
0.62281132 0.39781642 0.13972044
0.61432528 0.12859243 0.16761923
0.6250903 0.43344146 0.05373764
0.64307928 0.49816045 -0.13657045
0.5994153 0.28801346 0.26465845
0.5998913 0.33034247 0.25956631
0.63547033 0.49927646 -0.12034941
0.60250729 0.12896246 0.16948938
0.60361034 0.39946145 0.15759659
0.60409933 -0.0061125755 0.088814259
0.5890373 0.32978743 0.25273466
0.57785833 0.25715142 0.24928331
0.60098433 -0.16822755 -0.0073103905
0.58617634 -0.0054685473 0.0916996
0.6176793 0.58116543 -0.26129055
0.5863803 0.43647248 0.089409351
0.57300633 0.12987447 0.17415047
0.58278233 -0.053569555 0.063521385
0.57267231 0.37157947 0.1779232
0.5651843 0.16659445 0.19711542
0.56181633 0.32838643 0.2356143
0.5671683 0.37131447 0.17443466
0.5800553 0.47467044 0.027134418
0.58280832 -0.1674695 -0.0043244362
0.5571183 0.20883846 0.22340345
0.5545643 0.25775445 0.25289345
0.55635732 0.32810444 0.2321825
0.56965333 0.43575543 0.078671455
0.57675529 -0.16721952 -0.0033288002
0.5471223 0.28931546 0.27274132
0.57070529 -0.16697061 -0.0023365021
0.56728834 -0.1008625 0.037517548
0.55882531 -0.052680492 0.067396641
0.5506323 0.37051642 0.1639514
0.55386233 0.39718044 0.12588739
0.56316829 0.47399846 0.016214371
0.54356831 0.13076645 0.17879152
0.53711933 0.25820047 0.25559425
0.5721513 0.58666545 -0.16159058
0.5661183 0.54539746 -0.089748383
0.53447229 0.32696944 0.21843147
0.54034233 0.077954471 0.14778566
0.56039131 0.54520243 -0.093500614
0.54926133 -0.10016859 0.040446281
0.53000432 0.16760844 0.20262957
0.5384953 -0.0037905574 0.099354267
0.54653031 -0.16598356 0.0016245842
0.52350032 0.32639748 0.21153927
0.52853334 0.078328431 0.14965725
0.54427034 0.50484443 -0.043822765
0.52006632 0.13146645 0.1824894
0.51626331 0.20994645 0.22976542
0.52893931 -0.051591516 0.072216511
0.52660233 -0.003380537 0.10125828
0.52296829 0.36917442 0.14643049
0.51250631 0.32582343 0.20463943
0.51872432 0.037168443 0.12650967
0.5314033 -0.22735155 -0.032815456
0.50246531 0.13198447 0.18525457
0.50075734 0.16843343 0.20720339
0.49879035 0.21041143 0.23248148
0.5087803 -0.0027705431 0.10410833
0.5036993 0.39484847 0.093957424
0.50729328 -0.098584533 0.04724741
0.48491833 0.25950444 0.26366329
0.49691132 -0.002369523 0.10600424
0.49316534 0.079432428 0.1552515
0.5224753 0.61774045 -0.2300725
0.50130731 -0.098362565 0.048215389
0.48323733 0.16891944 0.20993853
0.48086333 0.28667444 0.24151564
0.48915735 0.038129449 0.13120937
0.49662831 0.43259144 0.031844616
0.50111532 -0.22608554 -0.027833462
0.48720634 -0.050105572 0.078926563
0.48139635 0.079794466 0.15711164
0.47551534 0.079973459 0.15803766
0.48942831 0.47102946 -0.031415462
0.48627934 -0.1635915 0.011460304
0.46391034 0.21132344 0.23789263
0.47320533 -0.0015765429 0.10978746
0.46439135 0.28575248 0.23126745
0.47284734 0.36671644 0.11472321
0.46278733 0.32320446 0.17345953
0.48979434 0.58479047 -0.20330954
0.47990534 -0.29404855 -0.065355778
0.47141933 -0.097265601 0.053041458
0.46136633 -0.0011855364 0.11167145
0.45723733 0.32290947 0.16998243
0.46830234 0.43134743 0.013703346
0.45168233 0.32261443 0.16650152
0.45375833 0.039254427 0.13682127
0.45604634 0.36588544 0.10410452
0.45875335 0.39273345 0.065389633
0.46485633 -0.22460258 -0.021889687
0.45948234 -0.096833587 0.054965496
0.44953835 -0.00079756975 0.11355543
0.44612235 0.32231843 0.16302061
0.45043534 0.36560744 0.10055923
0.45625034 -0.16243553 0.016341209
0.43490934 0.21206445 0.24238253
0.45561534 -0.29301059 -0.061345577
0.42911434 0.21221048 0.2432785
0.43441534 0.081208467 0.1645093
0.44676033 -0.2238766 -0.018930435
0.44159335 -0.096192598 0.057843208
0.42499533 0.17049545 0.21900749
0.42331135 0.25791442 0.24435663
0.43373033 -0.048261523 0.087490559
0.42577535 0.28357643 0.20726633
0.43984133 0.43008846 -0.0045084953
0.42061633 0.13430947 0.19806528
0.41918433 0.17064846 0.21990824
0.41753533 0.21250147 0.24506855
0.41780433 0.25759047 0.24095345
0.42432535 0.040169477 0.1414752
0.41229334 0.25726646 0.2375493
0.42187434 -0.04786253 0.089382648
0.40896034 0.13462943 0.19988251
0.40756735 0.17095345 0.22171354
0.40313634 0.13478947 0.20079136
0.40821135 0.00053143501 0.12011433
0.42053935 0.46820545 -0.075834751
0.41665033 -0.2226876 -0.014018536
0.41182834 -0.09514451 0.062623501
0.39440233 0.21307445 0.2486372
0.40144834 0.31992644 0.13506365
0.39016134 0.17140645 0.22441244
0.39584035 0.31962442 0.13155651
0.39495033 0.041062474 0.1461072
0.39343134 0.082404435 0.17094326
0.40208733 0.39003247 0.029422283
0.40462434 -0.22221959 -0.012061596
0.41324535 0.58237648 -0.25376463
0.40599933 0.49956846 -0.13357258
0.39861533 -0.22198761 -0.011084557
0.38464835 0.0012714267 0.12384462
0.39068735 0.38948447 0.022193432
0.37575233 0.28072542 0.17622137
0.40137935 0.58199847 -0.26158237
0.38826135 0.42778444 -0.037480354
0.36771935 0.31810242 0.11398363
0.37249535 -0.15933454 0.029880524
0.35662335 0.13603443 0.20802546
0.35540634 0.17229247 0.22979021
0.35898235 0.27976143 0.16582727
0.36207834 0.31779546 0.11045742
0.37096635 0.42700547 -0.048525333
0.37416333 0.46627745 -0.10569668
0.37297234 -0.35110056 -0.08440876
0.36432734 -0.093517542 0.070222378
0.35081935 0.13618642 0.2089262
0.35338235 0.27943844 0.16235828
0.35992533 0.36106342 0.043460369
0.36260533 -0.22061658 -0.005241394
0.36251235 0.46578944 -0.11319351
0.35247633 -0.093120575 0.072113514
0.34015933 0.25297546 0.19305754
0.34851333 0.36048347 0.036272526
0.36232933 0.53827846 -0.2230196
0.35478434 -0.35034454 -0.081420422
0.33342135 0.13663948 0.21162558
0.33946234 0.31656247 0.096339226
0.32762435 0.13678944 0.21252251
0.32898235 0.25230342 0.18617344
0.33324435 -0.044982553 0.10346937
0.33176434 0.0028864741 0.13218832
0.33911633 0.38698643 -0.010476589
0.35046735 0.53785348 -0.23076057
0.32047233 0.21259445 0.2402463
0.32735333 -0.04479754 0.1044035
0.32468233 0.043123424 0.15714359
0.33335835 0.38670546 -0.014122486
0.34152433 0.49704745 -0.17532969
0.33266234 -0.21950459 -0.00039958954
0.32244235 0.31562942 0.085720539
0.31884134 0.043289423 0.15805864
0.33562833 0.49681446 -0.17914772
0.32484135 -0.15765357 0.037533283
0.31417635 0.0034094453 0.13495541
0.31300235 0.043454468 0.15897131
0.32451633 -0.3491075 -0.076459408
0.30831733 0.0035814643 0.13587666
0.30716333 0.043619454 0.15988445
0.32154635 0.46406445 -0.13953876
0.32381535 0.49634746 -0.18678856
0.31106335 -0.091760516 0.078703403
0.29867834 0.13752544 0.21700144
0.30839235 0.35843146 0.011018276
0.31294635 0.42436844 -0.08554554
0.29189235 0.17385048 0.2395854
0.30638233 -0.34837949 -0.073494434
0.29396433 0.31406045 0.067964554
0.28383735 0.044270456 0.16352844
0.29542735 0.42356545 -0.096712589
0.29430535 -0.34790051 -0.071522713
0.27555835 0.13810146 0.22057247
0.28957433 0.42329645 -0.10044241
0.28666234 -0.28626454 -0.033743382
0.27113035 0.085760474 0.19001532
0.28066233 -0.28604054 -0.032772541
0.26636335 0.044749439 0.16625357
0.27545834 0.38385946 -0.050741673
0.27466434 -0.2858175 -0.031802654
0.26146635 0.24820644 0.14465332
0.26866835 -0.28559554 -0.030832767
0.25568533 0.0050964355 0.14412546
0.25472334 0.045065463 0.16806555
0.26219735 0.35604447 -0.01802063
0.26844835 0.46180245 -0.1736474
0.27036434 0.49421945 -0.22135067
0.26102734 -0.21694553 0.011125565
0.25013635 0.24751246 0.13769436
0.24984734 0.0052604675 0.14503765
0.25163934 0.27349746 0.099434376
0.24890731 0.045222461 0.16897154
0.26251835 0.46154845 -0.17745447
0.26439434 0.49398044 -0.22520876
0.25668135 -0.28515458 -0.028897762
0.24401231 0.0054234266 0.14594841
0.24309333 0.045377433 0.16987467
0.23659232 0.20720243 0.18911743
0.23925231 -0.042135537 0.11828661
0.24234731 0.31119043 0.035826206
0.25243735 0.49350044 -0.23293257
0.22941732 0.13921946 0.2276783
0.23339532 -0.041965544 0.11920547
0.23234832 0.0057474375 0.1477704
0.23450832 0.27248245 0.088860512
0.24644934 0.49325946 -0.23680067
0.23872033 -0.28450251 -0.026001453
0.22365732 0.13935542 0.22856331
0.22753933 -0.041795552 0.12012339
0.22878432 0.27214247 0.085329533
0.22566132 0.045840442 0.17258358
0.23457932 0.38182747 -0.076560497
0.23127033 -0.2159245 0.01588726
0.21985532 0.045992434 0.17348433
0.21899633 0.087094426 0.19808626
0.22730732 0.35422343 -0.039927483
0.21401733 0.20573348 0.17538452
0.21601333 0.24541044 0.11675644
0.21486433 0.0062264204 0.15049744
0.21925732 0.30989444 0.021464348
0.22284733 0.38124043 -0.083966732
0.22681032 0.46001044 -0.2003665
0.21680133 -0.088826537 0.093610287
0.20639333 0.13976043 0.23121548
0.20998733 -0.041292548 0.12287331
0.20904133 0.0063844323 0.15140343
0.21158533 0.27111846 0.074721336
0.21347132 0.30956846 0.017869473
0.21563132 0.35361147 -0.047253609
0.22083732 0.45975146 -0.20419645
0.21344233 -0.21532452 0.018732548
0.20321833 0.006541431 0.15230942
0.20244732 0.046445429 0.17618465
0.20165333 0.087524474 0.20076323
0.21485732 0.45949244 -0.2080307
0.20882232 -0.28343856 -0.021194458
0.20505433 -0.088476539 0.095458508
0.19887432 0.24434847 0.10624743
0.19829433 -0.040962577 0.12470245
0.20887132 0.45923245 -0.21186972
0.19085233 0.046743453 0.17798042
0.19930832 0.38005942 -0.098814487
0.19799733 -0.3442415 -0.05589962
0.19331732 -0.088130593 0.097302437
0.18339932 0.14029145 0.2347455
0.18742132 0.24363643 0.099230289
0.18505733 0.046890438 0.17887831
0.19831632 0.49131045 -0.26787376
0.18745132 -0.087958574 0.098223209
0.17856133 0.17012745 0.20420361
0.18077232 -0.040472567 0.1274395
0.18599732 -0.34380555 -0.053964615
0.18271032 -0.15299857 0.060144424
0.18158732 -0.087788582 0.099144459
0.17191233 0.14055246 0.23650742
0.17347233 0.047183454 0.18066931
0.18045433 0.35175747 -0.069311619
0.17783733 -0.2141546 0.024400234
0.17572333 -0.087618589 0.10006332
0.16909832 -0.040151536 0.12926149
0.16768332 0.047328472 0.18156338
0.17884932 0.45792446 -0.23111057
0.16705333 -0.28199661 -0.014505386
0.15485832 0.14014846 0.23281527
0.15743433 -0.039832532 0.13107824
0.15930833 0.41721344 -0.18331575
0.15324533 -0.15210259 0.064791203
0.14457732 0.16778344 0.18372965
0.14714932 0.24111843 0.074575424
0.15586533 0.48957545 -0.2952528
0.14225933 0.26694947 0.032029629
0.14731832 0.41664445 -0.19092846
0.13559133 0.24039143 0.067506313
0.13770132 0.30526346 -0.029174805
0.13245232 0.089178443 0.21140957
0.13914232 0.34956044 -0.095189571
0.13807432 -0.34210956 -0.046265602
0.13530332 0.41607344 -0.19855738
0.12810633 0.37644643 -0.14367676
0.12708232 -0.42257857 -0.092661381
0.11566133 0.048600435 0.1895833
0.11519133 0.089575469 0.21405458
0.12106233 -0.42236054 -0.091691494
0.11795133 -0.15105855 0.070341587
0.11240433 0.23892742 0.053332329
0.11084633 -0.038594544 0.13831949
0.11539833 0.34828848 -0.11004877
0.11415934 -0.34128952 -0.042438507
0.11274533 -0.21210754 0.034705639
0.10659233 0.23855942 0.049782276
0.10453633 0.0090854764 0.16760063
0.098240331 0.13607246 0.1989646
0.10348833 0.34764844 -0.11749649
0.10221233 -0.34088755 -0.040530682
0.10160733 -0.2798425 -0.0040855408
0.094950333 0.23782045 0.042671204
0.092586331 0.049144447 0.19312859
0.099100329 0.41434246 -0.22152758
0.08685033 0.13524544 0.19216442
0.088231333 0.19740343 0.099080563
0.091554329 0.34700543 -0.12495947
0.081145331 0.13483143 0.18875933
0.083285332 0.23707843 0.035549641
0.081060335 0.049412429 0.19489622
0.086156331 0.37429142 -0.17006636
0.086982332 0.41376042 -0.22921181
0.076657332 0.19662547 0.092078209
0.077443331 0.23670542 0.031983376
0.079596333 0.34635943 -0.13243341
0.071934335 -0.27890754 0.0006146431
0.064372331 -0.037413538 0.14550924
0.069439329 0.45308644 -0.30112457
0.066418335 -0.33970749 -0.03483057
0.062666334 0.41258746 -0.24462461
0.059653331 -0.21052659 0.043057442
0.052950326 0.16137546 0.12866449
0.054015327 0.23520744 0.017691612
0.052771326 -0.037126541 0.14730024
0.054396328 0.26157343 -0.021938801
0.054957327 0.30048043 -0.08041954
0.053413328 -0.14923751 0.080434322
0.04679833 0.13232344 0.16827631
0.048490327 0.26120847 -0.025561333
0.050469328 0.41199744 -0.25235271
0.048228327 -0.27817953 0.0043563843
0.047557328 -0.14907861 0.081347466
0.047219329 -0.084119558 0.12008524
0.041789327 0.19426948 0.070999622
0.043036327 0.29978347 -0.08779335
0.043563329 0.34440243 -0.15494156
0.04435933 0.41170144 -0.25622368
0.041986328 -0.21001852 0.045826435
0.041396327 -0.083970547 0.12098742
0.03665733 0.26047546 -0.03281641
0.035847329 -0.14876151 0.083170414
0.03073233 0.26010746 -0.036446571
0.030982327 -0.41923356 -0.077253342
0.024593327 0.23331547 -0.00024175644
0.025109328 0.29873347 -0.098876476
0.025681328 0.37115145 -0.2080617
0.02499133 -0.4190346 -0.076299667
0.024337329 -0.20952058 0.048587322
0.01842333 0.19267946 0.056889534
0.018006328 -0.036287546 0.15265322
0.017882328 0.011130452 0.18091345
0.01829733 -0.14829457 0.085898399
0.012567329 0.19228047 0.05335331
0.013124329 0.29802942 -0.10628176
0.01203633 0.050949454 0.2054472
0.01336033 0.34275043 -0.17379045
0.0062973285 0.088635445 0.20575857
0.0070283292 -0.41844654 -0.073441505
0.0065043299 -0.083099604 0.12637663
0.00067132898 0.12892646 0.14081526
0.00094332919 0.23178548 -0.014643669
0.0011353297 -0.50645852 -0.12503958
-0.0050826706 0.15724945 0.093889236
-0.0048386706 0.34175044 -0.18514156
-0.0050466708 -0.2087096 0.053171635
-0.010920671 0.34141546 -0.18893337
-0.010920671 -0.33729553 -0.022599697
-0.010920671 -0.27643752 0.013650417
-0.010920671 -0.082675576 0.12906027
-0.01676267 0.15641242 0.086899281
-0.01670067 -0.035479546 0.15797949
-0.01667567 0.011896431 0.18619347
-0.01694767 0.29625446 -0.1248517
-0.017043671 0.36890948 -0.23486757
-0.01709567 0.40869945 -0.29511833
-0.016898671 -0.4176805 -0.069645405
-0.016944671 -0.50584459 -0.12215376
-0.022807671 0.23024148 -0.02909565
-0.02247867 -0.035348535 0.15886354
-0.022877671 0.25676048 -0.069275379
-0.022792671 -0.33694255 -0.020730495
-0.028525669 -0.20808053 0.056825638
-0.03472067 0.22946447 -0.036341667
-0.034131672 -0.082123518 0.13263035
-0.040686671 0.22907448 -0.039966583
-0.03980767 -0.034958541 0.16151524
-0.039684672 0.012390435 0.1897006
-0.039732672 0.085047424 0.17865324
-0.041028671 -0.50504458 -0.11831474
-0.046337672 0.18823445 0.017841339
-0.047181673 0.29445845 -0.14350462
-0.04530967 0.052145422 0.2141695
-0.046770673 -0.41675055 -0.064921379
-0.046118673 -0.20761859 0.059555531
-0.05129867 0.08414042 0.1718502
-0.051979672 -0.20746756 0.060463428
-0.057121672 -0.034576535 0.1641593
-0.063725673 0.15302747 0.058826447
-0.062890671 -0.034451544 0.16504049
-0.066274673 0.36630243 -0.26572037
-0.064298667 -0.33574152 -0.014222622
-0.063697666 -0.20716655 0.062277317
-0.070613667 0.22711146 -0.058149338
-0.070966668 0.25372642 -0.098676682
-0.069906667 -0.27480555 0.022856236
-0.069554672 -0.20701754 0.063184261
-0.07824067 0.33767945 -0.23086357
-0.074691668 -0.081193566 0.13884544
-0.082628667 0.22631943 -0.065443516
-0.080186665 -0.034079552 0.16767454
-0.083681665 0.29227644 -0.1660018
-0.085631669 0.01333946 0.19667959
-0.089789666 0.29190946 -0.16976357
-0.093899667 -0.33491755 -0.0095996857
-0.09296567 -0.20643353 0.066799641
-0.10070167 0.22512543 -0.076411724
-0.097471669 -0.033716559 0.17030334
-0.098340668 -0.14540553 0.10390043
-0.10112567 -0.50313556 -0.10878849
-0.10673866 0.22472543 -0.080074787
-0.10298067 0.048610449 0.18908548
-0.10365067 0.080007434 0.14110231
-0.10639567 -0.41498351 -0.055543423
-0.10712667 -0.50295258 -0.10784245
-0.11278167 0.22432446 -0.083738804
-0.11050867 -0.20600557 0.069503307
-0.10997166 -0.14513755 0.10568428
-0.11474467 -0.033360541 0.17292643
-0.11830367 -0.4146446 -0.053682804
-0.11635467 -0.2058655 0.07040453
-0.11518267 -0.08030653 0.14502525
-0.12385767 0.18283343 -0.028779507
-0.12657067 0.28969246 -0.1924057
-0.12041367 0.047174454 0.17893744
-0.12346367 -0.33412349 -0.0049996376
-0.12159867 -0.1448735 0.10746431
-0.12576167 0.014127433 0.20275021
-0.13166967 0.24985445 -0.13572359
-0.13272467 0.28931946 -0.19619179
-0.12623568 0.046693444 0.17554951
-0.13393468 0.33455044 -0.26549578
-0.13702467 0.22271246 -0.098433495
-0.14004068 0.11835545 0.057352543
-0.14638868 0.33384645 -0.27323151
-0.14210168 -0.41398156 -0.049964428
-0.14118567 -0.3336606 -0.0022506714
-0.13972168 -0.20531356 0.073994637
-0.14374268 0.045244455 0.1653676
-0.14978968 -0.5599606 -0.1358428
-0.15192868 0.11744845 0.050322533
-0.15060368 0.076262474 0.11358166
-0.15886867 0.33313942 -0.28098345
-0.16227168 0.24788445 -0.15437365
-0.16511968 0.33278447 -0.28486347
-0.15560468 -0.079464555 0.15117025
-0.16182667 -0.55959952 -0.13394737
-0.16107167 -0.50135958 -0.099362373
-0.16485767 0.14562744 -0.0014576912
-0.16025768 0.013813436 0.20125437
-0.16137467 -0.079348564 0.1520443
-0.17578368 0.11562145 0.036224365
-0.17304367 0.042808473 0.14834452
-0.17472968 -0.2045176 0.079356194
-0.18176368 0.11516243 0.03269434
-0.18423668 0.17856944 -0.065002441
-0.17797168 -0.032120526 0.18249035
-0.18369168 -0.41286957 -0.043496609
-0.18892567 0.14384443 -0.015769482
-0.19031067 0.17813742 -0.068642616
-0.18371168 -0.032012522 0.18335724
-0.18359467 0.011803448 0.18780231
-0.19648167 0.33099747 -0.30432749
-0.19099267 -0.50052059 -0.094686508
-0.19922267 0.24549145 -0.17686939
-0.19069968 0.041332424 0.13809633
-0.19221668 -0.20413256 0.082025528
-0.19790767 -0.55855155 -0.12828779
-0.20540467 0.24508947 -0.18063164
-0.19659768 0.04083842 0.13467646
-0.20149668 -0.41241157 -0.040738583
-0.19916368 -0.27159953 0.042809486
-0.20857468 0.17683643 -0.079583645
-0.20116368 0.01028347 0.17768431
-0.21778968 0.24428242 -0.18816376
-0.21335967 -0.41211152 -0.038903713
-0.21194768 -0.33191252 0.0086684227
-0.21088168 -0.27133453 0.044603348
-0.20969167 -0.20375657 0.084688663
-0.21592867 -0.55804658 -0.12547064
-0.21490468 -0.49987352 -0.09096241
-0.22272068 0.21695143 -0.15028763
-0.21290667 0.0092644691 0.17092657
-0.22587067 0.28362542 -0.25341463
-0.22689967 0.17552644 -0.090553761
-0.21878867 0.0087534785 0.1675415
-0.23435567 0.32882446 -0.32781267
-0.22685468 -0.4995575 -0.08910656
-0.23130068 0.14068443 -0.040940762
-0.23642167 0.24306446 -0.19949055
-0.22618167 0.03835243 0.11752653
-0.22961068 -0.33150053 0.011379242
-0.23738067 0.14022845 -0.044548512
-0.23914967 0.17464745 -0.097883701
-0.24469167 0.28246343 -0.26495743
-0.23994067 -0.55739057 -0.12172651
-0.25097966 0.28207344 -0.26881456
-0.24137868 -0.33123159 0.013183594
-0.24015668 -0.27068961 0.049073219
-0.23626567 -0.077912569 0.16335535
-0.24476668 -0.49909353 -0.08632946
-0.25986168 0.21442443 -0.17271757
-0.24828967 0.0061804652 0.15058422
-0.25484368 -0.41110158 -0.032511711
-0.25314367 -0.33096755 0.014982224
-0.25793666 -0.55691457 -0.11893272
-0.26607567 0.21400046 -0.17646742
-0.26076367 -0.41096151 -0.031601429
-0.26989666 0.17243344 -0.11626673
-0.26013365 0.0051434636 0.14378166
-0.27852565 0.21314847 -0.18397951
-0.26395965 -0.030625522 0.19520426
-0.27260265 -0.41068649 -0.029785633
-0.27226567 -0.14179254 0.13033152
-0.28253266 -0.33032751 0.019465446
-0.28652266 -0.49805558 -0.079882622
-0.29053065 0.10671645 -0.031404495
-0.28529665 -0.20223451 0.096149445
-0.28382167 -0.14158154 0.13206959
-0.29663667 0.10623747 -0.034994602
-0.30218166 -0.41001952 -0.025257587
-0.29691166 -0.20201552 0.097900391
-0.31604967 0.21056944 -0.20660067
-0.31789866 0.23769045 -0.24894953
-0.30385965 0.031755447 0.07260561
-0.31035766 -0.4974916 -0.076220512
-0.31400365 -0.40976155 -0.023454666
-0.31631267 -0.49735355 -0.075306416
-0.32568166 0.16838545 -0.14956856
-0.31124565 -0.034949541 0.16832542
-0.33338767 0.27693045 -0.31927872
-0.31590867 0.030723453 0.065651417
-0.31776267 -0.32959557 0.024819374
-0.32226765 -0.49721658 -0.074393749
-0.33342165 0.10333747 -0.056607723
-0.33034065 0.06160146 0.0087256432
-0.32592967 -0.20148456 0.10226727
-0.32423866 -0.14087558 0.13813162
-0.32244065 -0.076442599 0.17625952
-0.33579466 -0.5549885 -0.10691643
-0.34751767 0.20839345 -0.2255497
-0.35258365 0.27572143 -0.33101749
-0.33172965 -0.20138252 0.10313749
-0.34012565 -0.49681461 -0.071661472
-0.35065967 0.16655844 -0.16446066
-0.35383266 0.20795542 -0.22935057
-0.34354365 -0.40913653 -0.018959522
-0.34122866 -0.32913053 0.028372288
-0.33391166 -0.07626152 0.1779685
-0.34775567 -0.55471253 -0.10508156
-0.35190666 0.10187346 -0.067457676
-0.34100965 -0.037691534 0.15143633
-0.34944767 -0.40901554 -0.018062592
-0.35202566 -0.49655354 -0.069843769
-0.36043066 0.13089848 -0.11740351
-0.35971367 -0.55444157 -0.10325146
-0.35797566 -0.49642456 -0.068936348
-0.35829267 0.027075469 0.041213512
-0.35307667 -0.14039958 0.14243937
-0.37916866 0.20619243 -0.24459076
-0.36437467 0.026549459 0.03771162
-0.36467865 -0.3286835 0.031911373
-0.36071765 -0.2008816 0.10748243
-0.35884067 -0.14030755 0.14330053
-0.35684466 -0.075910568 0.18137836
-0.38552165 0.20574945 -0.2484107
-0.36651167 -0.20078456 0.10834932
-0.37581366 -0.49604559 -0.06622076
-0.38834265 0.16378844 -0.18690443
-0.39420566 0.23258644 -0.29516172
-0.37928766 0.057522476 -0.01969862
-0.36830467 -0.075739503 0.18308353
-0.38543767 0.057007432 -0.023265362
-0.39208066 -0.63037658 -0.14396334
-0.38770267 -0.49579954 -0.064415455
-0.38295567 -0.041581571 0.12767553
-0.39075467 -0.40819955 -0.01181078
-0.39556065 -0.55366254 -0.097783566
-0.39364466 -0.49567854 -0.063513756
-0.40151265 0.097919464 -0.09653759
-0.40153167 -0.55353761 -0.096876621
-0.39958665 -0.49555957 -0.062612534
-0.40774465 0.097420454 -0.10018635
-0.40392765 0.055454433 -0.033986568
-0.39547166 -0.20031452 0.11267138
-0.39340866 -0.13977253 0.14844465
-0.41994765 0.16145045 -0.20570564
-0.42379266 0.20306844 -0.2714057
-0.42023367 0.09641844 -0.1074996
-0.43019965 0.20261842 -0.27525234
-0.41153267 -0.32784355 0.038953304
-0.40492567 -0.13960159 0.15015364
-0.41311765 -0.044398546 0.11061621
-0.41651165 -0.0087695718 0.054303646
-0.41942167 0.021762431 0.0060453415
-0.42023066 -0.4076525 -0.007370472
-0.41283765 -0.20004451 0.11525536
-0.44303167 0.20171446 -0.28295469
-0.42105567 -0.26728857 0.076351643
-0.43901765 0.094907463 -0.11848736
-0.44536567 0.15956044 -0.2208128
-0.42183667 -0.080072522 0.15843821
-0.43733966 -0.5528146 -0.0914464
-0.44097665 -0.010982573 0.040361404
-0.43851465 -0.26701355 0.078951359
-0.47160468 0.22733945 -0.34192753
-0.45557266 -0.40703654 -0.0020694733
-0.46415365 -0.62886453 -0.13300371
-0.45895365 -0.4944315 -0.053654671
-0.45939666 -0.012655556 0.029873371
-0.47227567 0.049673438 -0.073547363
-0.46178067 -0.2666626 0.082409382
-0.48633566 0.12113547 -0.19162273
-0.49467266 0.19805747 -0.3139205
-0.47323266 -0.4067446 0.00056934357
-0.47395065 -0.050124526 0.076284409
-0.47788167 -0.014339566 0.019356251
-0.48125067 0.016329467 -0.029435635
-0.49016166 -0.67775154 -0.15849161
-0.47014266 -0.084783554 0.13142157
-0.47621167 -0.085377574 0.12803221
-0.50211269 0.08979547 -0.15534878
-0.50944066 0.15476042 -0.2588377
-0.48222566 -0.19905353 0.12553263
-0.50220668 -0.67752254 -0.15667248
-0.48228866 -0.085973501 0.12463856
-0.51187366 0.11912942 -0.20663738
-0.49642965 -0.016034544 0.0088114738
-0.48544565 -0.13851154 0.16204357
-0.50290966 -0.55161452 -0.081578732
-0.52720171 0.19573742 -0.33340263
-0.50262666 -0.016602576 0.0052895546
-0.50618267 0.014122427 -0.043715477
-0.50992465 0.046458423 -0.095293522
-0.49665666 -0.26616657 0.087573528
-0.49377865 -0.19890261 0.12723541
-0.5088647 -0.55151355 -0.080686569
-0.50883067 -0.017170548 0.0017662048
-0.52412367 -0.62776053 -0.12397337
-0.51694769 -0.05420959 0.052074432
-0.52884966 0.044835448 -0.10621357
-0.52416366 -0.49333954 -0.043899536
-0.53123069 0.011895478 -0.058051586
-0.53831971 -0.67687154 -0.15124464
-0.53610867 -0.62755656 -0.12217855
-0.5415017 0.043746471 -0.1135087
-0.52569968 -0.26578259 0.09185648
-0.55312568 0.085621476 -0.18508959
-0.56125367 0.15084147 -0.28953075
-0.5480907 -0.6273576 -0.12038755
-0.5311417 -0.090789557 0.09739542
-0.55953771 0.085094452 -0.18882465
-0.5563677 -0.67656553 -0.14854145
-0.55408168 -0.62726057 -0.11949253
-0.56595671 0.084565461 -0.19256163
-0.56978267 0.11454844 -0.24063778
-0.57966167 0.19196945 -0.36478376
-0.54787171 -0.057165504 0.034691334
-0.54968369 -0.40560257 0.011921406
-0.54342669 -0.092006564 0.090554237
-0.55377567 -0.49289358 -0.039501667
-0.54573768 -0.19827056 0.13486433
-0.56839567 -0.67636859 -0.14674664
-0.57326669 0.041004419 -0.13180971
-0.5720467 -0.62697756 -0.11681652
-0.56651169 -0.05895555 0.024225235
-0.57126969 -0.022929549 -0.033652782
-0.58042067 -0.6761775 -0.14495468
-0.58384669 -0.024097562 -0.04077673
-0.5880217 0.0068104267 -0.090497494
-0.5924167 0.039343476 -0.14283371
-0.59244472 -0.67599356 -0.14316654
-0.58521771 -0.060757518 0.013729572
-0.57793868 -0.26515758 0.099519253
-0.59599268 -0.62662053 -0.11326265
-0.58044666 -0.095690608 0.069963455
-0.61110371 0.080834448 -0.21882534
-0.61525869 0.11092043 -0.26729059
-0.60072368 0.005667448 -0.097745419
-0.60197771 -0.62653458 -0.11237574
-0.59520566 -0.49232352 -0.033378601
-0.60708767 0.0050934553 -0.10137463
-0.59261167 -0.32526255 0.065767288
-0.60112268 -0.49224758 -0.03250742
-0.61805671 0.037112474 -0.15757942
-0.61648369 -0.67564058 -0.1395998
-0.59244967 -0.14434958 0.13510847
-0.61026168 -0.063178539 -0.00030851364
-0.59764671 -0.19771957 0.14243937
-0.62249172 -0.67555654 -0.13871145
-0.5985927 -0.14499259 0.13174152
-0.64653766 0.14431745 -0.33994055
-0.62175167 -0.027630568 -0.062221527
-0.60693872 -0.26484656 0.10375357
-0.6219027 -0.54984558 -0.06391573
-0.6188677 -0.49202657 -0.029899597
-0.6345067 -0.67539155 -0.13693666
-0.62478071 -0.49195457 -0.029031754
-0.62175971 -0.32494557 0.070026398
-0.64051467 -0.67531157 -0.1360507
-0.63542372 -0.065621495 -0.014397621
-0.65136868 -0.76495159 -0.18792772
-0.64652067 -0.67523253 -0.13516474
-0.64385867 -0.62597358 -0.1061945
-0.6232357 -0.14757955 0.11823654
-0.66771269 0.10670245 -0.29798555
-0.6471737 -0.030012548 -0.07658577
-0.63776368 -0.40453351 0.02485323
-0.64363068 -0.40447152 0.025709629
-0.67627269 0.075400472 -0.25666571
-0.65993071 -0.031211555 -0.083787441
-0.6697107 0.032588422 -0.18724442
-0.66453671 -0.67500556 -0.13251352
-0.64179367 -0.14953554 0.10807753
-0.65434569 -0.49161756 -0.024704456
-0.69303167 0.14072442 -0.36736774
-0.65536571 -0.40435159 0.027418613
-0.65089667 -0.32465756 0.074264526
-0.64951468 -0.19724751 0.14996147
-0.71308172 0.13916743 -0.37918043
-0.6649037 -0.26430559 0.11216736
-0.68855071 -0.67472255 -0.12899351
-0.66663671 -0.1521616 0.094493389
-0.68610668 -0.070572495 -0.042728424
-0.69195569 -0.034232557 -0.10185242
-0.68725568 -0.54909849 -0.054347515
-0.68389767 -0.49131155 -0.020395756
-0.68469369 -0.40407252 0.03167963
-0.70055568 -0.67458951 -0.1272397
-0.69319469 -0.54903853 -0.053482533
-0.72236872 0.071523428 -0.28337955
-0.67831469 -0.19701958 0.15411949
-0.69913167 -0.54897952 -0.05261755
-0.72186869 0.027983427 -0.21714163
-0.71790868 -0.76413357 -0.17815256
-0.71255869 -0.67446256 -0.12548542
-0.7356137 0.07040447 -0.29104853
-0.69387269 -0.26407361 0.11634922
-0.7155987 -0.62517154 -0.095702648
-0.70573866 -0.10833061 0.00052928925
-0.70331568 -0.32420754 0.081850529
-0.71694469 -0.54881251 -0.050032616
-0.71401268 -0.40382254 0.03592062
-0.70545566 -0.26398754 0.1180172
-0.71934569 -0.49098659 -0.015253544
-0.74814171 0.025649428 -0.23217964
-0.71987468 -0.40377653 0.036765575
-0.73727667 -0.075612545 -0.071269512
-0.72573668 -0.40373158 0.037611485
-0.74813771 -0.76382256 -0.17374754
-0.73949867 -0.6249485 -0.092233658
-0.7688697 0.067583442 -0.31028652
-0.77419668 0.098034441 -0.36013365
-0.75009269 -0.039755523 -0.13458776
-0.72283071 -0.2638675 0.12051344
-0.73752868 -0.11157858 -0.017024517
-0.73242468 -0.32399559 0.086039543
-0.73556566 -0.15950656 0.05688858
-0.78765768 0.096928477 -0.36797476
-0.75659472 -0.077525496 -0.082029343
-0.74332267 -0.4036026 0.04014349
-0.74187666 -0.16018355 0.053452492
-0.76961267 -0.041621566 -0.14556074
-0.80115569 0.095817447 -0.37583351
-0.78181869 -0.010897577 -0.20068073
-0.75297767 -0.20531654 0.11390352
-0.78131467 -0.62461257 -0.086196423
-0.81578171 0.063581467 -0.33738852
-0.79575467 -0.044128537 -0.16024256
-0.80773771 0.020320475 -0.26623869
-0.79054868 -0.67377961 -0.11419344
-0.78223068 -0.5482986 -0.040613651
-0.8081997 -0.013349533 -0.21561575
-0.7784847 -0.40337753 0.045184612
-0.78879172 -0.1168505 -0.045279503
-0.82926267 0.062426448 -0.3451705
-0.77493668 -0.26356351 0.12796926
-0.82775366 0.018519461 -0.27766275
-0.7902047 -0.40331161 0.046860218
-0.7844007 -0.20883954 0.09702158
-0.82807368 -0.015203536 -0.22685862
-0.79606366 -0.4032805 0.04769659
-0.81453669 -0.6736176 -0.11074877
-0.80201769 -0.49040461 -0.0033664703
-0.8286137 -0.04729557 -0.17867851
-0.83471471 -0.015824556 -0.23061275
-0.80192268 -0.40325058 0.04853344
-0.81714571 -0.62437856 -0.081056595
-0.80540168 -0.16703153 0.018913269
-0.83521169 -0.047932506 -0.18237638
-0.79808968 -0.26345456 0.13126659
-0.80334568 -0.21097159 0.086857319
-0.81782967 -0.54808557 -0.035516739
-0.8237617 -0.54805458 -0.034671783
-0.85468972 -0.017694533 -0.2419014
-0.81949967 -0.40316761 0.051035404
-0.83406067 -0.1215415 -0.070180416
-0.84768671 -0.086624503 -0.13264656
-0.8223567 -0.21311653 0.076667309
-0.83562571 -0.54799652 -0.032979488
-0.8747527 0.014270425 -0.30445147
-0.83707571 -0.4030956 0.053531647
-0.83135068 -0.32348251 0.1001544
-0.84333867 -0.4902066 0.0025196075
-0.85033071 -0.17191553 -0.0054516792
-0.86663467 -0.12493658 -0.088065624
-0.8882817 -0.053083539 -0.2120924
-0.86323667 -0.17332458 -0.012442589
-0.86528468 -0.54787552 -0.028767586
-0.89495271 -0.053734541 -0.2158227
-0.85078269 -0.26416051 0.13381338
-0.86058772 -0.21745157 0.056203365
-0.9083277 -0.02274555 -0.27217054
-0.87617671 -0.17474055 -0.019444466
-0.87714869 -0.54783654 -0.027087688
-0.9004547 -0.091952562 -0.16188049
-0.90832269 -0.055039525 -0.22329855
-0.86976367 -0.26640952 0.12380266
-0.87980866 -0.21963954 0.045930386
-0.89055568 -0.49005651 0.0091996193
-0.92038071 -0.093975544 -0.17290354
-0.88370669 -0.32334054 0.10754728
-0.89645869 -0.49004352 0.010031223
-0.89565367 -0.40293157 0.061806202
-0.90826172 -0.49002051 0.011692524
-0.95571071 -0.027239561 -0.2988615
-0.90736771 -0.40291357 0.063453197
-0.91322571 -0.40290558 0.064274311
-0.9200657 -0.49000359 0.01335144
-0.96213967 -0.060319543 -0.25334835
-0.91431969 -0.27171552 0.10033941
-0.9249317 -0.22480357 0.021850586
-0.96716666 -0.098748565 -0.1987505
-0.99067169 0.0036674738 -0.37033939
-0.94791371 -0.18263853 -0.058198452
-0.96106368 -0.1840955 -0.06528759
-0.99605769 -0.063668609 -0.27225447
-0.94837368 -0.4028846 0.069193363
-0.95740068 -0.22854054 0.0045542717
-1.0008427 -0.10220361 -0.21732569
-0.95925468 -0.27710354 0.076730251
-0.99228668 -0.13818753 -0.1568265
-1.0165126 -0.065695524 -0.28364563
-1.0211546 -0.10429549 -0.22851658
-1.0007097 -0.18850458 -0.086638451
-1.0448627 -0.035776556 -0.34895658
-1.0517837 -0.036443532 -0.35283947
-1.0600727 -0.0027635694 -0.40966272
-0.98260367 -0.32331359 0.12136841
-1.0045797 -0.28257358 0.052971363
-1.0229487 -0.23613751 -0.030278683
