# .PCD v0.7 - Point Cloud Data file format
VERSION 0.7
FIELDS x y z
SIZE 4 4 4
TYPE F F F
COUNT 1 1 1
WIDTH 1
HEIGHT 1024
VIEWPOINT 0 0 0 1 0 0 0
POINTS 1024
DATA ascii
0.71015865 0.2918452 -0.81222963
0.70115364 0.22567421 -0.93191147
0.67839068 0.29779416 -0.74752331
0.67651266 0.23841816 -0.80051041
0.67157668 0.29819816 -0.74352837
0.65334469 0.25001621 -0.68096733
0.66220367 0.32795018 -0.78537035
0.64446867 0.25289416 -0.65156841
0.65536469 0.32833719 -0.78132963
0.67218369 0.12855417 -1.0618763
0.66575569 0.12820816 -1.0656567
0.63107264 0.25374216 -0.6437974
0.62438667 0.25416416 -0.63991928
0.61791867 0.20678121 -0.6386447
0.61770964 0.25458616 -0.6360445
0.60696965 0.21274418 -0.5810585
0.61103767 0.25500619 -0.63217258
0.62130469 0.3302542 -0.76118946
0.62694365 0.37158418 -0.83204842
0.60952067 0.16829818 -0.69366932
0.60437566 0.25542617 -0.62830544
0.61062866 0.30179417 -0.70775652
0.61982864 0.092936158 -0.90850067
0.58777368 0.18083417 -0.57766151
0.59107667 0.25626218 -0.62058449
0.59420568 0.33177316 -0.74515343
0.59274966 0.37337017 -0.81160259
0.59285867 0.049420178 -0.9006896
0.57548565 0.12072617 -0.66690731
0.55952364 0.21766418 -0.53646231
0.57396966 0.33290219 -0.73317051
0.55437064 0.1339612 -0.55182028
0.58731365 0.4067452 -1.0058465
0.54644865 0.21852916 -0.52893972
0.57994765 0.40746319 -0.9962697
0.54944867 0.078567207 -0.65970564
0.53664267 0.19176316 -0.4788475
0.57241666 0.4083662 -0.98409653
0.57329267 0.44644117 -0.99647141
0.53903168 0.085558176 -0.6018877
0.52524966 0.15088218 -0.40478563
0.54368263 0.30570418 -0.66839933
0.55697769 0.41736919 -0.85852432
0.56533569 0.44769418 -0.97804356
0.52877563 0.092447162 -0.54491043
0.51885062 0.15134418 -0.40116549
0.53169668 0.03899318 -0.67973852
0.53650469 0.41834921 -0.84613848
0.49969563 0.15272218 -0.39032459
0.50434864 0.19396818 -0.46037769
0.54585665 -0.11249977 -1.0853076
0.51712763 0.30724317 -0.65276527
0.52969766 0.41867518 -0.84201956
0.50127965 0.060626209 -0.50806236
0.49791265 0.1944052 -0.45669556
0.50538868 0.26160616 -0.57075834
0.51050866 0.30762517 -0.64886856
0.51825166 0.3772282 -0.7670064
0.53034663 0.44959921 -0.95153761
0.48317865 0.11912715 -0.32457829
0.49148363 0.19484216 -0.45301437
0.51152867 0.37757319 -0.76297665
0.51610768 0.41932321 -0.83379364
0.48799065 0.22237116 -0.49526644
0.51823765 0.49658418 -0.96943045
0.47227663 0.08124119 -0.34441471
0.51729268 -0.15115684 -1.0599217
0.48153365 0.22279316 -0.49154234
0.48579964 0.2628172 -0.55935049
0.49069664 0.3087672 -0.63719845
0.49374264 0.33734316 -0.68560743
0.50254965 0.41996819 -0.82558346
0.46290663 0.087899208 -0.29154968
0.47508264 0.22321421 -0.48782349
0.49272662 -0.068946779 -0.77222061
0.48410863 0.30914617 -0.63331461
0.48261964 -0.060664833 -0.71267128
0.48048362 0.33807117 -0.67773771
0.44876865 0.092248201 -0.25750732
0.46627963 0.26401919 -0.54797554
0.47267663 -0.052517831 -0.65408564
0.47095662 0.30990219 -0.62556171
0.47386563 0.33843416 -0.67380857
0.49193063 0.49644119 -0.97346544
0.44548064 0.1219362 -0.30340147
0.45978662 0.26441818 -0.54419136
0.46439064 0.31027818 -0.62168932
0.47135362 0.37963217 -0.73889065
0.46551263 -0.1061998 -0.74901247
0.45326063 -0.036613822 -0.53969765
0.44126365 0.031501174 -0.33474827
0.45783365 0.31065321 -0.61782265
0.45566064 -0.097649872 -0.68986559
0.45128465 0.31102818 -0.61395931
0.47186163 0.49666917 -0.97082853
0.43395063 0.19873017 -0.42004728
0.46050364 -0.17511779 -0.88765049
0.43444964 -0.021202803 -0.42883873
0.44474262 0.3114022 -0.61009932
0.42759264 0.19915718 -0.41639948
0.44864362 0.42251921 -0.7929244
0.41155764 0.095103204 -0.23673773
0.42124364 0.19958317 -0.4127574
0.43168062 0.3121472 -0.60239172
0.43431765 0.34059316 -0.65031433
0.40537962 0.095575154 -0.23328638
0.41116562 0.15902919 -0.3401227
0.42775363 0.34095019 -0.64641333
0.43146563 0.38166118 -0.71495342
0.44494063 -0.23523277 -0.96375036
0.40869662 -0.056901872 -0.40790462
0.41098362 0.22737217 -0.45081139
0.39854065 0.0081951618 -0.21730232
0.39551362 0.0548352 -0.16049242
0.41864964 0.31288821 -0.59469938
0.42856362 0.42346317 -0.78074837
0.39304462 0.096516192 -0.22639227
0.39863265 0.1599142 -0.33300066
0.41213062 -0.13023978 -0.5905695
0.40812063 0.26757717 -0.51404667
0.42518064 -0.21567482 -0.83957243
0.39237463 0.16035521 -0.32944441
0.39824963 0.22819316 -0.44345045
0.40169364 0.26796818 -0.51029348
0.38138863 0.022231162 -0.11627531
0.40810663 0.34201717 -0.63472939
0.41815662 0.45807418 -0.82976246
0.38960463 0.2016992 -0.39459229
0.40855163 0.42440116 -0.76861048
0.39267763 0.31436116 -0.57935858
0.39504763 0.34272319 -0.62696266
0.39673263 -0.18752784 -0.66081953
0.36845464 0.098386168 -0.21263933
0.37083864 0.12744218 -0.26137972
0.37699965 0.20253921 -0.38734961
0.37920463 0.22941619 -0.43243361
0.38246262 0.26913518 -0.49905729
0.39185864 0.38366318 -0.69116259
0.36741662 0.1621092 -0.31525373
0.36746565 -0.088823855 -0.31627131
0.35694763 -0.012038827 -0.097301483
0.37286863 0.22982317 -0.42876768
0.37606564 0.2695232 -0.49531937
0.38201663 0.34342718 -0.61920738
0.38861164 0.42533219 -0.7565074
0.37851864 -0.16951185 -0.54638052
0.36967662 0.2699092 -0.4915843
0.35295263 0.058226168 -0.13693953
0.38198063 0.42564118 -0.75248337
0.38465863 0.45953718 -0.80926752
0.35497963 0.1629802 -0.30817652
0.34215865 -0.0024648309 -0.031167507
0.36329564 0.27029419 -0.48785543
0.35187063 0.20420718 -0.37290049
0.33620563 -0.001960814 -0.027920723
0.35692164 0.27067918 -0.48412752
0.37131563 0.46011817 -0.80110168
0.33786663 0.1007002 -0.19551134
0.33413064 -0.057935774 -0.11161661
0.36465564 0.4604072 -0.79702473
0.35796863 -0.24889678 -0.64688635
0.34419262 0.27144617 -0.47668171
0.35553363 0.42687017 -0.73642254
0.32774663 0.13058621 -0.23706245
0.33018562 0.16471016 -0.29405737
0.31819364 -0.043175817 -0.01378727
0.33501163 0.23223919 -0.40684366
0.32274663 0.060616195 -0.12019873
0.34108764 0.31726718 -0.54885244
0.34894162 0.42717516 -0.73241758
0.31959262 0.10207516 -0.1852684
0.31040064 -0.03595984 0.034047604
0.31453463 0.029780209 -0.064593315
0.31672463 0.061091185 -0.11685753
0.31782964 0.16556919 -0.28701735
0.30415964 -0.034116805 0.04609251
0.30653262 0.00054419041 -0.011726379
0.31070963 0.061564207 -0.11351967
0.33296165 0.3866142 -0.65574455
0.33809263 0.46155718 -0.78075838
0.34100863 0.50416315 -0.85182953
0.32339463 -0.21164078 -0.42261839
0.31109065 -0.10286087 -0.12279558
0.30937862 0.13191819 -0.22668552
0.31166065 0.16599816 -0.28350067
0.31617564 0.23343515 -0.39592743
0.31882262 0.27296919 -0.46183252
0.30469963 0.06203717 -0.11018467
0.32186064 0.31834316 -0.53747368
0.32645363 0.38693815 -0.65182829
0.30326962 0.13236016 -0.22323227
0.30816165 0.2070902 -0.34774065
0.29664963 0.031237185 -0.054746628
0.29869664 0.062509179 -0.10685062
0.33057463 0.54949117 -0.91819954
0.31546763 0.31869918 -0.5336895
0.31995565 0.38726121 -0.64791536
0.31846863 -0.30161279 -0.61007547
0.30690062 -0.19387585 -0.3156476
0.29546863 -0.087430775 -0.024688721
0.29934564 0.16685116 -0.27647829
0.30618164 0.27372521 -0.45442963
0.31088364 0.34723818 -0.57682943
0.29319763 0.1672762 -0.27297068
0.29573563 0.20790517 -0.34058046
0.29740465 0.23462319 -0.38504028
0.30270162 0.31941116 -0.52612734
0.30954763 0.42899317 -0.70847464
0.29090363 -0.17664284 -0.21186256
0.28498164 0.13368016 -0.21288967
0.29116163 0.23501718 -0.3814187
0.27882263 0.032683194 -0.04492569
0.31038162 0.55020416 -0.90557146
0.30050364 0.38822716 -0.63620329
0.30300865 0.42929316 -0.70449734
0.28308463 -0.16822487 -0.16115952
0.28091964 0.1681242 -0.26596355
0.28333566 0.20871717 -0.33343267
0.27112663 0.0035122037 0.0076284409
0.28492364 0.23541117 -0.3777976
0.27474865 0.064385176 -0.093545437
0.29163665 0.34826118 -0.56535149
0.29647464 0.42959321 -0.70052338
0.30100465 0.50573516 -0.82706928
0.28529564 -0.26295882 -0.38820171
0.27538064 -0.15993184 -0.11119938
0.27114666 0.10569918 -0.15807533
0.27282065 0.13455617 -0.20600748
0.27869365 0.23580319 -0.37418032
0.26877764 0.064851165 -0.09022665
0.27732065 -0.25367087 -0.33487272
0.26675063 0.13499218 -0.20257044
0.26867065 0.1689682 -0.25897264
0.27096364 0.20952517 -0.32629728
0.25742266 -0.030058801 0.071414471
0.26104963 0.034121156 -0.035124302
0.27884263 0.34893817 -0.55771637
0.28111663 0.3891862 -0.62452459
0.28773364 0.5062542 -0.81885052
0.25553164 -0.063504875 0.12693548
0.26842165 0.2759732 -0.43229866
0.25513765 0.034597158 -0.031862736
0.28110963 0.50651217 -0.81475067
0.25308463 0.10704118 -0.14792252
0.25462863 0.13586116 -0.19570637
0.24923065 0.035073161 -0.0286026
0.25090066 0.066244185 -0.080281734
0.26822865 0.38982117 -0.61675739
0.27449065 0.50677019 -0.81065035
0.25410864 -0.22663683 -0.17962646
0.23999365 -0.02855581 0.080873489
0.27020365 0.55161518 -0.88043356
0.25970265 0.34994918 -0.5462904
0.23825365 -0.061962783 0.13623047
0.24424966 0.17064416 -0.24501944
0.23594165 0.0064411759 0.026895523
0.24764465 0.23775119 -0.35614538
0.23901466 0.067168176 -0.073666573
0.26353565 0.55184817 -0.87625933
0.25333765 0.35028517 -0.54248953
0.23250665 -0.061451852 0.13932467
0.22840466 -0.027558804 0.087168694
0.25854465 0.58607221 -0.92834234
0.25468764 0.50754023 -0.79838133
0.23192064 -0.20080978 -0.03126955
0.22676565 -0.060941875 0.14241648
0.22909366 0.10881716 -0.13442469
0.23400564 0.21192718 -0.30496454
0.22261965 -0.027062833 0.090312481
0.22426166 0.0074091554 0.033299446
0.23714565 0.2778222 -0.41394854
0.22566965 0.036966205 -0.015588284
0.22715265 0.068087161 -0.067060471
0.23321065 -0.30541676 -0.27736759
0.22786765 0.2123242 -0.3014183
0.23090865 0.2781902 -0.41028643
0.23956965 0.46577519 -0.7203455
0.23355065 -0.40361077 -0.50484467
0.21713366 0.10969818 -0.1276927
0.21841864 0.13844621 -0.17518044
0.21260364 0.0083721876 0.039694309
0.21392465 0.037907183 -0.0090956688
0.23845565 0.58671218 -0.91566753
0.23306166 0.46605119 -0.71635056
0.23495065 0.50830519 -0.7861495
0.20758066 -0.10401279 0.22534943
0.20529665 -0.025578797 0.099732399
0.21676365 0.2396782 -0.3381896
0.20806165 0.038375199 -0.005853653
0.22161765 0.35195017 -0.52353859
0.22334965 0.39202219 -0.58969164
0.22656165 0.46632719 -0.71235943
0.20385565 -0.05891186 0.15476036
0.20097165 0.0093311667 0.046079636
0.21867165 0.43313617 -0.65315866
0.22183165 0.50881219 -0.77801657
0.21080065 -0.37255079 -0.34220552
0.20404765 -0.26846284 -0.075437546
0.19814265 -0.05840677 0.15784359
0.20176065 0.17354119 -0.22071457
0.20338765 0.21390319 -0.28726959
0.20603664 0.27965117 -0.39567852
0.21358165 0.4668752 -0.70439053
0.21528165 0.50906515 -0.77395439
0.19033866 -0.15244979 0.24666262
0.19063865 -0.10244983 0.23437834
0.19328965 0.1114502 -0.11425638
0.19050665 0.039774179 0.0038604736
0.19171165 0.070820212 -0.047299385
0.20158266 0.32498616 -0.46614265
0.20422165 0.39295417 -0.57814741
0.20580465 0.43371719 -0.64531851
0.18374665 -0.14478785 0.29071236
0.18841664 0.1405732 -0.15815067
0.20512965 0.58776915 -0.89463329
0.18327765 -0.24216276 0.068326473
0.18103665 -0.056898773 0.16707563
0.19848865 0.5879792 -0.89044046
0.18906765 0.32566816 -0.45870543
0.17229365 -0.14139181 0.31004238
0.17374864 -0.10089785 0.24339151
0.17762364 0.1751762 -0.20689058
0.18127365 0.2810992 -0.38112259
0.19185466 0.58818817 -0.88625145
0.18282065 0.3260082 -0.45499468
0.18656164 0.43458319 -0.63358736
0.18771265 0.46796519 -0.68849754
0.17511564 -0.3238588 -0.087134361
0.16812865 -0.10038179 0.24639034
0.17509764 0.2814582 -0.37749147
0.18411165 0.55460417 -0.82651234
0.18264964 0.51031816 -0.75371265
0.16362464 0.11361718 -0.097520351
0.16686165 0.21624619 -0.26613474
0.16043966 0.012655199 0.068356514
0.16893065 0.2818172 -0.3738637
0.17248465 0.39449418 -0.55897951
0.15694064 -0.20883578 0.25057459
0.15690565 -0.099354804 0.25238657
0.15958564 0.1763922 -0.19654942
0.16079664 0.2166332 -0.2626214
0.16615865 0.39480019 -0.55515671
0.16738164 0.43544316 -0.62188959
0.16114965 -0.43270177 -0.28186274
0.15130265 -0.0988428 0.25537968
0.15358664 0.1767962 -0.19310951
0.14792964 -0.020705819 0.13098764
0.14891164 0.013595164 0.074700356
0.14975365 0.043003201 0.026444435
0.16316065 0.51106417 -0.74161768
0.14454764 -0.13875586 0.32470751
0.14697765 -0.053913772 0.1854825
0.14868465 0.2174052 -0.2556057
0.14222264 -0.020223796 0.13410234
0.15168364 0.32769716 -0.43647861
0.15462965 0.43601316 -0.61410952
0.13901365 -0.13823181 0.32763529
0.14000064 0.11533421 -0.084178448
0.14160365 0.1776002 -0.18623447
0.13895865 0.074852169 -0.017828465
0.13348565 -0.1377098 0.33056355
0.13312665 0.075294197 -0.014566422
0.14480765 0.55595315 -0.80187273
0.13409765 -0.39209276 -0.080001354
0.12690765 -0.18064576 0.40467072
0.12894465 -0.096806824 0.26734066
0.12592365 0.01546216 0.087364674
0.13462965 0.3963182 -0.53609562
0.13631664 0.47011417 -0.6568985
0.13727465 0.5120492 -0.72554445
0.12145364 -0.18011087 0.40752649
0.12234765 0.11661118 -0.07420063
0.12295964 0.1451692 -0.12092257
0.12148164 0.07617718 -0.0080485344
0.12749265 0.35683221 -0.46720552
0.11779864 -0.095794857 0.27330828
0.11874865 -0.051455796 0.20076752
0.11771564 0.17919916 -0.17251968
0.12071565 0.32936621 -0.41804552
0.12206465 0.3969202 -0.52849674
0.11055864 -0.17904383 0.41323233
0.11223264 -0.09529084 0.27628946
0.11311765 -0.050967872 0.20381832
0.11454165 0.3296982 -0.41436958
0.11505665 0.35747117 -0.45975161
0.11579365 0.39722121 -0.5247016
0.11654465 0.4377082 -0.59085941
0.10858865 -0.35381776 0.11033726
0.10592465 -0.13511378 0.3451643
0.11268264 -0.50337178 -0.25048351
0.10352865 0.046631157 0.052113533
0.10952964 0.39752018 -0.52091169
0.11022164 0.43798816 -0.58699751
0.099686652 -0.17798179 0.41893244
0.10111864 -0.094285786 0.28224754
0.098892644 0.1183002 -0.060928345
0.096781641 -0.016410828 0.1589365
0.097317651 0.017774165 0.10314369
0.10221465 0.33035916 -0.40702534
0.10327165 0.39781916 -0.51712465
0.10390565 0.43826717 -0.58313942
0.10508065 0.51326817 -0.70554543
0.093668647 -0.21508282 0.48319626
0.094258651 -0.17745286 0.42177963
0.09556964 -0.093784869 0.28522348
0.099738643 -0.48184377 -0.14906549
0.093449645 0.14722019 -0.10410643
0.094496645 0.22083521 -0.22417831
0.092029646 0.047528207 0.058506489
0.096060649 0.33068818 -0.40335751
0.097595647 0.43854618 -0.57928562
0.090393648 -0.32653779 0.24604654
0.087563649 0.14762819 -0.10074949
0.088842645 0.24753219 -0.26360464
0.086682647 0.078802168 0.011448383
0.089911647 0.33101618 -0.39969349
0.09077464 0.39841419 -0.50956059
0.091291651 0.43882418 -0.5754323
0.08449465 -0.31769782 0.29003143
0.082933649 -0.21400279 0.48877335
0.085052647 -0.048542798 0.21904469
0.08136265 0.1195572 -0.051001549
0.081685647 0.14803416 -0.097397327
0.079831645 -0.014998794 0.16821766
0.085848644 0.51399219 -0.69359159
0.078678645 -0.30898386 0.33339739
0.078494646 -0.13254577 0.35972548
0.076545641 0.22196317 -0.2137537
0.077193648 0.2871052 -0.31981659
0.077911645 0.35936821 -0.43747044
0.078306645 0.3990072 -0.50200844
0.07870765 0.4393782 -0.56774044
0.072219647 -0.21292883 0.49434471
0.073024645 -0.13203579 0.36263132
0.076409645 -0.54082984 -0.19146156
0.06970565 0.12039119 -0.0443964
0.071744651 0.35968119 -0.43377066
0.072707646 0.4727442 -0.61774445
0.066870645 -0.21239287 0.49712849
0.067902647 -0.091297805 0.30007553
0.070213646 -0.52981478 -0.14128065
0.064086646 0.14924818 -0.087352276
0.064794645 0.24898517 -0.24954653
0.063380644 0.049753189 0.074455261
0.06558165 0.35999519 -0.43006849
0.065862648 0.39959615 -0.4944725
0.066149645 0.4399302 -0.56006336
0.058071643 0.12122017 -0.037799358
0.058422647 0.18313116 -0.13842249
0.058648646 0.2230832 -0.2033534
0.057308644 -0.01312983 0.18055964
0.057842646 0.080963194 0.027631283
0.059652645 0.39989018 -0.4907093
0.060304645 0.51495016 -0.67770958
0.056190647 -0.27530676 0.50103235
0.056871645 -0.090310872 0.30600357
0.057121646 -0.04614383 0.23421955
0.052526645 0.18351918 -0.13502741
0.052696645 0.22345418 -0.19989347
0.052160643 -0.49773377 0.0048985481
0.046541646 0.15045416 -0.077332497
0.046080645 -0.012201846 0.18671942
0.047138646 0.36092919 -0.41899443
0.047250647 0.40047616 -0.4831934
0.045519646 -0.21026284 0.50824642
0.046315648 -0.48734587 0.052241325
0.040523645 0.022319198 0.13454151
0.041116647 0.44102621 -0.54475355
0.041162647 0.47403619 -0.59830666
0.040365644 -0.088837802 0.31488132
0.034872647 0.22456419 -0.18952656
0.034872647 0.051953197 0.090346336
0.034872647 0.082674205 0.04053545
0.034872647 -0.088348806 0.31783962
0.034872647 -0.37408477 0.35892344
0.028694646 0.4013502 -0.47194338
0.029443646 -0.12799484 0.3858285
0.029012647 -0.58701485 -0.1079855
0.029386645 -0.087861836 0.32079268
0.029272646 -0.45707983 0.1902113
0.029457645 -0.36509877 0.40131235
0.023687646 -0.010357797 0.19901562
0.023422645 0.083523154 0.046974659
0.022713646 0.33458018 -0.3596015
0.022316646 0.47480419 -0.58668756
0.024141647 -0.17067784 0.45865631
0.024019646 -0.12749487 0.38871956
0.023237646 -0.57581586 -0.05906868
0.024114646 -0.35623688 0.44312572
0.017415646 0.15244621 -0.060678482
0.017274646 0.18583119 -0.11471128
0.017959645 0.024109185 0.14703941
0.016358646 0.40192819 -0.46446133
0.019144645 -0.25551182 0.59961939
0.018941646 -0.20762581 0.52211332
0.018429646 -0.086889803 0.3266964
0.018842645 -0.34749478 0.48437262
0.011606645 0.15284216 -0.057355404
0.010421645 0.36277819 -0.39693069
0.013638645 -0.20710176 0.52488232
0.013183646 -0.12649781 0.3944993
0.012957646 -0.086405814 0.32964659
0.013639646 -0.33886784 0.52507973
0.0058046449 0.15323716 -0.05403471
0.0052886456 0.22639716 -0.17230368
0.0051046461 0.25256121 -0.21459961
0.0043246467 0.3630842 -0.39326429
0.0037636459 0.4426502 -0.52188969
-0.00061035529 0.22676116 -0.16886759
0.0010936446 0.02544117 0.15639353
-0.0011583529 0.29154217 -0.27352762
0.00084664673 0.054560184 0.10934448
-0.0017653555 0.36338818 -0.38960171
0.0027346462 -0.16863185 0.46995068
0.0016586445 -0.041426837 0.26442957
0.002408646 -0.4094128 0.40759468
0.0034416467 -0.3219648 0.60485935
-0.0041823536 -0.0080758333 0.21434069
-0.0067603551 0.25326616 -0.20764446
-0.0071413554 0.29187816 -0.26998854
-0.0051073544 0.085631192 0.063031673
-0.0075783543 0.33616918 -0.34150267
-0.0082383528 0.4030782 -0.44953537
-0.002235353 -0.20553678 0.53318167
-0.011941355 0.18773317 -0.097852707
-0.010123353 0.026323199 0.16261864
-0.013118353 0.2922132 -0.26645041
-0.010796353 0.086049199 0.066235542
-0.014370356 0.40336418 -0.44581366
-0.0078343526 -0.39125377 0.49044657
-0.016988356 0.12652218 0.0048384666
-0.015295353 -0.0071707964 0.22045755
-0.015724353 0.026763201 0.16572762
-0.013269354 -0.16710979 0.47840548
-0.014321353 -0.083999813 0.34436464
-0.012855355 -0.3823548 0.53105259
-0.024147354 0.2282092 -0.15514851
-0.020842355 -0.0067198277 0.22351265
-0.021319356 0.027202189 0.16883469
-0.024514355 0.25431919 -0.19723034
-0.025056355 0.29288119 -0.25938463
-0.025678355 0.33711517 -0.33067846
-0.028450351 0.12732416 0.011362553
-0.027831357 0.087300181 0.075837612
-0.023335353 -0.20346576 0.5442276
-0.026897356 -0.5621708 0.17316341
-0.032493357 0.028077185 0.17504263
-0.036319356 0.25501621 -0.19030333
-0.032983351 0.057133198 0.12826633
-0.038839351 0.40450019 -0.43095255
-0.027793352 -0.25070578 0.6238656
-0.029228356 -0.16559678 0.48684549
-0.031368356 -0.038646817 0.28246546
-0.039892357 0.12812221 0.017878532
-0.040407356 0.15636218 -0.027558327
-0.041738357 0.22928721 -0.14488649
-0.037455354 -0.005371809 0.23266649
-0.038603354 0.057558179 0.13141251
-0.039162356 0.088129163 0.082226276
-0.034539353 -0.16509479 0.48965645
-0.036054354 -0.082093775 0.35611248
-0.036856357 -0.038186789 0.28546572
-0.045603354 0.12852019 0.021131516
-0.042981353 -0.0049248338 0.23571348
-0.044217352 0.05798316 0.13455772
-0.050265353 0.36580318 -0.36041069
-0.052602354 0.19035918 -0.07435751
-0.049215358 0.029383183 0.18434238
-0.053984355 0.25605619 -0.17993164
-0.049826358 0.058406174 0.1376996
-0.056299355 0.36610121 -0.35677528
-0.057642352 0.15752017 -0.017670631
-0.054778356 0.02981621 0.18743753
-0.061712351 0.3389852 -0.30911541
-0.048534352 -0.24859983 0.6346097
-0.049604353 -0.20090276 0.55800247
-0.056443352 -0.65911084 0.068253517
-0.051930357 -0.5109238 0.39145565
-0.063376352 0.15790421 -0.014378548
-0.066646352 0.29519421 -0.2347455
-0.061027352 0.059250176 0.14397526
-0.067696348 0.3392942 -0.30553246
-0.061463352 -0.64772886 0.11456966
-0.055732351 -0.1630978 0.50088549
-0.056734357 -0.50109583 0.43333435
-0.058750357 -0.036358833 0.29744434
-0.069106355 0.15828717 -0.011090279
-0.065890357 0.030679166 0.19362354
-0.072565347 0.2955212 -0.23123646
-0.066415355 -0.63650686 0.16024446
-0.061475355 -0.4913978 0.4746623
-0.059782352 -0.42909187 0.58248043
-0.063108355 -0.079735816 0.37075472
-0.059051353 -0.31698185 0.6290164
-0.074829355 0.15866917 -0.0078034401
-0.075711355 0.1918422 -0.060985565
-0.070539355 -0.0027038455 0.25092363
-0.071438357 0.031109154 0.19671154
-0.066153347 -0.48183388 0.51542234
-0.065088362 -0.42976576 0.57962036
-0.080546349 0.15905118 -0.0045185089
-0.076035351 -0.0022628307 0.25395966
-0.084381357 0.29617417 -0.22422743
-0.086379349 0.36758417 -0.33864737
-0.072779357 -0.11867887 0.44049835
-0.069938362 -0.36667687 0.60324955
-0.082517356 0.031966209 0.20288467
-0.083367348 0.060927212 0.15650654
-0.076850355 -0.16111881 0.51209164
-0.076030359 -0.47213882 0.55684328
-0.074862361 -0.31883079 0.62056351
-0.091101348 0.13166916 0.047083378
-0.097529352 0.34083021 -0.28765774
-0.082119361 -0.16062683 0.51488972
-0.080531359 -0.36796683 0.5975647
-0.094506353 0.061759174 0.1627593
-0.088759348 -0.11724383 0.44907951
-0.090038359 -0.077403843 0.38535547
-0.085835353 -0.36861378 0.59471655
-0.11033335 0.3687582 -0.32419968
-0.090080351 -0.24712282 0.64269638
-0.092060357 -0.47424978 0.54817533
-0.10905235 0.16094518 0.011868477
-0.11020635 0.19403917 -0.041002274
-0.097893357 -0.15915686 0.52327347
-0.12128535 0.34204519 -0.2734127
-0.10277236 -0.47566682 0.54238033
-0.10613735 -0.076016843 0.39409542
-0.12166035 0.19476521 -0.034359455
-0.12555934 0.2984342 -0.19978333
-0.10590336 -0.24888378 0.63427448
-0.10698935 -0.19536382 0.5881896
-0.10887036 -0.55104381 0.50836468
-0.10838835 -0.1581828 0.52885628
-0.10999835 -0.11534482 0.46049738
-0.10813735 -0.47637886 0.53947544
-0.12891635 0.23456216 -0.093933582
-0.12992635 0.26048017 -0.13526535
-0.11308736 -0.43591684 0.55373526
-0.11684735 -0.075097859 0.39991331
-0.11854935 -0.031413794 0.33024549
-0.11193936 -0.32320482 0.60072231
-0.13309234 0.19548815 -0.027729511
-0.13904135 0.34294921 -0.26275873
-0.12478036 -0.67705482 0.30064154
-0.11844735 -0.4366098 0.55084229
-0.12219335 -0.074639857 0.40282249
-0.13625135 0.13476115 0.072887421
-0.14044335 0.2352522 -0.087182522
-0.14311835 0.29939121 -0.18935061
-0.13459435 0.095023155 0.13618755
-0.14308135 0.16319019 0.03145647
-0.14450336 0.19620717 -0.021105289
-0.13615935 0.0025261641 0.28723669
-0.12772036 -0.19338185 0.59912729
-0.12918335 -0.43800086 0.54504728
-0.13475434 -0.030085802 0.33915472
-0.14748736 0.13552618 0.079319477
-0.15019935 0.19656521 -0.017799377
-0.14309135 0.036613166 0.23669529
-0.14572234 0.095817208 0.14249754
-0.13774635 -0.64428777 0.4280405
-0.13591336 -0.55483681 0.49364471
-0.13504036 -0.47996479 0.5249114
-0.15309635 0.13590616 0.082530499
-0.16062835 0.3003422 -0.17893934
-0.14988735 0.065866172 0.19390345
-0.15127735 0.096212208 0.14564753
-0.13769035 -0.25244886 0.61734152
-0.14231735 -0.63692588 0.45671558
-0.16002135 0.1643002 0.041219711
-0.16645235 0.30065721 -0.1754756
-0.15682834 0.096607208 0.14879751
-0.14676934 -0.55636781 0.48773241
-0.14583935 -0.48141187 0.51906157
-0.15091436 -0.028766811 0.3480463
-0.16916536 0.2369622 -0.070350647
-0.16237335 0.097000182 0.15194464
-0.15225035 -0.11159784 0.48326349
-0.15629135 -0.02832979 0.35100746
-0.16496634 0.038274169 0.24893236
-0.17618336 0.26313621 -0.10799932
-0.16301535 -0.73905486 0.31099939
-0.16166535 -0.027892828 0.35396767
-0.18389335 0.3015992 -0.16509771
-0.15898734 -0.25485784 0.60598755
-0.16419636 -0.64018983 0.44472647
-0.16703235 -0.027457833 0.35692453
-0.18426736 0.19869816 0.0019984245
-0.18969534 0.30191118 -0.16164351
-0.17738634 0.06788516 0.20940161
-0.17898035 0.098176181 0.16137266
-0.16968036 -0.64101177 0.44172049
-0.16750336 -0.48433083 0.5073204
-0.18992636 0.1990512 0.0052895546
-0.17950734 0.0059331656 0.31129742
-0.18450534 0.098566175 0.16451263
-0.16966835 -0.25607079 0.60029268
-0.16896535 -0.18947178 0.62094069
-0.17096335 -0.15242678 0.56223726
-0.17142434 -0.37920886 0.54871464
-0.19376135 0.1664992 0.060686588
-0.19775134 0.23865318 -0.05357933
-0.18490535 0.0063551664 0.31429958
-0.18676135 0.039921165 0.26114273
-0.18835235 0.068686187 0.21558762
-0.17615035 -0.15195388 0.56501055
-0.17850935 -0.10928982 0.49744558
-0.18070035 -0.069667876 0.43469572
-0.17682035 -0.37988681 0.5458107
-0.19778335 0.1389212 0.10814428
-0.20491235 0.26477218 -0.091039658
-0.18037134 -0.25729185 0.59458256
-0.18616635 -0.64348882 0.43268061
-0.18494035 -0.56179279 0.46692848
-0.18381135 -0.48654181 0.49847651
-0.18222135 -0.38056582 0.54290247
-0.20496535 0.16722518 0.067156315
-0.21064235 0.2650972 -0.087656498
-0.18573035 -0.25790483 0.59172249
-0.18468136 -0.18969387 0.62033033
-0.18650635 -0.15101081 0.57055235
-0.18687235 -0.33219987 0.56056356
-0.20106535 0.0076152086 0.32328749
-0.20476036 0.069880188 0.22485065
-0.19984534 -0.78366584 0.3557744
-0.21814235 0.20080221 0.021709442
-0.22052036 0.23999119 -0.040206432
-0.22208436 0.26574421 -0.080895424
-0.20016736 -0.48876888 0.48960161
-0.19949736 -0.4472248 0.5070405
-0.19845635 -0.38261384 0.53416061
-0.19766435 -0.33351177 0.55477238
-0.21755035 0.10088819 0.18330336
-0.20710635 -0.067447841 0.44912148
-0.20306934 -0.33417076 0.5518713
-0.22731234 0.1686672 0.080072403
-0.21930636 0.042362154 0.27939749
-0.22112535 0.071067154 0.23409653
-0.21603136 -0.78241378 0.36092472
-0.21375835 -0.64766282 0.41753769
-0.20716736 -0.14913887 0.58161926
-0.21512635 -0.023581803 0.38346767
-0.20847934 -0.33483177 0.54896736
-0.23754336 0.24098718 -0.030201435
-0.21260935 -0.26099283 0.57737446
-0.21787934 -0.56652576 0.44895458
-0.21474235 -0.38467985 0.52538633
-0.22790335 0.009694159 0.33823442
-0.21679534 -0.19317776 0.60327148
-0.22205736 -0.49176687 0.47771645
-0.22018234 -0.38537079 0.52245569
-0.21931536 -0.33615786 0.54314947
-0.24214034 0.14188218 0.13362265
-0.23551334 0.043570161 0.28850126
-0.23948036 0.1024192 0.19579172
-0.23038335 -0.65019482 0.40840626
-0.22754534 -0.49252182 0.47473526
-0.22562934 -0.38606483 0.51952028
-0.23339735 -0.065253794 0.46350956
-0.23637836 -0.021883845 0.39522266
-0.25317836 0.14261317 0.13997269
-0.25512937 0.17045116 0.096168518
-0.24395035 0.010931194 0.34718227
-0.24629335 0.044371188 0.29456043
-0.24830134 0.07302618 0.24947071
-0.25041437 0.1031782 0.20202351
-0.23421235 -0.26349181 0.56583548
-0.23292734 -0.19494087 0.59469748
-0.23853536 -0.49403685 0.46876669
-0.25372237 0.07341516 0.25253868
-0.25587437 0.10355717 0.2051363
-0.24697636 -0.021040797 0.40108967
-0.24199934 -0.38815683 0.5106945
-0.25705436 0.045168161 0.30061436
-0.26132935 0.10393518 0.20824671
-0.25102636 -0.57133383 0.4308486
-0.24954836 -0.49555987 0.46277952
-0.24873434 -0.45380181 0.48037767
-0.24911635 -0.06394881 0.47212362
-0.25226837 -0.020620823 0.40402031
-0.25047436 -0.26538485 0.55714464
-0.27975938 0.20458317 0.057639599
-0.26527935 0.012567163 0.35908937
-0.26995537 0.074578166 0.26173449
-0.27222636 0.10468817 0.21446562
-0.25451335 -0.19731385 0.58321857
-0.26524636 -0.7270698 0.35977745
-0.25974035 -0.45528477 0.47441244
-0.26283938 -0.019783795 0.40987873
-0.25842237 -0.39026684 0.50183535
-0.27059937 0.012973189 0.36206245
-0.26768038 -0.57376677 0.42174339
-0.25884837 -0.1457848 0.60233641
-0.26678535 -0.26729184 0.54842234
-0.26693636 -0.10163385 0.54538965
-0.27339137 -0.018949807 0.41572952
-0.29386136 0.17291421 0.11861229
-0.29645535 0.20559818 0.067392349
-0.27629137 -0.45752376 0.46543741
-0.27866137 -0.018534839 0.41865349
-0.29937336 0.17326319 0.12181139
-0.28653336 0.01418817 0.37097073
-0.28922537 0.047538161 0.31873226
-0.29153237 0.076115191 0.2739706
-0.29395938 0.10618317 0.22687626
-0.28438836 -0.57621986 0.41260529
-0.28273237 -0.50017887 0.44473362
-0.29691437 0.076497197 0.27702427
-0.29339337 -0.73161882 0.34420967
-0.29179937 -0.65965182 0.3746314
-0.28996935 -0.5770418 0.40955257
-0.28046638 -0.14807087 0.59087753
-0.30229136 0.07687819 0.28007841
-0.28706238 -0.20091981 0.56589746
-0.28755736 -0.099874794 0.55661249
-0.29408738 -0.27050477 0.53381729
-0.30114836 -0.57869178 0.40343237
-0.29270136 -0.09943682 0.55941439
-0.31899238 0.14693218 0.17789459
-0.30771437 0.015794158 0.38282347
-0.31561536 0.10766518 0.23925638
-0.29956636 -0.27115279 0.53088427
-0.29795837 -0.20213383 0.56009626
-0.31035638 -0.7343778 0.33482027
-0.30247337 -0.39597386 0.47805357
-0.31590536 0.049488187 0.33378172
-0.32101735 0.10803318 0.24234629
-0.30341437 -0.20274383 0.55719233
-0.30217537 -0.15038079 0.57936335
-0.30955335 -0.46205586 0.44738865
-0.30800638 -0.39669579 0.47506428
-0.30683038 -0.34702784 0.49609661
-0.32375437 0.078394175 0.29227066
-0.32641438 0.10840017 0.24543333
-0.31053835 -0.27245277 0.52501154
-0.30810836 -0.098130763 0.56781435
-0.31159237 -0.058817804 0.50644732
-0.31354436 -0.3974188 0.4720726
-0.31234938 -0.34772283 0.49312449
-0.33782536 0.17568016 0.14413548
-0.33180636 0.10876721 0.24852133
-0.31603336 -0.2731058 0.5220685
-0.32560837 -0.66492885 0.35600758
-0.34329838 0.17602319 0.14731741
-0.33126536 -0.66581577 0.35289049
-0.31851637 -0.15212983 0.57069349
-0.31835738 -0.09726578 0.5734067
-0.32340437 -0.34911782 0.48717356
-0.33408737 0.017781198 0.39760447
-0.32529837 -0.20519882 0.54553366
-0.34246835 0.051415205 0.34878731
-0.34259838 -0.66759878 0.34664249
-0.32944036 -0.1533038 0.56489658
-0.33851635 -0.5080418 0.41435671
-0.33743736 -0.46588784 0.43224573
-0.33632436 -0.014028788 0.45070744
-0.33576035 -0.40033382 0.46006346
-0.34776735 0.051798165 0.35178328
-0.35047737 0.080270171 0.30747032
-0.34153935 -0.013624787 0.45361137
-0.35306138 0.052180171 0.35477972
-0.33883637 -0.095631778 0.5840807
-0.36406335 0.11094916 0.26700163
-0.35741937 -0.58707684 0.37260056
-0.34429637 -0.09619087 0.5811944
-0.35537037 -0.51044184 0.40516663
-0.34976035 -0.096749842 0.57830667
-0.35985535 -0.46898979 0.42006063
-0.36891836 0.053321183 0.36375237
-0.37177336 0.081754208 0.31959963
-0.37477738 0.11166918 0.27314854
-0.36874735 -0.58878082 0.36638641
-0.36547437 -0.46977085 0.41700459
-0.37419435 0.053699195 0.36673927
-0.37708536 0.082124174 0.32262754
-0.36070737 -0.097873867 0.5725174
-0.37792936 -0.51367086 0.39286137
-0.37673238 -0.47133785 0.41088152
-0.36830637 -0.054235876 0.53773165
-0.39081538 0.11274421 0.28235245
-0.38578936 -0.59135383 0.35703659
-0.37792435 -0.010821819 0.47390461
-0.37904936 -0.35620385 0.45718336
-0.38649637 0.021686196 0.42704439
-0.38999638 0.05482918 0.37569332
-0.39148137 -0.59221584 0.35391045
-0.38801637 -0.4729138 0.40474272
-0.37856337 -0.053414762 0.54340029
-0.38827938 -0.010029793 0.47968769
-0.40357935 0.083956182 0.33774137
-0.40680936 0.11381119 0.29154062
-0.40058938 -0.51693481 0.3804903
-0.40886536 0.084320188 0.34075928
-0.39547935 -0.16047484 0.52981472
-0.40627235 -0.51775581 0.37738848
-0.41688037 -0.67941779 0.30563164
-0.41431835 -0.59568685 0.34137058
-0.41195938 -0.51857883 0.37428141
-0.40863737 -0.41001981 0.42061853
-0.40710136 -0.35981685 0.44204569
-0.41253436 0.023605168 0.4417057
-0.41942137 0.085045159 0.34678841
-0.41037336 -0.28446788 0.47149229
-0.42004338 -0.59656078 0.33822536
-0.41765237 -0.51940483 0.37117147
-0.41772938 0.023986161 0.44463444
-0.42147937 0.057066202 0.39355946
-0.41026336 -0.10300487 0.54629564
-0.42671135 0.057436168 0.39653063
-0.41924438 -0.0076748133 0.49700546
-0.42560437 -0.41230279 0.41142273
-0.42400736 -0.3620078 0.43291855
-0.42720637 -0.28652686 0.46245527
-0.42325237 -0.16352981 0.51504564
-0.43328735 0.025124192 0.45340872
-0.43716237 0.05817318 0.40246868
-0.42689136 -0.10474187 0.53749037
-0.43910637 -0.4801088 0.3769207
-0.43531036 -0.36347884 0.42681265
-0.44573638 0.086844206 0.36183453
-0.43615237 -0.21786577 0.4863863
-0.43068138 -0.051716864 0.5574894
-0.44175938 -0.21851677 0.48339033
-0.45453137 -0.60185081 0.31926632
-0.44831836 -0.41537482 0.39910555
-0.44880736 0.02625519 0.46216965
-0.44973737 -0.28929585 0.45035267
-0.44737336 -0.21916884 0.4803915
-0.44357535 -0.10649282 0.52865362
-0.45299336 -0.21982378 0.47738647
-0.46608236 -0.60363287 0.31291151
-0.46343738 -0.52608877 0.34614229
-0.47186634 -0.60452682 0.30972958
-0.45472735 -0.10766679 0.52274227
-0.46918938 -0.52693385 0.3429966
-0.46771535 -0.48417979 0.36132526
-0.46840939 0.060363173 0.4202466
-0.46670237 -0.29139286 0.44123363
-0.47920439 -0.48582381 0.35505867
-0.47051534 -0.0038217902 0.5257535
-0.48372534 -0.29350477 0.43208265
-0.49072137 -0.48747581 0.34877348
-0.47516635 -0.056171834 0.53401232
-0.48487034 0.028861165 0.48255873
-0.48271939 -0.11063081 0.50790548
-0.49805239 -0.53119487 0.32719755
-0.49648938 -0.48830479 0.34562635
-0.48075435 -0.05673486 0.53106165
-0.49510637 -0.29492277 0.42596149
-0.49250939 -0.22445184 0.45625353
-0.49054036 -0.17102581 0.47921944
-0.48634937 -0.057299793 0.52810669
-0.50080836 -0.29563481 0.42289352
-0.49818137 -0.22511977 0.45321846
-0.50804633 -0.48997086 0.33931637
-0.50366932 -0.37246281 0.38985252
-0.50026333 0.029966176 0.49127626
-0.50651431 -0.2963478 0.41982269
-0.51838732 -0.61176878 0.2841115
-0.50184536 -0.17229885 0.47319555
-0.51383436 -0.49080676 0.33615637
-0.49599335 -0.0019288063 0.5400753
-0.50940835 -0.37322479 0.38674641
-0.50538534 0.030332208 0.49417973
-0.51222736 -0.29706281 0.41674948
-0.50954235 -0.22646087 0.44713926
-0.52126431 -0.53464288 0.31448269
-0.51708633 -0.42478579 0.36177158
-0.51050335 0.030697167 0.49707937
-0.52708435 -0.53551084 0.31129456
-0.50879234 -0.059573829 0.51625156
-0.52090633 -0.37475377 0.38052273
-0.51884836 -0.17421883 0.46413231
-0.51651931 -0.11423784 0.48997259
-0.53123933 -0.49332684 0.32665062
-0.51217932 -0.0024548173 0.53813171
-0.53705633 -0.4941718 0.3234725
-0.52005333 -0.060719788 0.51030064
-0.51778936 -0.0029938221 0.53518152
-0.53442836 -0.42718476 0.35234547
-0.53514832 -0.29994279 0.40441036
-0.53234434 -0.22916478 0.43493128
-0.54458636 -0.53812784 0.3017025
-0.54287833 -0.49501878 0.32029057
-0.54022235 -0.42798883 0.34919453
-0.53820431 -0.37706178 0.37115526
-0.53133833 -0.061871827 0.50433445
-0.52902532 -0.0040758252 0.52926826
-0.54161233 -0.17680377 0.45199156
-0.56038731 -0.49757284 0.31071949
-0.54265034 -0.063029826 0.49835443
-0.55556333 -0.37938887 0.3617506
-0.55525136 -0.23189682 0.4226594
-0.56801832 -0.54164976 0.28884935
-0.56346732 -0.43122584 0.33655262
-0.56136233 -0.38016778 0.35860872
-0.56716931 -0.3809498 0.3554616
-0.56973034 -0.3043198 0.38578272
-0.56674534 -0.23327285 0.41650152
-0.56448233 -0.17941481 0.43978739
-0.57250136 -0.23396379 0.41341543
-0.58131236 -0.30579382 0.37953949
-0.57337332 -0.12037677 0.4597826
-0.59156334 -0.54520887 0.2759285
-0.58711332 -0.30653387 0.37641239
-0.58482331 -0.12162286 0.45369864
-0.59873533 -0.30801886 0.37014627
-0.60738331 -0.50448185 0.28500843
-0.61522132 -0.54880577 0.26293564
-0.60476333 -0.18404979 0.4182806
-0.61920434 -0.50623184 0.27853537
-0.61054432 -0.18471879 0.4151926
-0.61974132 -0.38807577 0.32694626
-0.62796432 -0.44030184 0.30143452
-0.62561733 -0.38887781 0.32375956
-0.63899332 -0.5524388 0.24987364
-0.63386935 -0.44113976 0.29821444
-0.64888132 -0.51064676 0.2622776
-0.64329034 -0.39129776 0.31416273
-0.64919531 -0.39210778 0.31095648
-0.66945732 -0.44621485 0.27880764
-0.67288733 -0.39537185 0.29808426
-0.69073433 -0.51692587 0.23932743
