# .PCD v0.7 - Point Cloud Data file format
VERSION 0.7
FIELDS x y z
SIZE 4 4 4
TYPE F F F
COUNT 1 1 1
WIDTH 1
HEIGHT 1024
VIEWPOINT 0 0 0 1 0 0 0
POINTS 1024
DATA ascii
1.0832863 -0.073926091 0.025017738
1.0715983 -0.074011087 0.022724628
1.0657613 -0.074060082 0.021537781
1.0482273 -0.074197054 0.018081665
1.0656474 -0.014785111 -0.14653921
1.0589184 0.014313877 -0.23053741
1.0528604 0.014266908 -0.23173332
1.0614504 0.052831888 -0.33918047
1.0656734 0.080294907 -0.41613054
1.0072913 -0.074535131 0.010067463
1.0237234 -0.015117109 -0.15480423
1.0528044 0.11276889 -0.5110383
0.9739843 -0.063520074 0.079688549
0.97700727 -0.11055613 0.057038784
1.0402074 0.11267591 -0.51353645
0.96367133 -0.1156621 0.022342682
1.0276073 0.1125809 -0.51602745
0.96524233 0.0022069216 -0.035844326
0.97849828 0.021640897 -0.18540239
1.0034623 0.079815865 -0.42841625
0.99100929 0.079713881 -0.43085814
0.94115531 -0.1242981 -0.036224365
0.92240632 0.016771913 0.065167904
0.93660831 -0.12604415 -0.048050404
0.94076228 0.08069092 -0.1298933
0.93469632 -0.086692095 -0.081186295
0.9225983 0.010032892 0.015940666
0.93204629 -0.12779713 -0.059914112
0.95065129 0.10069287 -0.2592783
0.9301073 -0.088390112 -0.093162537
0.91865331 -0.29534709 -0.0005402565
0.9274683 -0.12955606 -0.071819305
0.93599027 0.1090709 -0.19056511
0.91263533 -0.29518008 -0.00035715103
0.91826928 -0.13309515 -0.095740318
0.88518029 0.11341989 0.12747574
0.92118531 -0.015400112 -0.17005539
0.9068523 -0.2425561 -0.051611423
0.89992028 0.041450918 -0.04415226
0.90548933 -0.19275105 -0.090513229
0.9062143 0.15589392 -0.14751053
0.87100828 0.11000788 0.098247528
0.89067632 -0.083922148 -0.0679245
0.89057827 -0.0008020997 -0.067098141
0.88636929 -0.35482717 -0.031534195
0.87083328 0.10397089 0.049519539
0.87786132 -0.075118065 -0.010315418
0.93106329 0.20322686 -0.46319628
0.87776631 0.007291913 -0.0095033646
0.86506927 0.10386389 0.047986507
0.85278332 0.023073912 0.10280561
0.85274029 0.061519921 0.10317945
0.84913129 -0.060678124 0.083292484
0.85098529 -0.10655916 0.067147732
0.85408932 0.21930391 -0.01208353
0.87331831 0.23260587 -0.18084717
0.83978432 0.024739921 0.11347389
0.84756732 -0.16937816 0.045164585
0.8450433 -0.10642707 0.067317486
0.83543432 -0.014077127 0.099937916
0.8322863 0.065057874 0.12778473
0.83194029 0.2291919 0.078561783
0.82952428 -0.01395911 0.10010386
0.81850231 0.1167019 0.14620161
0.82542831 -0.060179114 0.083962917
0.8236143 -0.013841093 0.10026789
0.8195073 -0.06005609 0.08412981
0.82373232 -0.1688261 0.045856476
0.82128829 -0.10590708 0.067996502
0.81656832 -0.29264116 0.0025405884
0.79370028 0.15262991 0.15933371
0.80587131 -0.16842115 0.04637146
0.78332829 0.11729288 0.14714575
0.7809943 0.1932919 0.16916656
0.79397333 -0.16815615 0.046713829
0.77615827 0.15290791 0.15979767
0.77528828 0.19323689 0.16807175
0.82203829 0.3537209 -0.27672815
0.79020232 -0.22688413 0.026176453
0.77161533 0.11748487 0.14745665
0.77639729 -0.012930095 0.10157585
0.80856729 0.32811892 -0.20709133
0.78875828 -0.35002708 -0.017023087
0.78423733 -0.22674608 0.026347637
0.78208029 -0.16789508 0.047053814
0.77977431 -0.10503209 0.069170475
0.7721833 -0.059104085 0.085452557
0.79086733 0.28734088 -0.095349312
0.77613431 -0.16776609 0.047223568
0.76627427 -0.058989167 0.085615635
0.78493428 0.2872889 -0.096505165
0.7965073 0.32801992 -0.20946026
0.76036727 -0.058875084 0.085779667
0.80807632 0.39043891 -0.38391352
0.76867932 -0.29147315 0.0039515495
0.7620033 -0.10467017 0.069669724
0.7566703 0.2284959 0.064000607
0.80189627 0.3903929 -0.38513947
0.76269931 -0.29133105 0.0041255951
0.78549027 0.35343188 -0.2839365
0.75154728 0.25195587 -0.0036482811
0.7611903 0.28707689 -0.10112047
0.73829329 0.066701889 0.13032579
0.7338143 0.026676893 0.11636782
0.77716333 0.39020389 -0.39003611
0.74077928 -0.34884405 -0.015606403
0.73879433 -0.29077613 0.0048208237
0.73241329 -0.10408413 0.070492744
0.74337232 0.28691387 -0.1045723
0.72812033 0.25172889 -0.0081501007
0.75500327 0.35317987 -0.28992033
0.70728528 0.11848891 0.14915466
0.71606928 0.22809088 0.056228638
0.7167623 -0.16652513 0.048900604
0.71467429 -0.10374308 0.070983887
0.70144528 0.11857688 0.14930677
0.74280131 0.35307688 -0.29230833
0.69444931 0.15412492 0.16193056
0.69728029 0.067361891 0.13141489
0.74622029 0.38995892 -0.39614153
0.7028563 -0.10352015 0.071307659
0.69284528 0.2278499 0.051811695
0.68222231 -0.011259079 0.10412884
0.68898731 -0.22468114 0.029063702
0.67114931 0.15444887 0.16253185
0.68122733 0.22772688 0.049608707
0.67512929 0.027645886 0.1179347
0.67387128 0.06772387 0.13203049
0.70592427 0.32722992 -0.22711754
0.68508732 -0.28958809 0.0063586235
0.68985528 0.28640288 -0.11487627
0.66802227 0.067811906 0.1321826
0.71524727 0.3897059 -0.40222645
0.6809293 -0.34746313 -0.013871193
0.67333031 -0.10297811 0.072115898
0.66059631 0.11916786 0.15036774
0.6609453 0.19202691 0.1463809
0.68390131 0.28634387 -0.11601734
0.66340631 0.027830899 0.11824465
0.66217327 0.067899883 0.13233662
0.67116529 -0.22432113 0.029562473
0.66935831 -0.16559911 0.050215721
0.65476531 0.11924988 0.15051746
0.65368629 0.15468591 0.1629796
0.66013628 -0.05705905 0.088511467
0.66897333 -0.34719908 -0.013528347
0.66152829 -0.10276711 0.07243681
0.64786828 0.15476286 0.1631279
0.64948827 0.1918959 0.14423466
0.65425128 -0.056960106 0.088669777
0.65285927 -0.010778129 0.10491085
0.68172532 0.32700491 -0.23179436
0.65562928 -0.10266316 0.072595596
0.66603929 0.28616488 -0.11943436
0.6446383 0.068158865 0.13279247
0.63623327 0.15491587 0.16342545
0.65105033 -0.34681308 -0.013019085
0.65412432 0.28604287 -0.12170744
0.6450783 -0.34668612 -0.012849331
0.61879331 0.15514088 0.16386986
0.6422053 0.2859199 -0.12397718
0.6279453 -0.16483712 0.051347733
0.61896831 -0.056381106 0.089609623
0.64539027 0.32665491 -0.23878431
0.65941828 0.38922691 -0.41313124
0.6236943 -0.22340608 0.030875683
0.61724532 0.22701991 0.037557602
0.6117993 -0.010139108 0.10599184
0.62248027 0.2506249 -0.028225422
0.63028032 0.28579491 -0.12624121
0.6212033 -0.34619009 -0.012177467
0.61776429 -0.22329617 0.031038761
0.60136032 0.15535986 0.16431046
0.6152373 -0.3460691 -0.012010098
0.60847932 -0.10186112 0.073860645
0.59787428 0.19128489 0.13462877
0.60134131 -0.05610311 0.090074539
0.61072028 0.25049388 -0.030437469
0.60430533 -0.16442215 0.051986694
0.60259032 -0.10176516 0.074019909
0.59422028 -0.009876132 0.10645247
0.5931713 0.028876901 0.12007761
0.62114233 0.32641387 -0.24342728
0.58488429 0.12017888 0.1523037
0.59895331 0.25036091 -0.032645226
0.6064173 0.28554088 -0.1307621
0.59579629 -0.28779316 0.0088558197
0.60900933 0.32629091 -0.24574423
0.62213928 0.38889092 -0.42036915
0.58493131 -0.10148108 0.074487686
0.57232934 0.1557129 0.16504049
0.57490432 0.19100189 0.13038445
0.60294127 0.32622892 -0.24690151
0.61592227 0.38883388 -0.42157316
0.5854243 -0.34547806 -0.011179447
0.5697943 0.029200912 0.12068081
0.60212231 0.3517819 -0.31954145
0.57797033 -0.28746116 0.0093445778
0.5661183 -0.055569053 0.09099865
0.56494129 -0.0094541311 0.10721254
0.57037532 -0.22245014 0.032324791
0.55811131 0.029358864 0.12098074
0.55710334 0.069357872 0.13504267
0.56754929 -0.34513712 -0.010686398
0.55227232 0.029436886 0.12112951
0.54964131 -0.10093713 0.075415611
0.53838432 0.12074488 0.15347481
0.54265529 -0.055229068 0.091607571
0.54153633 -0.0091311336 0.10781479
0.55863231 0.28501189 -0.13976336
0.54528332 -0.1634481 0.053562641
0.53172833 0.15617889 0.16605282
0.5347603 0.029665887 0.12157583
0.53380233 0.069650888 0.13563347
0.5423463 -0.28682709 0.01031065
0.53788632 -0.10076213 0.075722694
0.52890831 0.19041389 0.12194777
0.55435133 0.32571787 -0.25612831
0.5320093 -0.10067606 0.075876713
0.52013534 0.15630591 0.16634083
0.5318293 -0.34448409 -0.0097112656
0.5304783 -0.28662312 0.010629654
0.52613431 -0.10059106 0.076028824
0.5282563 0.24952787 -0.04581213
0.50935233 0.12107688 0.15419674
0.51164132 0.1901859 0.11880064
0.52235729 0.24945492 -0.046903133
0.5287233 0.28466886 -0.14535713
0.50275433 0.15649289 0.1667695
0.51223832 0.22574788 0.018097878
0.53459829 0.35109192 -0.33241749
0.49696329 0.15655386 0.1669116
0.51055229 0.2493099 -0.049084187
0.50971931 -0.42023408 -0.035840511
0.4911733 0.15661389 0.1670537
0.4981373 -0.1627351 0.054796696
0.48614329 0.1213299 0.1547718
0.4853833 0.15667289 0.16719675
0.51176631 0.32525086 -0.2641573
0.4949013 -0.28603816 0.011579514
0.4909043 -0.10009909 0.076937675
0.48034331 0.12139189 0.1549139
0.47644529 0.030379891 0.12304449
0.4771463 0.22529292 0.011679649
0.46294829 0.12157291 0.15534067
0.46223229 0.15690488 0.1677618
0.4712933 0.2252149 0.010614872
0.4655773 -0.008167088 0.10973978
0.48740029 0.32497489 -0.26872921
0.47237331 -0.34348011 -0.0081162453
0.4712013 -0.28566813 0.012203693
0.4813053 0.32490587 -0.26986933
0.46643329 -0.3433851 -0.0079593658
0.45399731 0.18939692 0.1083746
0.45958129 0.22505891 0.0084848404
0.4539043 -0.0080301166 0.1100316
0.45935631 -0.28548908 0.012513638
0.45737129 0.24863291 -0.058846474
0.45455429 -0.34320009 -0.0076451302
0.43909431 0.1571269 0.16832447
0.44786629 0.2249009 0.0063586235
0.45680529 0.28380191 -0.15869617
0.4364033 -0.0078310966 0.11046791
0.45080331 0.28372687 -0.15980434
0.43928829 -0.16192615 0.056311607
0.4281823 0.12191689 0.15618658
0.4305703 -0.0077661276 0.11061192
0.44480029 0.28365088 -0.16090918
0.4508093 0.32454991 -0.27556038
0.42174929 0.15728688 0.16874361
0.4251273 0.18898487 0.10319948
0.4247373 -0.0077021122 0.11075687
0.43218529 -0.4189291 -0.033765316
0.43080729 -0.34284115 -0.0070242882
0.42639631 -0.099275112 0.078575611
0.41934931 0.1889019 0.10216761
0.41972631 -0.053661108 0.094727516
0.41890731 -0.0076391101 0.11090088
0.4324933 0.32433188 -0.27896547
0.41577229 -0.16162813 0.056907654
0.4080393 -0.053531051 0.095016479
0.41090131 -0.22005212 0.036498547
0.4068163 0.22433388 -0.0010523796
0.41000631 0.24800187 -0.067462444
0.41475931 0.28326792 -0.16642141
0.40076631 0.031196892 0.12491274
0.40707329 -0.34249914 -0.0064082146
0.40500531 -0.21997714 0.03664875
0.3963533 -0.053403139 0.09530592
0.40018529 -0.28465509 0.014042854
0.39051229 -0.05334115 0.095450878
0.38976431 -0.0073341131 0.11161661
0.3891353 0.031310916 0.12519455
0.41138831 0.34971887 -0.35558844
0.39049631 -0.41830516 -0.032675266
0.3760843 0.12238789 0.15744257
0.39582229 0.3238849 -0.2857542
0.38454431 -0.41822016 -0.032519341
0.38052231 -0.16120815 0.05779171
0.38468429 0.28287488 -0.17191219
0.37653929 -0.28435016 0.014643669
0.3746483 -0.16114116 0.057936668
0.36451429 0.12248486 0.15771675
0.36728629 0.18812788 0.092924595
0.36528131 0.071431875 0.13977861
0.37062931 -0.28427613 0.014793873
0.36965629 -0.21954405 0.037538528
0.36149529 0.18803889 0.091903687
0.36131629 -0.053041101 0.096164703
0.36198729 -0.098556161 0.080172539
0.35570231 0.18795091 0.090881824
0.35548031 -0.052983165 0.096307755
0.36255229 0.24734288 -0.076019287
0.34716529 0.12262589 0.15812969
0.3499063 0.18786091 0.08986187
0.34964231 -0.052927136 0.096447468
0.3489933 -0.0069391131 0.11260653
0.34844831 0.031688869 0.12617874
0.3652193 0.32350188 -0.29138947
0.35909531 0.32342392 -0.29251432
0.34610429 -0.21927607 0.038123608
0.3356033 0.1227169 0.15840292
0.33512631 0.15799892 0.17080688
0.34217229 0.22339988 -0.012602329
0.33683029 0.031789899 0.12645674
0.33628729 0.2233119 -0.013647556
0.34955531 0.34897387 -0.36706018
0.3335613 -0.16069806 0.058951855
0.3240433 0.12280488 0.15867567
0.32571229 -0.0067310929 0.11316681
0.3292813 -0.28378808 0.015827656
0.3284483 -0.21908414 0.038560867
0.33457929 0.3231079 -0.29700518
0.31862131 0.22304589 -0.016774178
0.31463832 -0.052603126 0.097293854
0.31311131 0.07186389 0.14102077
0.31747231 -0.28365815 0.016120911
0.31596231 -0.1605221 0.059379578
0.3064653 0.15757191 0.16619968
0.30930629 0.18722391 0.082749844
0.31273031 0.2229569 -0.017815113
0.32477632 0.34866488 -0.37162828
0.31009731 -0.16046512 0.059523582
0.30350131 0.18713087 0.081738472
0.3029753 -0.052502155 0.097572803
0.3019903 0.032075882 0.12728357
0.29515231 0.12301391 0.15935278
0.29903132 -0.21878314 0.039281845
0.29714429 0.24639189 -0.087691307
0.3002713 0.2817179 -0.18717337
0.2945013 -0.34110916 -0.0035691261
0.28548431 -0.052356124 0.097988605
0.29775831 0.3226229 -0.30371809
0.28939831 -0.41702116 -0.030112267
0.27965632 -0.052309155 0.098128796
0.29161531 0.32254088 -0.30483341
0.27444932 0.18665987 0.076692581
0.2738283 -0.052262068 0.098265648
0.28214329 0.28145891 -0.19042253
0.28547132 0.32245791 -0.30594921
0.27751732 -0.4168911 -0.029818535
0.27616531 -0.28323412 0.017133713
0.2749193 -0.16014314 0.060369492
0.2742883 -0.097740054 0.082290649
0.2671693 0.032335877 0.12810373
0.26677832 0.072198868 0.14210653
0.2702643 -0.28317714 0.01727581
0.2690573 -0.16009212 0.060511589
0.26844531 -0.097692132 0.082429886
0.26375231 -0.21845412 0.040132523
0.2640003 0.28119588 -0.19366312
0.25520131 0.072275877 0.14237452
0.26892832 0.3479479 -0.38186026
0.25676331 -0.097600102 0.082706451
0.25199732 -0.21835208 0.040415764
0.25472331 0.32203889 -0.31151438
0.25649831 0.34778386 -0.38412809
0.24716932 -0.34063816 -0.0024142265
0.23741531 0.12338191 0.16068745
0.23756331 0.15639687 0.15439463
0.23534229 -0.34053111 -0.0021305084
0.22788832 0.1858809 0.06867075
0.22657031 0.032604873 0.12904549
0.22849232 -0.21815908 0.040973663
0.22756732 -0.097383142 0.083391666
0.22030631 0.15609288 0.15146446
0.2210573 -0.0059460998 0.11562681
0.2276713 0.28065991 -0.20012236
0.22077331 0.032639921 0.12917852
0.22048029 0.072489917 0.14317465
0.23162031 0.34745187 -0.38865137
0.2145493 0.1559909 0.15049267
0.21623132 0.18568188 0.066674709
0.2155703 -0.05184412 0.099629879
0.2087923 0.1558879 0.14951944
0.20943731 -0.0058740973 0.11589575
0.20917732 0.032708883 0.12944555
0.20362931 -0.0058391094 0.11602974
0.2076523 0.2450099 -0.10342932
0.21160731 0.3214339 -0.31927252
0.20541131 -0.28262115 0.018824577
0.19873731 0.18537986 0.063688755
0.2034173 0.28029388 -0.20441151
0.19734131 0.072618902 0.14370489
0.19876431 -0.15955508 0.062168598
0.19838232 -0.097187161 0.084070683
0.1915103 0.15557587 0.14660454
0.19228031 -0.051700115 0.1001668
0.2004793 0.3470279 -0.39428949
0.18970931 0.24472088 -0.10655451
0.1803993 -0.0057080984 0.11656046
0.1807583 0.32098991 -0.32478952
0.1753473 -0.15940511 0.062710762
0.17504132 -0.097046137 0.084607601
0.1689983 -0.051568091 0.10069847
0.1687873 -0.0056471229 0.11682558
0.1686103 0.032926917 0.13036966
0.1684273 0.07276392 0.14435863
0.16976231 -0.21774316 0.042347908
0.16840431 0.3208099 -0.32699251
0.15690631 0.15493989 0.14080667
0.1573583 -0.051507115 0.10096264
0.16090831 0.27963591 -0.21188736
0.15850732 -0.33993614 -0.00031518936
0.15802032 -0.21767211 0.042617798
0.15108231 0.072841883 0.14474869
0.1560463 0.32062787 -0.32919025
0.15681031 0.34641689 -0.40215254
0.1523883 -0.28225613 0.020061493
0.14874731 0.27944487 -0.21401453
0.14986432 0.3205359 -0.33028936
0.15056431 0.34632891 -0.40327215
0.1393663 0.12385589 0.16290188
0.1395843 0.15461487 0.13792181
0.14101931 -0.41572213 -0.026556492
0.1374923 0.3203519 -0.33248329
0.13454232 -0.21753907 0.043154716
0.13438131 -0.15917611 0.063646793
0.1278373 0.12389886 0.16315889
0.13181531 0.34605992 -0.40662813
0.12883231 -0.28212106 0.020600796
0.12867332 -0.21750915 0.0432868
0.12207331 0.1239199 0.16328669
0.1233803 0.21985888 -0.050625324
0.1174363 0.21975392 -0.051636219
0.11831431 0.2789579 -0.2193203
0.11647731 0.033153892 0.13153887
0.11930731 0.3458789 -0.40886211
0.11693831 -0.21745014 0.043552876
0.11148931 0.2196489 -0.052645206
0.1106853 0.033174872 0.13166666
0.11062431 0.073000908 0.14564991
0.11304831 0.34578788 -0.40997934
0.11137231 -0.41554606 -0.025876522
0.11125631 -0.33966005 0.00076770782
0.11088431 -0.096727133 0.086060524
0.10478331 0.1239779 0.16366768
0.10554231 0.21954387 -0.053654194
0.10577731 0.24332291 -0.12102652
0.10678931 0.34569591 -0.41109514
0.10535131 -0.33963013 0.00090169907
0.099021308 0.1239959 0.16379452
0.099182308 -0.051251113 0.1022687
0.10052931 0.34560388 -0.41220951
0.09944731 -0.33960116 0.0010356903
0.099334307 -0.21737015 0.04394865
0.093464307 0.18347687 0.045955658
0.09336631 -0.051229119 0.10239887
0.093314305 0.033235908 0.13205147
0.087527305 0.15361589 0.12932158
0.08768931 0.21922588 -0.056672096
0.088002309 0.34541887 -0.41443729
0.081733309 -0.096615076 0.086708546
0.075918309 -0.051170111 0.10278368
0.075848304 -0.28187311 0.021794796
0.075885311 -0.15892613 0.064956665
0.069927305 -0.33947313 0.0016965866
0.07000231 -0.21725416 0.044601917
0.06434831 0.1531589 0.12552357
0.064289309 -0.051135123 0.10303879
0.06440331 0.073139906 0.14666462
0.064077303 -0.28182912 0.02205658
0.058547307 0.15304291 0.12457657
0.058253307 0.18280888 0.04011488
0.056902308 0.3191129 -0.34667444
0.058026306 -0.41530108 -0.024676323
0.05278831 0.033350885 0.13293886
0.047166307 0.12412786 0.16492367
0.045969307 0.21846688 -0.063686371
0.044092309 0.34475887 -0.42221022
0.046314307 -0.33938909 0.0022206306
0.046646308 -0.1588341 0.065599918
0.041297305 0.073192894 0.14716578
0.040412307 -0.33937013 0.0023498535
0.040799309 -0.15881908 0.065726757
0.040933307 -0.096495152 0.087603569
0.032042306 0.31871688 -0.35101318
0.034952305 -0.15880406 0.065855503
0.029401306 -0.051049113 0.10379887
0.027531307 0.24194586 -0.1343112
0.025244307 0.3444699 -0.42553139
0.021500308 0.24183691 -0.13532734
0.020620309 0.27732891 -0.23616028
0.013375305 0.31841689 -0.35426044
0.017411307 -0.15876508 0.066234589
0.017621309 -0.09644413 0.08810854
0.012096308 0.15210187 0.11703968
0.011209309 0.18189192 0.032381535
0.012130305 -0.0051211119 0.12028265
0.0083753094 0.27711689 -0.23825121
0.010902308 -0.33929408 0.00299263
0.0063293055 -0.0051131248 0.12040567
0.0022483096 0.27701092 -0.23929453
0.006483309 0.033437908 0.13393784
0.00033330917 -0.050999105 0.10442257
-0.0038786903 0.27690387 -0.24033833
0.00069531053 0.033445895 0.13406086
-0.00090268999 -0.33927214 0.0032477379
-0.0006556958 -0.28166008 0.023466587
-0.0054796934 -0.050991118 0.10454655
-0.005268693 -0.0050981045 0.12065268
-0.011541694 0.31800991 -0.35858154
-0.0062426925 -0.2170651 0.046261787
-0.012355693 0.18142188 0.028536797
-0.013781697 0.21734387 -0.073628426
-0.011292696 -0.050984085 0.10467291
-0.012105696 -0.21705711 0.046386719
-0.019766696 0.21722889 -0.074617386
-0.016457692 0.073276877 0.14840078
-0.023169696 -0.096389055 0.088980675
-0.03174369 0.21699792 -0.076594353
-0.028008692 0.073284864 0.14864683
-0.030074693 -0.28162205 0.024094582
-0.033471696 0.12422889 0.16664648
-0.03446769 0.1511299 0.10956669
-0.034263693 -0.0050731301 0.12126875
-0.044970699 0.24060792 -0.14644241
-0.048977695 0.31738687 -0.36503839
-0.041840695 -0.28161407 0.024343491
-0.044990696 0.12423289 0.16688967
-0.049722694 0.21664691 -0.079549313
-0.052969687 0.27603388 -0.24865437
-0.045602687 0.033480883 0.13503981
-0.045334689 0.073291898 0.14901066
-0.046477698 -0.096376061 0.089470863
-0.050749697 0.1242339 0.16700983
-0.055719696 0.21652991 -0.080533504
-0.05708269 0.2403779 -0.14845228
-0.054549687 -0.41507912 -0.022246361
-0.05401469 -0.33922017 0.0043745041
-0.052742697 -0.15869105 0.067725658
-0.063140698 0.24026287 -0.1494565
-0.057176687 0.033481896 0.13528156
-0.059915699 -0.33922017 0.0044975281
-0.062962689 0.033481896 0.13540363
-0.062657692 0.073292911 0.14937162
-0.065816693 -0.33922017 0.0046195984
-0.065375693 -0.28161108 0.024835587
-0.068749689 0.033479869 0.13552284
-0.077619694 -0.33922505 0.0048656464
-0.077143691 -0.28161514 0.025080681
-0.079546697 0.12422889 0.16760969
-0.081145696 0.15012687 0.1021595
-0.08104869 -0.050966084 0.10613585
-0.080324687 0.033475876 0.13576365
-0.086861692 -0.050970137 0.10625458
-0.096028693 0.27524889 -0.25588846
-0.099008687 0.31653291 -0.37360716
-0.088910691 -0.28162313 0.025323868
-0.097748689 0.21569288 -0.087395191
-0.10527169 0.31642389 -0.37467527
-0.095322691 -0.33923912 0.0052309036
-0.098053686 -0.0050861239 0.12259674
-0.10560469 0.23944187 -0.15645838
-0.09951169 -0.1587131 0.068695545
-0.1097757 0.21544987 -0.089347363
-0.10712669 -0.33925414 0.0054726601
-0.11179369 -0.21706605 0.048465729
-0.1141037 0.12420088 0.16832447
-0.11971969 -0.41513515 -0.020904541
-0.11892969 -0.3392731 0.0057115555
-0.1212487 -0.0051140785 0.12307262
-0.12991169 0.23896289 -0.16044044
-0.13385171 0.21495789 -0.093241215
-0.1275557 -0.051018119 0.10708857
-0.1315707 -0.41516006 -0.020664215
-0.13073468 -0.3392961 0.0059504509
-0.1319617 0.073233902 0.15079975
-0.1374957 -0.41517413 -0.02054739
-0.13459069 -0.1587671 0.069409847
-0.13965869 0.1488269 0.092986584
-0.13773668 0.073223889 0.15091658
-0.1418677 -0.28170907 0.026399612
-0.16173768 0.31542689 -0.38425255
-0.15436569 0.17843992 0.0057935715
-0.15081269 -0.05106312 0.10755873
-0.15213171 -0.15880609 0.069761753
-0.15724969 0.1484279 0.090255737
-0.15506569 0.073191881 0.15126753
-0.15952268 -0.28175616 0.026752472
-0.16047969 0.1231299 0.16127491
-0.16624868 0.17817891 0.0039224625
-0.16244069 -0.051090121 0.10779047
-0.1608417 0.073179901 0.15138483
-0.17219371 0.1780479 0.002989769
-0.1824517 0.27361488 -0.27024031
-0.1720517 -0.33941114 0.0067725182
-0.19318369 0.31485891 -0.3895483
-0.17468169 -0.096544147 0.092089653
-0.17988569 -0.05113709 0.10813951
-0.19082671 0.2377339 -0.17033529
-0.1787217 0.03331989 0.13776445
-0.17817271 0.073137879 0.15173149
-0.1994817 0.31474286 -0.3906064
-0.18217471 -0.21723711 0.04987669
-0.18051171 -0.096561074 0.092205524
-0.18976271 -0.33947611 0.0071196556
-0.18952569 0.12243789 0.15685558
-0.19248271 0.14761591 0.08481884
-0.20022571 0.21356589 -0.10387516
-0.19029969 0.03328687 0.13799572
-0.18972671 0.073107898 0.1519618
-0.19675869 -0.41537607 -0.019379139
-0.19534069 0.12229788 0.15597582
-0.2183817 0.3143959 -0.39377213
-0.19977269 -0.21730113 0.050221443
-0.2011587 0.12215787 0.15509462
-0.22468871 0.3142789 -0.39482641
-0.20747569 -0.33955014 0.0074634552
-0.20382971 -0.096639156 0.092665672
-0.2082617 -0.0053271055 0.12481451
-0.22582069 0.27276492 -0.2773571
-0.20767069 0.033232868 0.13833857
-0.20706069 0.073055863 0.15230656
-0.23099571 0.3141619 -0.39587927
-0.2145417 -0.41545808 -0.019037247
-0.2096597 -0.096660137 0.092779636
-0.2274757 0.23697388 -0.17623234
-0.21861771 0.073017895 0.15253353
-0.2223137 -0.15904307 0.071143627
-0.23232669 -0.41555107 -0.018697262
-0.22816271 -0.15906906 0.071257591
-0.25065169 0.2722699 -0.28140831
-0.24368969 0.17643487 -0.008143425
-0.23804969 -0.051347136 0.10928059
-0.24881369 -0.33976007 0.0082535744
-0.24968469 -0.051398098 0.10950565
-0.26929671 0.27189392 -0.28443623
-0.25604469 -0.41568911 -0.018251419
-0.2504777 -0.096834064 0.093571663
-0.2535997 0.12087089 0.14722252
-0.25726071 0.1460799 0.074942589
-0.25845671 -0.21757507 0.051350594
-0.26132271 -0.051453114 0.10973072
-0.2878657 0.31308788 -0.40532732
-0.27356669 0.17574191 -0.012741089
-0.2671417 -0.051482081 0.10984278
-0.28259471 0.23580289 -0.18502045
-0.29419571 0.31296688 -0.4063735
-0.27019569 -0.21764207 0.051571846
-0.28506771 0.21171087 -0.11725521
-0.27138269 0.032978892 0.13958073
-0.27976871 -0.41584611 -0.017811298
-0.27835071 -0.3399421 0.0088076591
-0.27381071 -0.096952081 0.09401989
-0.2787807 -0.05154109 0.11006355
-0.3004187 0.27125788 -0.2894702
-0.27717671 0.032950878 0.13969278
-0.2846027 -0.051572084 0.1101737
-0.28371671 -0.0056511164 0.12627649
-0.28297171 0.032922864 0.13980389
-0.2866827 -0.15937412 0.072372913
-0.29269671 0.14521587 0.069607735
-0.29750571 0.17517787 -0.016404152
-0.29042271 -0.051604092 0.11028576
-0.29253569 -0.15940917 0.072482586
-0.2986097 0.1450699 0.068720818
-0.3003467 0.11969191 0.14029551
-0.30788571 -0.051704109 0.11061573
-0.30694371 -0.0057761073 0.12671852
-0.3053337 0.072644889 0.15421581
-0.31636271 0.1446299 0.066069603
-0.31275269 -0.005810082 0.12682772
-0.34492671 0.31197989 -0.41471815
-0.31717169 -0.2179451 0.052447796
-0.31953171 -0.051775098 0.11083269
-0.31774569 0.032737911 0.14046478
-0.35127869 0.31185389 -0.41575909
-0.32563069 -0.34028709 0.0096726418
-0.3230457 -0.21798706 0.052554607
-0.3282077 0.1443339 0.064306736
-0.3576327 0.31172889 -0.41679811
-0.3303057 -0.28267312 0.029997826
-0.33117869 -0.051849127 0.11105061
-0.33745471 -0.34038413 0.0098867416
-0.33479369 -0.21807408 0.052769661
-0.33352369 -0.15968311 0.073241711
-0.34504369 -0.41637015 -0.016631126
-0.33800671 -0.09734714 0.095220566
-0.36253071 0.2340439 -0.19759417
-0.3409377 0.032599866 0.14090061
-0.35097969 -0.41642416 -0.016526222
-0.3452397 -0.15976906 0.073457718
-0.35750371 0.1737349 -0.025493145
-0.3544777 -0.052007079 0.11148167
-0.37486169 0.2337659 -0.19951439
-0.35253569 0.03252691 0.14111662
-0.35978371 -0.28291607 0.030528545
-0.35829771 -0.21826005 0.053195477
-0.35695571 -0.15985811 0.073670864
-0.35552269 -0.097472072 0.095542908
-0.35896569 0.11817187 0.13172865
-0.35923371 -0.0061041117 0.12769461
-0.3878707 0.26941592 -0.30345821
-0.35833469 0.032488883 0.14122581
-0.37473169 -0.41665316 -0.01611042
-0.37293971 -0.34070015 0.010516644
-0.36720371 -0.097560048 0.095755577
-0.38866469 0.20933288 -0.13326931
-0.37747669 -0.28307414 0.030841827
-0.4066717 0.26900989 -0.30643749
-0.38039571 -0.16004908 0.074093819
-0.39360669 0.1728459 -0.030901432
-0.3824867 -0.0062701106 0.12812281
-0.3876887 -0.21851408 0.053719521
-0.38472769 -0.097698092 0.096072674
-0.38835469 0.11739188 0.1274848
-0.40701571 0.2088989 -0.1360693
-0.3951757 -0.28324115 0.031153679
-0.39423871 0.11723489 0.12663746
-0.39527169 -0.052315116 0.11222553
-0.3964147 -0.097795129 0.096282482
-0.43177372 0.26846188 -0.31039524
-0.44046968 0.31005388 -0.43024635
-0.4060117 0.11691791 0.1249485
-0.4253847 0.20845991 -0.13886213
-0.41121271 -0.21873307 0.054136753
-0.41276169 -0.052458167 0.11254072
-0.41709471 -0.21879113 0.054237843
-0.42979169 0.17193788 -0.03627634
-0.41859472 -0.052508116 0.11264467
-0.42620373 -0.34124613 0.011438847
-0.4358297 0.17178488 -0.03717041
-0.42110771 0.071901917 0.15637255
-0.4305867 -0.28360307 0.031766891
-0.42901868 -0.0066381097 0.12896681
-0.4632057 0.26776588 -0.31532955
-0.44009572 -0.41737413 -0.014998436
-0.4364897 -0.28366709 0.03186655
-0.44116569 0.14141989 0.047753811
-0.45604968 0.20771891 -0.14349842
-0.44829571 -0.50008106 -0.043862343
-0.44138771 0.11595589 0.11990547
-0.44065869 -0.006737113 0.12917566
-0.46765268 0.23162287 -0.21382332
-0.43959367 0.031881869 0.14271069
-0.4738577 0.23147589 -0.21476936
-0.45581669 -0.34158611 0.011935711
-0.45077169 -0.16070616 0.075332642
-0.4490307 -0.098270059 0.097215652
-0.46011269 -0.28393209 0.032265663
-0.4591037 0.11546689 0.11739874
-0.46504867 0.14078289 0.044313908
-0.4607287 -0.098385096 0.097419739
-0.47102368 0.1406219 0.043455601
-0.49248773 0.23103291 -0.2176075
-0.46168071 0.07157588 0.15710688
-0.47578168 -0.4178251 -0.014410496
-0.4709267 0.11513889 0.11573267
-0.47684067 0.1149739 0.11489964
-0.47559071 -0.0070551038 0.12979269
-0.48275769 0.11480892 0.11406946
-0.51994169 0.26648492 -0.32415915
-0.49137372 -0.34202909 0.012522697
-0.49306673 -0.0072250962 0.13009787
-0.5014807 -0.28443515 0.032954693
-0.49774069 -0.16121614 0.076134682
-0.50052172 0.11430889 0.11158371
-0.50693071 0.1396479 0.038331509
-0.50030369 -0.053287148 0.11407852
-0.49770868 0.031359911 0.1437397
-0.51330572 -0.2845881 0.033147812
-0.50933969 0.031246901 0.14394379
-0.51536471 -0.16142309 0.076430798
-0.51830471 0.11380488 0.10910559
-0.52513272 -0.28474414 0.0333395
-0.53884369 0.16910487 -0.052201271
-0.52220672 -0.0075221062 0.13060379
-0.5209747 0.03113091 0.14414692
-0.51970172 0.071048915 0.15813351
-0.5251267 -0.099078059 0.098522663
-0.52951872 -0.053604126 0.11457777
-0.57054973 0.26531386 -0.33195639
-0.53882569 -0.3426801 0.013287544
-0.53696573 -0.28490508 0.033530712
-0.5447607 -0.34276617 0.013379574
-0.5388757 -0.1617111 0.076819897
-0.56694269 0.20494992 -0.16000843
-0.54880071 -0.28507006 0.03371954
-0.54667473 -0.22029412 0.056416512
-0.5447557 -0.16178513 0.076916695
-0.54799169 0.1129539 0.10499859
-0.5631817 0.16845292 -0.055698395
-0.5470587 -0.053804159 0.11487389
-0.58957171 0.26486689 -0.33486938
-0.54425269 0.030889869 0.14454889
-0.55663472 -0.34294116 0.013567448
-0.5625717 -0.3430301 0.013660908
-0.55651772 -0.16193616 0.077110767
-0.55988169 0.11260986 0.10336351
-0.56695771 0.13798189 0.029867649
-0.55875373 -0.053941131 0.11507082
-0.57297373 0.1378119 0.029027462
-0.59169471 0.20431292 -0.16363811
-0.56035972 0.070638895 0.1588378
-0.5744487 -0.34321213 0.01384449
-0.56828272 -0.16209114 0.077301502
-0.57178068 0.1122629 0.10173082
-0.57899171 0.13764191 0.028188705
-0.56617069 0.070577919 0.15893888
-0.57201868 -0.099646091 0.099301815
-0.58584672 -0.50218511 -0.041727543
-0.57630569 -0.054153085 0.11536264
-0.58896971 -0.41952109 -0.012642384
-0.58633071 -0.34339809 0.014027596
-0.5843277 -0.2855891 0.034280777
-0.58005267 -0.16224909 0.07749176
-0.57788569 -0.099721074 0.099397659
-0.59103572 0.1372999 0.026511669
-0.6102857 0.20382988 -0.16635227
-0.58054769 -0.0081760883 0.1315918
-0.57779771 0.070451915 0.15913677
-0.58375072 -0.09979713 0.099493504
-0.58964771 0.11173892 0.099289894
-0.59706068 0.13712889 0.025673866
-0.63404667 0.26380789 -0.34163523
-0.58961773 -0.099874139 0.099589825
-0.62980467 0.22765088 -0.23818254
-0.6098147 -0.50261617 -0.041380405
-0.60157269 0.11138791 0.097667694
-0.64235169 0.22733086 -0.2400341
-0.61395669 -0.28605008 0.034737587
-0.64132172 0.2030139 -0.17085934
-0.60974967 -0.0085310936 0.13207769
-0.6595217 0.26319289 -0.34548521
-0.6130957 -0.10018909 0.099969864
-0.6278007 -0.5029521 -0.041121483
-0.65490669 0.22700989 -0.24188137
-0.66589773 0.26303691 -0.34644747
-0.61416769 0.030093908 0.14572859
-0.62581468 -0.28624213 0.034917831
-0.62716269 -0.16291916 0.078240871
-0.63767773 -0.28643715 0.035095692
-0.63895071 -0.16309607 0.0784235
-0.65179569 -0.50341713 -0.040783405
-0.64337772 0.11013889 0.092022896
-0.65139967 0.13555992 0.018184662
-0.63598073 0.069783866 0.16011858
-0.65779668 -0.50353611 -0.040699482
-0.66061968 -0.42080307 -0.011596203
-0.65547669 -0.28673816 0.03536272
-0.64833969 -0.10068715 0.10053062
-0.66350269 0.13520491 0.01652956
-0.6566397 -0.16336811 0.078698635
-0.66980273 -0.5037781 -0.040534496
-0.69111669 0.20168287 -0.17802525
-0.65652168 -0.0091410875 0.13284063
-0.67257673 -0.42103314 -0.011427402
-0.66960567 -0.34482014 0.015268803
-0.6673497 -0.28694415 0.03553772
-0.66253668 -0.16346014 0.078790665
-0.6600967 -0.10086012 0.10071564
-0.66237271 -0.0092211366 0.13293457
-0.67331272 0.10923088 0.088021755
-0.68167371 0.1346699 0.014057636
-0.67922568 -0.28715408 0.035713673
-0.67433572 -0.16364813 0.078969479
-0.68781769 -0.50415015 -0.040288448
-0.6977517 0.16471791 -0.074673176
-0.71784967 0.22537386 -0.2510705
-0.69382471 -0.50427711 -0.040206432
-0.72232372 0.20083487 -0.18247652
-0.68765569 -0.055667162 0.11715555
-0.73047268 0.22504091 -0.25289822
-0.70248473 -0.42162716 -0.011009216
-0.69204271 -0.16393614 0.079239845
-0.68950468 -0.10130811 0.10117149
-0.72857368 0.20066386 -0.18336344
-0.72235268 0.1640119 -0.078076363
-0.74310368 0.22470587 -0.25472355
-0.69425869 0.069044888 0.16107655
-0.70893568 -0.28769612 0.036142826
-0.70335871 -0.0098010898 0.13358688
-0.70009369 0.068966866 0.16117191
-0.72044373 -0.42199707 -0.010764122
-0.70975971 -0.16423309 0.07950449
-0.72416568 0.13340092 0.0083217621
-0.73466969 0.16365588 -0.079770088
-0.74733973 0.20014691 -0.18602037
-0.75574869 0.22436887 -0.25654554
-0.71305072 -0.10168207 0.10153246
-0.73024571 0.13321692 0.0075058937
-0.73242068 -0.42225015 -0.010604382
-0.72921169 -0.34596515 0.016110897
-0.72157568 -0.16443515 0.07968092
-0.7273497 0.10756189 0.080883503
-0.73632771 0.13303292 0.0066895485
-0.78113967 0.26016289 -0.36361551
-0.7274847 -0.16453707 0.079768658
-0.72877067 -0.056300163 0.11779165
-0.74440271 -0.42250609 -0.010443211
-0.7333957 -0.16464114 0.079854488
-0.7307207 -0.10197115 0.10180092
-0.77239871 0.19945091 -0.18955135
-0.73930871 -0.16474509 0.07994175
-0.76550668 0.16275591 -0.083993435
-0.75308567 -0.34645307 0.016436577
-0.74250668 -0.10216808 0.10197878
-0.75998467 -0.50574911 -0.039342403
-0.76068568 0.13229191 0.0034418106
-0.80687672 0.25950289 -0.36739635
-0.75905669 -0.34657705 0.016518593
-0.75652868 -0.28861713 0.03681469
-0.75745869 0.1066159 0.076951504
-0.81331772 0.25933689 -0.36834145
-0.74679971 0.06831789 0.16191959
-0.7634877 0.10642487 0.076168537
-0.77287972 0.13191789 0.0018224716
-0.76019371 -0.10247016 0.10224056
-0.76027369 0.028090894 0.14807749
-0.78037971 -0.42330515 -0.0099720955
-0.78508568 0.13154191 0.00020885468
-0.79641068 0.16184288 -0.088193417
-0.81006968 0.1983909 -0.19482327
-0.7699427 -0.0569731 0.11841774
-0.81913668 0.22265291 -0.2656045
-0.78295469 -0.34708714 0.016839504
-0.78035468 -0.28910315 0.037139893
-0.7774387 -0.22410214 0.059900761
-0.80259871 0.16165787 -0.089030266
-0.77374268 -0.010885119 0.13467646
-0.78893268 -0.34721708 0.016917706
-0.8226487 0.19803387 -0.19657326
-0.79491073 -0.34734809 0.016996861
-0.79367471 0.1054619 0.072267532
-0.80089271 -0.34748113 0.017075539
-0.79823673 -0.28947806 0.037381649
-0.79525971 -0.22445607 0.060148716
-0.79257071 -0.16572607 0.080710888
-0.79971969 0.10526687 0.071491718
-0.82118273 0.16110188 -0.091537476
-0.8103947 -0.42400312 -0.0095911026
-0.79560268 -0.10309815 0.10275984
-0.82738173 0.16091591 -0.09237051
-0.79938668 -0.05747807 0.11885548
-0.79544067 0.027540863 0.14861965
-0.81285572 -0.34774816 0.017230511
-0.8044197 -0.16595411 0.080878735
-0.81181669 0.10487688 0.069940567
-0.82176369 0.1304009 -0.0046133995
-0.84784269 0.19731289 -0.20006514
-0.87142467 0.25781888 -0.37680244
-0.79943371 0.067532897 0.16274261
-0.82240772 -0.42429006 -0.0094394684
-0.81883872 -0.34788406 0.017309666
-0.81612867 -0.28986216 0.037622452
-0.87789571 0.25764787 -0.37773752
-0.80528772 0.067441881 0.16283369
-0.82482368 -0.34802008 0.017386913
-0.81627369 -0.16618609 0.081044674
-0.86045772 0.19694889 -0.20180416
-0.87005568 0.2212429 -0.27279329
-0.83836269 -0.50768113 -0.038383484
-0.82998371 0.10428691 0.067621708
-0.8401407 0.1298219 -0.0070114136
-0.82296371 -0.057897091 0.11920071
-0.83403373 -0.29025507 0.037857533
-0.8646397 0.15978587 -0.097353458
-0.87939972 0.19639987 -0.20440912
-0.90381271 0.25695789 -0.3814764
-0.84877872 -0.3485781 0.017690659
-0.84597671 -0.29052305 0.038013458
-0.8564797 -0.50815606 -0.038171291
-0.84817368 0.10369289 0.065311909
-0.91030067 0.25678492 -0.3824091
-0.85477167 -0.34872007 0.017766476
-0.85195172 -0.29065812 0.038090706
-0.84878969 -0.22557008 0.060875893
-0.87708271 0.15940487 -0.099006176
-0.8424027 0.026763916 0.14932871
-0.8708207 0.1288479 -0.010987282
-0.92328274 0.25643587 -0.3842721
-0.8463037 0.066785872 0.16345978
-0.8667587 -0.34900713 0.017915726
-0.86390167 -0.29093206 0.038244724
-0.85836869 -0.058552146 0.11970949
-0.87275469 -0.34915316 0.017988682
-0.86987972 -0.2910701 0.038319588
-0.88311172 0.12845391 -0.012571335
-0.86427373 -0.05866313 0.11979485
-0.8619687 -0.012399137 0.13598776
-0.92116272 0.21980089 -0.2799325
-0.86003268 0.026460886 0.14958954
-0.8825627 -0.42579412 -0.0087122917
-0.8787517 -0.34929907 0.018063545
-0.87585771 -0.2912091 0.038397789
-0.86655372 -0.10444808 0.10376883
-0.92756569 0.2196179 -0.28082132
-0.88462669 0.10248792 0.060718536
-0.87839872 -0.10468507 0.10393286
-0.90157068 0.12785888 -0.014939308
-0.88199872 -0.059004068 0.12004471
-0.8796497 -0.012724102 0.13624287
-0.89380473 -0.29163408 0.038621902
-0.90772772 0.12765992 -0.01572752
-0.88151067 0.066194892 0.16398764
-0.89345771 -0.16778314 0.082095623
-0.89382273 -0.059235096 0.12021065
-0.8874687 0.066017866 0.16350174
-0.89940572 -0.16791213 0.082173824
-0.89346272 0.065807879 0.16278076
-0.90565068 -0.059470057 0.12037468
-0.89945871 0.065597892 0.16205788
-0.91300172 0.025507867 0.15036154
