# .PCD v0.7 - Point Cloud Data file format
VERSION 0.7
FIELDS x y z
SIZE 4 4 4
TYPE F F F
COUNT 1 1 1
WIDTH 1
HEIGHT 1024
VIEWPOINT 0 0 0 1 0 0 0
POINTS 1024
DATA ascii
0.98588276 0.068273902 -0.18360424
1.0046628 0.12479687 -0.36450005
0.97148973 0.024882853 -0.12389517
0.96324372 -0.012509108 -0.10827208
0.95668876 0.23392785 -0.10486317
1.0019717 0.068032861 -0.48481226
0.98357671 0.12689584 -0.34876013
0.95442373 0.09964788 -0.22471619
0.93094075 0.074541867 -0.14035606
0.95563877 0.12966186 -0.32796001
0.92309576 0.23682785 -0.080767155
0.92670774 0.027729869 -0.10820198
0.92480576 0.074663877 -0.14017296
0.92881775 0.1962499 -0.17085314
0.92120576 -0.095736086 -0.11264515
0.91882676 -0.047872126 -0.094453335
0.92687172 0.10264087 -0.20312214
0.92204076 0.19686484 -0.16592598
0.91287273 -0.047886133 -0.095332146
0.91528273 0.027179897 -0.11388493
0.91254175 0.074906886 -0.13980818
0.92040074 0.10302287 -0.20073509
0.91527677 0.19747889 -0.16101027
0.89635175 0.073078871 -0.15663528
0.89226371 -0.096913159 -0.12427807
0.86402273 0.13392287 0.052311897
0.86646575 0.1716699 0.032838821
0.87834471 -0.049388111 -0.11028099
0.85594171 0.13041186 0.02174902
0.86729372 0.20776188 -0.070042133
0.84881675 0.097085893 0.031277657
0.85051674 0.12417185 -0.031437874
0.86393273 -0.098952115 -0.14149809
0.84334475 0.090598881 -0.021751881
0.84365374 -0.13280708 -0.074189186
0.84221876 0.11462486 -0.11277294
0.84453976 0.23260188 -0.13223934
0.83039373 0.0417189 -0.013609886
0.83497572 0.08067286 -0.10284615
0.81080776 0.018826902 0.10134697
0.79889071 -0.06142813 0.10275698
0.79732072 -0.015748143 0.11621809
0.79913676 0.018917859 0.10064507
0.80102873 0.055040896 0.08441782
0.79767972 0.1017049 0.062447071
0.81990874 0.27841985 -0.12967491
0.82428372 0.19232488 -0.22070599
0.78567773 -0.0156551 0.11551666
0.78746676 0.019006848 0.099942684
0.81941772 0.19118088 -0.23204327
0.77941573 -0.05866611 0.11905193
0.77985871 -0.015611112 0.11516571
0.82201272 -0.22238916 -0.25481892
0.77294874 -0.057751119 0.12445688
0.79948872 0.33124787 -0.11030006
0.76996672 0.019135892 0.098895073
0.79108971 0.36408889 -0.089421272
0.78361171 -0.1237331 -0.022752285
0.76239973 -0.015480101 0.11412001
0.76593876 0.055290878 0.082319736
0.75455374 -0.056300104 0.13213778
0.75658172 -0.015437126 0.11377096
0.75830072 0.019217849 0.098198891
0.78143072 0.36235285 -0.11130714
0.77040875 -0.12175113 -0.011468887
0.76222277 0.21742785 0.0087966919
0.74875271 -0.056257129 0.13178873
0.75076473 -0.015396118 0.11342287
0.78316176 0.27379584 -0.18239212
0.78010374 0.32755589 -0.15446806
0.77167171 0.40875089 -0.077476025
0.76683074 0.40795189 -0.088362217
0.78097975 -0.21569508 -0.21860933
0.73912972 -0.015315115 0.11272812
0.75181371 0.24660987 -0.0049881935
0.74080771 0.019336879 0.097155094
0.74255574 0.055443883 0.080926895
0.76683372 0.35972589 -0.14438725
0.79744172 -0.30943507 -0.42844915
0.74234372 0.17273885 0.027878761
0.74449474 0.21751988 0.0077519417
0.74793774 0.28919786 -0.024465084
0.73497772 0.019374847 0.096807957
0.76314473 0.3266359 -0.16676092
0.79043072 -0.30820817 -0.42208433
0.74415475 -0.11782414 0.010933876
0.73645371 0.17276984 0.02753067
0.72749776 -0.015236139 0.1120348
0.72914773 0.019411862 0.096459866
0.78343374 -0.30698508 -0.41573429
0.72168273 -0.015198112 0.11168766
0.73834074 0.33741486 -0.04681015
0.74732071 0.40472686 -0.13224125
0.75389177 -0.21130317 -0.19476318
0.73110276 -0.11587912 0.022057056
0.76948273 -0.30455214 -0.40308619
0.74715275 -0.21021312 -0.18883801
0.71166074 0.019520879 0.095421791
0.70964575 0.10232788 0.057866096
0.70749575 0.055654883 0.078848839
0.72648275 0.40688288 -0.10646629
0.70165473 0.055687845 0.078502655
0.74865675 -0.30092913 -0.38422632
0.74174273 -0.29973012 -0.37797213
0.68835074 0.019655883 0.094041824
0.70261776 0.33755386 -0.048892975
0.69223672 -0.11011618 0.055112839
0.68098372 -0.014950156 0.10927391
0.69263172 0.24687988 -0.0084590912
0.68252474 0.019688845 0.093698978
0.70171773 0.45113486 -0.10030222
0.70417976 0.48462889 -0.12518311
0.68543273 0.2177949 0.0042858124
0.69572175 0.45115188 -0.10064793
0.72108275 -0.29615515 -0.35930109
0.67937875 -0.10822016 0.066028118
0.66757572 -0.055727124 0.12695312
0.68972576 0.45116886 -0.10099602
0.69121677 0.48529488 -0.11634111
0.66863275 0.10253388 0.05545187
0.66178071 -0.055695117 0.1266098
0.70737773 -0.29379112 -0.34693193
0.65773672 -0.014824152 0.1079011
0.67592674 0.40909988 -0.082754135
0.70054376 -0.29261512 -0.34077024
0.65991575 0.17312986 0.023036957
0.65018976 -0.055632114 0.12592602
0.66486472 0.2895329 -0.029316902
0.66816872 0.36724889 -0.064269066
0.66994876 0.40911686 -0.083101273
0.67173874 0.45121786 -0.10203505
0.65105975 0.10261387 0.054421902
0.64611572 -0.014765143 0.10721684
0.65893376 0.28955287 -0.029661179
0.66397071 0.40913385 -0.083446026
0.64520371 0.1026389 0.054079056
0.64030576 -0.014736116 0.10687494
0.65122873 0.24703789 -0.010873318
0.64175075 0.019895852 0.091296673
0.65624672 0.36728489 -0.064960957
0.63280672 -0.055543125 0.12490082
0.64531374 0.24705887 -0.011217117
0.65028375 0.36730188 -0.065306187
0.63010275 0.0199489 0.090613842
0.63157976 0.05603385 0.074381828
0.64776075 0.45127687 -0.1034193
0.66657871 -0.28678912 -0.31018829
0.62895572 0.13528186 0.038399696
0.63716471 0.33776689 -0.05269289
0.64006174 0.40919685 -0.0848279
0.64106375 -0.19324619 -0.09595108
0.62177974 0.10273385 0.052711964
0.62461174 0.17326486 0.020978928
0.62757671 0.24711686 -0.012247086
0.63714576 0.48542088 -0.11946011
0.61578673 -0.09890908 0.11986208
0.62050772 0.21803588 0.00050210953
0.62166476 0.24713588 -0.012589931
0.62526971 0.33779889 -0.053380966
0.60949075 -0.097994149 0.12517691
0.61575174 0.24715388 -0.012932301
0.60681176 0.02004689 0.089252949
0.60823274 0.056127846 0.073019028
0.62213272 0.40923989 -0.08586216
0.62513173 0.48544589 -0.12014914
0.60696274 0.17332387 0.019953728
0.60984075 0.24717188 -0.013275146
0.59693176 -0.096172154 0.13577271
0.59961677 0.13538587 0.036691666
0.60742676 0.33784586 -0.054409981
0.58802575 -0.014510155 0.10381508
0.60581475 0.45136788 -0.10583305
0.61957473 -0.2787891 -0.26799822
0.60209674 -0.18710214 -0.062021255
0.58488876 0.056212902 0.071660042
0.57916272 -0.095301092 0.13984776
0.57488376 -0.05529213 0.12151098
0.59069276 0.36745089 -0.068744183
0.59510672 0.48550087 -0.12186909
0.58920276 -0.18507916 -0.050817013
0.57494575 0.1028949 0.049987793
0.56909275 -0.055271149 0.1211729
0.58028674 0.24725187 -0.014984131
0.58784074 0.45140088 -0.10686588
0.56761277 -0.095257103 0.13917398
0.57769573 0.33791387 -0.05612421
0.58185077 0.45141187 -0.10720921
0.59299374 -0.27429813 -0.2442112
0.56323975 0.10292888 0.049309731
0.56155074 0.056286871 0.070304871
0.57175076 0.33792585 -0.056466103
0.58638072 -0.27318412 -0.23830032
0.55606371 -0.095215142 0.13849783
0.55172074 -0.05521214 0.12016392
0.56255674 0.24729389 -0.016004086
0.57977772 -0.27207309 -0.23240089
0.55268776 0.13552189 0.033976078
0.55403173 0.17347288 0.01689291
0.54737675 -0.01437211 0.10145283
0.54860371 0.020246863 0.085867882
0.56387973 0.45144087 -0.10823822
0.54014075 -0.055176139 0.11949205
0.55073875 0.24731886 -0.016685009
0.55391473 0.33795989 -0.057489872
0.55494976 0.3675189 -0.07079792
0.55908471 0.48555687 -0.12392712
0.54382277 0.21823889 -0.0039291382
0.53435177 -0.055159152 0.11915874
0.54630375 0.28984886 -0.036168098
0.54444474 -0.17810017 -0.012012005
0.53296673 -0.095141113 0.13715887
0.52995872 -0.014324129 0.10044479
0.53114474 0.020293891 0.084858894
0.54707873 0.48557186 -0.12461329
0.52719176 -0.095124185 0.1368227
0.53051275 0.17352486 0.015537739
0.53202671 0.21826285 -0.0046062469
0.52654672 0.056379855 0.068282127
0.53992271 0.45147386 -0.10960913
0.53175873 -0.17613417 -0.0010399818
0.52227372 0.10302889 0.046947002
0.52463377 0.17353588 0.015199661
0.52613074 0.21827388 -0.004942894
0.52852672 0.28987986 -0.037187099
0.53013676 0.33799887 -0.058854103
0.52023375 0.21828389 -0.0052819252
0.51254374 -0.014281154 0.099441051
0.50987172 -0.095079124 0.13582087
0.51287574 0.17355788 0.014524937
0.50540471 -0.055086136 0.11748505
0.52195674 0.45149589 -0.11063623
0.50937873 0.24739289 -0.019058228
0.50204974 0.02035886 0.083182812
0.5032137 0.05642885 0.066939831
0.5132587 0.36757988 -0.073184967
0.51460874 0.4094249 -0.092029095
0.52091169 -0.26223809 -0.1799593
0.49886873 0.10307288 0.045602798
0.50111669 0.17357689 0.013850689
0.49382675 -0.055061102 0.11681986
0.51443172 -0.2611621 -0.17420006
0.49255174 -0.09503907 0.1348238
0.49041373 0.020380855 0.082515717
0.49154973 0.056448877 0.066269875
0.50399172 0.45151389 -0.11166096
0.48936075 0.17359388 0.013177872
0.48224974 -0.055040121 0.1161561
0.49669573 0.40944386 -0.093050003
0.48771775 -0.16934818 0.036966801
0.48100674 -0.095017135 0.134161
0.48131773 0.10309988 0.044598103
0.48485574 0.21833485 -0.0073070526
0.48574874 0.24742287 -0.020410061
0.48853174 0.3380509 -0.061231136
0.49072474 0.40944886 -0.093390942
0.47760275 0.17360789 0.012505054
0.47058973 0.1356709 0.029263973
0.47878075 0.40945888 -0.094070911
0.46900773 -0.16648513 0.053071022
0.46716774 0.21835387 -0.0083169937
0.46030074 -0.014191151 0.096442699
0.46132272 0.020422876 0.080852032
0.47157472 0.36762089 -0.075561047
0.49101573 -0.35926908 -0.37216616
0.46335775 0.28995687 -0.04090929
0.46562073 0.36762488 -0.075900078
0.46806574 0.45153987 -0.1137042
0.45214373 -0.094974101 0.1325078
0.44869173 -0.014178157 0.095780849
0.46300673 -0.25268012 -0.1286211
0.44288772 -0.01417315 0.095449924
0.45287374 0.33807784 -0.063261032
0.47116575 -0.35573417 -0.35401297
0.44059774 -0.094961107 0.13184977
0.43708473 -0.014168143 0.095119953
0.44775674 0.36763489 -0.076915264
0.45010275 0.45154887 -0.11472225
0.44411573 0.45155087 -0.11506128
0.45799473 -0.35339612 -0.34198523
0.42436773 -0.054974139 0.11284971
0.42739674 0.056516886 0.062609673
0.42076975 0.24746585 -0.024105072
0.42315975 0.33808887 -0.064946175
0.42393973 0.36764187 -0.078266144
0.42504373 0.40948188 -0.097123146
0.42615274 0.45155486 -0.11607695
0.42491874 -0.24645811 -0.094993114
0.40990072 0.056522846 0.061617851
0.40734375 -0.15713412 0.10596704
0.41417974 0.45155588 -0.1167531
0.39732775 0.020456851 0.077213764
0.39513674 -0.15529817 0.11640501
0.39441973 -0.094942153 0.12922907
0.39436874 0.1357069 0.024934769
0.38963875 -0.054969132 0.11088276
0.39065173 -0.014156103 0.092487812
0.39150974 0.020455897 0.0768857
0.38904873 -0.15438408 0.12160587
0.38943273 0.17364788 0.0074996948
0.38569275 0.020454884 0.076556683
0.39348474 -0.24136215 -0.067324162
0.38186175 0.10314888 0.038948059
0.38355473 0.17364585 0.0071678162
0.38462973 0.21837687 -0.01299715
0.37987474 0.020451844 0.076229095
0.38921973 0.40947986 -0.099149227
0.37690473 -0.15256613 0.13197374
0.37710375 -0.094947159 0.12825108
0.37678075 0.13570088 0.023942947
0.38156274 0.33808488 -0.067298889
0.37450075 0.28996885 -0.04594326
0.37475473 -0.23834318 -0.05087328
0.37130675 0.4094739 -0.10015917
0.35919073 0.13568985 0.022951126
0.36104673 0.21836489 -0.014326096
0.35078573 0.020431876 0.074593067
0.34828475 0.17362386 0.0051827431
0.36071375 -0.33633214 -0.25358295
0.34993175 -0.23436111 -0.029116154
0.34090674 0.10311788 0.036645889
0.34488073 0.28994989 -0.047610283
0.33991572 0.056485891 0.057674885
0.33175573 -0.055017114 0.10762978
0.33408272 0.056478858 0.057347775
0.32978973 -0.1491881 0.15010071
0.32920575 0.10310388 0.035989761
0.32680374 -0.014211118 0.088900089
0.32403874 -0.14919811 0.1497798
0.32400873 0.13565189 0.020978928
0.31889075 0.17358989 0.0035347939
0.32034475 0.24741286 -0.029763222
0.32212973 0.33804089 -0.070641994
0.31914175 -0.2294541 -0.0021939278
0.31227973 0.1356349 0.020321846
0.30859974 -0.055056155 0.10633802
0.31675673 0.36759084 -0.084308147
0.32252374 -0.32973212 -0.21909189
0.31301475 -0.22848314 0.0031528473
0.30678174 -0.14923114 0.14881802
0.30713373 0.17357188 0.0028777122
0.30281073 -0.055068135 0.10601377
0.30933273 0.28991085 -0.049602032
0.30491874 0.056433856 0.055717945
0.30102974 -0.14924413 0.1484971
0.30055174 0.13561589 0.019668102
0.30429873 0.33801985 -0.071640968
0.29628173 -0.095059097 0.12372684
0.29835373 0.33801186 -0.071974277
0.29964775 0.40941387 -0.10418606
0.28952375 -0.14927107 0.1478591
0.29367575 0.4094069 -0.10452127
0.28438973 0.21826786 -0.018619061
0.27895874 -0.095101178 0.12276697
0.27709174 0.13556987 0.018362045
0.27386174 -0.055136144 0.10440779
0.27455273 -0.014317155 0.085990906
0.28052074 0.33798486 -0.072969913
0.27318472 -0.095117152 0.12244797
0.26991674 0.056357861 0.053771019
0.27575773 0.40938187 -0.10552216
0.27846873 -0.32219213 -0.17945814
0.26910773 0.36752385 -0.086972237
0.26978272 0.40937287 -0.10585594
0.25949472 0.13552886 0.017384052
0.26079774 0.21821988 -0.019933224
0.25648972 -0.055186152 0.10344791
0.25767773 0.02025485 0.069405079
0.25824672 0.056327879 0.053124905
0.25832972 -0.21986908 0.050748825
0.25599974 0.2898199 -0.052578926
0.25185773 0.020237863 0.069081783
0.25230372 -0.21892709 0.055978775
0.24551874 -0.014400125 0.084385872
0.24657774 0.056294858 0.052480698
0.25123674 0.3674919 -0.087969303
0.25186273 0.40934289 -0.10685396
0.25352973 -0.3179571 -0.15709496
0.24349774 -0.1494121 0.14531708
0.24430874 -0.095206082 0.1208539
0.24244873 0.17343587 -0.00072002411
0.24021474 0.020202875 0.06843996
0.24074073 0.056277871 0.052157879
0.24588774 0.40933287 -0.10718822
0.25395474 -0.41102308 -0.35693789
0.23656774 0.17341989 -0.0010461807
0.23390274 -0.014438152 0.083745003
0.23761474 0.2472589 -0.034375191
0.23490573 0.056259871 0.051836967
0.24756674 -0.40986413 -0.35105228
0.23275673 -0.09524709 0.1202178
0.22971374 0.10288489 0.030459881
0.23016274 0.13544989 0.015760899
0.22809474 -0.01445812 0.083425999
0.23336174 0.36745685 -0.088964939
0.22480373 0.17338687 -0.0016970634
0.22796474 0.4092989 -0.10818291
0.23482473 -0.4075591 -0.33932114
0.21950373 0.21811587 -0.022221088
0.21988274 0.24721289 -0.035356998
0.21692973 0.020123899 0.067157745
0.21214874 0.10282886 0.029491901
0.21255974 0.13539487 0.014790058
0.21015474 -0.055349112 0.1008997
0.21156074 0.056181848 0.050549984
0.21643473 -0.31170613 -0.12393188
0.20805773 0.24717987 -0.036012173
0.20528373 0.020080864 0.06651783
0.20444773 -0.21149617 0.097402096
0.20321774 0.33782285 -0.077270985
0.19324173 -0.014592111 0.081514835
0.18872574 0.10274386 0.028203964
0.19190973 -0.30760509 -0.10207605
0.18118674 -0.055475116 0.099318027
0.18162073 -0.014642119 0.080879688
0.18485874 0.28963786 -0.056521893
0.18076074 -0.095468104 0.11737776
0.17819473 0.21798587 -0.024501324
0.17539173 -0.055502117 0.099001884
0.17581074 -0.01466912 0.080563068
0.17892873 0.28961986 -0.056849003
0.17616574 0.01996088 0.064924717
0.17942274 0.33775789 -0.078588009
0.17484973 -0.20694512 0.12292576
0.17442673 -0.14971608 0.14154673
0.17498274 -0.095496118 0.11706209
0.17299874 0.28960085 -0.057177067
0.16920374 -0.095525086 0.11674881
0.16596673 0.17318785 -0.0049362183
0.16418874 -0.014723122 0.079929829
0.16752374 0.33772188 -0.07924509
0.16780274 0.36729288 -0.092600346
0.16291174 -0.14977711 0.14092207
0.15868974 0.019880891 0.063971996
0.15715174 -0.14980918 0.14061069
0.15221074 -0.055618107 0.097743034
0.15542474 -0.30154914 -0.069659233
0.14799373 0.1351499 0.011245728
0.14830874 0.17311686 -0.0059041977
0.14867873 0.21787786 -0.026122093
0.14641473 -0.055649102 0.097427845
0.14967074 0.33766586 -0.080230236
0.15304574 -0.39292914 -0.26439714
0.14094074 -0.014840126 0.078666687
0.14395273 0.36722088 -0.093916893
0.13686873 0.2178309 -0.026769161
0.13481973 -0.055712104 0.096801758
0.13740574 0.2894789 -0.05913496
0.13411373 -0.14994508 0.13936996
0.13037673 0.13507086 0.010285854
0.13096474 0.21780586 -0.02709198
0.12475874 0.17301488 -0.0071892738
0.12322574 -0.055779099 0.096175671
0.12553973 0.28943485 -0.05978632
0.12225774 -0.20010811 0.16138268
0.12295774 -0.095784128 0.11424875
0.12206374 -0.38746208 -0.23617315
0.11683274 -0.15005511 0.13844109
0.11275874 0.13498586 0.0093269348
0.11324774 0.21772987 -0.028059959
0.11187074 -0.015002131 0.077095985
0.11228973 0.055734873 0.045135021
0.11330473 -0.29462916 -0.032384872
0.10688274 0.1349569 0.0090079308
0.10709274 0.17293286 -0.0081520081
0.10773574 0.28936386 -0.060762882
0.10503273 -0.20022708 0.16046095
0.10530873 -0.15013117 0.13782406
0.10359574 -0.38422507 -0.21939421
0.099546738 -0.1501711 0.13751698
0.094979741 0.1023109 0.023095131
0.093547739 -0.20031112 0.15984774
0.089117736 0.10227889 0.022778034
0.089423738 0.1728459 -0.0091118813
0.089617737 0.21762085 -0.029346943
0.088607736 -0.01514411 0.075842857
0.090137735 0.33745086 -0.083501339
0.083532736 0.17281586 -0.0094308853
0.082258739 -0.15029508 0.13659382
0.078053735 0.28923684 -0.062384129
0.077095732 0.019429862 0.059559822
0.077570736 -0.28881818 -0.000893116
0.076685734 -0.096089184 0.11176968
0.072115734 0.28921086 -0.062707901
0.071378738 0.055497885 0.042927742
0.065661736 0.10214388 0.021512032
0.065337732 -0.015296102 0.074596882
0.066930734 -0.37784308 -0.18618202
0.059796736 0.1021089 0.021195889
0.060138732 0.24659485 -0.044115067
0.060423739 0.36691588 -0.098502159
0.060854733 -0.37679118 -0.18069124
0.053930737 0.10207289 0.020879745
0.054299735 0.28912687 -0.063678265
0.054394737 0.33729988 -0.085454941
0.054452736 0.36689085 -0.098829269
0.054785736 -0.37574214 -0.17521
0.048064735 0.10203588 0.020565987
0.048359737 0.28909886 -0.064001083
0.042334735 0.2173779 -0.031912327
0.042059734 -0.015460134 0.073352814
0.042681735 -0.37365609 -0.16428995
0.041963734 -0.096350133 0.10992289
0.036445737 0.24647188 -0.045401096
0.036266737 0.019154847 0.057373047
0.030492736 0.1725179 -0.012298107
0.030509736 0.21731186 -0.032552242
0.030401736 -0.056414127 0.091209888
0.024594735 0.10188389 0.019305706
0.024594735 0.13448489 0.0045647621
0.024594735 0.21727788 -0.0328722
0.024594735 -0.20088011 0.15620279
0.024594735 -0.15075809 0.13353968
0.018713735 0.13444686 0.0042500496
0.018772736 -0.015635133 0.072114944
0.0071757361 -0.056601107 0.089982033
0.0070437361 0.055060863 0.039484978
0.0073467363 -0.20104009 0.15530109
0.0072877351 -0.15091211 0.13263083
0.0013667364 -0.056650102 0.08967495
0.00088873506 0.24627185 -0.047322273
0.00074573606 0.33704388 -0.088375092
0.00061273575 -0.36645716 -0.12644625
-0.0048932638 0.17229486 -0.014200211
-0.0051232651 0.2888189 -0.066901207
-0.0045902636 0.018847883 0.055201054
-0.010250265 -0.056749105 0.089062691
-0.011182265 0.33698189 -0.089021206
-0.0099082645 -0.20120817 0.15439987
-0.017147264 0.33694988 -0.089344025
-0.022734264 0.21698886 -0.035418034
-0.022107264 0.018706858 0.054274082
-0.023112265 0.33691788 -0.089668274
-0.025086263 -0.48747009 -0.37231922
-0.021742264 -0.096897185 0.106565
-0.028244263 0.10150588 0.016487122
-0.027826263 -0.016017139 0.069649696
-0.028909264 0.28868186 -0.068185329
-0.027346263 -0.15124112 0.13081884
-0.033933267 0.054742873 0.037310123
-0.037408262 -0.48519009 -0.36086798
-0.032921262 -0.20144409 0.15320396
-0.04062026 0.24601585 -0.049553871
-0.039632261 0.01855886 0.053349972
-0.039789259 0.054694891 0.037000656
-0.041014262 0.33681989 -0.090636253
-0.041000262 -0.35941714 -0.089188099
-0.046753265 0.28857386 -0.069146156
-0.045474261 0.018508852 0.053040981
-0.049689263 -0.48292714 -0.349473
-0.044918261 -0.26932913 0.10613775
-0.057162262 0.018405855 0.052425861
-0.06369026 0.13385189 -0.0001449585
-0.062558264 -0.057232141 0.086320877
-0.063220263 0.054496884 0.035764694
-0.064580262 -0.35546511 -0.068155289
-0.061702259 -0.20175618 0.15171671
-0.069821261 0.17183286 -0.017664909
-0.068373263 -0.057290137 0.086018085
-0.070288263 0.24581689 -0.051144123
-0.068851262 0.018299878 0.051811695
-0.068120264 -0.097351134 0.10414696
-0.075253263 0.10112888 0.013998985
-0.073555261 -0.15172309 0.12842274
-0.081365265 0.13370985 -0.0010781288
-0.081954263 0.2165789 -0.038584232
-0.080297261 -0.016500115 0.06690073
-0.086306259 -0.4762221 -0.3155942
-0.082173266 -0.35253412 -0.052500248
-0.078979261 -0.20195311 0.15082884
-0.079335265 -0.1517871 0.12812471
-0.087543264 0.17169487 -0.018605232
-0.087880261 0.21653485 -0.038898945
-0.086391263 0.018135846 0.050893784
-0.086662263 0.054287851 0.034533024
-0.088019259 -0.35156316 -0.047304153
-0.084901266 -0.26311511 0.14075804
-0.093806259 0.21648985 -0.039213181
-0.094754264 0.33649987 -0.093528271
-0.090895265 -0.15191716 0.12752867
-0.09997426 0.24560589 -0.052728176
-0.10032826 0.28822488 -0.0720191
-0.098386265 0.054178894 0.03391695
-0.09624926 -0.26136512 0.15055466
-0.096260265 -0.20215708 0.14994287
-0.09667626 -0.15198308 0.12723303
-0.097127266 -0.097659171 0.10264492
-0.10465826 0.10087389 0.012449741
-0.10328026 -0.057648122 0.084204674
-0.10628626 0.28818387 -0.072338104
-0.10425127 0.054124892 0.033611774
-0.11052826 -0.47182518 -0.2932663
-0.10245927 -0.15205008 0.12693596
-0.10910027 -0.057711124 0.08390379
-0.11131826 -0.34771115 -0.026633263
-0.10873526 -0.097787082 0.10204601
-0.11642326 0.1007669 0.011832714
-0.11598027 0.054011881 0.032999039
-0.11454026 -0.097853124 0.10174608
-0.12300627 0.17140388 -0.02048111
-0.11884926 -0.25789708 0.17002678
-0.12034526 -0.097919166 0.10144806
-0.12656327 -0.057902157 0.08300066
-0.12734026 0.017730892 0.048760891
-0.12451427 -0.25732511 0.17329073
-0.13531226 0.21616387 -0.041415215
-0.13319427 0.01767087 0.048455715
-0.13448127 -0.34390813 -0.0061421394
-0.13996626 0.1005469 0.01060009
-0.13904826 0.017608881 0.048153877
-0.13600427 -0.25748008 0.17270994
-0.13716626 -0.15246814 0.12515974
-0.14490226 0.017546892 0.047849655
-0.14237726 -0.20273811 0.14759684
-0.14295226 -0.1525411 0.12486601
-0.15212826 0.13308686 -0.0048012733
-0.15345727 0.2451939 -0.055569172
-0.14938526 -0.098261178 0.099958897
-0.15705827 0.053599894 0.030860901
-0.15453026 -0.15268809 0.12427807
-0.16535226 0.24509686 -0.056197166
-0.16324526 -0.33922213 0.019226074
-0.16031927 -0.15276307 0.12398386
-0.16941126 0.10025686 0.0090646744
-0.16734126 -0.058373153 0.080907822
-0.17130026 0.24504685 -0.056510925
-0.16832826 0.017292857 0.046638966
-0.17638026 -0.46002513 -0.23289013
-0.16610926 -0.15283817 0.12369013
-0.17530227 0.10019785 0.0087590218
-0.17724827 0.24499685 -0.056826115
-0.17189926 -0.15291518 0.12339783
-0.18319826 0.2449469 -0.05713892
-0.18708827 0.1000759 0.0081467628
-0.18541226 -0.017635107 0.061464787
-0.18915026 0.24489588 -0.057453156
-0.18975726 0.28755587 -0.076776981
-0.18348527 -0.15307015 0.12281275
-0.18425927 -0.098695099 0.098182678
-0.19229726 0.053220868 0.029038906
-0.20006026 -0.45583814 -0.21130133
-0.19887626 0.099952877 0.0075368881
-0.19749026 -0.33369714 0.049313068
-0.19588926 -0.098846138 0.097593784
-0.20527627 0.13256389 -0.0075721741
-0.20586327 0.17064685 -0.024825096
-0.20700626 0.24473989 -0.058391094
-0.20405026 0.053088844 0.0284338
-0.21184726 -0.45376509 -0.20057726
-0.20992926 0.053022861 0.028131008
-0.20500126 -0.25848311 0.16925812
-0.21465726 -0.017990112 0.059970856
-0.21580726 0.052954853 0.027828693
-0.21334226 -0.099078119 0.096708775
-0.22364126 0.17046988 -0.025751114
-0.22168726 0.052886844 0.027525902
-0.22946426 -0.45068008 -0.18458033
-0.21825726 -0.15355414 0.12106371
-0.22892025 0.13231587 -0.0087981224
-0.22566327 -0.059108078 0.077940941
-0.22756726 0.052818894 0.027225971
-0.22985426 -0.15372115 0.12048388
-0.24016628 0.099499881 0.0054039955
-0.23733926 -0.059264123 0.077349663
-0.24700627 -0.44762617 -0.16868925
-0.23565626 -0.15380615 0.12019491
-0.24606726 0.099432886 0.0051007271
-0.24317726 -0.059342086 0.077055931
-0.24521527 0.052607894 0.026319981
-0.24054226 -0.20414716 0.14267874
-0.24244726 -0.099480093 0.095244884
-0.25546026 0.2869969 -0.080242157
-0.25485727 -0.059503138 0.076466084
-0.26062727 0.24424386 -0.061202049
-0.26378027 0.099227846 0.0041909218
-0.26149526 -0.018594146 0.057593822
-0.26741925 0.2868889 -0.080869198
-0.26287127 0.0523929 0.025419712
-0.25789127 -0.2044211 0.14182091
-0.27108726 0.16997385 -0.028211117
-0.26735327 -0.018673122 0.05729866
-0.26804125 0.016092896 0.0415411
-0.26258928 -0.25941211 0.16641998
-0.26367527 -0.20451313 0.14153481
-0.26574725 -0.099815071 0.094079018
-0.27625227 0.13179189 -0.011239052
-0.27238527 -0.059748113 0.075585842
-0.28295726 0.16984385 -0.028824329
-0.27822927 -0.059831083 0.075293064
-0.28536326 0.2867229 -0.081809998
-0.28764325 -0.44061416 -0.13201094
-0.28493425 -0.01891315 0.056412697
-0.28208926 -0.15451509 0.11788702
-0.29483327 0.16971189 -0.029436111
-0.29154226 0.015781879 0.040350914
-0.28789926 -0.15460712 0.11759996
-0.30077225 0.16964489 -0.029742241
-0.29741925 0.015702844 0.040054798
-0.29141727 -0.25990909 0.16501379
-0.30329725 0.015622854 0.039757729
-0.31068528 -0.43667918 -0.1113019
-0.29840326 -0.20508713 0.13983011
-0.31771925 0.13130188 -0.013364315
-0.31859526 0.16944087 -0.030659199
-0.31425926 -0.019327104 0.054940701
-0.32030025 0.24364489 -0.064307213
-0.30998728 -0.20528513 0.13926411
-0.33680525 -0.57315511 -0.39011288
-0.32288226 0.098503888 0.0011739731
-0.32627326 0.24358189 -0.064617157
-0.32727125 0.28631985 -0.083995342
-0.34870726 -0.57093412 -0.37901402
-0.32736927 -0.20558816 0.13841772
-0.32858527 -0.15527409 0.11559868
-0.34063226 0.098274887 0.00027370453
-0.34501025 -0.43087214 -0.080569267
-0.33440125 -0.15537316 0.11531496
-0.35017526 0.24332488 -0.065854073
-0.35615325 0.24325985 -0.066162109
-0.34264725 -0.3109501 0.17540073
-0.37241125 -0.56653816 -0.35696316
-0.35923627 0.1307829 -0.015478134
-0.35718527 0.051142871 0.020648956
-0.35185826 -0.15567309 0.11446285
-0.37831625 -0.56544811 -0.35147905
-0.36517125 0.13070589 -0.015779018
-0.35365826 -0.3094551 0.18389606
-0.35492426 -0.26107818 0.16194868
-0.35636127 -0.20610911 0.13701296
-0.35941827 -0.30957109 0.18362188
-0.36070326 -0.26119012 0.16167212
-0.39010125 -0.56327909 -0.34055233
-0.37928927 0.21372789 -0.054118156
-0.36932325 -0.15598017 0.11361408
-0.37886125 -0.020301104 0.051725864
-0.37981325 0.01451987 0.035926819
-0.38801527 0.097636878 -0.0021181107
-0.39123327 0.21358585 -0.054728985
-0.38671327 0.05071789 0.019169807
-0.39394325 0.097553849 -0.0024170876
-0.39650327 -0.020581126 0.050853729
-0.39400226 -0.31028312 0.18198681
-0.39845425 -0.1565091 0.11220407
-0.41513926 0.21329588 -0.055950165
-0.40119025 -0.26199418 0.15974569
-0.43109426 -0.55580014 -0.30268192
-0.41864225 0.12998986 -0.018481255
-0.42111728 0.21322185 -0.056256294
-0.41011328 -0.15672618 0.11164188
-0.43691826 -0.55474716 -0.29732227
-0.42458826 0.12990689 -0.018780231
-0.42574027 0.16810888 -0.036118031
-0.41880125 -0.062048137 0.068342686
-0.43401927 0.050003886 0.016817093
-0.45434326 -0.55160517 -0.28130388
-0.43879926 0.013592899 0.033008099
-0.43014225 -0.26259512 0.15838003
-0.46013525 -0.55056411 -0.2759881
-0.44838825 0.1295709 -0.019974232
-0.45103225 0.21284288 -0.057776928
-0.43593627 -0.26271814 0.15810585
-0.46592027 -0.54952818 -0.2706852
-0.45557126 0.16770589 -0.037623882
-0.45538425 -0.021561146 0.047966003
-0.45745325 -0.41232008 0.019098759
-0.44595125 -0.31141311 0.1795578
-0.44752827 -0.26296717 0.15756178
-0.45992425 -0.062775075 0.066342831
-0.46362326 0.049536884 0.015352726
-0.46299827 -0.4114241 0.023973942
-0.46717426 -0.021766126 0.047391891
-0.47816628 0.12913686 -0.021462917
-0.48196626 0.24176586 -0.072605133
-0.46328726 -0.31180614 0.17875385
-0.46848226 -0.15785807 0.10885191
-0.47032425 -0.10326308 0.084062099
-0.49472827 -0.5443961 -0.24433708
-0.48543227 0.16728789 -0.039124966
-0.48016125 0.012903869 0.03098011
-0.50046825 -0.54338008 -0.23910093
-0.48344928 -0.063206136 0.065207958
-0.49397826 0.24161088 -0.073215008
-0.48017126 -0.15809411 0.10829687
-0.49325925 0.049052894 0.013895035
-0.51192325 -0.54135817 -0.22866488
-0.49790525 0.012597859 0.030112743
-0.49919027 0.048953891 0.013602734
-0.51763928 -0.54035217 -0.22346401
-0.50680429 0.095864892 -0.0080389977
-0.50110626 -0.063538134 0.064357758
-0.50257629 -0.022397101 0.045673847
-0.50382328 0.012494862 0.029827118
-0.50162023 -0.40523309 0.05781889
-0.51394224 0.12859589 -0.02324295
-0.50699323 -0.063649118 0.0640769
-0.50974226 0.012390852 0.029537678
-0.51105624 0.048753858 0.013021946
-0.51438624 -0.022613108 0.045103073
-0.52402824 0.24121588 -0.074734211
-0.50555527 -0.26426011 0.15486383
-0.52587724 0.12841088 -0.023835182
-0.51806825 -0.40262407 0.072171688
-0.50957227 -0.31289309 0.17662668
-0.52466428 -0.063989103 0.063230991
-0.52111828 -0.1589461 0.10636473
-0.53480428 0.048346877 0.011862755
-0.52697426 -0.15907115 0.10609102
-0.57355124 -0.62680107 -0.3791132
-0.54668528 0.048138857 0.011283875
-0.53674126 -0.20980817 0.12847996
-0.53868729 -0.15932316 0.10554266
-0.55899024 0.21136886 -0.063218117
-0.54824626 -0.064454138 0.062104702
-0.54043126 -0.26507813 0.15325975
-0.56875724 -0.53144914 -0.17714834
-0.55414629 -0.064571083 0.061824799
-0.55576628 -0.023391128 0.043112755
-0.54434025 -0.31374615 0.17504501
-0.57440227 -0.53047711 -0.17205715
-0.56769627 0.12774289 -0.02589798
-0.56921828 0.16604185 -0.043301105
-0.56004626 -0.064690173 0.061544895
-0.55206823 -0.26535815 0.15272808
-0.56163728 -0.39579016 0.11003208
-0.56432724 -0.10515112 0.079596996
-0.57352024 -0.023735106 0.042263985
-0.57641327 0.047608852 0.0098428726
-0.58905727 0.21092784 -0.064721107
-0.57944024 -0.023851156 0.041981697
-0.58236325 0.047500849 0.009554863
-0.61401725 -0.61938709 -0.34166193
-0.58536428 -0.023968101 0.041698933
-0.57786727 -0.39327413 0.12407207
-0.58348525 -0.21089309 0.12632513
-0.62551326 -0.61730009 -0.33106613
-0.60811627 -0.52470809 -0.14173222
-0.60521024 0.16547185 -0.045080185
-0.59721226 -0.024204135 0.041135788
-0.59868628 0.010748863 0.025249004
-0.58700728 -0.26621813 0.15114069
-0.58933425 -0.21103209 0.12605667
-0.59146523 -0.16049808 0.10308695
-0.59733629 -0.16063315 0.1028161
-0.61415929 0.094054878 -0.01329422
-0.61057025 0.010517895 0.024679661
-0.59941727 -0.38995808 0.14265966
-0.59657824 -0.31508809 0.17269707
-0.62322628 0.16517985 -0.045967102
-0.61651325 0.010400891 0.024396896
-0.60478926 -0.38913614 0.14728308
-0.62611628 0.093841851 -0.013875008
-0.62923425 0.16508085 -0.046262264
-0.61274529 -0.21159917 0.12498808
-0.63602227 -0.51999015 -0.1167531
-0.63354927 0.12663388 -0.029123306
-0.61551225 -0.38750011 0.15650272
-0.65982729 -0.61112708 -0.29955196
-0.63954526 0.12652987 -0.029415131
-0.63279223 -0.02493012 0.039449692
-0.62445825 -0.21188718 0.12445593
-0.66552126 -0.6101101 -0.29434013
-0.63872927 -0.025053144 0.039170742
-0.62783325 -0.26726216 0.14930296
-0.63505626 -0.10669607 0.076294899
-0.67120928 -0.60909718 -0.28913593
-0.64095926 -0.10683018 0.076019764
-0.65929824 0.16457886 -0.047738075
-0.66136926 0.20981288 -0.068305969
-0.63951027 -0.26756817 0.14878082
-0.68256229 -0.60708112 -0.27876711
-0.66740525 0.20971686 -0.068603039
-0.65654325 -0.025428116 0.038331985
-0.65815926 0.0095668435 0.022417068
-0.64310426 -0.31634313 0.17063189
-0.64790225 -0.21247417 0.12339592
-0.65023929 -0.16188115 0.1003871
-0.67133528 0.16437387 -0.048324108
-0.67400426 0.092960894 -0.016185284
-0.67555225 0.1258899 -0.031162262
-0.69954026 -0.60408217 -0.26329517
-0.66550225 -0.21292311 0.12260199
-0.68583024 -0.51169711 -0.072442055
-0.68756527 0.12567186 -0.031744003
-0.68940127 0.16406184 -0.049208164
-0.68199128 0.0090748668 0.021290779
-0.67137128 -0.21307415 0.12233877
-0.69357526 0.12556189 -0.03203392
-0.66918725 -0.38028711 0.19806767
-0.71645623 -0.60111517 -0.2479229
-0.68311524 -0.21338016 0.12181187
-0.72208327 -0.60013217 -0.24281788
-0.70231628 -0.50898808 -0.057854176
-0.69614124 -0.067624152 0.055171013
-0.69988227 0.0086978674 0.020450115
-0.70779729 -0.50809115 -0.053009987
-0.70584828 0.0085708499 0.020168781
-0.68660426 -0.38081008 0.19731903
-0.71598727 0.092156887 -0.018198013
-0.71181625 0.008443892 0.019888878
-0.70074028 -0.21384412 0.12102509
-0.71778727 0.0083148479 0.019609928
-0.71191925 -0.10849708 0.072760105
-0.72420728 -0.50541908 -0.038541317
-0.73400527 0.091801882 -0.019057274
-0.72794229 -0.026991129 0.034999847
-0.72096628 -0.16364914 0.097184658
-0.73758423 0.044452846 0.0021500587
-0.76127428 -0.59334916 -0.20740223
-0.74055928 -0.50277418 -0.024162292
-0.74773425 0.12454289 -0.034636974
-0.72727829 -0.26997918 0.14490509
-0.73014724 -0.21463507 0.11971998
-0.74956924 0.044199884 0.0015859604
-0.75179225 -0.027535141 0.033896923
-0.75556326 0.044072866 0.001306057
-0.77797323 -0.59049207 -0.19237995
-0.76581824 0.12419188 -0.035502911
-0.77610427 0.090952873 -0.021054268
-0.76969826 -0.027951121 0.033071041
-0.77309924 -0.49756509 0.0043377876
-0.78212523 0.090828896 -0.021339893
-0.77757424 0.0069928765 0.016824722
-0.76549125 -0.21561319 0.11816072
-0.76824427 -0.16489309 0.095071793
-0.79205728 0.16219389 -0.054170132
-0.77416027 -0.16505212 0.094809055
-0.79417127 0.090578854 -0.021908283
-0.79599029 0.12359589 -0.036940098
-0.77728426 -0.21594614 0.11764383
-0.78310525 -0.11027807 0.069536686
-0.80416626 0.16196287 -0.054750919
-0.77389026 -0.38355416 0.19362068
-0.78599924 -0.16537315 0.094284058
-0.79467028 -0.49415213 0.023145676
-0.81022525 0.16184586 -0.055039883
-0.79726028 -0.070049107 0.050545692
-0.80153728 0.0064448714 0.015717983
-0.80358225 0.043025851 -0.00094032288
-0.81628424 0.16172886 -0.05533123
-0.80322325 -0.070199072 0.050275803
-0.78912026 -0.32064813 0.1643157
-0.82772928 -0.58209616 -0.14787817
-0.81560326 0.042757869 -0.0015001297
-0.83871728 -0.58026618 -0.13810205
-0.81562626 -0.16619009 0.092977047
-0.82150424 -0.48995012 0.0464468
-0.83639228 0.08968389 -0.023892879
-0.83830726 0.12273288 -0.038945198
-0.84053928 0.16125488 -0.056488991
-0.83152926 0.0057428479 0.014338017
-0.83365029 0.042349875 -0.0023350716
-0.81861526 -0.21713811 0.11584282
-0.82155728 -0.16635615 0.092716694
-0.84435928 0.12260789 -0.039228916
-0.84660727 0.1611349 -0.056777
-0.83306527 -0.070958078 0.048931122
-0.83753228 0.0055998564 0.014060974
-0.85515624 -0.57754415 -0.12351131
-0.85041326 0.12248188 -0.039515018
-0.83903825 -0.071112096 0.048664093
-0.84568828 0.042074859 -0.0028910637
-0.82431227 -0.32176811 0.16283083
-0.83043927 -0.21748608 0.11533403
-0.83342326 -0.16669017 0.092196941
-0.83665526 -0.11168808 0.067144871
-0.84746528 -0.029830098 0.029520035
-0.86608326 -0.57574612 -0.11383295
-0.86252725 0.12222689 -0.040085316
-0.85346127 -0.029980123 0.029248714
-0.85773629 0.041796863 -0.0034480095
-0.83896625 -0.27332217 0.14009666
-0.84193224 -0.32234114 0.16209507
-0.84486026 -0.27350718 0.1398468
-0.85351628 -0.48500413 0.074102879
-0.86050028 -0.11233515 0.066086769
-0.85883129 -0.48419017 0.078679085
-0.87870026 0.088757873 -0.025866985
-0.86312026 -0.16754109 0.090900898
-0.86646527 -0.11249918 0.065824986
-0.87745625 -0.030586123 0.02816391
-0.88788629 0.041089892 -0.0048351288
-0.86154324 -0.38651818 0.19000196
-0.86544925 -0.32311815 0.16111374
-0.89392126 0.040946901 -0.0051112175
-0.87133229 -0.32331413 0.16087008
-0.87780625 -0.21891516 0.11329889
-0.90498424 0.12131685 -0.042076111
-0.87325823 -0.38693017 0.18952513
-0.87721723 -0.32351214 0.16062689
-0.88026828 -0.27463716 0.13835382
-0.88373524 -0.21909708 0.11304569
-0.90897626 0.088075876 -0.027273178
-0.91105628 0.12118387 -0.042358875
-0.89887524 -0.072695076 0.045992851
-0.90148228 -0.031204104 0.027085781
-0.90369326 0.0039858818 0.011048794
-0.90749425 -0.031361103 0.026816845
-0.90972024 0.0038348436 0.010776043
-0.91203928 0.040511847 -0.0059399605
-0.91350728 -0.031518102 0.026546955
-0.92716628 0.087658882 -0.028112888
-0.92177725 0.0035308599 0.010231018
-0.90746927 -0.21983618 0.11203671
-0.91072929 -0.16894513 0.088841915
-0.93323225 0.087518871 -0.028393269
-0.93536824 0.12064689 -0.043492317
-0.93017328 0.040071845 -0.0067663193
-0.92024124 -0.11401016 0.063465118
-0.93930024 0.087377846 -0.028672218
-0.93486726 -0.073683083 0.04440403
-0.95362228 0.12023789 -0.044340134
-0.94087225 -0.073850095 0.044138908
-0.93123329 -0.2205891 0.11103201
-0.95288825 -0.0741871 0.043612003
-0.95565128 -0.032639146 0.024668694
-0.96967626 0.086662889 -0.030067921
-0.96168125 -0.032802105 0.024401665
-0.96404028 0.0024428964 0.008330822
-0.97798932 0.11968285 -0.0454669
-0.97008425 0.0022838712 0.0080618858
-0.96217227 -0.11523014 0.061644077
-0.97613227 0.002124846 0.007791996
-0.97862029 0.038865864 -0.0089621544
-1.0001003 0.085931897 -0.031457901
-1.0084933 0.11897588 -0.046874046
