# .PCD v0.7 - Point Cloud Data file format
VERSION 0.7
FIELDS x y z
SIZE 4 4 4
TYPE F F F
COUNT 1 1 1
WIDTH 1
HEIGHT 1024
VIEWPOINT 0 0 0 1 0 0 0
POINTS 1024
DATA ascii
0.62662822 0.35292381 -0.85560274
0.63203925 0.39487082 -0.92212486
0.61972922 0.35337478 -0.8507719
0.62507427 0.39529479 -0.91719961
0.60231525 0.32500881 -0.79482079
0.60423827 0.3965618 -0.90246868
0.58295727 0.27889079 -0.71099377
0.58867627 0.32593977 -0.78532791
0.57622325 0.27938378 -0.70635557
0.58187026 0.32640278 -0.78058958
0.59039724 0.39740181 -0.89267969
0.56950122 0.2798748 -0.70172501
0.57507527 0.32686579 -0.77585888
0.55799025 0.23940879 -0.63253689
0.56278825 0.2803638 -0.69709873
0.56151426 0.3277868 -0.76641464
0.54939026 0.28133982 -0.68786478
0.56283724 0.39906877 -0.87318087
0.53497326 0.21325582 -0.57539892
0.54798925 0.32870477 -0.75699282
0.52840227 0.21378082 -0.57093859
0.54691923 0.44266278 -0.9251399
0.51528722 0.21482682 -0.56203556
0.54001826 0.44304782 -0.92020655
0.51169622 0.24297279 -0.60091591
0.52105725 0.33052677 -0.7382226
0.52416325 0.35957581 -0.78377962
0.53312826 0.44343078 -0.91528273
0.50220621 0.21586877 -0.55315161
0.52624524 0.4438138 -0.91036367
0.49568024 0.21638781 -0.54872084
0.48544025 0.24498379 -0.58296585
0.47197324 0.17601478 -0.46994591
0.47615224 0.21793777 -0.53544998
0.47889724 0.24548382 -0.57849073
0.49461424 0.4031688 -0.82486963
0.46966124 0.2184518 -0.53103876
0.48377824 0.36217177 -0.75543356
0.49198523 0.44571382 -0.8858676
0.46317825 0.21896482 -0.52663183
0.46584225 0.24647981 -0.56955957
0.45932725 0.24697578 -0.56510162
0.46763724 0.33411878 -0.70096254
0.47039324 0.36302882 -0.74603271
0.45024025 0.21998781 -0.51783276
0.45663226 0.28804582 -0.62386179
0.47154623 0.4468438 -0.87124872
0.47478324 0.48131379 -0.92494869
0.48220724 0.5214318 -1.0480828
0.43391824 0.11385077 -0.34741497
0.43667325 0.1436348 -0.39378262
0.44378224 0.22049677 -0.51343966
0.45704323 0.36388177 -0.73665476
0.46793723 0.4816668 -0.9200139
0.42762825 0.11441678 -0.34323978
0.45038325 0.36430681 -0.73197556
0.43089524 0.22151279 -0.504673
0.41507325 0.11554581 -0.33490562
0.41769624 0.1452828 -0.38109779
0.42688325 0.24943978 -0.54289293
0.40235725 0.041793823 -0.21539068
0.40515125 0.073997796 -0.26537895
0.44840124 0.5718568 -1.0389619
0.41741726 0.2908538 -0.59676266
0.42383125 0.36599678 -0.71331501
0.42734626 0.4071728 -0.77717876
0.43092325 0.44907779 -0.84217691
0.39629924 0.11722881 -0.32243681
0.39879224 0.14691877 -0.36845398
0.41091326 0.29131782 -0.59226656
0.39006823 0.042991817 -0.20736885
0.43534726 0.57165682 -1.0434279
0.41721725 0.36641681 -0.70866394
0.42706725 0.48376578 -0.89054489
0.38141224 0.013023794 -0.15602493
0.38658825 0.075742781 -0.25316763
0.42028925 0.4841128 -0.88565493
0.37533224 0.013634801 -0.15208387
0.38041726 0.076321781 -0.24910688
0.40401524 0.36725378 -0.69937897
0.40734825 0.40835482 -0.76299
0.41972524 0.52456379 -0.9991498
0.36925724 0.014243782 -0.14814472
0.38823524 0.25235981 -0.51641178
0.41502523 0.5720948 -1.0362687
0.39513624 0.3389498 -0.65032768
0.41293725 0.52478778 -0.99575377
0.37643126 0.18395078 -0.40554667
0.38859925 0.33938277 -0.64575768
0.37012824 0.18446982 -0.40129185
0.36194724 0.078051805 -0.23694897
0.38427725 0.36850178 -0.68549585
0.38743123 0.40952981 -0.74885273
0.39658526 0.52860177 -0.93273497
0.39452025 0.57277781 -1.024467
0.37555224 0.34024578 -0.63663578
0.37771624 0.36891681 -0.68087864
0.38081124 0.40991879 -0.74415398
0.35277724 0.12111378 -0.29349899
0.35496825 0.15069377 -0.33911467
0.35754725 0.18550479 -0.39279795
0.34504023 0.01666677 -0.13243294
0.37116224 0.36932981 -0.67626667
0.34874025 0.15122879 -0.33494282
0.35428324 0.22750777 -0.45248699
0.38155824 0.57247078 -1.0308518
0.37623224 0.52954578 -0.91790867
0.34041426 0.12221181 -0.28527164
0.33297825 0.017870784 -0.12460089
0.34989625 0.25523877 -0.4901166
0.33514825 0.048313797 -0.1714797
0.33743024 0.080339789 -0.22079468
0.35604626 0.34153277 -0.62299395
0.35808524 0.37015277 -0.66706276
0.36100224 0.4110828 -0.7300868
0.32799125 -0.052100182 -0.016855717
0.33873725 0.18704879 -0.38009262
0.34163323 0.22849077 -0.44385958
0.34634325 0.29589981 -0.54758501
0.36779025 0.57308877 -1.0198889
0.32808423 0.12330478 -0.27706385
0.33718324 0.25618982 -0.48139191
0.34504324 0.37097281 -0.65788174
0.35302526 0.4875378 -0.83710861
0.32192823 0.12384981 -0.27296495
0.32623723 0.1880728 -0.37164497
0.32901424 0.22946978 -0.43525171
0.33083823 0.2566638 -0.47703695
0.35623324 0.60844779 -1.0586739
0.31999925 0.18858182 -0.36742878
0.32713825 0.29725379 -0.53428173
0.31303725 0.082606792 -0.20471191
0.30435324 -0.049576163 -0.0017557144
0.31377023 0.18909079 -0.36321688
0.30295125 0.020855784 -0.10509062
0.31817624 0.25760782 -0.46834278
0.32370925 0.34365779 -0.60036659
0.32816824 0.41300279 -0.70675898
0.31014925 0.23092878 -0.42237663
0.29473925 -0.013985217 -0.046871662
0.29696825 0.021448791 -0.10119963
0.29887825 0.051802814 -0.14773989
0.28968525 -0.094298244 0.076264381
0.30800924 0.29859877 -0.52102661
0.31258824 0.37300479 -0.63502073
0.31973925 0.48921978 -0.81306601
0.28387225 -0.093652248 0.079941273
0.29127523 0.1265558 -0.25253963
0.31838825 0.57731175 -0.94262981
0.30612326 0.37340879 -0.63046455
0.30857426 0.41414481 -0.69282866
0.31568325 0.53233981 -0.87377977
0.28083023 -0.047074199 0.013287067
0.28893024 0.19111478 -0.346416
0.29530025 0.2994898 -0.51221466
0.31164426 0.57758981 -0.93766499
0.29799426 0.34534079 -0.58235979
0.29966825 0.37381077 -0.62591457
0.30206025 0.41452277 -0.68819857
0.27496824 -0.046452165 0.017040253
0.28075525 0.15702581 -0.28934288
0.28274125 0.19161779 -0.34222555
0.28666225 0.2599498 -0.44669056
0.29987824 0.49021879 -0.79871464
0.26911223 -0.045832157 0.020787239
0.27297625 0.12816381 -0.24033785
0.26716325 0.024393797 -0.08180666
0.26326424 -0.045213223 0.024531364
0.26689023 0.12869781 -0.23627663
0.26849523 0.15806478 -0.28110981
0.27263424 0.23381782 -0.39675379
0.25929224 -0.010354221 -0.023998737
0.27629626 0.3008188 -0.49903488
0.28483024 0.45700479 -0.73746157
0.28668123 0.4908818 -0.78917599
0.25263223 -0.13222325 0.16204834
0.25742123 -0.044595242 0.028272152
0.26641124 0.23429579 -0.39250183
0.25529122 0.025562823 -0.074075699
0.26785123 0.26134181 -0.43375874
0.26997823 0.30125982 -0.49465179
0.27241525 0.3470068 -0.56443787
0.27392825 0.37541181 -0.60776758
0.24692024 -0.13156724 0.16562939
0.26019523 0.23477179 -0.38825178
0.26604125 0.34742081 -0.55997086
0.23888125 -0.17588818 0.23776722
0.24338225 -0.089173198 0.10557604
0.25016522 0.15961379 -0.26879358
0.25190824 0.1941148 -0.32134962
0.25398725 0.23524779 -0.38400888
0.25967625 0.34783381 -0.55550957
0.26111025 0.37620682 -0.5987277
0.23762524 -0.08853817 0.10922527
0.23753825 0.027305782 -0.062510014
0.25107223 0.30257678 -0.48153162
0.24058625 0.089286804 -0.15685797
0.25873423 0.4584018 -0.71872854
0.26039523 0.4921968 -0.77017069
0.22761324 -0.17454517 0.24475813
0.23187324 -0.087905169 0.11287212
0.23658125 0.13134879 -0.21604586
0.23798224 0.16064078 -0.2606039
0.23163524 0.027884781 -0.058661938
0.24288325 0.26318282 -0.41658497
0.24478725 0.30301279 -0.47717094
0.23307924 0.058077812 -0.10458899
0.23459725 0.089834809 -0.15289783
0.24832425 0.37699777 -0.58970785
0.22012524 -0.21289122 0.30759811
0.22831725 -0.041527152 0.046923161
0.23540924 0.2366668 -0.3713026
0.22574024 0.028461814 -0.054816723
0.23666224 0.26363981 -0.41230297
0.22714125 0.058640778 -0.10068989
0.25293922 0.61412477 -0.94504499
0.24062924 0.34906781 -0.54215479
0.24573925 0.45909578 -0.70939779
0.21637425 -0.17320919 0.25173616
0.21845925 -0.12831116 0.18348932
0.21826425 -0.0061792135 0.0025162697
0.21985124 0.029037774 -0.050976753
0.23739825 0.41826177 -0.64219189
0.23925525 0.45944077 -0.70474195
0.24077524 0.4931758 -0.75598001
0.21466425 -0.086015224 0.12378836
0.21848725 0.1329248 -0.20395899
0.22127125 0.19658381 -0.30058765
0.21397024 0.02961278 -0.047139645
0.21667525 0.091472805 -0.14103889
0.23806125 0.5806058 -0.88347578
0.22797425 0.34988582 -0.53327799
0.23097925 0.41863078 -0.63762188
0.23425324 0.49349979 -0.75126266
0.23611024 0.53597176 -0.81572676
0.20345624 -0.21084523 0.31785107
0.20516025 -0.17187822 0.25870419
0.20894225 -0.085388184 0.12741804
0.21246925 0.13344777 -0.19993687
0.21516524 0.19707477 -0.29644775
0.21071425 0.092016816 -0.13709259
0.22165625 0.35029382 -0.52884483
0.19791125 -0.21016622 0.32126522
0.20646025 0.13396978 -0.19591999
0.22619425 0.61512178 -0.92520094
0.22123225 0.49414679 -0.74184084
0.22297224 0.53656679 -0.8061347
0.19237325 -0.20948815 0.32467413
0.19397025 -0.17055321 0.26565933
0.19580925 -0.12573218 0.19772005
0.19938725 -0.038492203 0.065489292
0.20161724 0.16369379 -0.23613977
0.20298025 0.19805181 -0.28818274
0.19881724 0.093099773 -0.12921476
0.21953124 0.61536878 -0.92025566
0.21340124 0.46081579 -0.68616676
0.18838625 -0.16989315 0.26913214
0.19016324 -0.1250912 0.2012701
0.19446425 0.13500983 -0.18789864
0.18916824 -0.0032362342 0.021348
0.19051425 0.031897783 -0.031830788
0.20101725 0.30604279 -0.44676876
0.19166724 0.061989784 -0.077377796
0.20275925 0.35150981 -0.51558495
0.18280825 -0.16923416 0.27260208
0.18452324 -0.12445116 0.2048192
0.18786325 -0.037288189 0.072890282
0.18847625 0.13552779 -0.18389368
0.18955424 0.16470182 -0.22801876
0.20176725 0.49511179 -0.72775173
0.20333225 0.53745478 -0.79179478
0.17579724 -0.20746422 0.33488703
0.18249625 0.1360448 -0.17989254
0.19838825 0.58221877 -0.85423756
0.19120425 0.38051277 -0.54938173
0.17028524 -0.20679224 0.33828545
0.17652425 0.1365608 -0.1758976
0.18009925 0.24086779 -0.33343697
0.18101925 0.26771182 -0.37397957
0.17402525 0.06364882 -0.06577301
0.18393324 0.35271877 -0.50236654
0.18489824 0.38089877 -0.54492855
0.16906625 -0.081034184 0.15275335
0.17055924 0.13707578 -0.17190456
0.16717024 0.034163773 -0.016580582
0.17767425 0.35311979 -0.49797297
0.17992724 0.42155182 -0.60125399
0.18238124 0.49606881 -0.71371794
0.18377325 0.5383358 -0.77750778
0.15764125 -0.25516021 0.42009735
0.16874024 0.26860482 -0.36551666
0.17974225 0.61684281 -0.89071989
0.17593725 0.4963868 -0.70905161
0.15221524 -0.25447321 0.42340422
0.15501125 -0.16596222 0.28991032
0.15642324 -0.12127221 0.222507
0.15917124 -0.034300208 0.091332436
0.15553924 0.035288811 -0.0089769363
0.16380824 0.30860078 -0.42089796
0.16848424 0.46318978 -0.65387869
0.14829624 -0.20411921 0.35185099
0.14947024 -0.16531122 0.29336309
0.15345125 -0.033707261 0.095011234
0.14521225 -0.30602515 0.50544214
0.16210225 0.46352577 -0.64928865
0.16307025 0.4970198 -0.69973373
0.14281425 -0.20345521 0.35523605
0.14757223 0.16819477 -0.19973087
0.14393725 0.036408782 -0.0013875961
0.15146825 0.3094458 -0.41231394
0.14563425 0.097914815 -0.093958855
0.15572825 0.46386081 -0.64470577
0.15665124 0.49733579 -0.69508266
0.14357124 0.24362081 -0.30839777
0.13814624 0.036966801 0.0024003983
0.14531024 0.30986679 -0.4080267
0.13405824 -0.11875522 0.23660231
0.12832025 -0.33735216 0.56536818
0.12919724 -0.30391824 0.51508331
0.13649423 0.20334977 -0.24303484
0.13750924 0.24407578 -0.3042388
0.14800324 0.66518581 -0.93710899
0.14198524 0.42370677 -0.57420063
0.12640524 -0.20147026 0.36537313
0.12951325 -0.076748252 0.17792845
0.13064525 -0.031346202 0.10969114
0.12386925 -0.3032192 0.51829243
0.13049524 0.20382482 -0.23895597
0.12575924 0.0031238198 0.062467098
0.13947824 0.58459377 -0.81079483
0.13408224 0.35589981 -0.46734285
0.13569024 0.42406279 -0.56971073
0.13843425 0.54036778 -0.74437571
0.12094825 -0.20081115 0.36874723
0.11776025 -0.33593023 0.57167721
0.12003624 0.003693819 0.06618309
0.12940425 0.42441881 -0.5652256
0.11549725 -0.20015419 0.37211704
0.11827224 -0.075536251 0.18509245
0.11323325 -0.30182421 0.52470541
0.11937024 0.24543482 -0.29179478
0.11431924 0.004262805 0.069896221
0.11992925 0.27213782 -0.33184099
0.12312525 0.42477381 -0.56074572
0.12397925 0.46552479 -0.62186193
0.11005224 -0.19949818 0.37548637
0.11086325 -0.16080022 0.31744909
0.11266124 -0.074932218 0.1886692
0.10792425 -0.30112922 0.52790642
0.11187225 0.17114478 -0.17564487
0.10929424 0.039738774 0.02129221
0.11386225 0.27257478 -0.32765198
0.11463524 0.31195682 -0.38667154
0.11049724 0.10107177 -0.070625782
0.11999924 0.58537376 -0.79642296
0.11606924 0.38508582 -0.49626493
0.11830825 0.4992128 -0.66729975
0.10364225 -0.24835622 0.45305538
0.10794525 -0.029006243 0.12431812
0.10262024 -0.30043519 0.531106
0.10541625 0.1426608 -0.1282568
0.10594624 0.17163181 -0.17164469
0.11413625 0.61925077 -0.84198761
0.11271425 0.5415138 -0.72557068
0.10070124 -0.1150192 0.25765514
0.096711248 -0.33310425 0.58426714
0.099537246 0.14316177 -0.12431192
0.10002925 0.17211878 -0.16764784
0.097208247 0.0059627891 0.081017017
0.10241725 0.31278682 -0.37816095
0.10502724 0.46651381 -0.60821867
0.10559324 0.49983281 -0.65808296
0.091790244 -0.39636922 0.55852509
0.092029244 -0.29905319 0.537498
0.096320242 0.31319982 -0.37391376
0.10059524 0.5861488 -0.78210258
0.10112125 0.61972582 -0.83231688
0.098090246 0.42618382 -0.54287863
0.098727249 0.46684182 -0.60368299
0.099905245 0.54208279 -0.71620178
0.087557249 -0.24634326 0.46289301
0.089633249 -0.11378515 0.26464939
0.086577244 -0.39683318 0.55643845
0.086253248 -0.33239317 0.58739042
0.088704243 0.20711881 -0.21052361
0.086334243 0.041933775 0.036338329
0.090231247 0.31361181 -0.36967087
0.086762242 0.071772814 -0.0082550049
0.094145246 0.58640575 -0.77734184
0.090877242 0.35863477 -0.43695498
0.092434242 0.46716982 -0.5991497
0.093513243 0.54236579 -0.71152878
0.082208246 -0.24567521 0.46616602
0.083471246 -0.15761924 0.33456945
0.081361242 -0.39730024 0.55434799
0.081943244 0.14465779 -0.11250401
0.08140824 0.10366881 -0.051290989
0.087703243 0.58666277 -0.77258682
0.086150244 0.4674958 -0.594625
0.078590244 -0.11255717 0.27163124
0.07761424 0.27517581 -0.30261183
0.081268243 0.58691776 -0.76783466
0.071525246 -0.24434316 0.47270823
0.070916243 -0.39823723 0.55016327
0.070547245 0.17453581 -0.14772797
0.07132224 0.24901277 -0.25879574
0.068821244 0.0087708235 0.099484444
0.069183245 0.043567777 0.047589302
0.072008245 0.31484282 -0.35696793
0.06949424 0.073365808 0.0031499863
0.06982024 0.10469979 -0.043581009
0.072476245 0.35979378 -0.42400074
0.072766244 0.38769478 -0.46561193
0.074385241 0.54321277 -0.69753361
0.06582924 -0.44025421 0.52808619
0.065689243 -0.39870822 0.54806709
0.065473244 -0.33417118 0.57910442
0.065652244 -0.29562318 0.55343914
0.064672247 0.17501581 -0.14375687
0.064981245 0.20897782 -0.19436884
0.066358246 0.36017781 -0.41969585
0.066975243 0.42792779 -0.52065897
0.067344241 0.46847081 -0.58107758
0.060866244 -0.2430172 0.47923899
0.061316244 -0.19365823 0.40567923
0.061667241 -0.15510023 0.3482151
0.060581245 -0.44074225 0.52597523
0.060459241 -0.39918125 0.54596901
0.060269244 -0.33461916 0.57702923
0.059897244 0.31565881 -0.34852362
0.060465246 0.3884328 -0.45689678
0.060775243 0.4282738 -0.51622868
0.053852245 0.31606579 -0.34430599
0.052489243 0.10623777 -0.032044888
0.055617243 0.58793581 -0.74889278
0.054143243 0.36094481 -0.41109371
0.055061243 0.50228381 -0.62142992
0.055332243 0.54405284 -0.68358898
0.051088244 -0.10950816 0.28903532
0.049893245 -0.2935822 0.56297731
0.046938244 0.14761978 -0.088989735
0.047088243 0.17644882 -0.13186455
0.046229243 0.010994792 0.11419535
0.049225241 0.58818781 -0.744174
0.048192244 0.38916677 -0.44820356
0.048609242 0.4694398 -0.56757784
0.048781246 0.50258678 -0.61687279
0.045377243 -0.15322518 0.35842037
0.044635244 -0.33597124 0.57078838
0.041129243 0.14810878 -0.085084915
0.041373245 0.21082079 -0.17828083
0.041530244 0.25121677 -0.23831177
0.040733244 0.046266794 0.066269398
0.040848244 0.075995803 0.02208519
0.040970244 0.10725677 -0.024372578
0.042380244 0.46976078 -0.56308889
0.042672243 0.54460979 -0.67432261
0.039499246 -0.40108621 0.53755903
0.039416246 -0.29222918 0.56932211
0.035327245 0.14859778 -0.08118391
0.035401244 0.17739981 -0.12395573
0.035489243 0.2112788 -0.17426777
0.034973241 0.012099802 0.12153101
0.035140242 0.07651782 0.025862217
0.035952244 0.38989782 -0.43952799
0.036055245 0.42965078 -0.49856472
0.036246244 0.50319076 -0.60777569
0.034250244 -0.40156519 0.53545141
0.029568244 0.17787278 -0.12000799
0.029354244 0.012649775 0.12519503
0.029843243 0.39026177 -0.43519878
0.028998245 -0.40204716 0.53334236
0.029252242 -0.066027164 0.24195623
0.028971244 -0.33733726 0.56453037
0.028961243 -0.29088116 0.57566023
0.023740243 0.25252682 -0.22607279
0.023740243 0.013198793 0.12885427
0.023740243 0.10877681 -0.012891769
0.023740243 0.50379181 -0.59869576
0.023740243 -0.10649419 0.30636406
0.023740243 -0.33779418 0.5624404
0.023740243 -0.29021025 0.57882404
0.017877243 0.21264577 -0.16225576
0.018135244 0.013746798 0.13251114
0.018011244 0.10928178 -0.0090727806
0.017683243 0.36322182 -0.38540363
0.017647244 0.39098781 -0.42655087
0.017543243 0.47103781 -0.5451827
0.017500244 0.50409079 -0.59416676
0.018481243 -0.40301418 0.52911615
0.012288244 0.10978478 -0.0052556992
0.011632243 0.36359781 -0.3811388
0.011561244 0.39134878 -0.42223501
0.011354243 0.4713558 -0.54071856
0.011268243 0.50438976 -0.58964062
0.013185243 -0.23712122 0.5085063
0.012844243 -0.10529721 0.31327724
0.013313243 -0.28954422 0.58197641
0.0064152442 0.15102381 -0.061731815
0.0059142429 0.28027081 -0.25300598
0.0057632439 0.3192848 -0.31074286
0.005589243 0.3639738 -0.37687683
0.0050442442 0.50468779 -0.58512068
0.0077252425 -0.18730319 0.43897724
0.0078022443 -0.52152026 0.4681654
0.0074052438 -0.10470116 0.31672812
0.0078982431 -0.44571126 0.50474834
0.0079502426 -0.40398824 0.52488232
0.00050324388 0.18022478 -0.10032368
0.00032824278 0.2140038 -0.15028
0.0001212433 0.25425881 -0.20981073
0.0013542436 0.01538378 0.14346218
0.0011752434 0.049993813 0.092275143
-0.00021675602 0.31968278 -0.30656576
0.00086124428 0.11078882 0.0023641586
-0.00059075654 0.39206982 -0.41361666
0.0026782434 -0.40447724 0.52276134
0.0017592441 -0.06312418 0.25956917
0.0027872436 -0.33964121 0.55405903
0.002870243 -0.29043221 0.57781315
-0.0052887574 0.18069178 -0.096397877
-0.0059367567 0.28110677 -0.24479675
-0.0066537559 0.39242882 -0.40931463
-0.0073817559 0.50528181 -0.57609558
-0.011645755 0.2551198 -0.20170689
-0.011849755 0.28152281 -0.24069977
-0.013582757 0.5055778 -0.57159185
-0.0078747552 -0.40546024 0.51851511
-0.016852757 0.1816228 -0.088560581
-0.017518757 0.25554782 -0.19765997
-0.015367756 0.017008781 0.15438223
-0.016226755 0.11228478 0.01376915
-0.018509755 0.36546779 -0.35988092
-0.019478755 0.4729318 -0.51847601
-0.013548756 -0.18479919 0.4522233
-0.014292756 -0.10232818 0.33050823
-0.013279757 -0.44774318 0.49619722
-0.013156755 -0.40595424 0.51638937
-0.023384755 0.25597578 -0.19361782
-0.023656758 0.28235281 -0.23251772
-0.024056757 0.32126677 -0.28990793
-0.021589758 0.081678808 0.063434124
-0.018852757 -0.18417716 0.45552921
-0.019247757 -0.14584625 0.39899635
-0.019701758 -0.10173821 0.33394623
-0.018442756 -0.4064492 0.51426125
-0.028780757 0.21624678 -0.13039875
-0.029550755 0.28276682 -0.2284317
-0.030836755 0.39385682 -0.39215279
-0.024181755 -0.52475917 0.4551692
-0.025106756 -0.10115016 0.33738232
-0.023733756 -0.40694618 0.51213026
-0.03414876 0.18301082 -0.076831818
-0.034581758 0.21669281 -0.12643576
-0.035097755 0.25682777 -0.18554592
-0.032479756 0.053142786 0.1144371
-0.03593576 0.32205278 -0.28160381
-0.029524757 -0.52530515 0.45299721
-0.029937757 -0.1446352 0.40572309
-0.031029755 -0.05968225 0.28060532
-0.039899752 0.1834718 -0.072927952
-0.040942758 0.25725281 -0.18151379
-0.041314758 0.28359079 -0.22027588
-0.038922757 0.11426479 0.028926373
-0.043439753 0.43403977 -0.44169474
-0.034039758 -0.23133826 0.53757811
-0.035256758 -0.60857224 0.41080427
-0.035272755 -0.14403117 0.40908241
-0.03647276 -0.059113264 0.28410006
-0.037105754 -0.014293194 0.2181344
-0.034022756 -0.34292722 0.53931713
-0.046780758 0.25767678 -0.17748785
-0.047185756 0.28400081 -0.21620369
-0.049501754 0.43437177 -0.437356
-0.041280754 -0.099392176 0.34766817
-0.039837755 -0.45031822 0.48546314
-0.039045751 -0.29403925 0.56108999
-0.051384754 0.18439078 -0.065135002
-0.051945753 0.21802378 -0.1145649
-0.053052753 0.28441077 -0.21213484
-0.054900758 0.39527178 -0.3750658
-0.044473752 -0.23006821 0.54401302
-0.046034753 -0.60974121 0.40638638
-0.045928754 -0.14282823 0.41579103
-0.046662755 -0.098809242 0.35109425
-0.057719752 0.21846479 -0.11061573
-0.054171756 0.020759821 0.17975426
-0.058909751 0.28481978 -0.20807076
-0.059605755 0.32361478 -0.26504993
-0.060898751 0.39562279 -0.37080574
-0.061605752 0.4350338 -0.42868757
-0.049681753 -0.22943521 0.54722738
-0.052768752 -0.05741322 0.2945714
-0.053571753 -0.012649179 0.22882414
-0.049563758 -0.29495525 0.55689001
-0.062291756 0.15673578 -0.015426636
-0.063486755 0.21890479 -0.10667276
-0.059689753 0.021290779 0.18336535
-0.060917757 0.085222781 0.089532375
-0.061513752 0.11622679 0.044027328
-0.057286754 -0.68322217 0.36693811
-0.058188751 -0.056849241 0.29805422
-0.070066758 0.25936282 -0.16142368
-0.060081758 -0.22817421 0.55364704
-0.061154753 -0.45240819 0.47683525
-0.060429752 -0.34531915 0.52872419
-0.060095757 -0.29587615 0.55268002
-0.073650755 0.15767282 -0.0077595711
-0.074270755 0.1862148 -0.049594879
-0.068157755 -0.68446517 0.36245298
-0.079977758 0.1866678 -0.045717716
-0.072417758 -0.52973318 0.43552923
-0.071836755 -0.45346224 0.47250843
-0.071516752 -0.41148615 0.49286127
-0.070643753 -0.29680324 0.54846334
-0.086490758 0.22065681 -0.090930939
-0.087459758 0.26061678 -0.14941692
-0.088096753 0.2868498 -0.18781185
-0.089035757 0.3255468 -0.24445057
-0.076828755 -0.17741823 0.49172544
-0.079046756 -0.68571723 0.35795736
-0.078464754 -0.61328924 0.3930831
-0.076320753 -0.34677219 0.52234316
-0.093243755 0.26103282 -0.14542389
-0.088067755 0.0582968 0.15110826
-0.088818751 0.087719798 0.10807133
-0.083882757 -0.61388719 0.39085913
-0.086339757 -0.0093951821 0.25012112
-0.081205755 -0.29773617 0.54423809
-0.10194476 0.37058777 -0.30095482
-0.089305751 -0.61448622 0.38863134
-0.087887757 -0.45505619 0.46600342
-0.087513752 -0.41302824 0.48639822
-0.10193576 0.15999681 0.011342049
-0.10367376 0.22196078 -0.079163551
-0.10479276 0.2618618 -0.13744593
-0.10661176 0.3266958 -0.23214483
-0.099936754 0.088710785 0.11546326
-0.095410757 -0.6876092 0.35119534
-0.094822757 -0.093616247 0.3817873
-0.097215757 -0.0083202124 0.257195
-0.10840775 0.1889208 -0.026392937
-0.10938776 0.2223928 -0.075249672
-0.11132376 0.2884568 -0.17167759
-0.096348755 -0.22415221 0.57430124
-0.097743757 -0.17500019 0.50481319
-0.10087276 -0.68824315 0.34893608
-0.099354751 -0.53255618 0.42453909
-0.098860756 -0.13689125 0.44918442
-0.098199755 -0.41406417 0.48207903
-0.097079754 -0.29914618 0.53788424
-0.11320375 0.16091877 0.018959045
-0.11631376 0.2626878 -0.12948561
-0.11013076 0.060326815 0.16568708
-0.10161576 -0.22459424 0.57220507
-0.10699676 -0.75344217 0.31531334
-0.10560076 -0.61629617 0.38193417
-0.10397676 -0.4566642 0.45947504
-0.10354875 -0.41458416 0.47991705
-0.10670376 -0.051827192 0.32928419
-0.10288376 -0.34922326 0.5116663
-0.11882876 0.16137779 0.022761345
-0.11754575 0.12105477 0.0815382
-0.10688576 -0.22503817 0.57010841
-0.10934675 -0.45720315 0.45729733
-0.12112476 0.061334789 0.17295742
-0.12994675 0.32821482 -0.2157917
-0.11337176 -0.1732012 0.51460218
-0.11607775 -0.091340184 0.39535809
-0.11353576 -0.35021424 0.50738001
-0.11298776 -0.30056918 0.53151226
-0.13103476 0.19070381 -0.010996819
-0.13218075 0.22411281 -0.059630871
-0.12762076 0.091169775 0.13388824
-0.12193276 -0.61812317 0.37521505
-0.12097876 -0.53484619 0.4157052
-0.12010175 -0.45828724 0.45292807
-0.12429875 -0.0056521893 0.2748332
-0.13566576 0.16275078 0.034148216
-0.13786276 0.22454077 -0.055733681
-0.13423376 0.12248182 0.092725277
-0.12272176 -0.22637725 0.56380129
-0.12667276 -0.090210199 0.40212822
-0.14353776 0.22496778 -0.051841736
-0.14500076 0.2647348 -0.10964966
-0.13631175 0.028602779 0.23360634
-0.13757175 0.06283778 0.18383837
-0.14737876 0.32934481 -0.20357275
-0.13541275 -0.8281312 0.2691474
-0.13373676 -0.69209123 0.3353343
-0.13196075 -0.089647174 0.40550804
-0.13509075 -0.0045942068 0.28186512
-0.12893276 -0.30200517 0.5251193
-0.14793676 0.19203079 0.00051021576
-0.13724375 -0.089085221 0.40888643
-0.15355976 0.19247079 0.0043401718
-0.14965776 0.09311682 0.14856911
-0.14557976 -0.75814915 0.29925299
-0.14472675 -0.69338918 0.33077908
-0.14252175 -0.088525176 0.41226244
-0.14165875 -0.46047425 0.44416904
-0.14586076 -0.0035402179 0.28888845
-0.13958375 -0.30296922 0.52084732
-0.15396476 0.06433177 0.19469213
-0.16319075 0.29201877 -0.13561058
-0.14448376 -0.1696372 0.53412104
-0.15110876 -0.75883019 0.29694843
-0.14779375 -0.08796525 0.41563606
-0.14705776 -0.46102524 0.44197321
-0.14648375 -0.41880322 0.46253538
-0.15123576 -0.0030152202 0.29239511
-0.14491476 -0.30345416 0.51870823
-0.16892076 0.29240978 -0.13162279
-0.16192275 0.12483877 0.11130333
-0.15246075 -0.46157825 0.43977642
-0.15094775 -0.35372925 0.49231243
-0.15024875 -0.30393922 0.51656723
-0.17181875 0.22708577 -0.032437801
-0.16612075 0.094564795 0.15954638
-0.15449876 -0.22909224 0.55113316
-0.16217975 -0.76019824 0.29233122
-0.16018775 -0.62245119 0.3594532
-0.15897976 -0.53892124 0.40015745
-0.15831976 -0.086850166 0.4223752
-0.15725775 -0.41987419 0.45816612
-0.17745475 0.22750682 -0.028567791
-0.16879275 0.031667769 0.25495625
-0.17030275 0.065814793 0.2055192
-0.15980875 -0.22954917 0.54901409
-0.16675475 -0.69600916 0.32164145
-0.16442476 -0.53951025 0.39792633
-0.16164476 -0.12993622 0.48892307
-0.16328076 -0.46268821 0.43537235
-0.18157476 0.19465679 0.023432255
-0.18308675 0.22792679 -0.024701595
-0.17418675 0.032174766 0.25850534
-0.17326975 -0.76157415 0.28770208
-0.16987576 -0.54010117 0.39569426
-0.16882576 -0.085740209 0.42910242
-0.18871075 0.22834581 -0.020837784
-0.18396476 0.12670577 0.12610817
-0.17026275 -0.16670322 0.55032015
-0.17881976 -0.76226521 0.28538418
-0.17779675 -0.69733119 0.31705713
-0.17532976 -0.54069424 0.39345741
-0.17406975 -0.085187197 0.43246317
-0.17411776 -0.4638052 0.43096113
-0.17345175 -0.42149222 0.45159912
-0.17802875 -0.00040721893 0.30988646
-0.19138075 0.16725779 0.071883202
-0.19273576 0.19552481 0.031043053
-0.19432876 0.22876382 -0.016978741
-0.19622676 0.26836181 -0.074189663
-0.18658975 0.067287803 0.21631622
-0.18945976 0.12716979 0.12980127
-0.17540176 -0.16612017 0.55355406
-0.18332376 -0.69799519 0.31476212
-0.18214175 -0.62496519 0.35039425
-0.18078776 -0.54128826 0.39121914
-0.17954275 -0.4643662 0.42875099
-0.19830675 0.19595677 0.034845352
-0.19200575 0.067776799 0.21990919
-0.19344075 0.096957803 0.17777824
-0.18053676 -0.16553819 0.5567832
-0.18885475 -0.69866121 0.31246424
-0.18652676 -0.043677211 0.38083315
-0.19570175 0.03418982 0.27266645
-0.20043275 0.12809479 0.13717699
-0.18642175 -0.23185623 0.53838921
-0.18976976 -0.083534241 0.4425292
-0.19180475 -0.043143153 0.38424921
-0.18770975 -0.30738115 0.5015173
-0.20106976 -0.76505125 0.27608824
-0.19718875 -0.54308224 0.38449335
-0.19274476 -0.12652719 0.50866032
-0.19499175 -0.082986236 0.44587708
-0.19510175 -0.4236722 0.44280815
-0.19936076 0.0016587973 0.32382822
-0.21349475 0.16903281 0.086881161
-0.21498576 0.1972478 0.046227455
-0.20266475 -0.54368424 0.38224316
-0.20467876 0.0021718144 0.32730722
-0.19934475 -0.35835922 0.47278023
-0.21519075 0.098852813 0.192307
-0.21684575 0.12947482 0.1482172
-0.21102576 -0.70134521 0.30324316
-0.20814376 -0.5442872 0.37999535
-0.20999175 0.002684772 0.33078337
-0.20474276 -0.35888124 0.47059917
-0.20382576 -0.30887818 0.49503422
-0.22607276 0.19810379 0.053795338
-0.22790575 0.23125082 0.0060992241
-0.20648275 -0.16439426 0.56374311
-0.21780275 -0.7671622 0.26908827
-0.21657875 -0.70202124 0.30093241
-0.21362776 -0.54489219 0.37774324
-0.21062575 -0.081348181 0.45591211
-0.21138276 -0.4253242 0.43619204
-0.21285476 -0.041020155 0.39788342
-0.21529876 0.0031958222 0.33425617
-0.20920576 -0.30938017 0.49286938
-0.22060175 0.0037057996 0.33772707
-0.23713776 0.19895577 0.06135416
-0.23320675 0.13084477 0.15922737
-0.22898176 -0.7685802 0.26440811
-0.22770074 -0.70337915 0.29630136
-0.22461076 -0.54610825 0.37323046
-0.21851376 -0.12372017 0.52504206
-0.22334775 -0.039966226 0.40468407
-0.22589776 0.0042148232 0.3411932
-0.23513275 0.07164979 0.24854898
-0.23684675 0.10073078 0.20678806
-0.23457775 -0.76929224 0.26206303
-0.22770476 -0.42699122 0.42955399
-0.23118874 0.004722774 0.34465933
-0.22537276 -0.3108952 0.48635912
-0.23845476 0.038166821 0.30085135
-0.24224576 0.10119778 0.2104001
-0.22779074 -0.16616821 0.55527115
-0.24017876 -0.77000725 0.25971699
-0.23883975 -0.70474517 0.29166126
-0.24377474 0.038659811 0.30436325
-0.23657677 -0.078642249 0.47258711
-0.24175376 0.0057348013 0.35157919
-0.25121075 0.073083818 0.25924015
-0.25493777 0.13265681 0.17386532
-0.24999776 -0.70612025 0.28700829
-0.24662876 -0.54856217 0.36417723
-0.24265176 -0.36257923 0.45526505
-0.26035574 0.13310778 0.17751598
-0.25558376 -0.70681024 0.28467941
-0.25398076 -0.63334715 0.32067013
-0.25214374 -0.5491792 0.36190844
-0.25045577 -0.47181118 0.39981222
-0.24948376 -0.037350178 0.4216404
-0.25229675 0.0067427754 0.35848904
-0.24808475 -0.36311424 0.4530654
-0.24698976 -0.31293619 0.47764826
-0.26835775 0.17339879 0.12414312
-0.26189977 0.07403481 0.26635122
-0.26378575 0.10305482 0.22481823
-0.25953776 -0.63400519 0.318367
-0.25766376 -0.5497992 0.35963535
-0.25469476 -0.036830187 0.42502308
-0.25240377 -0.31345022 0.4754653
-0.26499274 0.04061681 0.31837511
-0.26723576 0.074508786 0.26990414
-0.26915574 0.1035158 0.22841501
-0.27117476 0.13400578 0.18480825
-0.26281676 0.0077458024 0.36538935
-0.25896275 -0.36418724 0.44865942
-0.25782275 -0.31396616 0.47328043
-0.27028474 0.04110378 0.32187223
-0.26149076 -0.23849916 0.50835323
-0.27556977 0.041589797 0.32536602
-0.26688376 -0.23898423 0.5061903
-0.27425176 -0.55167019 0.35280323
-0.26456875 -0.11874521 0.55438042
-0.28084874 0.042073786 0.32885742
-0.28523475 0.10489482 0.2391901
-0.27268276 -0.07490325 0.49582815
-0.27792877 -0.47475219 0.38857412
-0.27548474 -0.034763217 0.43853235
-0.27531376 -0.36581016 0.44203234
-0.28852576 0.07639277 0.28408146
-0.29274374 0.13578981 0.19935942
-0.27768376 -0.23995817 0.50185919
-0.28239274 -0.43265522 0.40727425
-0.28066877 -0.034249187 0.44190311
-0.27954376 -0.31604326 0.46451426
-0.28309277 -0.24044824 0.49969101
-0.29298076 -0.6379962 0.30448627
-0.29088077 -0.5535562 0.34594917
-0.28850377 -0.24093819 0.49752045
-0.29857075 -0.63866818 0.30216503
-0.28807876 -0.073319197 0.50575209
-0.29212075 -0.1716162 0.5296483
-0.29075974 -0.11875916 0.55561829
-0.29320076 -0.072793245 0.50905514
-0.29998776 -0.47713625 0.37953711
-0.29888776 -0.43438721 0.40054321
-0.31241277 0.044957817 0.34974337
-0.31501275 0.078724802 0.30173922
-0.30476275 -0.24241924 0.49099445
-0.30290276 -0.17254221 0.52534723
-0.31733376 -0.71453822 0.25887632
-0.31311476 -0.55609822 0.3367753
-0.30990577 -0.43555021 0.39604235
-0.31765574 0.045434773 0.35321522
-0.32029477 0.07918781 0.30526304
-0.31019276 -0.24291515 0.4888134
-0.30830076 -0.1730082 0.52319336
-0.32097775 -0.64137626 0.29284811
-0.31868675 -0.55673826 0.33447313
-0.31166476 -0.031189203 0.46207523
-0.31509575 0.012695789 0.39972639
-0.32289174 0.045910776 0.35668421
-0.31224674 -0.12052417 0.54708624
-0.32212076 -0.47954822 0.37046242
-0.31873074 -0.070182204 0.52553511
-0.33542576 -0.55866921 0.32755804
-0.32382074 -0.069663167 0.52882433
-0.33067375 0.014159799 0.40997505
-0.32993376 -0.17488217 0.51455736
-0.34345976 -0.64411521 0.28349018
-0.33753276 -0.43848825 0.38474941
-0.33561274 -0.3718822 0.41754818
-0.33415577 -0.32134318 0.44243622
-0.34909377 -0.64480519 0.28114223
-0.33734974 -0.028671145 0.47881603
-0.33964276 -0.32188118 0.44021511
-0.34077877 -0.17582822 0.51022434
-0.34861675 -0.43967521 0.38021421
-0.34513375 -0.32242119 0.4379921
-0.34460676 -0.12321115 0.53422499
-0.34413376 -0.067599177 0.54195833
-0.35545975 -0.48321915 0.35677338
-0.35416475 -0.44027126 0.37794304
-0.35137177 0.016095817 0.4236064
-0.35215375 -0.37357318 0.41082001
-0.35378575 -0.24693918 0.47129011
-0.36342075 -0.56192625 0.31598043
-0.34919876 -0.06708622 0.5452342
-0.35542977 -0.12411726 0.52991819
-0.36661175 -0.48445618 0.35219002
-0.36320576 -0.37470818 0.40632105
-0.36252075 -0.17773521 0.50153399
-0.37465376 -0.5632422 0.31133032
-0.35931477 -0.066063166 0.55178118
-0.36290574 -0.026181221 0.49549627
-0.36796674 -0.17821515 0.49935532
-0.36437175 -0.065572262 0.55494833
-0.37640774 -0.44267225 0.36883211
-0.36800176 -0.025686264 0.49882507
-0.37265676 -0.32514524 0.42683935
-0.36977175 -0.06600225 0.55281019
-0.39433074 -0.65039623 0.26227522
-0.39153674 -0.56523025 0.30433416
-0.37817776 -0.024699211 0.50547504
-0.38226277 0.018966794 0.44397402
-0.38536274 -0.37699723 0.39729643
-0.38667476 -0.25001824 0.4580493
-0.38433576 -0.17966425 0.492805
-0.39217174 -0.2505362 0.45583439
-0.39526975 -0.18063724 0.48842621
-0.39344975 -0.12732816 0.51477909
-0.40431777 -0.44571316 0.35738802
-0.40203175 -0.37873125 0.39050102
-0.40029675 -0.32790816 0.4156251
-0.40317976 -0.25157726 0.45139503
-0.41140574 -0.48947918 0.33375406
-0.40991375 -0.44632626 0.355093
-0.39847076 -0.022740185 0.51874733
-0.41702875 -0.49011517 0.33143711
-0.41551676 -0.44694221 0.35279322
-0.41316876 -0.37989616 0.38595724
-0.41874376 -0.38048017 0.3836832
-0.41693875 -0.32958519 0.40886641
-0.41313374 -0.069492221 0.53562737
-0.42673376 -0.44817722 0.34818935
-0.42249477 -0.33014715 0.40661001
-0.42525476 -0.25367725 0.44249105
-0.42268875 -0.18309426 0.4774394
-0.43392175 -0.4920342 0.32447338
-0.44245675 -0.57129717 0.28320503
-0.42401874 -0.070377231 0.53130817
-0.44359776 -0.45004416 0.34125805
-0.44109374 -0.38283622 0.37455845
-0.44186175 -0.25526726 0.4357872
-0.45382777 -0.57266724 0.27848005
-0.44922876 -0.45067024 0.338943
-0.44470876 -0.18508422 0.46860838
-0.44266677 -0.13155222 0.49514723
-0.45651674 -0.49461818 0.31514931
-0.45486376 -0.45129716 0.33662605
-0.46217775 -0.49526823 0.31281233
-0.45851174 -0.25687122 0.42906332
-0.45365575 -0.13250518 0.49075842
-0.46784475 -0.49592125 0.31047106
-0.46352276 -0.38521826 0.3653903
-0.46152776 -0.33412623 0.39073515
-0.46712375 -0.33470118 0.38845921
-0.46680576 -0.18709815 0.4597373
-0.47919273 -0.4972322 0.30578232
-0.47745878 -0.45382524 0.32733011
-0.47234175 -0.18760526 0.45751333
-0.48311973 -0.45446122 0.32500029
-0.47788274 -0.18811321 0.45528746
-0.49378574 -0.57752323 0.26185417
-0.49055976 -0.49854922 0.30108309
-0.48878574 -0.45510018 0.32266617
-0.48602974 -0.3876282 0.3561821
-0.48635876 -0.25957525 0.41780424
-0.49951577 -0.57822418 0.25946712
-0.49167073 -0.38823426 0.3538723
-0.48955673 -0.33701718 0.37932301
-0.48897976 -0.18913317 0.45082712
-0.50013477 -0.4563812 0.31799126
-0.49753177 -0.2606672 0.41328144
-0.50581574 -0.45702517 0.31564903
-0.50296474 -0.38945317 0.34924746
-0.52248478 -0.58105016 0.24989319
-0.51428074 -0.39067817 0.34461212
-0.51432973 -0.26231718 0.40648127
-0.52289277 -0.45896721 0.3086071
-0.52900678 -0.34113419 0.36323214
-0.55131477 -0.58462822 0.23786116
-0.54242676 -0.26509821 0.39509535
-0.55145776 -0.46224022 0.2968173
-0.54834974 -0.39439523 0.33063936
-0.55718577 -0.46290016 0.29445219
-0.55166376 -0.34352219 0.3539834
-0.55734074 -0.34412324 0.35166311
-0.57072473 -0.50798523 0.26787424
-0.57440478 -0.46489215 0.2873354
-0.58260775 -0.39817524 0.31657028
-0.58010173 -0.34654522 0.34235811
-0.60320973 -0.46824825 0.27541924
-0.59980875 -0.40008819 0.30949831
-0.61130273 -0.40137315 0.30476904
-0.62281877 -0.40266526 0.30002928
-0.63444877 -0.51566315 0.24139023
-0.64027476 -0.5163722 0.23896742
-0.64610678 -0.51708424 0.23653841
