# .PCD v0.7 - Point Cloud Data file format
VERSION 0.7
FIELDS x y z
SIZE 4 4 4
TYPE F F F
COUNT 1 1 1
WIDTH 1
HEIGHT 1024
VIEWPOINT 0 0 0 1 0 0 0
POINTS 1024
DATA ascii
0.55624789 -0.95424455 -0.014405727
0.54878789 -0.94889957 0.0043363571
0.51210988 -0.9226355 0.096499443
0.50925589 -0.87310952 0.056658268
0.5143019 -0.8217445 -0.010452747
0.49772489 -0.91234356 0.13265133
0.48349789 -0.90216857 0.16841221
0.49809891 -0.74642259 -0.032828331
0.50350392 -0.68877751 -0.10731268
0.50655788 -0.6562025 -0.14940071
0.4907859 -0.74166554 -0.013978481
0.50386894 -0.59988755 -0.19649553
0.47341791 -0.84813851 0.14739037
0.4762879 -0.73223656 0.023394585
0.48140889 -0.67493051 -0.04984045
0.48430291 -0.64255255 -0.091217518
0.4924939 -0.55088848 -0.20836258
0.4741289 -0.67036957 -0.030899525
0.4769699 -0.63805658 -0.072045326
0.4814899 -0.58663756 -0.1375165
0.48501191 -0.54658252 -0.18852043
0.48295489 -0.48008353 -0.24773359
0.44545189 -0.82867151 0.21821356
0.46242589 -0.62914354 -0.034016609
0.44541189 -0.65239149 0.043812275
0.4532319 -0.46374649 -0.16814947
0.45795989 -0.40529054 -0.24125576
0.43786889 -0.56083649 -0.022530556
0.4386259 -0.45572358 -0.12903738
0.41525289 -0.7548905 0.24245453
0.4198859 -0.69559854 0.16882944
0.43382689 -0.51714951 -0.052760601
0.40846691 -0.75031656 0.25979137
0.44330189 -0.29652256 -0.30172157
0.43948188 -0.24499649 -0.3404274
0.42131391 -0.38604754 -0.14224863
0.40352491 -0.62619549 0.1528244
0.4211289 -0.28577048 -0.24093246
0.40694791 -0.37851053 -0.10342979
0.3815589 -0.85553557 0.33031034
0.4101499 -0.33367652 -0.15813351
0.42094091 -0.1825965 -0.34247255
0.39982688 -0.37477559 -0.084186554
0.3853029 -0.58194155 0.16771555
0.4088189 -0.13748556 -0.34808636
0.41154891 -0.097807586 -0.39616537
0.37852189 -0.57779759 0.18545628
0.4026019 -0.22784549 -0.23859358
0.40143889 -0.13433057 -0.32743263
0.3887119 -0.32283348 -0.099802494
0.39671889 -0.091711581 -0.35442257
0.35716489 -0.84574455 0.36430264
0.3522009 -0.76388854 0.45449448
0.3593249 -0.65633351 0.32505941
0.38164788 -0.31926256 -0.080581665
0.3915619 -0.16957158 -0.26072454
0.37093389 -0.48104757 0.11411524
0.38681191 -0.1280815 -0.28649759
0.35636991 -0.59674853 0.27558422
0.36162689 -0.51582354 0.17852926
0.36413789 -0.47715157 0.13214922
0.3795619 -0.12498456 -0.26620865
0.38206491 -0.085690558 -0.31317234
0.38420188 -0.052125514 -0.35329056
0.3612029 -0.41325754 0.078347206
0.34507191 -0.8409155 0.38109541
0.3425619 -0.70596248 0.42819834
0.37235489 -0.12190658 -0.24603462
0.3748019 -0.082707584 -0.29272938
0.3579399 -0.35282248 0.029026508
0.33905089 -0.83851653 0.38944149
0.33366391 -0.75351554 0.49222422
0.33616191 -0.70166057 0.44455767
0.33978191 -0.64368051 0.37549257
0.3432239 -0.58854753 0.30981731
0.3482559 -0.50794154 0.21380043
0.3765249 0.066474438 -0.4459796
0.3537879 -0.3051855 -0.0047626495
0.36722389 0.037019491 -0.38685274
0.3604019 -0.076795518 -0.25219059
0.3270579 -0.83375055 0.40603924
0.32692391 -0.63535959 0.40868044
0.34994289 -0.25130051 -0.045724392
0.3302159 -0.58043557 0.34369659
0.33420989 -0.39847749 0.15067625
0.34702489 -1.0434735 -0.10673666
0.31751591 -0.75495952 0.4860096
0.32054591 -0.63123351 0.42514324
0.32846791 -0.49628359 0.26600742
0.3545129 0.07417345 -0.38268661
0.34807691 -0.037797511 -0.25109339
0.3275539 -0.39483553 0.16851234
0.33618689 -0.24464852 -0.0079917908
0.3173469 -0.57241458 0.37721443
0.3191219 -0.54153353 0.3409214
0.3388539 -0.19824654 -0.062526703
0.34935889 0.11401147 -0.40552473
0.3391149 -0.068060517 -0.19225979
0.3534849 0.18735349 -0.49143267
0.35588789 0.23005849 -0.54145241
0.30673489 -0.75592953 0.48186159
0.3321009 -0.065184534 -0.17251253
0.33391789 -0.032186508 -0.21103477
0.3046129 -0.56448048 0.41038942
0.3251259 -0.19188052 -0.024602413
0.32790589 -0.14138955 -0.083548546
0.33488491 0.11884445 -0.36368036
0.34110188 0.23428249 -0.49800158
0.3269009 -0.029406548 -0.19118071
0.30780289 -0.38403159 0.22145224
0.29594189 -0.7569055 0.47771263
0.2968609 -0.69773251 0.45786142
0.3158389 -0.23481554 0.04782629
0.29893988 -0.56382054 0.41293764
0.32410091 0.052666485 -0.26341867
0.31616989 -0.097938478 -0.088757515
0.33377591 0.23637545 -0.47647047
0.29147589 -0.81971055 0.45503855
0.30651191 -0.28132755 0.12392855
0.31706089 0.055218458 -0.24326372
0.32649389 0.23845446 -0.45506859
0.3147569 0.010460436 -0.19152737
0.33051291 0.31652445 -0.54530954
0.2948139 -0.37693053 0.25627136
0.28602189 -0.69868249 0.45368242
0.31163889 0.089153469 -0.25939178
0.31569189 0.16973549 -0.35223246
0.31925291 0.24052149 -0.43378639
0.3216719 0.28862047 -0.48920345
0.3231689 0.31838048 -0.52348948
0.32746491 0.40378547 -0.62188578
0.27972791 -0.75837952 0.47147942
0.29333588 -0.27468556 0.15980244
0.3120569 0.24257547 -0.41263676
0.29571488 -1.0209925 -0.030702591
0.2751689 -0.69963855 0.44950056
0.28680289 -0.27139348 0.17759037
0.27709588 -0.5655815 0.4044652
0.27761689 -0.52934855 0.39229345
0.29767889 0.094026446 -0.21924257
0.28902489 -0.086374581 -0.012749672
0.27071291 -0.63091558 0.42415237
0.28030589 -0.26811951 0.19528341
0.27213791 -0.52978152 0.39016438
0.2735599 -0.42878157 0.35622358
0.29450491 0.17641145 -0.2905817
0.2872259 0.020956457 -0.11321974
0.30002689 0.29436046 -0.42515278
0.30337891 0.36594844 -0.50682878
0.26924989 -0.36296457 0.32480621
0.2627719 -0.81171352 0.48267031
0.26744291 -0.47314054 0.36884737
0.3037549 0.53399551 -0.67441654
0.29289591 0.29625046 -0.40404749
0.2996839 0.44486046 -0.5730505
0.25980091 -0.63184255 0.41993523
0.26741388 -0.26162654 0.23039055
0.2619389 -0.47356051 0.36670542
0.27565789 0.07021749 -0.12472057
0.2770389 0.10122746 -0.15987253
0.27074689 -0.040047526 0.00027227402
0.29086789 0.41172749 -0.51184654
0.25434092 -0.63230759 0.41782665
0.25519991 -0.56736451 0.3959794
0.25567889 -0.53109056 0.38377428
0.2564339 -0.47398251 0.36456251
0.27181289 0.13987947 -0.1813035
0.26698589 0.02866745 -0.055641651
0.29051989 0.57083046 -0.66824675
0.28368089 0.41328645 -0.49023438
0.2472149 -0.76136857 0.45899343
0.2546629 -0.25520748 0.26511526
0.24971789 -0.56781358 0.39385462
0.25593889 -0.072294533 0.079906464
0.2603159 0.031206489 -0.036666393
0.28172889 0.5376265 -0.60704947
0.27299389 0.33105546 -0.37438869
0.28519991 0.61969948 -0.69948959
0.27799189 0.44924846 -0.50750875
0.24762189 -0.30008048 0.30144262
0.2425359 -0.7025395 0.43693542
0.2434109 -0.63324255 0.41360664
0.24833889 -0.25202554 0.28234053
0.25040191 -0.20323759 0.22738934
0.2454139 -0.47482949 0.36027241
0.25823891 0.14440048 -0.14204454
0.25229889 0.00010949373 0.019951344
0.24590489 -0.15520054 0.1943202
0.2404419 -0.43124253 0.34330463
0.2429589 -0.066774547 0.11626339
0.2457419 0.0026994944 0.03851366
0.26237491 0.41790545 -0.42616034
0.23246689 -0.63418359 0.40938139
0.2448169 0.14886844 -0.10322571
0.2601009 0.54118943 -0.54089355
0.2509909 0.30734849 -0.28002357
0.2521199 0.33632249 -0.31234646
0.25535691 0.41942549 -0.40505648
0.2269899 -0.63465554 0.40726662
0.22885589 -0.47611052 0.35383224
0.2397749 0.19363344 -0.13130045
0.25426289 0.57627946 -0.55682755
0.2441489 0.30915946 -0.25977278
0.24524289 0.33805645 -0.29190969
0.25605088 0.62349248 -0.60933065
0.24966989 0.45497248 -0.42192554
0.2246139 -0.36479455 0.31401062
0.2332319 -0.9940415 0.060868263
0.2194359 -0.81585854 0.46608448
0.2265299 -0.19783455 0.25772142
0.2287479 -0.09760958 0.19257832
0.2238369 -0.4324885 0.33683252
0.22911289 0.087053478 0.0085725784
0.2237559 -0.058614552 0.17005348
0.2251249 -0.021391511 0.12878942
0.2341309 0.22350645 -0.14269257
0.2275179 0.043685436 0.056647301
0.2458999 0.54352748 -0.49745655
0.2190529 -0.36519259 0.31183624
0.22030389 -0.25334448 0.27411366
0.21716189 -0.53419048 0.36883354
0.2214849 -0.14776558 0.23850441
0.2289229 0.26626647 -0.16825056
0.22106589 0.046138465 0.075007439
0.2400649 0.57841051 -0.51319265
0.22094589 -0.98879749 0.078739643
0.2112489 -0.57099253 0.37896061
0.2112309 -0.053749561 0.20210266
0.2135039 0.015426457 0.12977839
0.22626489 0.38404149 -0.27629042
0.22886589 0.45917347 -0.35905838
0.2079189 -0.36599356 0.30748463
0.21482889 -0.98619455 0.087619305
0.20431291 -0.70598954 0.42223644
0.21073189 0.12432545 0.030891418
0.2119229 0.15981048 -0.0080785751
0.2133359 0.20194149 -0.054345608
0.20827191 0.051001489 0.11141348
0.22201391 0.46055648 -0.33834934
0.2234309 0.50279647 -0.38473654
0.2023479 -0.36639649 0.30530739
0.2030009 -0.30312055 0.28394365
0.20350289 -0.25444955 0.26751041
0.2006029 -0.53553849 0.36241436
0.2045929 -0.14877754 0.23183346
0.20430391 0.12656146 0.049386501
0.2008549 0.020416439 0.16559029
0.2190879 0.58155847 -0.44872475
0.2205999 0.62810045 -0.49967575
0.2216669 0.66092944 -0.53561544
0.2141099 0.42835546 -0.28100348
0.2152009 0.46193147 -0.31776142
0.1967729 -0.36679953 0.30312967
0.1956519 -0.47870451 0.34092426
0.1960939 -0.43459159 0.32602549
0.1969649 0.098665476 0.10065222
0.1946359 -0.013698518 0.18151045
0.2121789 0.58259445 -0.42748737
0.2048109 0.34824449 -0.17172956
0.2136379 0.62900448 -0.47813845
0.19119489 -0.36720449 0.30095053
0.19181091 -0.30389148 0.27955961
0.1873039 -0.76698548 0.43602562
0.1885599 -0.63800055 0.39244556
0.1938459 -0.094880521 0.20894051
0.1901059 -0.47914153 0.33877039
0.1905349 -0.4350155 0.3238616
0.19155289 0.13099647 0.086080551
0.1885629 -0.054997563 0.19310951
0.1959489 0.27564347 -0.071294785
0.2042979 0.55037147 -0.37019444
0.1973429 0.32153344 -0.12122154
0.1982059 0.34990746 -0.15209341
0.19943389 0.39032549 -0.19606733
0.2006779 0.43126047 -0.2406044
0.1856119 -0.36760956 0.29876947
0.1840139 -0.53689855 0.3559885
0.1845549 -0.47957951 0.33661652
0.19080889 0.32325846 -0.10187769
0.1940209 0.43269947 -0.22058058
0.1962249 0.50778848 -0.30202341
0.1806069 -0.30466753 0.27516842
0.1825199 -0.095531523 0.20445633
0.1811139 0.21205544 0.039458275
0.18301889 0.27931845 -0.033273697
0.1907569 0.55259645 -0.32877064
0.1916929 0.58566546 -0.36452866
0.1784769 -0.97082049 0.14015627
0.1759209 -0.20102555 0.23778439
0.1768519 -0.095859587 0.20221424
0.1736439 0.17252648 0.10265923
0.1747769 0.21404248 0.057906628
0.17187689 -0.014906526 0.17247057
0.1755179 0.24120444 0.028627396
0.1840449 0.55369842 -0.30823755
0.1778509 0.32667947 -0.063515663
0.1808219 0.43555248 -0.18087769
0.1817259 0.46868145 -0.2165904
0.16708291 -0.57470757 0.36188126
0.1667639 0.055746436 0.14618826
0.1714239 0.32837546 -0.044489384
0.1802849 0.66571546 -0.40702677
0.1637729 -0.30583948 0.26857567
0.1664909 -0.96579057 0.1573844
0.16184691 -0.53873056 0.34740448
0.16675089 0.39797145 -0.098335743
0.1589869 -0.20210749 0.23112059
0.1567549 -0.48178953 0.32582045
0.1562169 0.17248648 0.10189056
0.1550369 0.018968463 0.15388966
0.15531489 0.055179477 0.14162445
0.16414289 0.55696642 -0.24734879
0.16681589 0.66727149 -0.36517334
0.1485669 -0.82280153 0.43901539
0.1507429 -0.53965455 0.34310722
0.1541439 -0.097176492 0.19323063
0.1515239 -0.43801957 0.30868244
0.14905989 -0.01612854 0.16340733
0.15099789 0.24596649 0.07460165
0.15758491 0.55804247 -0.22728872
0.1601409 0.66804242 -0.34443045
0.1565859 0.51505148 -0.18150473
0.1430919 -0.82334656 0.43692732
0.1441839 0.10139245 0.12119961
0.1430549 -0.057534516 0.17507029
0.14359389 0.018375456 0.1493392
0.14608289 0.33505946 0.03054142
0.1527959 0.63689744 -0.28992748
0.1491999 0.47523245 -0.1182847
0.1571179 0.80490845 -0.49625635
0.14082991 -0.37089854 0.28128862
0.14271289 -0.95586759 0.19142866
0.1379839 -0.77171654 0.41715336
0.1389119 0.17174047 0.094956398
0.1381119 0.054322481 0.13477135
0.1404229 0.36443746 0.019690514
0.14126191 0.40392745 -0.022110462
0.14280389 0.47651947 -0.09895134
0.1504589 0.80518645 -0.4802928
0.1352149 -0.37131459 0.27910042
0.13680589 -0.95341355 0.19985867
0.13213089 -0.82444149 0.43274736
0.1324859 -0.77224952 0.41505146
0.13381089 -0.57755059 0.34903145
0.1347519 -0.43932551 0.30216026
0.13497891 0.40539449 -0.003320694
0.1441689 0.74739945 -0.48193979
0.1278289 -0.64339656 0.36906052
0.1306909 -0.20393151 0.2199893
0.12915491 -0.43976349 0.29998541
0.1271199 0.13322645 0.10322666
0.1273569 0.17123848 0.090327263
0.1285609 0.36487144 0.024624348
0.13471189 0.71701646 -0.31098938
0.1373079 0.80566949 -0.45262861
0.1378129 0.84220946 -0.48019457
0.1243719 -0.30861253 0.25315523
0.1208769 0.053458452 0.12790632
0.1229679 0.40630049 0.0081353188
0.1245789 0.52090847 -0.084181786
0.1187289 -0.30901355 0.25094748
0.1167419 -0.64439553 0.36479425
0.1196479 -0.15397555 0.19832039
0.1176869 -0.48493749 0.31066656
0.1155709 0.13269746 0.09860754
0.1171099 0.40612447 0.0057592392
0.1130809 -0.30941552 0.24873924
0.1202569 -1.1160245 -0.18399763
0.1101689 -0.82664853 0.42437935
0.1139539 -0.15432948 0.19607639
0.1091729 0.016575456 0.13565445
0.1112499 0.40594745 0.0033864975
0.1152319 0.71886349 -0.25005674
0.1157809 0.7523855 -0.28501463
0.1181219 0.84277546 -0.43406057
0.1070909 -0.37341458 0.26813364
0.1075099 -0.94131356 0.24149847
0.1038419 0.099473476 0.10509729
0.1040069 0.13216645 0.093986511
0.1030389 -0.059803545 0.1592226
0.1047859 0.28663248 0.041495323
0.1034229 0.016272485 0.13336849
0.1055979 0.44760546 -0.013205528
0.1088139 0.71947247 -0.22997952
0.1014559 -0.37383848 0.26593733
0.099167898 -0.82776254 0.42018938
0.099430896 -0.77548152 0.40242434
0.1023029 -0.20578259 0.20882845
0.1004139 -0.58044249 0.33614445
0.097307898 -0.06013155 0.15695333
0.098952897 0.28641546 0.039146423
0.099518895 0.40559244 -0.0013666153
0.093661897 -0.82832152 0.4180932
0.093909897 -0.77602559 0.40031528
0.094524898 -0.64641255 0.35625362
0.092597902 0.16971749 0.076406479
0.092797898 0.21455848 0.061158657
0.091911897 0.015664458 0.12879562
0.094366901 0.56707942 -0.058718681
0.095054902 0.64437151 -0.11129475
0.093646899 0.40541345 -0.0037455559
0.093983896 0.48116547 -0.029504776
0.094171897 0.52334845 -0.043849468
0.088151902 -0.82888252 0.4159956
0.091392897 -0.10087949 0.16842842
0.087273896 0.28597945 0.034443378
0.086299896 0.051706493 0.11414051
0.087473899 0.33404446 0.018092632
0.0888189 0.64517748 -0.092001438
0.089776896 0.72127646 -0.17043257
0.090194896 0.75442648 -0.20459843
0.083103895 -0.71729952 0.37574625
0.084242895 -0.44331259 0.28254032
0.080383897 0.015052438 0.1242156
0.082514897 0.56682944 -0.063560486
0.082980901 0.67694044 -0.10463858
0.078875899 -0.37554556 0.25713921
0.083249897 -1.0994976 -0.12840748
0.077121899 -0.83000857 0.41179848
0.077323899 -0.77766651 0.39398623
0.074744895 0.051116467 0.10954237
0.076582901 0.56670344 -0.065980434
0.073449895 -0.31226152 0.23324823
0.077140898 -1.0967896 -0.11927843
0.072250895 -0.64845055 0.34769821
0.073821895 -0.20765954 0.19763756
0.074003898 -0.1568405 0.18033743
0.072820902 -0.48861259 0.29328442
0.068592899 -0.061784506 0.14558744
0.068961896 0.050819457 0.1072402
0.067125902 -0.92482656 0.29843426
0.066077903 -0.83114058 0.40759754
0.066673897 -0.64896351 0.34555626
0.0671959 -0.48907858 0.29110527
0.063657902 0.21334344 0.049467564
0.062961899 -0.020838559 0.12924957
0.064707898 0.56645143 -0.070828438
0.0649409 0.64495546 -0.097573757
0.064226903 0.40451449 -0.015659332
0.067730896 0.84298748 -0.41725779
0.061903901 -0.37683755 0.25053167
0.0620929 -0.3130855 0.22881222
0.062403902 -0.20841855 0.19315338
0.061700903 -0.44511658 0.27379131
0.0578949 0.24227947 0.037180424
0.058137901 0.33302444 0.0062532425
0.059057899 0.67671847 -0.11087751
0.055018902 -0.8322795 0.40339136
0.055682898 -0.58437556 0.31890535
0.056970902 -0.10294956 0.15483427
0.0521449 0.28465748 0.020301342
0.051498897 0.013507485 0.11274338
0.052892901 0.59920049 -0.086934566
0.052258901 0.33281845 0.0038814545
0.052428901 0.40415049 -0.020436764
0.053266898 0.75605643 -0.14040756
0.050567903 -0.37770551 0.24611855
0.050404899 -0.4460265 0.26941061
0.046186902 0.24180645 0.032478333
0.0468629 0.56607044 -0.078112602
0.047187902 0.72246444 -0.13145065
0.044326901 -0.65103155 0.33697939
0.039917901 0.012882471 0.10814524
0.040541902 0.36197245 -0.010953426
0.0412459 0.75593346 -0.14536238
0.041343898 0.81067848 -0.16403866
0.038713902 -0.91336149 0.33816957
0.038498901 -0.78155059 0.3791852
0.0396109 -0.15903252 0.16679859
0.039016902 -0.4914245 0.28020144
0.034244902 0.096092463 0.077337265
0.034174901 0.049022436 0.093402386
0.034639902 0.36177444 -0.013337612
0.035108902 0.67636049 -0.1207056
0.035176903 0.72231746 -0.13639069
0.0352269 0.75587147 -0.14784145
0.035308901 0.81063545 -0.16653347
0.036382899 0.84304547 -0.41269159
0.033130899 -0.65207452 0.33268452
0.0332289 -0.58637553 0.31026125
0.0285579 0.21186244 0.035391331
0.028643901 0.28376347 0.010844231
0.0292059 0.75580949 -0.15032148
0.029271901 0.81059247 -0.16902637
0.0279289 -0.31558448 0.21547365
0.027445901 -0.90884751 0.35384846
0.027605901 -0.58687955 0.30809736
0.027771899 -0.44786149 0.26063442
0.022758901 0.28353745 0.00847435
0.0229029 0.44526547 -0.046761513
0.0231809 0.75574744 -0.15280437
0.022222901 -0.31600553 0.21324539
0.022361901 -0.16014153 0.16001225
0.022410901 -0.10505348 0.14119625
0.0221039 -0.44832355 0.25843859
0.016661901 -0.064819515 0.12505245
0.0168439 0.24061245 0.02069521
0.0170849 0.6441505 -0.11717939
0.0169659 0.44509548 -0.049168587
0.0176029 0.84303045 -0.4139328
0.0165409 -0.26726454 0.19421959
0.016349901 -0.58789057 0.3037672
0.0109409 0.16606444 0.043732643
0.0109999 0.36097848 -0.022886753
0.0107779 -0.38078159 0.23063946
0.010997901 -1.0678015 -0.021250725
0.010649901 -0.90215057 0.37714243
0.010657901 -0.78437155 0.36858225
0.010843901 -0.16088754 0.15548134
0.0050769006 0.12752444 0.054474354
0.0050769006 0.16579849 0.041386604
0.0050769006 0.21086144 0.025979519
0.0050769006 -0.024091542 0.10631323
0.0050769006 0.64394546 -0.12209845
0.0050769006 0.67590845 -0.1330266
0.0050769006 0.40267646 -0.039604664
0.0050769006 0.72194546 -0.14876747
0.0050769006 -0.78494054 0.36645842
0.0050769006 -0.65470654 0.32192945
0.0050769006 -0.21227449 0.1706562
0.0050769006 -0.58890754 0.29943228
0.0050769006 -0.1612615 0.1532135
0.0050769006 -0.10611957 0.13436031
0.0050769006 -0.4942835 0.2670784
-0.00073209964 -0.024421513 0.10401344
-0.00083909975 0.33093846 -0.017533779
-0.00084709981 0.36057645 -0.027671337
-0.00095509971 0.72187048 -0.1512475
-0.00096509978 0.7554965 -0.16274977
-0.00057509961 -0.55265254 0.28468847
-0.00070809945 -0.10647649 0.13207865
-0.0067040995 0.23964548 0.011243343
-0.0065890998 0.046888471 0.077198505
-0.0067590997 0.33072746 -0.019920349
-0.0061280997 -0.72597748 0.34164333
-0.0062310994 -0.5531525 0.28250933
-0.0120441 -0.38256651 0.22176743
-0.011584099 -0.89628249 0.39760637
-0.011682099 -0.78665656 0.36008358
-0.011736101 -0.72653252 0.33950329
-0.011799099 -0.65630358 0.31546545
-0.018415099 0.16472447 0.031994343
-0.018138099 -0.066886544 0.11130142
-0.0185041 0.23915744 0.0065073967
-0.018555099 0.28194445 -0.0081424713
-0.018987099 0.64353347 -0.13195562
-0.0186991 0.40192646 -0.04922533
-0.0187901 0.47817045 -0.075333595
-0.0199771 0.8430115 -0.41552877
-0.0177601 -0.38301653 0.21954727
-0.017214099 -0.83983856 0.37596846
-0.0173491 -0.72708958 0.33736229
-0.0179631 -0.21384853 0.16162252
-0.017678099 -0.45159453 0.24302959
-0.024473099 0.28171444 -0.010523796
-0.0241211 0.045960486 0.070231438
-0.024653099 0.40173745 -0.051635742
-0.0251811 0.75524247 -0.17272472
-0.0227111 -0.89750153 0.39340067
-0.0228751 -0.78780848 0.35582638
-0.023891099 -0.10791558 0.12293959
-0.030266101 0.20933849 0.011816502
-0.0310451 0.64332646 -0.1368928
-0.029317101 -0.31984359 0.19314623
-0.0294051 -0.27055448 0.17625666
-0.035678096 -0.026423514 0.09017849
-0.036322102 0.28125149 -0.015287399
-0.0364241 0.32965946 -0.031880379
-0.036486097 0.35935849 -0.042061329
-0.036574103 0.40135849 -0.05645752
-0.036734097 0.47768247 -0.082620621
-0.038835101 0.84287548 -0.42656279
-0.034081101 -0.78896648 0.35156727
-0.034493096 -0.59251052 0.28422546
-0.041801102 0.092298448 0.04704237
-0.041880101 0.12526244 0.035738468
-0.042541102 0.40116847 -0.0588727
-0.045152098 0.84279847 -0.43283939
-0.040495098 -0.45349151 0.23419857
-0.048190102 0.28078645 -0.020058632
-0.049166098 0.64301246 -0.14431334
-0.049377099 0.72126347 -0.17115736
-0.0494681 0.75498646 -0.18272543
-0.046568103 -0.32114452 0.18642426
-0.045305103 -0.79013151 0.34730244
-0.053913102 0.20830947 0.0023446083
-0.053422101 0.04439646 0.058591366
-0.0552141 0.6429075 -0.14679241
-0.054489098 0.40078646 -0.063705444
-0.052134097 -0.38573855 0.20619726
-0.059686102 0.16281748 0.015501499
-0.060469098 0.40059447 -0.066122532
-0.060609102 0.44283247 -0.080623627
-0.062180102 0.80928648 -0.24428749
-0.064162098 0.84257847 -0.45074463
-0.057311103 -0.55772048 0.26284933
-0.065460101 0.12411249 0.026335239
-0.065761104 0.20779049 -0.0023994446
-0.065867104 0.23717946 -0.012492657
-0.066454105 0.40040147 -0.068544388
-0.066606104 0.44265446 -0.083054543
-0.0683401 0.80921048 -0.24865246
-0.061976105 -0.84462553 0.35900927
-0.071238101 0.090802491 0.035324574
-0.073210098 0.59669447 -0.13846636
-0.073514104 0.67470247 -0.16526556
-0.073826104 0.75472748 -0.19275761
-0.0696261 -0.32289559 0.17744446
-0.070452102 -0.11084157 0.10459757
-0.0691071 -0.45589358 0.22313261
-0.077437103 0.16198844 0.0084095001
-0.0792621 0.59657145 -0.14093876
-0.0729651 -0.90306658 0.37442541
-0.074653104 -0.50114149 0.23630047
-0.082504101 -0.029144526 0.071655273
-0.085169099 0.56317645 -0.13197565
-0.084434099 0.39982146 -0.075816631
-0.085879102 0.72079945 -0.18616343
-0.084779099 0.47636145 -0.10212851
-0.079335101 -0.73331648 0.31373835
-0.082133099 -0.11158353 0.09999752
-0.090234101 0.35749245 -0.063753605
-0.091008104 0.51883447 -0.11923933
-0.084993102 -0.73389155 0.31158543
-0.085649103 -0.59724754 0.26459122
-0.086321101 -0.45734948 0.2164793
-0.0956081 0.23592049 -0.024418354
-0.094619103 0.042171478 0.042238235
-0.097681105 0.64216346 -0.1641798
-0.093285099 -0.21908253 0.13211966
-0.091352105 -0.59778053 0.26240444
-0.1007791 0.089285493 0.023571491
-0.1009571 0.12236249 0.012187481
-0.096322104 -0.73504752 0.30727339
-0.098806098 -0.27562851 0.14915943
-0.099387102 -0.16817552 0.11217928
-0.099686101 -0.1127035 0.093087673
-0.097576104 -0.50315052 0.22746325
-0.097818099 -0.45832759 0.21203852
-0.1066991 0.088979483 0.021216393
-0.1057791 -0.072205484 0.07670927
-0.1095941 0.59595144 -0.15332937
-0.1082291 0.35686046 -0.071012497
-0.1091511 0.51837647 -0.12661934
-0.1027721 -0.5988515 0.25802755
-0.1035721 -0.4588185 0.2098155
-0.1126241 0.088672459 0.018858433
-0.1149501 0.47552148 -0.1143775
-0.1152061 0.51822346 -0.12908363
-0.1076651 -0.73620957 0.30295849
-0.1087101 -0.56240159 0.24309635
-0.1110751 -0.16896456 0.10759354
-0.1093301 -0.45931059 0.20759058
-0.1175351 -0.072931588 0.072074413
-0.12225111 0.67393744 -0.18525267
-0.1234211 -0.073295534 0.069753647
-0.1236971 -0.031574547 0.055373669
-0.1288971 0.75413346 -0.21543264
-0.1270511 0.47518146 -0.11928749
-0.1190261 -0.73737758 0.29863739
-0.1194931 -0.66672748 0.27428722
-0.1227821 -0.1697585 0.10300064
-0.13092311 0.15946144 -0.012946606
-0.13174011 0.27745944 -0.053632736
-0.1300981 0.04022944 0.028163433
-0.1320771 0.32614148 -0.070415497
-0.1342591 0.64151347 -0.1791544
-0.1344821 0.67374349 -0.19026756
-0.13286909 0.44066948 -0.10990572
-0.13340311 0.51776046 -0.13648462
-0.1270851 -1.0094194 0.17825842
-0.1239271 -0.85138148 0.3355813
-0.12471209 -0.7379635 0.29647636
-0.1278971 -0.27779156 0.13781452
-0.1290261 -0.11459059 0.081543446
-0.1266301 -0.46079451 0.20091152
-0.13721511 0.20461547 -0.03099966
-0.1374291 0.23412949 -0.041180611
-0.14060411 0.67364645 -0.19277668
-0.14285611 0.15889049 -0.017709732
-0.14141411 -0.03262955 0.048373222
-0.14374509 0.27697349 -0.05845356
-0.14168011 0.0027494431 0.036166668
-0.14465511 0.39785045 -0.10016155
-0.1449751 0.44030246 -0.11480856
-0.14708011 0.72000849 -0.21131945
-0.1473361 0.75393146 -0.2230258
-0.1391881 -0.32826549 0.15038061
-0.13823511 -1.0048366 0.19405365
-0.1528621 0.67345142 -0.19780254
-0.15322611 0.71992844 -0.21384573
-0.1445071 -0.39321953 0.17038059
-0.1409031 -0.85325855 0.32917166
-0.1431561 -0.56558651 0.22987652
-0.14624411 -0.17135948 0.093801498
-0.1436131 -0.50723249 0.20973349
-0.1439651 -0.46229154 0.1942215
-0.1532481 -0.033338547 0.043699265
-0.1554191 0.23335147 -0.048387527
-0.15577011 0.27648544 -0.063281536
-0.1538361 0.038916469 0.018749237
-0.15873609 0.64107448 -0.1891737
-0.1465711 -0.85388857 0.32703161
-0.15881909 -0.075503528 0.055802345
-0.1614241 0.23309046 -0.050793648
-0.16419511 0.56138247 -0.16419363
-0.16514011 0.67325449 -0.20283556
-0.1655321 0.7197665 -0.21890259
-0.1638201 0.51697946 -0.14885569
-0.1679851 0.80795944 -0.31927443
-0.1665881 0.84485447 -0.26210546
-0.15847211 -0.11650354 0.069963455
-0.15516511 -0.50826651 0.20528841
-0.1555451 -0.46329659 0.18975449
-0.1661481 0.085874438 -0.0024204254
-0.1650991 -0.034050524 0.039020538
-0.16887011 0.39704746 -0.10994673
-0.1634371 -0.22408158 0.10468435
-0.16043611 -0.56719857 0.22324848
-0.1713521 0.0010324717 0.02442646
-0.1778561 0.71960449 -0.22396755
-0.1789891 0.84478843 -0.26723576
-0.1688001 -0.2808705 0.12187338
-0.16931011 -0.22450548 0.10238838
-0.1787641 0.15716147 -0.032037735
-0.1835911 0.67295849 -0.21040058
-0.1814031 0.43918747 -0.12956142
-0.18402711 0.71952343 -0.22650242
-0.1817261 0.47363147 -0.14147139
-0.1710071 -0.67185551 0.25464058
-0.1716291 -0.60540253 0.23166037
-0.1889911 0.59429848 -0.18574858
-0.1863801 0.32409346 -0.092276573
-0.17775211 -0.56882352 0.21660948
-0.18920811 -8.5234642e-06 0.017364502
-0.1895761 0.036921442 0.0045833588
-0.19273511 0.35384047 -0.10508871
-0.1943531 0.51618946 -0.16126966
-0.18118711 -0.80461055 0.29580164
-0.1880271 -0.11844248 0.058349609
-0.1841151 -0.51087755 0.19415236
-0.1943731 -0.07774657 0.041797638
-0.1948041 -0.035849512 0.027293205
-0.1979951 0.27475446 -0.080231667
-0.1955481 0.03658545 0.0022172928
-0.1984971 0.32363147 -0.09715271
-0.2017511 0.64029443 -0.20677662
-0.20256211 0.7192775 -0.23411942
-0.1910921 -0.39708358 0.15234756
-0.1868991 -0.80523449 0.29364252
-0.18825111 -0.67359251 0.24807024
-0.1922681 -0.28265554 0.11273336
-0.19337811 -0.17461258 0.075331211
-0.2035871 0.23124444 -0.067677498
-0.2011331 -0.00070750713 0.012648582
-0.2087501 0.71919549 -0.23666239
-0.1969341 -0.3975715 0.15008736
-0.1976191 -0.33287555 0.12768221
-0.1920521 -0.8589825 0.30987835
-0.19325711 -0.74512452 0.27044821
-0.19987909 -0.11922556 0.053692341
-0.2088111 0.15569848 -0.044019699
-0.2101021 0.27425444 -0.085090637
-0.2163111 0.84458745 -0.28267336
-0.2209941 0.88690847 -0.43169641
-0.1971291 -0.91725451 0.32769442
-0.2153451 0.20105749 -0.062241554
-0.2130781 -0.0014095306 0.0079264641
-0.21670911 0.32293445 -0.10448074
-0.2206201 0.67235744 -0.22557878
-0.2179971 0.43805546 -0.14437771
-0.2211431 0.7190305 -0.24175453
-0.22491111 0.80725545 -0.35840845
-0.2093571 -0.33381253 0.12312555
-0.2099151 -0.28400749 0.10586548
-0.21112511 -0.17585152 0.06838131
-0.2200311 0.083007455 -0.023825645
-0.21864811 -0.037305534 0.017886639
-0.2222251 0.27375048 -0.089954376
-0.2268081 0.67225647 -0.22811556
-0.22734509 0.71894747 -0.24430275
-0.2245101 0.47239846 -0.1588254
-0.22878911 0.8445195 -0.28783274
-0.21206909 -0.60932153 0.2161994
-0.21317109 -0.51352352 0.18298721
-0.2268921 0.15481144 -0.051228523
-0.2241241 -0.079643548 0.030086517
-0.2246201 -0.037671506 0.015529633
-0.2282941 0.27349848 -0.092390537
-0.2316751 0.55981243 -0.19169044
-0.2292271 0.35251045 -0.11979437
-0.2297291 0.39500046 -0.13453054
-0.2302331 0.43767348 -0.14933157
-0.21489111 -0.86157054 0.3012743
-0.2195271 -0.4689185 0.16509438
-0.23293111 0.15451449 -0.05363369
-0.2349631 0.32223147 -0.11182356
-0.2413061 0.84444547 -0.29347134
-0.24360411 0.88734144 -0.35927248
-0.2202761 -0.97174853 0.30874443
-0.2199131 -0.91992456 0.31914043
-0.22061211 -0.86222154 0.29912043
-0.22366211 -0.6104545 0.21177149
-0.22411311 -0.57322055 0.19885349
-0.22537111 -0.46943754 0.16284657
-0.2360571 -0.08041054 0.025390625
-0.2444241 0.5931195 -0.2083745
-0.25127912 0.74939048 -0.39986849
-0.2320801 -0.40053254 0.13649845
-0.22699711 -0.8096475 0.27849245
-0.23420811 -0.22924548 0.077048302
-0.2355451 -0.1215995 0.039686203
-0.2306561 -0.51512748 0.17627144
-0.2440981 0.081711471 -0.033380508
-0.2425641 -0.038776517 0.0084524155
-0.24715409 0.32175946 -0.1167264
-0.25161111 0.67184949 -0.23828077
-0.25738409 0.7494905 -0.3957057
-0.25526309 0.80759144 -0.33787966
-0.2379521 -0.40103048 0.13422823
-0.2313291 -0.92127055 0.31485939
-0.2327421 -0.81028455 0.27632332
-0.2352711 -0.61159354 0.20733738
-0.2407921 -0.17793649 0.056769371
-0.24800611 -0.081180513 0.020690441
-0.24855411 -0.039147556 0.006090641
-0.2574001 0.63926947 -0.22954655
-0.25476211 0.43690446 -0.15925741
-0.25577411 0.51457447 -0.18623447
-0.26131409 0.80765843 -0.33378744
-0.2370431 -0.92194551 0.31271648
-0.25615811 0.081057489 -0.03816843
-0.25502411 -0.003898561 -0.0086493492
-0.26253909 0.55908448 -0.20426369
-0.2640411 0.67164445 -0.24337339
-0.26466611 0.71844447 -0.25963545
-0.2663461 0.84431446 -0.30335855
-0.2605491 -0.039890528 0.0013623238
-0.26421511 0.22854644 -0.091943741
-0.26480809 0.27196747 -0.10703754
-0.2610361 -0.0042585135 -0.011024475
-0.2615431 0.032833457 -0.023916721
-0.26547909 0.32104647 -0.12409639
-0.2702651 0.67154145 -0.24592447
-0.26705611 0.43651646 -0.16423273
-0.25559711 -0.40253252 0.12741137
-0.25648311 -0.33761054 0.10484648
-0.25000212 -0.81220657 0.26980925
-0.25716609 -0.28766555 0.087485313
-0.27539009 0.59245247 -0.22101259
-0.2764931 0.67143846 -0.24847555
-0.2831811 0.71373945 -0.41499949
-0.2630921 -0.28812855 0.085181236
-0.25854209 -0.61389059 0.19845438
-0.27701709 0.27145249 -0.11193371
-0.27307111 -0.0049795508 -0.015777588
-0.27875611 0.39332348 -0.15432453
-0.28047809 0.51391745 -0.19627237
-0.28545111 0.80792445 -0.3174634
-0.26902211 -0.28859156 0.082876205
-0.27796009 -0.083123505 0.008910656
-0.2824941 0.22772247 -0.099256516
-0.2878091 0.59218246 -0.22607946
-0.28490609 0.39311147 -0.15680742
-0.27328011 -0.40404648 0.12058353
-0.27495709 -0.28905755 0.080568314
-0.27654111 -0.18047649 0.042786598
-0.30146709 0.71409446 -0.40247536
-0.29286009 0.51358545 -0.20130444
-0.2801531 -0.33953959 0.095671654
-0.28089809 -0.28952354 0.078260422
-0.28174311 -0.23278052 0.058507442
-0.27604109 -0.61562949 0.19177961
-0.28335109 -0.12482458 0.020928383
-0.29355511 0.15149748 -0.077788353
-0.2906161 -0.041767538 -0.01048851
-0.29611409 0.31984645 -0.13641357
-0.2965731 0.35001647 -0.14692068
-0.29722211 0.39268446 -0.16177845
-0.2990571 0.51341951 -0.20382166
-0.2850931 -0.40506154 0.11602354
-0.28608209 -0.34002548 0.093374252
-0.28849411 -0.18133253 0.038113594
-0.30035511 0.19708347 -0.096200466
-0.30225611 0.31960446 -0.13888264
-0.30983311 0.80805147 -0.30902958
-0.28669012 -0.68369955 0.21063042
-0.29447711 -0.18176252 0.035774231
-0.30200809 -0.084696591 -0.00054359436
-0.30693409 0.22661448 -0.10903168
-0.30324009 -0.0068005323 -0.027688503
-0.3134481 0.63821948 -0.25247049
-0.31807411 0.75047147 -0.35434437
-0.31146711 0.51308447 -0.20886374
-0.29692209 -0.40608352 0.11145639
-0.2996431 -0.23412555 0.051532269
-0.31120411 0.11157346 -0.071470737
-0.31573009 0.39204144 -0.16924763
-0.30171812 -0.47631449 0.13347864
-0.31729609 0.11124945 -0.07389164
-0.31793809 0.15026844 -0.087498665
-0.31918409 0.22605544 -0.1139307
-0.32463712 0.55759645 -0.2295537
-0.32071111 0.31887448 -0.14629936
-0.32595912 0.63798249 -0.25758839
-0.32649511 0.67060244 -0.26896477
-0.33181211 0.71467948 -0.38169956
-0.3087711 -0.40711051 0.10688639
-0.3308731 0.55744547 -0.23209333
-0.33143911 0.59122747 -0.24387741
-0.32881409 0.43454546 -0.18921566
-0.3157931 -0.34247154 0.081868649
-0.31939909 -0.12728852 0.0067944527
-0.31277111 -0.52278548 0.14477444
-0.3289181 0.077062488 -0.067029476
-0.32809711 0.028968453 -0.050245762
-0.33769211 0.59108949 -0.24642849
-0.33501711 0.43434545 -0.19172573
-0.33561009 0.46912047 -0.20386171
-0.32357511 -0.23593551 0.042207241
-0.34336209 0.5571425 -0.2371788
-0.33973411 0.34839046 -0.16429567
-0.34047711 0.39117545 -0.1792326
-0.3481741 0.75095248 -0.3338356
-0.32957011 -0.23639148 0.039872646
-0.3389681 -0.044822514 -0.029531479
-0.34374011 0.22492945 -0.1237464
-0.34961611 0.5569905 -0.23972368
-0.3459211 0.34815544 -0.16678572
-0.35597011 0.71514148 -0.36516047
-0.3472161 0.076043487 -0.074284554
-0.3478201 0.10962045 -0.086014748
-0.3506771 0.26830149 -0.14145756
-0.34634909 0.027895451 -0.057460785
-0.35791209 0.67007047 -0.28183556
-0.35288209 0.39073849 -0.18423748
-0.34352511 -0.12895256 -0.0026574135
-0.35684711 0.26803446 -0.14392853
-0.36213511 0.55668545 -0.24482059
-0.35830611 0.34768444 -0.17177057
-0.3661581 0.75123847 -0.32158375
-0.36131111 0.51172948 -0.22910738
-0.34653911 -0.29473549 0.052773476
-0.3495681 -0.12937158 -0.0050263405
-0.35943809 0.075360477 -0.079128742
-0.3622081 0.22407746 -0.13112736
-0.3578451 -0.010138512 -0.049231529
-0.35854009 0.027175486 -0.062278748
-0.36840209 0.5565325 -0.24737072
-0.3690331 0.59039545 -0.25921249
-0.3699041 0.63714445 -0.27555847
-0.3653051 0.39030045 -0.18924856
-0.3740201 0.71548545 -0.35280657
-0.36675611 0.46818247 -0.21648073
-0.36555609 0.075017452 -0.081551552
-0.3632561 -0.046373546 -0.039091587
-0.36837411 0.22379249 -0.13359165
-0.36920211 0.26749748 -0.14887857
-0.3783671 0.75130945 -0.31810379
-0.37300012 0.46799245 -0.2190094
-0.36060011 -0.18656152 0.0099444389
-0.36852711 -0.089110553 -0.026668549
-0.3777501 0.38985944 -0.19426775
-0.37858009 0.43293145 -0.20933867
-0.38470909 0.75123549 -0.32070875
-0.36563709 -0.23914856 0.025836468
-0.37780911 0.074327469 -0.086407661
-0.38072211 0.22321844 -0.13852453
-0.37613311 -0.011268556 -0.056444645
-0.37686411 0.026087463 -0.069520473
-0.3825461 0.31639844 -0.17114258
-0.38482311 0.43272746 -0.21186352
-0.38550511 0.46761248 -0.22407579
-0.3839421 0.073982477 -0.088837624
-0.3877731 0.26668745 -0.15631771
-0.39352411 0.55591446 -0.25759745
-0.3951301 0.63665843 -0.28587246
-0.3957811 0.66942346 -0.29734564
-0.39107111 0.43252248 -0.21438837
-0.39262909 0.51086843 -0.24182463
-0.39155111 0.14650148 -0.11679363
-0.38762411 -0.047941506 -0.048678398
-0.39981809 0.55575943 -0.26015949
-0.39732412 0.43231747 -0.21691751
-0.39802909 0.46723047 -0.22914743
-0.3989071 0.5106945 -0.2443738
-0.39691311 0.10696745 -0.10550451
-0.39372709 -0.048335552 -0.051076412
-0.40995011 0.71616548 -0.32821846
-0.40307412 0.10663247 -0.10794878
-0.40547809 0.22206247 -0.14841557
-0.4063901 0.26587147 -0.16377258
-0.4159171 0.71627843 -0.32413578
-0.41167909 0.22177148 -0.15089178
-0.41365311 0.31513649 -0.18363476
-0.42113411 0.66898549 -0.30772972
-0.4188261 0.26532346 -0.16875076
-0.42505109 0.26504844 -0.17124462
-0.43210411 0.58897746 -0.28493071
-0.4267931 0.34504747 -0.19932079
-0.42773011 0.38807148 -0.2144208
-0.43031409 0.22089446 -0.15833378
-0.4323791 0.31437147 -0.19115257
-0.43305111 0.34480345 -0.20183754
-0.43495709 0.43107346 -0.23212576
-0.43653509 0.22060049 -0.16081667
-0.43863109 0.31411445 -0.19366169
-0.44276211 0.22030646 -0.16329956
-0.4437601 0.26421946 -0.17873144
-0.45112911 0.58854544 -0.29268551
-0.4547151 0.66741943 -0.34814548
-0.45115009 0.31360048 -0.1986866
-0.4528451 0.38716346 -0.22454357
-0.46304211 0.55418247 -0.28588772
-0.4638381 0.58825547 -0.29786777
-0.46939611 0.5540235 -0.2884717
-0.4672901 0.46509448 -0.25719166
-0.4785271 0.66796547 -0.33175278
-0.47361809 0.46489647 -0.2597518
-0.47466609 0.50857449 -0.2751236
-0.49129412 0.66775948 -0.33644867
-0.4948571 0.55337948 -0.29882669
-0.5020991 0.58737546 -0.31345749
-0.50329012 0.63453346 -0.33008051
