# .PCD v0.7 - Point Cloud Data file format
VERSION 0.7
FIELDS x y z
SIZE 4 4 4
TYPE F F F
COUNT 1 1 1
WIDTH 1
HEIGHT 1024
VIEWPOINT 0 0 0 1 0 0 0
POINTS 1024
DATA ascii
0.6774931 0.53368795 -0.31860065
0.67768109 0.56844997 -0.32051373
0.6571101 0.53473598 -0.30079842
0.68130308 0.34262496 -0.55437565
0.66379207 0.34658498 -0.50476456
0.64751208 0.400446 -0.39813137
0.62847006 0.619115 -0.25939655
0.63797408 0.35242099 -0.4316268
0.62855709 0.48692098 -0.32814646
0.64227104 0.26386201 -0.54941845
0.62835205 0.30395597 -0.4654336
0.59841108 0.536744 -0.26831961
0.58539504 0.49957699 -0.11954641
0.6080671 0.27278996 -0.45107651
0.58396804 0.45236197 -0.17283058
0.60791206 0.212708 -0.5231328
0.56424707 0.55040699 -0.013811588
0.58431607 0.57235998 -0.24790382
0.58790904 0.36372399 -0.28980875
0.56955808 0.50226796 -0.075752735
0.57890904 0.61940897 -0.2566905
0.56801909 0.45538399 -0.12835264
0.55256206 0.55032694 -0.016312599
0.57219505 0.57230401 -0.25011158
0.57166505 0.367387 -0.24380159
0.58262604 0.21992099 -0.44969559
0.55227709 0.45836398 -0.084452629
0.58133006 0.16641897 -0.51089382
0.56080306 0.65236902 -0.26121569
0.54158306 0.42221698 -0.10066175
0.53013909 0.58292401 -0.03322649
0.54597706 0.32422298 -0.23008251
0.53803909 0.32617301 -0.20740747
0.53199506 0.37632698 -0.13145065
0.54492104 0.69889599 -0.29387856
0.55274707 0.13803899 -0.47193241
0.53445107 0.29197598 -0.23945761
0.54451507 0.14069301 -0.44765759
0.51545006 0.58100498 -0.074181557
0.52654308 0.294034 -0.21673059
0.51649004 0.37981701 -0.08754158
0.50920606 0.46455997 0.0060544014
0.53634006 0.14332801 -0.42354774
0.5186891 0.29607797 -0.19415474
0.50599909 0.57943398 -0.10750151
0.49661604 0.43074498 0.015850544
0.52181005 0.698304 -0.31535864
0.49871203 0.506428 -0.011712551
0.50313205 0.30012399 -0.14944458
0.51874405 0.091476977 -0.4410224
0.50795805 0.18893999 -0.29587746
0.48909202 0.58265299 -0.042006493
0.49031702 0.62792301 -0.058493614
0.48497704 0.43063098 0.013371468
0.5000791 0.19135499 -0.27279139
0.48234603 0.549824 -0.031313419
0.48322305 0.58261395 -0.043260574
0.50472105 0.697721 -0.33601046
0.50819409 0.04540199 -0.46956778
0.48649904 0.24729097 -0.17056751
0.47639704 0.34130001 -0.031336784
0.47223103 0.38886601 0.026074409
0.47333205 0.43051597 0.010894299
0.50012004 0.048366964 -0.44532156
0.48843303 0.15875596 -0.28228378
0.47882903 0.24947101 -0.1483016
0.47262704 0.30805296 -0.061778545
0.49450204 0.69681197 -0.3669486
0.46838805 0.46418798 -0.0026373863
0.47675204 0.198502 -0.2044487
0.46512404 0.31000096 -0.040219784
0.45889503 0.54964697 -0.036319733
0.45973203 0.58245301 -0.04828167
0.45409304 0.346766 0.032360554
0.46180403 0.65939295 -0.077923775
0.45479104 0.38867497 0.022369385
0.47623104 0.057132006 -0.37359142
0.46519604 0.16623098 -0.21377659
0.45302904 0.54960197 -0.03757143
0.45696405 0.65879297 -0.094554424
0.47280905 0.015498996 -0.41503143
0.45755303 0.168688 -0.19124365
0.44212705 0.34705901 0.035036564
0.44419503 0.43022197 0.0047001839
0.44607803 0.50598502 -0.022931576
0.45562604 0.11331296 -0.25308561
0.43919003 0.46391198 -0.0088505745
0.45708305 0.021553993 -0.36746979
0.43385503 0.26224297 -0.017749786
0.42980105 0.317581 0.043281555
0.43151805 0.38841599 0.017431259
0.43492004 0.17596 -0.12452555
0.43146303 0.21236098 -0.071777821
0.42652804 0.26432198 0.0035176277
0.45545104 -0.040211022 -0.4377656
0.43736905 0.656362 -0.16188145
0.42850703 0.505831 -0.026674747
0.43747604 0.071339011 -0.25723076
0.45239705 -0.088334024 -0.48797274
0.41820103 0.31743199 0.040824413
0.42085803 0.429979 -0.00025558472
0.42987704 0.074122965 -0.23441982
0.41201103 0.26843899 0.045649529
0.44449803 -0.084914029 -0.46362543
0.42183903 0.70474195 -0.10841846
0.43221804 0.82642001 -0.27111244
0.40947104 0.21908301 -0.0073647499
0.40659404 0.31727999 0.038369179
0.40726805 0.346632 0.027652264
0.42636904 0.61907697 -0.27594852
0.42242303 0.65450501 -0.21323776
0.40918005 0.42985597 -0.0027356148
0.40223503 0.22129399 0.013828278
0.42886603 -0.078148007 -0.4154458
0.40078804 0.317204 0.03714323
0.41739404 0.65388 -0.23052073
0.40239403 0.38808298 0.011257172
0.41190505 0.70374799 -0.14204454
0.40410402 0.46356899 -0.016310692
0.40505704 0.50562298 -0.031669617
0.39816904 0.18775696 -0.016204357
0.39504403 0.22349 0.03488636
0.40016603 0.54918599 -0.048849583
0.40090004 0.58203298 -0.060848713
0.40341005 0.62636602 -0.10188246
0.39998803 0.085062981 -0.14469862
0.39578304 0.13397199 -0.07495451
0.38790002 0.22567099 0.055809498
0.39600804 0.62734902 -0.078677654
0.39845005 0.73823297 -0.11918449
0.39332405 0.50551599 -0.034167767
0.39625204 0.044945955 -0.18351173
0.38140404 0.226794 0.066417217
0.38399905 0.34633899 0.022729397
0.38580704 0.42960498 -0.0076975822
0.39682204 0.70223796 -0.19310236
0.39583802 0.82759696 -0.17653179
0.38251704 0.54904199 -0.052613735
0.39702803 0.65134597 -0.30051279
0.37996003 0.42954099 -0.0089364052
0.38798904 0.73756999 -0.14610147
0.37807703 0.093075991 -0.078936577
0.39187405 0.65070498 -0.31822538
0.38250804 0.82785797 -0.15579844
0.36700705 0.14388996 0.010683537
0.36344802 0.19752699 0.073366642
0.38712004 -0.10712999 -0.34351254
0.36492905 0.268866 0.047278404
0.38321704 -0.058409989 -0.27477264
0.37924704 -0.0088720322 -0.2048707
0.38669503 0.65006 -0.33602667
0.36826202 0.42941198 -0.011419773
0.36896405 0.46321398 -0.023777485
0.38422304 -0.16247696 -0.40283155
0.35912704 0.26877999 0.046054363
0.37190005 -0.0058550239 -0.18242168
0.36645404 0.62715799 -0.084998608
0.36310104 0.46315399 -0.025024414
0.36396104 0.50524497 -0.040415764
0.35983104 0.058925986 -0.073399544
0.35247102 0.22634101 0.060323238
0.34590203 0.15115696 0.073484421
0.36471704 -0.096988022 -0.27392769
0.35735404 0.00011599064 -0.1379776
0.36517805 0.69960201 -0.2824316
0.35137203 0.46303198 -0.027516365
0.35790205 0.79265398 -0.14808559
0.35734904 -0.093653977 -0.25104141
0.35015205 0.0030710101 -0.11597347
0.35911804 0.69955701 -0.28425264
0.36601904 -0.210195 -0.41376448
0.35002905 -0.090343058 -0.22830868
0.33590704 0.26843297 0.041162491
0.33682603 0.31633496 0.023632526
0.33898804 0.42908397 -0.017629623
0.34996203 0.73558199 -0.22702646
0.34044403 0.50502199 -0.045420647
0.33935004 -0.03947401 -0.13962078
0.33155504 0.345653 0.011642456
0.33312705 0.42901799 -0.018871784
0.33376503 0.46284598 -0.031254768
0.32167202 0.113671 0.090318203
0.33955804 -0.14114505 -0.26275873
0.32428604 0.26825601 0.038715363
0.32572004 0.34557498 0.010408401
0.32649103 0.38716799 -0.0048184395
0.32726604 0.42894998 -0.020115376
0.33793002 0.73550797 -0.23061562
0.32789403 0.46278399 -0.032501698
0.32867503 0.50490898 -0.047922611
0.32835504 -0.080543995 -0.16099739
0.31988305 0.345496 0.0091753006
0.32140303 0.42888299 -0.02135849
0.32278803 0.504852 -0.049174786
0.33624604 -0.19523197 -0.31949568
0.32506204 -0.13422996 -0.21730471
0.32122505 -0.077320993 -0.13885546
0.31768304 0.54849195 -0.066429615
0.31351903 0.31600499 0.018715382
0.31908605 0.62684 -0.095123768
0.32588905 0.73543197 -0.23420763
0.31614503 0.46265799 -0.034994602
0.33434305 -0.27190107 -0.40706968
0.30558604 0.19655299 0.061208248
0.31413904 -0.074120998 -0.11685371
0.30684304 0.26798701 0.03504324
0.31177804 0.54843998 -0.067687511
0.31315604 0.62679899 -0.096391678
0.31026703 0.46259397 -0.036241531
0.30102605 0.267896 0.033818245
0.30185404 0.31583697 0.016254425
0.30511704 0.50467896 -0.052932739
0.31009004 0.79251796 -0.15837669
0.30367005 -0.12403101 -0.1502347
0.30010805 -0.067785025 -0.073288441
0.29448804 0.22539496 0.048134327
0.29922405 0.50461996 -0.05418539
0.28627902 0.080977976 0.099808216
0.28819802 0.19625098 0.057560444
0.28737003 0.028795004 0.075791359
0.29460505 0.58121097 -0.083529472
0.30177402 0.73527896 -0.24140358
0.29332903 0.50456202 -0.055437565
0.28814605 0.54823101 -0.072721481
0.28482905 0.34501398 0.0017733574
0.29838005 0.69909698 -0.30250263
0.29573902 0.73523998 -0.24320459
0.30239305 -0.32774597 -0.39260674
0.27475002 0.080742002 0.097402573
0.27400103 0.033990979 0.11454725
0.28153205 0.50444299 -0.057945728
0.26825005 0.033865988 0.11334848
0.27631903 0.54812396 -0.075239658
0.28619903 0.69900197 -0.30616665
0.28366002 0.73516297 -0.24681139
0.26430103 0.15110397 0.069101334
0.26580504 -0.052311003 0.033198357
0.26249602 0.033739984 0.11214924
0.27091002 0.58101594 -0.088583469
0.26727805 0.34476697 -0.00192976
0.27647904 -0.24084097 -0.22147465
0.25793704 0.11300498 0.081825256
0.25850904 0.150994 0.06788826
0.25918204 0.19573498 0.051476479
0.26614603 0.65830803 -0.11821842
0.26205203 0.38634098 -0.018446445
0.27401003 0.69890702 -0.30983353
0.26816404 0.79239398 -0.16739845
0.27356502 -0.31131798 -0.29899359
0.25098303 0.033486009 0.10975218
0.27100003 -0.39110607 -0.38863468
0.24756303 0.19552499 0.049041271
0.25311905 0.58086801 -0.092374802
0.25140503 0.46193898 -0.04872942
0.24192604 -0.094646037 0.043286324
0.24276105 0.26696199 0.02156353
0.24718603 0.580818 -0.09363842
0.24343804 0.31496996 0.0039434433
0.24867204 -0.22594005 -0.13231182
0.23593903 0.19531298 0.046606541
0.23528203 -0.091488063 0.064107418
0.23692504 0.26686597 0.020337582
0.24125105 0.58076799 -0.094904423
0.24183303 -0.22227699 -0.11038351
0.22900903 0.11241698 0.075787544
0.22952104 0.150433 0.061828613
0.23012404 0.19520599 0.045387268
0.23487103 0.54774201 -0.084061623
0.23213103 0.34426099 -0.0093436241
0.23325604 0.42782497 -0.040027618
0.23697504 0.70402598 -0.1414485
0.22524704 0.26667196 0.017885208
0.23039204 0.65807599 -0.12586451
0.22681403 0.38586897 -0.025892735
0.23215604 0.79228401 -0.17514753
0.22828303 -0.21502501 -0.066946507
0.21700604 0.079523981 0.085365295
0.21594104 -0.0035390258 0.11587763
0.22002204 0.31461 -0.00098848343
0.22147204 0.42767799 -0.042521477
0.22614904 0.79226601 -0.17643976
0.23215003 -0.44012696 -0.34827662
0.21122304 0.07939899 0.084161282
0.21163204 0.11205697 0.072163582
0.20974803 -0.038495004 0.12747622
0.21303204 0.22398198 0.031042576
0.21707904 0.54757398 -0.087846756
0.22515203 -0.43564504 -0.3249588
0.21490803 -0.20787007 -0.024072647
0.20583604 0.11193597 0.070953369
0.20630004 0.14997298 0.056976318
0.20684604 0.19477201 0.040514469
0.20349903 -0.079738021 0.14138937
0.20771904 0.26637799 0.014202595
0.20830403 0.31442696 -0.0034546852
0.20968303 0.42752799 -0.045016766
0.21820104 -0.43119496 -0.30179548
0.21141604 -0.27596802 -0.097251415
0.20828404 -0.204328 -0.0028424263
0.20279104 0.34382701 -0.015528679
0.21096304 0.73468298 -0.26853561
0.21129404 -0.42677397 -0.27878237
0.20170003 -0.20080799 0.018260479
0.19423804 0.11169201 0.068536282
0.19927104 0.54740399 -0.09163475
0.19965304 0.58040899 -0.1037674
0.19071303 0.31414998 -0.0071563721
0.19198404 0.42730197 -0.04875946
0.19284004 0.50351399 -0.076782703
0.18305004 0.14950401 0.052122593
0.18137003 -0.004373014 0.10870934
0.18516804 0.34356201 -0.019240379
0.18691304 0.50344896 -0.078039646
0.18493204 -0.26093203 -0.011311531
0.18220004 -0.190391 0.080748558
0.17801704 0.22334397 0.023706436
0.18228103 0.62584603 -0.12433958
0.17973204 0.385216 -0.035832405
0.18053603 0.46110499 -0.063746452
0.18779804 -0.50740606 -0.31585073
0.17068604 0.078503013 0.075728416
0.17550203 0.54717195 -0.096689701
0.17631003 0.62580001 -0.1256156
0.17711003 0.70369798 -0.1542716
0.18097904 -0.50273305 -0.29275656
0.16442104 0.031493962 0.091769218
0.16835904 0.42699498 -0.053754807
0.16869704 0.46096098 -0.066253662
0.16290204 -0.12113601 0.14792919
0.15940404 0.11094397 0.061280251
0.16360703 0.54705501 -0.099216461
0.16436504 0.62570697 -0.12816477
0.16204403 0.38496399 -0.03956461
0.16543904 0.737225 -0.16920471
0.16318403 0.50318801 -0.083073616
0.16747704 -0.49348503 -0.24703979
0.15251204 -0.005087018 0.10273361
0.15685304 0.460816 -0.068760395
0.15275703 -0.24269003 0.0930686
0.14777704 0.11068898 0.058860302
0.14878504 0.22279799 0.017586231
0.14916804 0.26536298 0.0019154549
0.15341304 0.73716795 -0.17178345
0.15092604 0.46074298 -0.07001543
0.14568603 -0.12162107 0.14438629
0.15753104 -0.59190196 -0.34024382
0.14167704 0.077843964 0.06969738
0.14065203 -0.04025799 0.11318541
0.14293404 0.22268701 0.01636219
0.14095503 -0.0053780079 0.10034132
0.14643003 0.62556696 -0.13199043
0.14710703 0.70352799 -0.16069841
0.14536704 0.50298899 -0.086852551
0.13979104 0.54681599 -0.10427952
0.14006704 0.57987398 -0.1164546
0.14138104 0.73711002 -0.17436457
0.13907003 0.46059498 -0.072525501
0.14184004 0.79199398 -0.19457674
0.13617703 -0.30947405 0.054983616
0.14409503 -0.58201903 -0.29392767
0.13099204 0.19330096 0.024654388
0.13383304 0.54675603 -0.10554552
0.12450304 0.11017299 0.054018497
0.12629704 0.34264696 -0.031633377
0.12662004 0.38444901 -0.047035694
0.12908204 0.70342296 -0.1645565
0.12976503 0.79195398 -0.1971736
0.12548804 -0.37196702 0.0069894791
0.12270904 -0.12227803 0.13966131
0.12190805 0.54663396 -0.10807943
0.12018005 0.31299698 -0.02198267
0.12039905 0.34255296 -0.032874584
0.12426705 -0.56744605 -0.22559261
0.11262204 0.077169001 0.063664436
0.11650104 0.62532794 -0.13837337
0.11533304 0.46029598 -0.077546597
0.11121305 -0.29441398 0.13706255
0.10572805 -0.082383037 0.1212244
0.10648804 0.030081987 0.079764366
0.11020104 0.57959598 -0.12281179
0.10839904 0.31279796 -0.024456501
0.11051004 0.62527895 -0.13965178
0.11103704 0.70331699 -0.16842079
0.11126404 0.73696196 -0.18082237
0.10667405 -0.35997897 0.069615364
0.10474304 -0.22830504 0.17501736
0.10173304 0.19270998 0.018547535
0.10269505 0.342269 -0.036597729
0.098961048 -0.28703004 0.17733526
0.094190046 -0.082709014 0.11884832
0.094656043 -0.0065690279 0.090770245
0.098240048 0.57948297 -0.12535572
0.098996043 0.703246 -0.17099667
0.093298048 -0.22867507 0.17267847
0.090014048 0.19247001 0.01610136
0.091367044 0.42595297 -0.070019722
0.087252043 -0.28432602 0.19196939
0.095297046 -0.70738906 -0.32016468
0.092069045 -0.543809 -0.11465645
0.083698042 0.109245 0.045537472
0.082872048 -0.041809022 0.10126543
0.084313042 0.22154796 0.0041055679
0.081543043 -0.28452307 0.19080639
0.085752048 -0.539177 -0.092900753
0.078440048 0.22143197 0.0028796196
0.080114044 0.54619896 -0.11695671
0.078909047 0.31229299 -0.030647755
0.080684043 -0.60377806 -0.15781975
0.079476044 -0.534576 -0.071284771
0.072566047 0.22131401 0.0016531944
0.072772041 0.26396698 -0.014088631
0.074894041 0.70310098 -0.17615652
0.075056046 0.73677999 -0.18858576
0.070388041 -0.22942704 0.16800356
0.074365042 -0.59892803 -0.13579559
0.066033043 0.076053977 0.054001331
0.066353045 0.147017 0.027807236
0.065821044 0.02905196 0.071351528
0.067098044 0.312087 -0.033126831
0.067420043 0.38355798 -0.059506416
0.068861045 0.70306498 -0.1774478
0.065495044 -0.42382103 0.098064423
0.064884044 -0.17886204 0.14809847
0.059533045 -0.083705008 0.11172342
0.062309042 0.57913798 -0.13299847
0.062501043 0.624883 -0.14988756
0.061666042 0.42553499 -0.0762887
0.062828042 0.70302796 -0.17873859
0.061986044 0.50201899 -0.10452557
0.058483042 -0.33422703 0.20421743
0.063990042 -0.74148899 -0.2811265
0.054816045 0.19173497 0.0087614059
0.056490041 0.62483299 -0.15116739
0.055719048 0.42545098 -0.077543736
0.056793042 0.70299101 -0.18002844
0.057193041 0.79161 -0.21821356
0.052781045 -0.334436 0.20306063
0.052970044 -0.28551596 0.1849966
0.053185046 -0.22999996 0.16449451
0.057613045 -0.73611003 -0.25831461
0.048364043 0.028599977 0.067743301
0.049771048 0.42536497 -0.078797817
0.049892046 0.45944297 -0.091383457
0.050568044 -0.67099398 -0.16176271
0.049486041 -0.57984906 -0.04909277
0.042178042 -0.084214032 0.10815859
0.043299042 0.26340699 -0.020254612
0.044316046 0.57896101 -0.13682365
0.044567041 0.65676397 -0.16556454
0.043685041 0.38318998 -0.06450367
0.037188046 0.19136 0.005089283
0.038089044 0.50172997 -0.10958767
0.035666041 -0.40351397 0.19892645
0.035803042 -0.28612298 0.18150759
0.036271043 -0.12485701 0.1219244
0.031309046 0.19123399 0.0038642883
0.031494044 0.26317996 -0.022724628
0.030888041 0.028141975 0.064133167
0.031695046 0.34108901 -0.051515579
0.032510042 0.656672 -0.1681385
0.029809041 -0.39952999 0.21872663
0.033451043 -0.82443506 -0.30295658
0.032512039 -0.71495503 -0.16854477
0.030351041 -0.17997307 0.14104223
0.031235041 -0.56586903 0.014491558
0.025590042 0.26306498 -0.023958683
0.026228042 0.54561901 -0.12839556
0.026478043 0.65662599 -0.16942644
0.026783044 0.79159498 -0.21930456
0.026338043 -0.709755 -0.14646673
0.025898041 -0.650958 -0.074443817
0.024589041 -0.18016106 0.1398654
0.020230042 0.54555297 -0.12966681
0.020145042 0.50151002 -0.11338663
0.018401043 -0.39933199 0.21964359
0.018831043 -0.49019104 0.13750553
0.013469042 0.074750006 0.04311657
0.013704043 0.22011 -0.010630608
0.014282042 0.57866198 -0.1432085
0.014034042 0.42484599 -0.086334705
0.014537042 0.73646599 -0.20155668
0.013795042 -0.64113706 -0.031616688
0.013322042 -0.55216104 0.076881409
0.0074130427 -0.085251987 0.10102463
0.0083700418 0.65648699 -0.17328978
0.0081700422 0.50136101 -0.11592054
0.0070070419 -0.39978296 0.21734524
0.001767043 0.074452996 0.040696621
0.0022230428 0.545353 -0.13348866
0.0019960422 0.31092298 -0.04677248
0.0023300424 0.65644002 -0.17457867
0.0021060426 0.42466998 -0.088847637
0.0021390431 0.45879599 -0.10147047
-0.0037839571 0.545286 -0.13476276
-0.0037619574 0.57847899 -0.1470418
-0.0039159572 0.34047496 -0.058987617
-0.0043939576 -0.40023798 0.21504927
-0.004073957 -0.62665004 0.031600475
-0.0043979576 -0.47322804 0.21743727
-0.0099439574 0.074153006 0.038274288
-0.0099339578 0.10700899 0.026117325
-0.0099599576 0.027049005 0.055704594
-0.0097809574 0.57841802 -0.14832067
-0.0098309573 0.42449197 -0.09136343
-0.0098059569 0.50113595 -0.1197257
-0.010097957 -0.40046698 0.21390057
-0.010076957 -0.33678907 0.19033718
-0.0096589569 -0.90445906 -0.28907776
-0.0097839572 -0.78563303 -0.14547873
-0.010008957 -0.12630707 0.11245251
-0.015804958 0.31059599 -0.050501823
-0.015804958 0.340267 -0.06148243
-0.015804958 0.62420702 -0.16657162
-0.015804958 0.70253396 -0.19555759
-0.015804958 -0.40069801 0.21275139
-0.015804958 -0.12649196 0.11126661
-0.021664958 0.073850989 0.035851479
-0.021702956 0.190072 -0.0071706772
-0.021626957 -0.04478699 0.079768181
-0.021842957 0.62415397 -0.16785765
-0.021852957 0.65625 -0.17973757
-0.021511957 -0.40092903 0.21160126
-0.021532957 -0.33723003 0.18802357
-0.021547958 -0.28820807 0.16987753
-0.021565957 -0.232575 0.14928341
-0.021614958 -0.61244398 0.09363842
-0.027573958 0.144853 0.008295536
-0.027649958 0.26201099 -0.035081387
-0.027473956 -0.0099160075 0.065598488
-0.027699959 0.34005696 -0.063976765
-0.033424959 0.10642397 0.021253586
-0.033505958 0.18980801 -0.0096244812
-0.033237956 -0.086498022 0.092694283
-0.033533957 0.21910697 -0.020474434
-0.033849955 0.54494596 -0.1411376
-0.033881955 0.57816899 -0.15344238
-0.033957958 0.65615398 -0.18232059
-0.032932959 -0.40139407 0.20930529
-0.033305958 -0.65961796 0.066689491
-0.039261959 0.073391974 0.032216549
-0.039304957 0.10627598 0.020036221
-0.039411955 0.18967497 -0.010853767
-0.03905496 -0.086679041 0.091504574
-0.039505959 0.26177096 -0.037556648
-0.039871957 0.54487699 -0.14241552
-0.039606959 0.33984399 -0.06647253
-0.04001496 0.656106 -0.18361139
-0.039069958 -0.654782 0.087276459
-0.038501956 -0.51421207 0.24985743
-0.044872958 -0.086861014 0.090314388
-0.045629956 0.38174701 -0.083284378
-0.045821957 0.50067699 -0.1273427
-0.044362955 -0.40186304 0.20700741
-0.044465959 -0.33812207 0.18339539
-0.045336958 -0.75379497 -0.016067505
-0.044806957 -0.12742907 0.10534239
-0.051066957 0.10597897 0.017603397
-0.051367961 0.26152897 -0.040032387
-0.050910957 0.025922 0.047267437
-0.051461957 0.309928 -0.057964802
-0.050487958 -0.64520603 0.12805653
-0.050506957 -0.182684 0.1245594
-0.057037957 0.14414501 0.0021862984
-0.057139955 0.18927199 -0.014537811
-0.05668696 -0.010758996 0.059593201
-0.057479955 0.33952296 -0.07022047
-0.058123954 0.62382698 -0.1755805
-0.057574958 0.38154799 -0.085795403
-0.055800959 -0.40233701 0.20471048
-0.055944957 -0.33857399 0.18107939
-0.05614496 -0.64046496 0.14825821
-0.06305296 0.18913698 -0.015765667
-0.062337957 -0.087412 0.086740494
-0.062444955 -0.046011031 0.071395397
-0.063239954 0.26128501 -0.042509556
-0.063441955 0.33941501 -0.071469784
-0.063550957 0.38144696 -0.087049484
-0.061686955 -0.33880204 0.17992163
-0.061813958 -0.28972203 0.16173029
-0.061767958 -0.63575298 0.16833639
-0.061309956 -0.580347 0.23397636
-0.062089957 -0.18308502 0.12220335
-0.068727955 0.105528 0.013950348
-0.06816496 -0.087597013 0.085548401
-0.07010296 0.577788 -0.16113377
-0.067432955 -0.33902997 0.17876339
-0.069365956 -0.84729201 -0.067284584
-0.067575954 -0.28994304 0.16056538
-0.067737959 -0.23423404 0.13991261
-0.067886956 -0.18328696 0.12102318
-0.068046957 -0.12819201 0.10059929
-0.07451196 0.072456956 0.024939537
-0.074983954 0.21819997 -0.029102802
-0.075121954 0.26103801 -0.044987679
-0.076039955 0.54445696 -0.15008068
-0.07527896 0.30947196 -0.062946796
-0.075510956 0.38124496 -0.089561462
-0.072972961 -0.40305501 0.20126152
-0.076175958 -0.94342107 -0.16575766
-0.075129956 -0.84178299 -0.045883656
-0.072608955 -0.51575106 0.24304962
-0.072751954 -0.47134 0.22658253
-0.080808952 0.18872696 -0.019455433
-0.080225952 0.025095999 0.041232586
-0.082193956 0.57765901 -0.16370058
-0.081238955 0.30935699 -0.064193726
-0.079102956 -0.29038602 0.1582365
-0.078434959 -0.62179703 0.22784042
-0.078457959 -0.47159296 0.2254405
-0.086406954 0.10507101 0.010296345
-0.086731955 0.18858898 -0.020685673
-0.087011956 0.26078999 -0.047467709
-0.088112958 0.54431403 -0.15263939
-0.087478958 0.38104099 -0.092073441
-0.087642953 0.42329797 -0.10774851
-0.084678955 -0.33972102 0.17528963
-0.085284956 -0.18389696 0.11748838
-0.083992958 -0.51627296 0.24078035
-0.094295956 0.57752895 -0.16626358
-0.093290955 0.33886701 -0.077721596
-0.093645953 0.42320397 -0.10901165
-0.094758958 -1.017153 -0.20708752
-0.092210956 -0.82547301 0.017512321
-0.090874955 -0.23508602 0.13522339
-0.098056957 0.071819961 0.020083427
-0.097329952 -0.088535011 0.079589367
-0.097517952 -0.047089994 0.064209461
-0.098717958 0.21766901 -0.034039497
-0.097676955 -0.01197201 0.051178455
-0.099131957 0.30900896 -0.067934513
-0.097145952 -0.12916607 0.094666481
-0.10410795 0.104608 0.0066404343
-0.10582195 0.457252 -0.1242466
-0.10270295 -0.18451601 0.11395025
-0.11206196 0.49980298 -0.14134359
-0.10897496 -0.80948097 0.079715252
-0.10851396 -0.18472403 0.1127696
-0.10678995 -0.51732999 0.23624229
-0.11508196 -0.047639012 0.060614586
-0.11547696 0.024080992 0.033984184
-0.11834095 0.54395294 -0.15903664
-0.11720896 0.33841997 -0.082728386
-0.11767396 0.42282099 -0.1140666
-0.11786295 0.45707297 -0.1267848
-0.11948796 -1.093935 -0.23635674
-0.11197396 -0.61194903 0.27013922
-0.11432596 -0.18493205 0.11159039
-0.12231795 0.187751 -0.028069496
-0.12094296 -0.047824025 0.05941534
-0.12344196 0.38041896 -0.099620819
-0.11885896 -0.40501302 0.19206333
-0.11923195 -0.34112996 0.1683383
-0.11797895 -0.68895596 0.24810028
-0.11984395 -0.23616999 0.1293602
-0.11764996 -0.61223406 0.26901817
-0.12797695 0.14238197 -0.01250267
-0.12724696 0.023737013 0.03156662
-0.12944296 0.38031399 -0.10087967
-0.12499796 -0.34136802 0.16718054
-0.12902296 -0.98083097 -0.075566769
-0.12333295 -0.68418807 0.26755857
-0.12564495 -0.23639005 0.12818623
-0.12418295 -0.47365397 0.21631622
-0.13419695 0.18746698 -0.030533791
-0.13035196 -0.40551299 0.18976355
-0.13460895 -0.97491699 -0.054136753
-0.12865596 -0.67945105 0.28689718
-0.13213596 -0.13036102 0.087542534
-0.14013995 0.18732399 -0.031765461
-0.13853496 -0.048382998 0.055818558
-0.13877396 -0.013220012 0.042752266
-0.14226496 0.49939299 -0.14771843
-0.13653596 -0.34184796 0.1648612
-0.14225997 -1.068517 -0.14740944
-0.13624296 -0.78350705 0.18084717
-0.14629696 0.21658099 -0.043925762
-0.14567797 -0.96320504 -0.011675358
-0.13990596 -0.67900497 0.28891754
-0.14266096 -0.29289001 0.14541817
-0.14104797 -0.51894802 0.22943354
-0.15116397 0.070347965 0.0091423988
-0.15315996 0.33773696 -0.090250492
-0.15343097 -1.056061 -0.10378742
-0.14966196 -0.13097006 0.083978176
-0.14676496 -0.51922101 0.22829819
-0.14709696 -0.474711 0.21175146
-0.15707596 0.070181012 0.0079274178
-0.15821396 0.216304 -0.046399593
-0.15642296 -0.013765991 0.039137363
-0.15915896 0.33762097 -0.091504574
-0.15467997 -0.23750097 0.12232018
-0.15248397 -0.51949602 0.22716141
-0.16393796 0.186746 -0.036697388
-0.16417696 0.21616399 -0.047637463
-0.16230896 -0.01394999 0.037932396
-0.16516097 0.33750498 -0.092759609
-0.16584696 0.42203698 -0.12419367
-0.16202396 -0.94592398 0.051012516
-0.16003996 -0.29359204 0.14192057
-0.16049397 -0.23772603 0.12114525
-0.16890696 0.069844961 0.0054922104
-0.16951096 0.141312 -0.0210886
-0.16755097 -0.090866029 0.065265179
-0.16790196 -0.049329042 0.049817562
-0.17050396 0.25899196 -0.064856529
-0.16992596 -1.0376861 -0.039399624
-0.17482796 0.069675982 0.004275322
-0.17545496 0.14115697 -0.022315502
-0.17648697 0.25885898 -0.066100597
-0.17691296 0.30745 -0.084177494
-0.17754397 0.379457 -0.11096478
-0.18104996 0.10253596 -0.0092315674
-0.18139996 0.14100099 -0.023544788
-0.17998597 -0.014504015 0.034315586
-0.18031897 0.022153974 0.020675182
-0.18318297 0.33715397 -0.096527576
-0.17641196 -0.40755504 0.18055725
-0.17699397 -0.34355706 0.15674639
-0.17744096 -0.29430407 0.13842058
-0.17794997 -0.238406 0.11762333
-0.18217896 -0.40781397 0.1794076
-0.17894496 -0.75116199 0.3071804
-0.18377197 -0.238635 0.1164484
-0.18477497 -0.13220996 0.076843262
-0.19143696 -0.050101042 0.045013428
-0.18460096 -0.75148398 0.30607653
-0.18684596 -0.52116698 0.22035027
-0.19690897 -0.091870964 0.059290409
-0.19732796 -0.050294995 0.043810368
-0.19805296 0.021613955 0.017041206
-0.20092696 0.30695397 -0.089185715
-0.20165296 0.37901801 -0.11601353
-0.19674796 -1.0078521 0.065243244
-0.19594197 -0.18794507 0.095056534
-0.19303097 -0.47687596 0.20262051
-0.20016196 -0.34455496 0.15210533
-0.20201397 -1.002001 0.085778236
-0.20125596 -0.23932701 0.11292362
-0.20236397 -0.132842 0.073272228
-0.21039496 0.068647981 -0.0030355453
-0.20911396 -0.050687015 0.041407585
-0.21242696 0.25805396 -0.073575497
-0.20949197 -0.01544404 0.028282642
-0.21372196 0.37879598 -0.11853647
-0.20418397 -0.90144604 0.2125802
-0.20343696 -0.57989496 0.23849726
-0.21762297 0.18541098 -0.047814369
-0.21929297 0.33643901 -0.10407162
-0.21493997 -1.0652709 0.042583466
-0.21292296 -0.23979205 0.11057234
-0.21348797 -0.188613 0.091508389
-0.22359997 0.18526 -0.049050808
-0.22393596 0.21473598 -0.060031414
-0.22531997 0.33631796 -0.10532856
-0.21683097 -0.40939504 0.17249727
-0.22016896 -1.059231 0.063253403
-0.21223596 -0.81309098 0.3229003
-0.21291897 -0.753115 0.30055618
-0.21446496 -0.61724502 0.24993563
-0.21605097 -0.47798401 0.19805241
-0.22958097 0.18510801 -0.050288677
-0.22992696 0.21459001 -0.061274529
-0.21947896 -0.88534302 0.27115631
-0.21858996 -0.75344497 0.29945135
-0.22519897 -0.18906301 0.089142323
-0.22181296 -0.47826403 0.19690943
-0.23501696 0.13957 -0.034608364
-0.23358396 0.020512998 0.009765625
-0.22917296 -0.34582597 0.14630222
-0.22451796 -0.88004297 0.29044724
-0.22426197 -0.75377601 0.29834747
-0.22510697 -0.68365496 0.27221346
-0.22976696 -0.29649001 0.12791348
-0.22589897 -0.61785704 0.2476902
-0.24098596 0.13940799 -0.035839558
-0.23905896 -0.016403019 0.022242546
-0.23498197 -0.34608299 0.1451416
-0.23080397 -0.68397504 0.27109861
-0.23628496 -0.24073499 0.10586929
-0.23161796 -0.61816496 0.2465663
-0.23691896 -0.18951601 0.086775303
-0.23760396 -0.13412696 0.066129208
-0.23278897 -0.52345902 0.21126223
-0.24753496 0.18464899 -0.054000378
-0.24845596 0.25722796 -0.081062794
-0.24497996 -0.016597033 0.021034241
-0.24079396 -0.34634107 0.14397955
-0.25200096 0.067416966 -0.011577606
-0.25352594 0.18449497 -0.055238724
-0.24990197 -0.093732059 0.048518181
-0.25044495 -0.052083015 0.032986641
-0.25090396 -0.016791999 0.019826412
-0.23982896 -0.86728996 0.33699322
-0.24220696 -0.68461901 0.26887131
-0.24725196 -0.29723603 0.1244092
-0.24487996 -0.47939402 0.19233942
-0.25991195 0.21385199 -0.067484379
-0.25731996 0.01976496 0.0049095154
-0.24800897 -0.95099801 0.26503563
-0.24617296 -0.81515497 0.31632519
-0.24928196 -0.58229905 0.22947264
-0.25005597 -0.52433699 0.20785236
-0.26551196 0.18418396 -0.05771637
-0.26170495 -0.09415406 0.046121597
-0.26650596 0.256809 -0.084810734
-0.26316595 -0.41156107 0.16328049
-0.25676695 -0.86836404 0.33372831
-0.26157796 -0.52492803 0.20558023
-0.27685696 0.138421 -0.043233395
-0.27855095 0.25652599 -0.087305546
-0.26734295 -0.52522498 0.20444345
-0.28351295 0.18371397 -0.061435699
-0.28394598 0.21325099 -0.072458744
-0.27571598 -0.34790999 0.13701057
-0.27376696 -0.48083204 0.18662548
-0.28775996 0.066334963 -0.018910408
-0.28996095 0.213099 -0.07370472
-0.27287397 -0.92640501 0.35172653
-0.27372795 -0.86945099 0.33046341
-0.27887997 -0.52582198 0.20217037
-0.29482797 0.13791901 -0.046933651
-0.29125497 -0.095223963 0.040128231
-0.29189497 -0.053517044 0.024552345
-0.29243597 -0.018176019 0.011356354
-0.27938497 -0.86981696 0.32937431
-0.28376296 -0.58415097 0.2227025
-0.29062897 -0.13611203 0.055395603
-0.28465196 -0.52612299 0.20103359
-0.28533697 -0.48141497 0.18433857
-0.30082297 0.13775098 -0.048167706
-0.28415295 -0.92715698 0.34956551
-0.30620497 0.098953009 -0.034972668
-0.30309397 -0.095658004 0.03772831
-0.29154897 -0.81798202 0.30755949
-0.30073297 -0.24340206 0.09291935
-0.29691896 -0.48200196 0.18205118
-0.31356496 0.18291897 -0.067638397
-0.30901697 -0.095876992 0.036527634
-0.30969796 -0.054144025 0.020936489
-0.30383497 -0.41351205 0.15520763
-0.29544395 -0.92791504 0.34740543
-0.29723096 -0.81834203 0.30646324
-0.29935896 -0.68791097 0.25773048
-0.30660596 -0.24365002 0.091741562
-0.30198297 -0.52703196 0.19762039
-0.31818196 0.09859699 -0.03742981
-0.31494197 -0.096095026 0.035327435
-0.31683797 0.017843008 -0.0072526932
-0.30965397 -0.41379505 0.15405321
-0.31154796 -0.30004507 0.11154461
-0.30679795 -0.58540899 0.21818638
-0.31333697 -0.19254905 0.071372509
-0.32483095 0.13707 -0.053106785
-0.31656697 -0.34978706 0.12886858
-0.30860198 -0.81906396 0.30427217
-0.31835997 -0.24414903 0.089384556
-0.31338096 -0.87203699 0.32284355
-0.32512996 -0.19302803 0.069000244
-0.32609096 -0.13747305 0.048231602
-0.32010895 -0.48319 0.17747641
-0.33685097 0.13672596 -0.055578709
-0.32826295 -0.35033303 0.12654161
-0.33866897 -0.096978962 0.030524254
-0.33941996 -0.055204034 0.014899254
-0.34071797 0.017053962 -0.012123585
-0.32567796 -0.82015902 0.30098438
-0.32675895 -0.75996107 0.27847242
-0.32920897 -0.62358207 0.22746849
-0.33793396 -0.13793403 0.045840263
-0.33091596 -0.52856904 0.1919322
-0.34887996 0.13637996 -0.058047771
-0.34460697 -0.097202957 0.029322624
-0.34601995 -0.020011008 0.00044727325
-0.32936695 -0.930224 0.34092236
-0.33137396 -0.82052606 0.29989052
-0.34087196 -0.30136102 0.10569143
-0.33497095 -0.62391204 0.22634363
-0.33564696 -0.58700901 0.2125392
-0.33670998 -0.52888006 0.19079542
-0.33752897 -0.48409301 0.17404318
-0.35955897 0.064095974 -0.033608437
-0.35649297 -0.097651064 0.026918411
-0.35728496 -0.055849016 0.011274338
-0.35795698 -0.020426989 -0.0019783974
-0.35046196 -0.41580504 0.1459713
-0.35168198 -0.35143501 0.1218853
-0.34177697 -0.87392396 0.31740236
-0.34277597 -0.821266 0.29769754
-0.34391695 -0.761033 0.27515841
-0.36243898 -0.097876966 0.025715351
-0.35754296 -0.35171407 0.12072039
-0.36057496 -0.19449002 0.061875343
-0.36214295 -0.41638798 0.14366341
-0.35804495 -0.62524205 0.22184658
-0.35876995 -0.58831006 0.20802021
-0.36758298 -0.13910002 0.039860249
-0.37433797 -0.098331034 0.023309231
-0.36798698 -0.41668206 0.14250851
-0.36927196 -0.35227305 0.11839151
-0.35884196 -0.87507302 0.31413746
-0.36661196 -0.48561901 0.16831827
-0.38357496 0.063327014 -0.038517475
-0.37383395 -0.41697603 0.14135122
-0.37152597 -0.53076905 0.18396521
-0.38624996 -0.09878701 0.020904541
-0.38784397 -0.021481037 -0.0080528259
-0.37023196 -0.87584704 0.31196022
-0.37131897 -0.82313699 0.29221725
-0.39220896 -0.099016964 0.019700527
-0.39382896 -0.021694005 -0.0092687607
-0.37977397 -0.69273204 0.24212551
-0.39018297 -0.19573301 0.055933475
-0.39817098 -0.099247992 0.018496513
-0.39276296 -0.35340506 0.11373043
-0.38553596 -0.69308501 0.24101019
-0.39611295 -0.19598407 0.05474329
-0.40413597 -0.09947902 0.017291546
-0.38733396 -0.87701696 0.30869532
-0.39272997 -0.62727398 0.21509838
-0.40324897 -0.14052898 0.032675266
-0.41102198 -0.057828009 0.00038719177
-0.41261196 0.014616013 -0.026767731
-0.40452397 -0.35397702 0.11139822
-0.39706796 -0.69379705 0.23877954
-0.39851996 -0.62761801 0.21397257
-0.40060997 -0.53237504 0.17827129
-0.41862196 0.014407992 -0.02798748
-0.40126798 -0.76469201 0.26411057
-0.40643495 -0.5327 0.17713118
-0.40743497 -0.487804 0.16029835
-0.42299497 -0.058277011 -0.0020356178
-0.41483796 -0.41906899 0.1332593
-0.41629696 -0.35455304 0.10906649
-0.41869298 -0.24854201 0.069312572
-0.42802295 -0.10041302 0.012470245
-0.42979896 -0.022989035 -0.016567707
-0.42218596 -0.35484201 0.10789919
-0.41590497 -0.62865406 0.21059656
-0.42923495 -0.30545706 0.088097572
-0.43054697 -0.24907702 0.06694746
-0.43397495 -0.35542506 0.10556459
-0.43419996 -0.59267205 0.19332218
-0.44364795 -0.19802707 0.045220375
-0.43559697 -0.53434104 0.1714325
-0.44001997 -0.59301597 0.1921916
-0.45008695 -0.42090398 0.12631559
-0.45428798 -0.25015801 0.062212467
-0.45758197 -0.35660106 0.1008954
-0.44909096 -0.69706196 0.22873735
-0.46151796 -0.19880801 0.041645527
-0.46290997 -0.14297897 0.020680428
-0.45157096 -0.82856005 0.2768693
-0.46748096 -0.19907004 0.04045248
-0.48193097 -0.10256296 0.0016102791
-0.48793498 -0.10280603 0.00040435791
-0.48402697 -0.25153106 0.056289196
-0.47499797 -0.59510499 0.18540049
-0.48715597 -0.35809606 0.095053196
-0.47985196 -0.63255006 0.19821024
-0.48198497 -0.77003902 0.24863338
-0.48568097 -0.63291103 0.19708347
-0.49884197 -0.14449102 0.013470173
-0.49723795 -0.42341202 0.11704731
-0.49252495 -0.596165 0.18200445
-0.50483996 -0.14474601 0.012268543
-0.49551195 -0.70005196 0.21980619
-0.51225495 -0.30948204 0.071634293
-0.51007497 -0.597238 0.1786046
-0.52348292 -0.53943998 0.15431452
-0.52936393 -0.53978902 0.15317154
-0.52834296 -0.77321202 0.23978329
-0.5335139 -0.59868497 0.17407131
-0.53627294 -0.70273703 0.21198463
-0.54970193 -0.25463599 0.043236256
-0.54412293 -0.63659602 0.18580818
-0.56167996 -0.25521296 0.040859222
-0.55429995 -0.49606007 0.13159561
-0.56236094 -0.42697603 0.10428333
-0.55378193 -0.70390707 0.20863247
-0.55584395 -0.637348 0.18355227
-0.55881196 -0.54155403 0.1474576
-0.56829995 -0.42730707 0.10312223
-0.57367092 -0.25579399 0.038484573
-0.56287593 -0.60052007 0.16840124
-0.56612492 -0.49675101 0.12929344
-0.57787591 -0.31278402 0.058665276
-0.56757796 -0.63810605 0.18129539
-0.58018291 -0.42797107 0.10079718
-0.57932192 -0.63886803 0.17903757
-0.58242196 -0.542988 0.14288139
-0.58388191 -0.49779707 0.12584162
-0.58887893 -0.70628303 0.20192146
-0.59820294 -0.60276502 0.16159248
-0.60607791 -0.54443997 0.13830328
-0.60760093 -0.49920899 0.12123346
-0.61590493 -0.42999202 0.093820572
-0.61353791 -0.49956399 0.12008238
-0.61462593 -0.64118606 0.17226028
-0.62783694 -0.43067402 0.091492176
-0.62051892 -0.64157599 0.17113161
-0.63977891 -0.43136102 0.089164257
-0.62995392 -0.70911604 0.19408751
-0.64412391 -0.64315206 0.16660929
-0.65771693 -0.43240005 0.085669518
-0.65139091 -0.60621601 0.15136719
-0.65594393 -0.64394802 0.16434717
-0.65947694 -0.54777902 0.1279912
-0.66114193 -0.50245303 0.11085653
-0.66185796 -0.64434701 0.16321754
-0.66917491 -0.60738903 0.14795542
-0.67904395 -0.503555 0.10739231
-0.68698394 -0.60857302 0.14454222
-0.68888396 -0.71327597 0.18288231
-0.69887394 -0.60936898 0.14226723
-0.70334595 -0.64718205 0.15529442
-0.71077496 -0.61017007 0.13998938
-0.71312094 -0.55121797 0.11766338
-0.71672893 -0.61057204 0.13885021
-0.72117293 -0.64841706 0.15189552
-0.72268891 -0.61097604 0.13771057
-0.73031193 -0.71626705 0.17503262
-0.73902595 -0.64966303 0.14849663
-0.74655396 -0.61260396 0.13315248
-0.76448393 -0.61383802 0.12973261
