# .PCD v0.7 - Point Cloud Data file format
VERSION 0.7
FIELDS x y z
SIZE 4 4 4
TYPE F F F
COUNT 1 1 1
WIDTH 1
HEIGHT 1024
VIEWPOINT 0 0 0 1 0 0 0
POINTS 1024
DATA ascii
0.60653228 0.40678465 0.091923714
0.58257228 0.40739965 0.097681522
0.56846625 0.48574367 0.12486744
0.57758325 0.64179665 -0.045949459
0.55386126 0.36475068 0.091351509
0.54673928 0.40830868 0.10629749
0.54522824 0.23812568 0.054733753
0.54271924 0.33418268 0.084617615
0.53922325 0.23832464 0.056189537
0.54923826 0.59500265 -0.064340591
0.53549725 0.48435867 0.10103369
0.54280728 0.59528863 -0.058941364
0.54003924 0.64278567 -0.025270462
0.5260793 0.28399265 0.073176384
0.50996226 0.45234165 0.12829065
0.52774024 0.71854568 -0.095108509
0.5103063 0.48600566 0.12396669
0.50814229 0.28454363 0.07752037
0.51924324 0.56162369 -0.063529491
0.51735628 0.5963217 -0.039547443
0.51033026 0.6428597 -0.025873661
0.49802929 0.20851767 0.056676388
0.49728429 0.23970467 0.066365719
0.50632328 0.59580564 -0.05110836
0.50352627 0.64334261 -0.014756203
0.49204129 0.20872164 0.058133602
0.4902373 0.28508967 0.081852436
0.48831326 0.36651564 0.10714245
0.49383926 0.59619963 -0.043890476
0.49114728 0.67552567 -0.0080924034
0.47955126 0.48762465 0.14613342
0.48534524 0.52497464 0.069072723
0.47644028 0.36682963 0.11000156
0.48776329 0.75364363 -0.042367458
0.47410327 0.20932865 0.062493801
0.48024428 0.59734565 -0.021134377
0.48141426 0.75378865 -0.037062645
0.46921828 0.16122264 0.048952579
0.46458128 0.36714166 0.11285734
0.46186027 0.48798966 0.15036058
0.45730427 0.60486662 0.1331296
0.46826428 0.64324266 -0.019777298
0.45894727 0.084525645 0.027943611
0.45580128 0.56909567 0.072378635
0.46161726 0.67554367 -0.0097565651
0.45178527 0.41064465 0.12910843
0.45084026 0.45366466 0.14245367
0.45407128 0.033052683 0.013375759
0.44160727 0.60774165 0.19161272
0.44681528 0.36760569 0.11713362
0.45621327 0.72104865 -0.017260551
0.44427127 0.21032768 0.069740772
0.43831626 0.48847064 0.15598536
0.44020826 0.12097263 0.043423653
0.44124228 0.56680465 0.028255463
0.44483826 0.64311469 -0.024499416
0.44463727 0.72094369 -0.021552563
0.43336627 0.16249865 0.057684422
0.43689227 -0.0065543652 0.0052895546
0.43605128 0.033798635 0.017793655
0.43495128 0.56713963 0.034141541
0.42784128 0.60528666 0.13979149
0.43981826 0.75383466 -0.038180351
0.42228228 0.12163764 0.04779768
0.42240828 0.56780767 0.045876503
0.41789526 0.33766067 0.11472654
0.42277926 0.64586365 0.040216446
0.41126227 0.72815865 0.21593237
0.41631427 0.12185866 0.049253464
0.40964928 0.45456365 0.15231371
0.40707827 0.28756768 0.10196161
0.40462428 0.41176665 0.14042568
0.40158728 0.72733766 0.18804359
0.40330327 0.75891966 0.16114569
0.40853426 -0.090669334 -0.013773441
0.40683627 0.59924465 0.013222694
0.40018126 0.33813769 0.11899471
0.39672026 0.72692466 0.17401171
0.39723727 0.48929766 0.16579771
0.39842728 0.12251467 0.05361557
0.39671126 0.21188968 0.081283569
0.39611527 0.24292666 0.090891361
0.38953927 0.68333066 0.19688272
0.39247227 0.12273169 0.055067539
0.39527628 0.59908766 0.0092363358
0.38780826 0.36911768 0.13132572
0.38618127 0.45506766 0.15792751
0.38859126 0.75786865 0.11852551
0.38485426 0.21227366 0.084161758
0.38505527 0.56979066 0.080834389
0.38249728 0.33860964 0.12325239
0.37974927 0.68231964 0.16884279
0.38112226 0.41231567 0.14606142
0.38032228 0.45519266 0.15932941
0.38217327 0.035990655 0.031001568
0.37525326 0.41245168 0.14746857
0.37462527 0.12337965 0.059419632
0.37269428 0.57044566 0.09240675
0.36938927 0.41258764 0.14887571
0.37207526 0.72483063 0.10297346
0.36798927 0.48987564 0.17278051
0.36770126 0.53192663 0.17770576
0.36794826 0.16476965 0.073600769
0.36709127 0.21284568 0.088468552
0.37164828 -0.042690337 0.0094447136
0.37095326 -0.0037583709 0.021484375
0.36484027 0.33907664 0.12750578
0.36117727 0.21303463 0.089902401
0.35984528 0.28892964 0.11336756
0.36497927 -0.0035093427 0.022951603
0.35896128 0.33923167 0.12892056
0.35343927 0.65376365 0.22617769
0.36207226 0.72397965 0.074139595
0.36727926 -0.13454133 -0.017562389
0.35680628 0.12402064 0.063762665
0.35609528 0.16517365 0.076483727
0.35308427 0.33938569 0.13033438
0.35255527 0.37000066 0.13979864
0.35181227 0.41299266 0.15308952
0.35860127 0.75572169 0.03166151
0.35235426 0.037179649 0.038302422
0.34810928 0.57174367 0.11542845
0.35168526 0.60119963 0.050452709
0.35352826 0.75535864 0.016970634
0.34392428 0.53282964 0.1914854
0.35606626 0.80832464 -0.029153347
0.34293428 0.24455768 0.10376549
0.34218326 0.28943163 0.11763144
0.34707326 -0.0027683377 0.02734375
0.34843326 0.75499368 0.0022163391
0.35368428 0.84222966 -0.094740391
0.34926328 -0.13368934 -0.013109207
0.33834028 0.16577363 0.080798626
0.34111127 -0.0025223494 0.028806686
0.33933526 0.60179567 0.062135696
0.33299428 0.49055666 0.18113136
0.33515227 -0.0022773147 0.030267715
0.32979026 0.57270968 0.13258934
0.32911727 0.37057865 0.14543056
0.34062827 0.80756068 -0.074220657
0.33828527 -0.1958403 -0.029518604
0.33727026 -0.13312632 -0.010147572
0.32526228 0.24508965 0.10803938
0.32370326 0.57302964 0.13829136
0.33700427 0.84193563 -0.11981344
0.33227426 -0.19554335 -0.028029442
0.32089227 0.60268462 0.079583645
0.31301528 0.65422463 0.23508835
0.31751227 0.68161666 0.14630938
0.32418326 0.72224867 0.014621735
0.31487328 0.53333467 0.1984005
0.33022228 0.80704564 -0.10459328
0.32626826 -0.19524735 -0.026540279
0.31349826 0.24544168 0.11088657
0.31476828 0.60297966 0.085378647
0.31203827 0.34044868 0.14021254
0.31156826 0.37100768 0.14964247
0.31174627 0.68161869 0.14607573
0.30762026 0.24561566 0.11230659
0.31134728 -0.001308322 0.036103725
0.30163828 0.65422869 0.23462534
0.30507827 0.41404969 0.16428661
0.29947326 0.57430166 0.16099739
0.30255026 0.60356665 0.096940517
0.30033627 0.34074765 0.1430254
0.30826727 -0.19436532 -0.022081375
0.29632127 0.21507066 0.10561657
0.29587227 0.24596363 0.11514759
0.29522127 0.29074264 0.12895966
0.29230228 0.49133265 0.19083977
0.29168627 0.5337317 0.2039175
0.30406827 -0.3174203 -0.05864954
0.30227426 -0.19407338 -0.020597458
0.29044428 0.21525168 0.10703945
0.28742427 0.57493269 0.17229271
0.28457126 0.65423369 0.23393679
0.29936528 0.75283766 -0.085695267
0.28589728 0.53383064 0.20529556
0.30380827 0.80573666 -0.18169355
0.30525428 0.84082168 -0.21294022
0.28631228 0.091028631 0.070101738
0.28141627 0.57524669 0.17792559
0.29202226 -0.31677228 -0.055647373
0.27869928 0.21561164 0.10988235
0.28282627 -0.085020363 0.017199516
0.28166127 -0.00011533499 0.043375492
0.27655426 0.37185067 0.15804958
0.27538028 0.45736966 0.18441343
0.28301528 0.72225767 0.01296854
0.28743026 0.75283968 -0.086170197
0.29448327 0.84044266 -0.24453735
0.28345326 -0.13064533 0.0031323433
0.27402526 0.12692267 0.083912373
0.27687427 -0.084761322 0.01866436
0.27015027 0.41482365 0.17265034
0.28146127 0.75283968 -0.086408615
0.27748728 -0.1303733 0.0046043396
0.26759526 0.16811168 0.097974777
0.26696426 0.21596968 0.11272144
0.26596728 0.29154366 0.13601255
0.26980728 0.00035566092 0.046277523
0.26927927 0.040397644 0.058617592
0.27549428 0.75284064 -0.086646557
0.27473626 -0.37347037 -0.068924427
0.26110128 0.21614766 0.11414051
0.25908527 0.37226564 0.16224146
0.25612828 0.6542387 0.23279858
0.25985026 0.68162966 0.14399338
0.25853226 0.41507769 0.17543173
0.27814326 0.83986866 -0.29246855
0.26796728 -0.31549031 -0.049658298
0.25524226 0.21632469 0.11555862
0.25845626 -0.037908316 0.037244797
0.25746027 0.040844679 0.06150341
0.25326926 0.37240267 0.16363764
0.27424526 0.88276768 -0.34750032
0.26268926 -0.37280232 -0.065916538
0.26040426 -0.19205934 -0.010240555
0.24845028 0.29201669 0.14023352
0.25204927 0.0010556579 0.050623417
0.26712728 0.83948064 -0.32478523
0.25595626 -0.3148554 -0.046670437
0.25515726 -0.25021333 -0.026760578
0.25366127 -0.1293003 0.010476589
0.24613628 0.0012876391 0.052070618
0.24565226 0.041287661 0.064386368
0.23906228 0.65423965 0.23212337
0.24255127 0.68163067 0.14330959
0.24112526 0.41545564 0.17959881
0.23824528 0.16905665 0.10509253
0.23768026 0.21685266 0.11980677
0.24122828 -0.083229363 0.027425766
0.23731527 0.24766666 0.12929249
0.23678726 0.29232967 0.14304256
0.24022627 0.0015186667 0.053515434
0.23372927 0.57773364 0.22264957
0.23614326 0.60674369 0.15981674
0.23285727 0.12831867 0.0939188
0.23147628 0.24783367 0.1307025
0.23385727 0.041727662 0.067265511
0.23038226 0.34249765 0.15983963
0.22768527 0.6542387 0.23167658
0.22598727 0.21720064 0.12263346
0.22422826 0.37308168 0.1706028
0.22374627 0.41582865 0.18375635
0.24396327 0.83897066 -0.36759663
0.23058927 -0.19065136 -0.0028715134
0.22251327 0.0022066832 0.057848454
0.21825726 0.60759467 0.17676067
0.21876226 0.34278166 0.1626296
0.21630727 0.65423763 0.23123264
0.21948627 0.68162864 0.14240456
0.21795727 0.41595268 0.18514156
0.23775026 0.83897066 -0.36784029
0.22527628 -0.2487343 -0.019355297
0.22463427 -0.19037336 -0.0014004707
0.21481727 0.16979969 0.11077261
0.21752428 -0.082226336 0.033248425
0.21295726 0.34292364 0.16402435
0.21372028 0.68162763 0.14218044
0.21171527 0.45863166 0.19961452
0.22231726 -0.52837235 -0.10398436
0.20814627 0.24849468 0.13633347
0.21072027 0.0026606321 0.060731411
0.20715527 0.34306467 0.16541767
0.20493028 0.65423566 0.23078966
0.20795427 0.68162763 0.14195681
0.21244127 0.72225767 0.010187626
0.21541627 -0.44583529 -0.077197552
0.21627627 -0.52800733 -0.10246849
0.19924127 0.65423465 0.23056936
0.20656027 0.72225666 0.0099577904
0.20862927 -0.36985737 -0.052436352
0.20738527 -0.2478593 -0.014926434
0.20615427 -0.12719935 0.022173405
0.19605426 0.29340667 0.15285063
0.19525626 0.37374765 0.1775465
0.20142627 -0.24757034 -0.013451576
0.20474027 -0.58136636 -0.11606264
0.19386727 -0.081238329 0.039055347
0.19342327 -0.035286367 0.053178787
0.19024727 0.29355764 0.15424776
0.18976527 0.34348369 0.16959047
0.19791327 0.75283563 -0.089690208
0.18831827 0.49324065 0.21561861
0.18598127 0.12987167 0.10530043
0.18716627 0.0035586357 0.066486359
0.18368827 0.37401068 0.18031979
0.19706526 0.80449766 -0.2574954
0.19066326 -0.36889738 -0.047963619
0.18897226 -0.18872529 0.0074005127
0.19214328 -0.52655834 -0.096409321
0.18013427 0.13006264 0.10671854
0.18092227 0.043668687 0.080176353
0.17604128 0.5790087 0.24464369
0.17790927 0.37414163 0.18170357
0.18597727 0.75283366 -0.090152264
0.17102426 0.60983169 0.22152662
0.17655727 -0.12591833 0.029452801
0.18057427 -0.57987136 -0.10998344
0.16768926 0.21890569 0.13672066
0.16986227 -0.034359336 0.058945656
0.16459927 0.57917064 0.24735546
0.16562627 0.45951766 0.21061039
0.17272326 -0.36794835 -0.043498516
0.16290426 0.095332682 0.10013151
0.16023026 0.41716367 0.19894457
0.16538727 0.72224569 0.0083684921
0.16675027 -0.36763436 -0.042013645
0.16525526 -0.18764633 0.013249397
0.15644728 0.17161065 0.12490654
0.15348227 0.61065966 0.23815966
0.15447228 0.41728264 0.20032072
0.15351827 0.53599763 0.23676252
0.16247927 -0.57876533 -0.10543537
0.15062627 0.17178768 0.12631559
0.15001728 0.25010467 0.15035248
0.14779627 0.53608763 0.23812056
0.15481228 -0.3670103 -0.03904438
0.15700427 -0.64925832 -0.12566853
0.14421827 0.25026268 0.15175056
0.14605726 0.0050976872 0.07652235
0.14264627 0.45995066 0.21609068
0.14239027 0.49404866 0.22655249
0.15426128 0.80448967 -0.25915623
0.14884527 -0.3666994 -0.037561417
0.14749627 -0.18684834 0.017623425
0.13864627 0.21973467 0.14373255
0.13842428 0.25041968 0.15314674
0.13752326 0.37504363 0.19137764
0.14342827 -0.44181138 -0.059216499
0.14492327 -0.64849335 -0.12262344
0.14158326 -0.18658429 0.019081593
0.13370627 0.096308649 0.10722542
0.13460627 -0.032996356 0.067565441
0.13232227 0.29504168 0.16817951
0.13567327 -0.18632132 0.020537376
0.13524027 -0.12416536 0.039601803
0.12874027 -0.032771349 0.068998337
0.12821627 0.045543671 0.093014717
0.13591526 0.80448467 -0.25986338
0.12934928 -0.12391835 0.041047573
0.12204628 0.096693635 0.1100564
0.12182027 0.13193065 0.12085867
0.12125327 0.22022468 0.14792967
0.12237327 0.045748651 0.094436646
0.11894427 0.57980669 0.25817442
0.12549827 -0.44083434 -0.054746628
0.12501428 -0.36547035 -0.031641483
0.12423427 -0.24390739 0.0056304932
0.12637027 -0.57659036 -0.096368313
0.12602428 -0.5226863 -0.079841614
0.11729626 -0.078129351 0.057823658
0.11677727 0.0061716437 0.083664417
0.11469127 0.34524667 0.18760061
0.11389327 0.65419465 0.2273345
0.11871026 -0.30789238 -0.012605667
0.11831427 -0.24363238 0.0070924759
0.12107527 -0.69237632 -0.13046265
0.12079626 -0.64698237 -0.11654758
0.10893527 0.34537864 0.18897963
0.10850628 0.41821468 0.2113018
0.11434726 0.75280869 -0.092897415
0.10414927 0.17318165 0.13755655
0.10388227 0.22070765 0.15211868
0.10508527 0.0065956712 0.086513519
0.10186528 0.58003962 0.26221943
0.10414128 0.68158168 0.13800955
0.10837726 0.75280565 -0.093121529
0.10875127 -0.64623529 -0.11351728
0.10581227 -0.12294132 0.046823502
0.09875828 0.097454667 0.1157074
0.099693269 -0.077434361 0.062131405
0.098372281 0.68157768 0.13779545
0.10067427 0.72221565 0.0059175491
0.10533427 0.80447465 -0.2610364
0.10122727 -0.3642593 -0.025735378
0.10273327 -0.64586431 -0.11200333
0.092315271 0.22102767 0.15490866
0.093830273 -0.077204287 0.063566685
0.091312274 0.41855764 0.21540737
0.096435279 0.75279963 -0.093571663
0.094669268 -0.24254638 0.012925625
0.09671627 -0.64549428 -0.11049032
0.094374269 -0.18450934 0.030701637
0.08712928 0.097830653 0.11852837
0.087750271 -0.031226337 0.079008579
0.08737427 0.046957672 0.10294962
0.084808275 0.58027065 0.26625872
0.085790277 0.37616765 0.20375967
0.086833268 0.68156862 0.13736963
0.08558628 0.41867065 0.21677446
0.08501628 0.53705668 0.25302649
0.080975279 0.17386264 0.14315653
0.082113281 -0.076746285 0.066432476
0.081731275 0.0074336529 0.092204571
0.078982279 0.61263466 0.27748966
0.080193266 0.34603065 0.19586658
0.07986328 0.41878366 0.21814156
0.07967028 0.46110865 0.23109961
0.08341527 -0.3633644 -0.021318436
0.083155274 -0.30617529 -0.0038094521
0.076064274 -0.030792356 0.081861496
0.075899273 0.0076416731 0.093625546
0.074053273 0.65416169 0.22587061
0.077136278 0.72219968 0.0050387383
0.080865279 0.80446464 -0.26197052
0.077240273 -0.30589336 -0.002345562
0.069708273 0.098388672 0.12275362
0.069567278 0.13355166 0.1335125
0.07040827 -0.07629329 0.069293499
0.068254277 0.46131366 0.23381853
0.074747279 0.80446267 -0.26220322
0.071326271 -0.30561239 -0.00088453293
0.072399274 -0.5734213 -0.08284235
0.063329279 0.25240666 0.1712265
0.063164279 0.29674864 0.18479443
0.06198227 0.61284065 0.28151274
0.06266728 0.65415066 0.22545767
0.063753277 0.68154967 0.13652134
0.06536527 0.72219169 0.0046024323
0.066578269 0.75278163 -0.094694614
0.062421273 0.49540365 0.24557543
0.065628275 -0.36247939 -0.016907215
0.067155272 -0.77094835 -0.14188766
0.066849276 -0.6889593 -0.11680031
0.064726278 -0.12126833 0.056894779
0.058711272 -0.075843394 0.072153568
0.058553275 -0.030148327 0.086131573
0.057571273 0.25255567 0.17261362
0.058282275 0.047944665 0.11002159
0.059480276 0.72218668 0.0043845177
0.05996627 -0.4373464 -0.038432598
0.061122272 -0.77055639 -0.14036322
0.052598272 0.0084626675 0.09929657
0.052471276 0.048139632 0.11143255
0.050765272 0.58072364 0.27432251
0.05221327 0.68153864 0.13610172
0.051282275 0.41934067 0.22496271
0.051147271 0.46161765 0.23789167
0.053595271 0.72218263 0.0041675568
0.056391273 0.80445468 -0.2628994
0.055092271 -0.77016431 -0.1388402
0.05301227 -0.12079936 0.059764385
0.046411272 0.13425368 0.13911676
0.046153273 0.22228068 0.16603374
0.046780277 0.0086656809 0.10071564
0.045108274 0.61252767 0.2748518
0.045699272 0.37701464 0.21334743
0.045588274 0.65413368 0.22484255
0.045350272 0.49568367 0.24963474
0.045227274 0.53765064 0.26246643
0.047867272 -0.36160439 -0.012507439
0.049551275 -0.93543929 -0.18797636
0.047699276 -0.30449933 0.0049543381
0.047159273 -0.12056535 0.061197758
0.048485275 -0.57204932 -0.076858521
0.040394273 0.22243464 0.16741943
0.042822275 -0.68747932 -0.1107583
0.041474275 -0.18225139 0.043700695
0.034750275 0.17519164 0.15431976
0.034637272 0.22258765 0.16880655
0.034338273 0.34704769 0.20684862
0.035935275 0.72216767 0.0035185814
0.038033273 0.80444467 -0.26359463
0.036038272 -0.3610273 -0.009578228
0.035901275 -0.3039493 0.0078663826
0.036821272 -0.68711334 -0.10925055
0.028818272 0.25328964 0.17952871
0.029254273 0.048911631 0.11707067
0.030742273 0.75275767 -0.096024513
0.028300274 0.49596167 0.25368643
0.028211273 0.53790069 0.26650763
0.030288275 -0.43581134 -0.031057358
0.030128274 -0.36074036 -0.0081162453
0.031187274 -0.8572163 -0.15983725
0.023075275 0.25343567 0.18090963
0.023530275 0.0094706416 0.1063695
0.022686273 0.46211767 0.24466848
0.024361275 -0.43550831 -0.029585361
0.024982274 -0.76823336 -0.13124466
0.017384272 0.22304368 0.17296076
0.017264273 0.29784268 0.19580936
0.017185275 0.34742063 0.21095467
0.016947273 0.49614465 0.25638676
0.019673273 0.80443567 -0.26428652
0.018436275 -0.43520635 -0.028114319
0.018316273 -0.3601703 -0.0051922798
0.019233275 -0.93331236 -0.18027163
0.018123273 -0.2391333 0.03178072
0.018765274 -0.64082032 -0.090924263
0.018567275 -0.51669937 -0.05300951
0.012032274 -0.074078321 0.083555698
0.011611274 0.60795367 0.18003178
0.013551274 0.80443168 -0.2645154
0.013267273 -1.0009844 -0.1995306
0.012956273 -0.76747233 -0.12821341
0.012787273 -0.64047033 -0.089426517
0.012092274 -0.11918539 0.069778442
0.0060232729 0.10038066 0.13818073
0.0059332736 0.60717666 0.1639595
0.0065142736 -0.35960537 -0.0022745132
0.0071242731 -0.93247336 -0.17719841
0.0062572733 -0.11895829 0.07120657
0.00022127293 0.13562465 0.15028238
0.00038827397 -0.073646367 0.086395741
5.2273273e-05 0.34778863 0.21505356
-3.9726496e-05 0.46251065 0.25007963
4.0274113e-05 0.53509766 0.21950054
0.0011292733 -1.0001154 -0.19644165
0.00078527443 -0.56937236 -0.064941406
-0.0054737264 0.010458648 0.11342144
-0.0056697261 0.37806964 0.22562361
-0.0057147266 0.46260765 0.25143147
-0.0052797263 0.72212863 0.0020217896
-0.0056997268 0.49525267 0.24282551
-0.0048127268 0.80442065 -0.26520443
-0.0053077266 -0.30205935 0.018034458
-0.0053727264 -0.18031234 0.055193424
-0.0051937262 -0.51542729 -0.04709053
-0.011256726 -0.027647316 0.10314035
-0.011343727 0.29850763 0.20266962
-0.011356726 0.34803164 0.2177825
-0.011229726 0.6477797 0.07186079
-0.011202727 0.67805165 0.041265488
-0.011364726 0.49421066 0.22706461
-0.010934726 0.80441666 -0.26543331
-0.011036726 -0.85441834 -0.14915752
-0.011200726 -0.2378673 0.038989544
-0.011081726 -0.6842373 -0.097225666
-0.017059727 0.17663664 0.16681767
-0.017059727 0.22393864 0.18124962
-0.017059727 -0.027444363 0.1045537
-0.017059727 0.42063367 0.24126244
-0.017059727 0.75271666 -0.097779274
-0.017059727 -0.11806029 0.076906681
-0.022790726 0.22408563 0.18262863
-0.022782726 0.25457466 0.19192743
-0.023035727 0.75271165 -0.097996235
-0.022965726 -0.43312639 -0.017846584
-0.023077726 -0.85363334 -0.1461153
-0.023001727 -0.56806535 -0.059006214
-0.022987727 -0.51448733 -0.042663574
-0.028503727 0.25471467 0.19330168
-0.028453726 0.34839267 0.22187042
-0.028437726 0.37852567 0.23106146
-0.029305726 0.80440468 -0.26611853
-0.028869726 -0.43283433 -0.016381264
-0.029134726 -0.92999929 -0.16800547
-0.029093727 -0.85324436 -0.14459658
-0.028799728 -0.3010034 0.023823738
-0.029002726 -0.6831823 -0.09273243
-0.034316726 0.13662267 0.1586256
-0.034246728 0.22437763 0.18538237
-0.034220725 0.45860565 0.19528341
-0.035281725 -1.0721593 -0.20994854
-0.035221726 -0.99755436 -0.18720055
-0.034665726 -0.30074233 0.025268555
-0.034934726 -0.63772637 -0.077483654
-0.034568727 -0.17913228 0.062348366
-0.034519725 -0.11739737 0.081171513
-0.045653727 0.25513065 0.19741964
-0.046306726 0.56867665 0.047867775
-0.046779726 0.67429066 -0.060553551
-0.045803726 0.45631766 0.16321373
-0.046979725 0.71885866 -0.1063056
-0.047125727 0.75164968 -0.1399684
-0.045944728 0.48784265 0.13085079
-0.047318727 -0.99671429 -0.18412828
-0.046675727 -0.51325232 -0.036773205
-0.051553726 0.13711268 0.16278553
-0.051489726 0.17757064 0.17511463
-0.051806726 0.48676267 0.11454058
-0.053362727 -0.9962973 -0.1825943
-0.052251726 -0.29996532 0.029597759
-0.052149728 -0.23613936 0.049045563
-0.052591726 -0.51294631 -0.035304546
-0.057359725 0.10228366 0.15351057
-0.057683725 -0.071538329 0.10055447
-0.057527725 0.012186646 0.12606144
-0.058209725 0.56688762 0.014338493
-0.058408726 0.59836662 -0.018147469
-0.057253726 0.41516566 0.17091465
-0.057498727 0.45400667 0.13083267
-0.059649728 -1.1282043 -0.22137642
-0.059542727 -1.0704174 -0.20377159
-0.059276726 -0.92798537 -0.16037655
-0.062687725 0.29967165 0.21497345
-0.063214727 0.051875651 0.13949347
-0.065441728 -0.99546832 -0.17953157
-0.065134726 -0.85093933 -0.13550663
-0.064773723 -0.68111438 -0.083777428
-0.06867373 0.17802864 0.17925262
-0.068487726 0.25567764 0.20290041
-0.070234731 0.56507862 -0.01953125
-0.068457723 0.34703267 0.20668077
-0.068992727 0.41265267 0.1386075
-0.071740732 0.74984562 -0.21122265
-0.071316727 -0.92719132 -0.15733147
-0.069814727 -0.29919833 0.033917427
-0.069662727 -0.23541433 0.053343773
-0.074596725 0.10278767 0.15767574
-0.074503727 0.13775665 0.16832256
-0.075058728 -0.070923328 0.10478449
-0.074189723 0.25581264 0.20426941
-0.07525973 0.45049265 0.08165741
-0.077671722 0.71618569 -0.19472742
-0.077512726 -0.99464637 -0.17647123
-0.075663731 -0.29894429 0.035356522
-0.083452731 0.67040765 -0.1655035
-0.081558719 0.48127267 0.031766415
-0.083760723 -1.0687034 -0.19761133
-0.082863733 -0.76160437 -0.10412455
-0.082625732 -0.68009931 -0.079312325
-0.085963726 0.13807464 0.17108536
-0.085684732 0.22566164 0.19774437
-0.086483732 -0.02507633 0.1214304
-0.085611731 0.29867268 0.20475054
-0.086361721 0.013117671 0.13305664
-0.08623673 0.052585661 0.14506865
-0.088847727 0.59418869 -0.10428953
-0.087774724 -0.42998034 -0.0018033981
-0.087535724 -0.35524935 0.020941734
-0.089992732 -1.1260004 -0.21364355
-0.089808732 -1.0682805 -0.19607544
-0.089571729 -0.99383134 -0.17341566
-0.089355722 -0.92601329 -0.15277433
-0.087151721 -0.23469931 0.057630539
-0.091284722 0.25621468 0.20837355
-0.09465073 0.56140363 -0.088298321
-0.095030725 0.59333867 -0.12178564
-0.095855728 -1.0678585 -0.1945405
-0.09536472 -0.92562336 -0.15125751
-0.094795734 -0.76089936 -0.10113335
-0.094359726 -0.63442439 -0.062647343
-0.092779726 -0.17684633 0.076592445
-0.097545728 0.10344863 0.16321754
-0.097090721 0.22594064 0.20048571
-0.098022729 -0.02469337 0.12423277
-0.097429723 0.29559767 0.17277956
-0.10124272 0.59248567 -0.13936663
-0.10221873 0.66841769 -0.21920443
-0.10280372 0.71399367 -0.26712227
-0.10323472 0.74753463 -0.30239153
-0.099526733 -0.42942339 0.0011014938
-0.099249721 -0.3547253 0.023827553
-0.10189873 -1.0674384 -0.19300556
-0.10162173 -0.99302429 -0.17036533
-0.098586723 -0.17662328 0.078011513
-0.10327773 0.10361266 0.16460276
-0.10313873 0.13854563 0.17522669
-0.10396872 -0.069915354 0.11181974
-0.10810372 0.63627064 -0.20410347
-0.10646173 0.51723468 -0.078608513
-0.10671672 -0.76019937 -0.098145485
-0.10639273 -0.67876738 -0.073375225
-0.10414672 -0.11482638 0.09815979
-0.10593472 -0.56366438 -0.03836441
-0.10572173 -0.51025432 -0.022118568
-0.10974273 -0.069716334 0.11322546
-0.11001873 0.33698267 0.093474388
-0.11158873 0.44329765 -0.018913269
-0.11556773 0.71287966 -0.30389023
-0.11366072 -0.99222332 -0.16732025
-0.11019473 -0.1761803 0.08084774
-0.11433972 0.22521168 0.19388866
-0.11551572 -0.069518328 0.11462879
-0.11531073 -0.024125338 0.12842941
-0.11607373 0.33551663 0.076981544
-0.11650772 0.36308068 0.047765732
-0.12077972 0.63476062 -0.24021053
-0.11712472 0.40233368 0.0061564445
-0.12199973 0.71231765 -0.32241821
-0.11654273 -0.29720134 0.045401573
-0.11599572 -0.17595929 0.082264423
-0.11571772 -0.11441034 0.10097837
-0.11750072 -0.50967032 -0.019198418
-0.12141472 0.28935164 0.10789871
-0.12587872 0.55669665 -0.17624855
-0.12641872 0.58902365 -0.21060419
-0.12448673 0.47333866 -0.087649345
-0.12632072 -1.1234183 -0.20440149
-0.12536773 -0.92370337 -0.14368963
-0.12237473 -0.29695636 0.046833515
-0.12207073 -0.23329538 0.066185474
-0.12419273 -0.67778331 -0.068932533
-0.12600572 0.13916469 0.18073654
-0.12663473 0.01438868 0.14281654
-0.13279372 0.58814567 -0.22864628
-0.13207573 -1.0653663 -0.18535042
-0.12820172 -0.29671234 0.04826355
-0.12989473 -0.63251132 -0.053794384
-0.13190173 0.10442066 0.17150974
-0.13171673 0.13931763 0.18211365
-0.14004573 0.63246465 -0.29508448
-0.13567872 0.39834964 -0.044893265
-0.13779773 0.5119617 -0.1663065
-0.13647772 -0.75847834 -0.090694427
-0.13543673 -0.56215638 -0.031038284
-0.13841572 0.21828365 0.12943077
-0.13971773 0.28458065 0.058394432
-0.13789973 0.05413866 0.15756464
-0.14291273 -0.84614736 -0.11594439
-0.14242274 -0.75813836 -0.089206219
-0.13985072 -0.29622835 0.051122665
-0.14451073 0.21652967 0.11311436
-0.14588073 0.28297365 0.041723728
-0.14385973 0.014920652 0.14698553
-0.15212274 0.58548462 -0.28333759
-0.14738673 0.35594964 -0.036692619
-0.14971273 0.46866867 -0.1578145
-0.14643873 -0.42724735 0.012681484
-0.15015373 -1.0641444 -0.1807704
-0.14530273 -0.23238033 0.071871758
-0.14789273 -0.67649132 -0.063024521
-0.14763074 -0.63157338 -0.049379349
-0.14496674 -0.17487329 0.089338779
-0.14691073 -0.5082323 -0.011915207
-0.14974274 0.17356068 0.14111376
-0.15063374 0.21476567 0.096721649
-0.14935672 0.054475665 0.16033363
-0.15451673 0.39430165 -0.096723557
-0.15229173 -0.42698032 0.014126778
-0.15530872 -0.9218244 -0.13614941
-0.15149173 -0.29574829 0.053977489
-0.15739973 0.24001068 0.051057339
-0.16345672 0.50763869 -0.23810959
-0.16219173 -1.0633392 -0.17772341
-0.16128872 -0.9214533 -0.13464355
-0.15690373 -0.23192829 0.074709415
-0.16046973 0.10521066 0.17840481
-0.16161673 -0.067965329 0.12583065
-0.16361272 0.23828769 0.034356594
-0.16106473 0.015446663 0.15114975
-0.16562773 0.32350469 -0.057973385
-0.16995473 0.50654364 -0.25629139
-0.16726772 -0.9210853 -0.13314152
-0.16534373 -0.63064831 -0.044976234
-0.16232073 -0.1742323 0.093571663
-0.16191372 -0.11278433 0.11222553
-0.16452773 -0.50738531 -0.0075592995
-0.16816573 0.16794264 0.092111588
-0.17755874 0.54889369 -0.3217802
-0.17464574 0.43078065 -0.1934514
-0.17421973 -1.0625412 -0.17467928
-0.17543674 0.20761669 0.030327797
-0.17224273 0.055140674 0.16586447
-0.18417373 0.54789364 -0.34040928
-0.17833373 0.32042068 -0.092573643
-0.18008873 0.38880068 -0.1670742
-0.18305573 0.50433362 -0.29295063
-0.17515074 -0.35143131 0.042495728
-0.17474572 -0.29480237 0.059677601
-0.17429073 -0.23125929 0.078958511
-0.17387973 -0.1738103 0.096391678
-0.17966673 0.12905568 0.097366333
-0.18171573 0.20580667 0.013522625
-0.17886873 -0.067397356 0.13001871
-0.18462373 -0.84367937 -0.10548544
-0.18337072 -0.67459732 -0.054189205
-0.18303773 -0.62973529 -0.040579319
-0.18426673 -0.021926343 0.14514637
-0.19224674 -1.0613594 -0.17012453
-0.19167773 -0.98719031 -0.14762831
-0.19057272 -0.8433333 -0.10399532
-0.18635774 -0.29433435 0.062522411
-0.19316474 0.16031069 0.025626659
-0.19436774 0.20215565 -0.020344257
-0.19035773 -0.067023337 0.13280535
-0.18999773 -0.021748364 0.1465354
-0.19261073 -0.35069829 0.04678154
-0.19071373 -0.11179739 0.11922741
-0.19610073 -0.06683737 0.13419962
-0.19541673 0.016476631 0.15946245
-0.20619673 0.38317865 -0.23889256
-0.20842072 0.45778266 -0.32108927
-0.20967473 0.49984065 -0.36742926
-0.19842774 -0.3504563 0.048209667
-0.19796373 -0.2938723 0.065365791
-0.19744273 -0.23038036 0.0846138
-0.19697173 -0.17297739 0.10201979
-0.20585373 0.15643364 -0.0081195831
-0.21155374 0.34109968 -0.21215963
-0.21280773 0.38175368 -0.25707865
-0.21407972 0.42293566 -0.30258226
-0.21511672 0.45653865 -0.33971024
-0.20487073 -0.4246344 0.027077675
-0.20905273 -0.91854829 -0.12264252
-0.20376173 -0.29364234 0.066784382
-0.20697673 -0.67336231 -0.04831934
-0.20221873 -0.11140937 0.12202358
-0.21224673 0.15447968 -0.025118351
-0.20757674 -0.066468358 0.13698149
-0.21576473 0.26471567 -0.14726448
-0.20877473 0.04570365 0.095396519
-0.21005173 -0.34997529 0.051062584
-0.21287273 -0.67305738 -0.046854496
-0.21867172 0.15251565 -0.04220438
-0.21507673 0.043502688 0.078919411
-0.22384372 0.30935967 -0.21649027
-0.21652973 -0.42412633 0.029945374
-0.22028473 -0.84162635 -0.096559525
-0.21876574 -0.67275435 -0.04539156
-0.22288173 0.084517658 0.014192581
-0.22391573 0.11490566 -0.019666195
-0.21920173 -0.023573339 0.13463163
-0.22027972 0.0080916882 0.099347591
-0.23285373 0.37743163 -0.31221724
-0.22310373 -0.50464433 0.0069093704
-0.23036774 0.11284065 -0.036727428
-0.23311073 0.19096464 -0.12403631
-0.23960873 0.37597466 -0.33079433
-0.24106973 0.41755968 -0.37726831
-0.23352173 -0.98460239 -0.13710165
-0.22693573 -0.29273432 0.072454453
-0.23054773 -0.67215139 -0.042464256
-0.23968473 0.18906367 -0.14162636
-0.24490874 0.33336568 -0.30335426
-0.23400374 -0.42337233 0.034241676
-0.23327672 -0.34902734 0.056754589
-0.23479374 -0.50411135 0.0097928047
-0.24733172 0.21503663 -0.19065046
-0.24619973 -1.0579073 -0.15651751
-0.23850973 -0.29228634 0.075284481
-0.24186973 -0.62678331 -0.025987625
-0.24873874 0.075923681 -0.05386734
-0.24991474 0.10657966 -0.088421345
-0.25293371 0.18523169 -0.17708158
-0.25400671 0.21317965 -0.20858526
-0.24706572 0.032318652 -0.004720211
-0.26008472 0.37155569 -0.38711166
-0.25141972 -0.98351938 -0.13260555
-0.24903673 -0.75228029 -0.062609196
-0.24241772 -0.11007732 0.13178778
-0.25961173 0.18329865 -0.19495249
-0.25097471 -0.035510361 0.052396774
-0.25666973 -0.91575032 -0.11070728
-0.26311672 0.10234869 -0.1233325
-0.25589973 -0.075499356 0.078287601
-0.26913872 0.25073564 -0.29156923
-0.26009071 0.027760684 -0.038771629
-0.26178771 -0.83930331 -0.086192608
-0.25516972 -0.22825438 0.098697662
-0.25872171 -0.55618531 -0.0005273819
-0.26976874 0.10021567 -0.14091921
-0.27011973 -1.0564203 -0.15049744
-0.26029474 -0.17076629 0.11742973
-0.27512974 0.067141652 -0.12332535
-0.27800772 0.13434964 -0.19996738
-0.27042273 -0.042824328 0.0020685196
-0.28105974 0.20564765 -0.28127623
-0.27180073 -0.010617316 -0.034655571
-0.26804972 -0.34763831 0.065270424
-0.27525374 -0.98209935 -0.12662554
-0.27362472 -0.83865339 -0.083239555
-0.27171072 -0.67008537 -0.03225565
-0.27041173 -0.55564731 0.0023574829
-0.28181273 0.06491667 -0.14091158
-0.27530974 -0.083090365 0.028352737
-0.28791174 0.20373768 -0.29968739
-0.27838874 -0.01301235 -0.051786423
-0.27469972 -0.42165631 0.04423666
-0.27244574 -0.2276364 0.1029067
-0.28853172 0.062678635 -0.15859365
-0.28050673 -0.42141539 0.045659542
-0.27962473 -0.34718329 0.06810379
-0.28715873 -0.98139936 -0.12364244
-0.28635874 -0.91405529 -0.10328245
-0.28545573 -0.83801037 -0.080290318
-0.28441474 -0.75043637 -0.053814411
-0.29672372 0.091567636 -0.21218634
-0.29323873 0.01614964 -0.12542152
-0.28793272 -0.55484933 0.0066785812
-0.30734274 0.16947365 -0.32265759
-0.29997072 0.013789654 -0.14301825
-0.29996973 -1.0546014 -0.14299536
-0.29727572 -0.83737439 -0.077346325
-0.29518673 -0.66893739 -0.026442528
-0.29311073 -0.50152236 0.024152756
-0.31430674 0.16745365 -0.34128857
-0.30350372 -0.055278361 -0.083525658
-0.31772774 0.23798364 -0.42291164
-0.29697073 -0.3465113 0.072343349
-0.30499774 -0.98036236 -0.11917448
-0.29625574 -0.29011232 0.089385509
-0.30048373 -0.62397033 -0.011489391
-0.31575674 0.053605676 -0.23023129
-0.32273072 0.19402963 -0.39322662
-0.30370873 -0.42046529 0.051348686
-0.30691272 -0.66837031 -0.023539543
-0.31313872 -0.13586634 -0.030481339
-0.31126472 -0.55380338 0.012426376
-0.33122072 0.080485642 -0.30338335
-0.31429872 -0.34584838 0.076579571
-0.32381174 -1.0531783 -0.13701344
-0.31982872 -0.13858539 -0.047590256
-0.32875472 -0.97900337 -0.11323166
-0.32687673 -0.41953439 0.057025433
-0.32874173 -0.55303329 0.016729355
-0.35236374 0.073687673 -0.35926867
-0.34434274 -0.07067436 -0.18917131
-0.33858374 -0.83519429 -0.067067623
-0.33456472 -0.55277938 0.018161774
-0.33381072 -0.49978429 0.034154415
-0.34907672 -0.11199039 -0.16136551
-0.35127273 -0.073290348 -0.20710135
-0.33860675 -0.29643434 0.056587696
-0.36480072 0.037237644 -0.35926151
-0.35247773 -0.9776724 -0.10730457
-0.34907773 -0.7471934 -0.037777424
-0.35625574 -0.83428329 -0.062677383
-0.35494372 -0.74690729 -0.036323547
-0.35198173 -0.30264038 0.02316761
-0.35373074 -0.66616231 -0.011971474
-0.35770273 -0.20598334 -0.09174633
-0.37228772 -0.081224382 -0.26145363
-0.35579574 -0.41839629 0.064101696
-0.36432874 -0.97701639 -0.10434532
-0.36176172 -0.25544637 -0.053684235
-0.36764672 -0.15803939 -0.16984224
-0.35702372 -0.49881834 0.039851665
-0.38638872 0.030023634 -0.41604948
-0.37936574 -0.083898365 -0.27975941
-0.36278573 -0.35286838 0.041984558
-0.37024972 -0.97669131 -0.10286951
-0.37147772 -0.21186239 -0.12668562
-0.36282173 -0.49857932 0.041273594
-0.36945474 -0.55128032 0.026738644
-0.37838972 -0.74577934 -0.0305233
-0.37914473 -0.31525332 -0.044694424
-0.38566974 -0.83279735 -0.055378437
-0.38292873 -0.66482836 -0.0047683716
-0.40543574 -0.13412637 -0.30626965
-0.39154872 -0.83250433 -0.053920269
-0.39632472 -0.27082831 -0.1407094
-0.38687372 -0.55054837 0.031014442
-0.41762072 -0.063774347 -0.41373444
-0.39742273 -0.83221334 -0.052465439
-0.40334472 -0.27395529 -0.15838337
-0.41004473 -0.17531735 -0.27821255
-0.42263973 -0.10025936 -0.39166451
-0.41040173 -0.27709931 -0.17614841
-0.40042573 -0.66404432 -0.00045824051
-0.41724172 -0.17825335 -0.2966094
-0.42998874 -0.10303932 -0.41066551
-0.41164672 -0.97446233 -0.092555523
-0.40916672 -0.8316353 -0.049555302
-0.43737674 -0.10583633 -0.42976856
-0.41774273 -0.37935132 -0.094346523
-0.42462772 -0.28343934 -0.21195841
-0.43175274 -0.18417436 -0.3336935
-0.44189674 -0.14846939 -0.3999896
-0.45227674 -0.11147839 -0.46829224
-0.43184072 -0.3861534 -0.12930822
-0.42518872 -0.74359137 -0.018965244
-0.45978773 -0.11432236 -0.48770857
-0.43894374 -0.38958138 -0.14692259
-0.43525973 -0.9732253 -0.08668232
-0.43402573 -0.90619332 -0.066518307
-0.42954773 -0.66276532 0.006708622
-0.46424973 -0.15727133 -0.45743752
-0.46124873 -0.19621736 -0.40906239
-0.44435674 -0.82994038 -0.040849209
-0.45021474 -0.82966238 -0.039401531
-0.44699973 -0.66201431 0.01099968
-0.44783372 -0.5585894 -0.0020833015
-0.45884272 -0.97201532 -0.080827236
-0.47562274 -0.30619138 -0.34030724
-0.45484772 -0.56240135 -0.019045353
-0.46020973 -0.74201232 -0.010333538
-0.47876772 -0.36162132 -0.29348326
-0.48704073 -0.26129729 -0.41969633
-0.46472573 -0.62088734 0.010886669
-0.49361172 -0.36854237 -0.33053923
-0.49807072 -0.31621939 -0.39679432
-0.47769672 -0.74124235 -0.0060305595
-0.48689273 -0.90361136 -0.05342865
-0.48532572 -0.82803136 -0.030732632
-0.49046573 -0.58177036 -0.10516357
-0.48934472 -0.74073631 -0.0031642914
-0.51617473 -0.3790713 -0.38686037
-0.49769974 -0.58570737 -0.12265253
-0.5142507 -0.48752934 -0.27126026
-0.49739072 -0.67316037 -0.033129215
-0.50031674 -0.64094132 -0.07446146
-0.50592273 -0.96967536 -0.069155216
-0.5044837 -0.9027794 -0.049081326
-0.53630376 -0.33331436 -0.49298763
-0.53911072 -0.3897813 -0.44410563
-0.51963371 -0.59765035 -0.17567158
-0.51767373 -0.96910733 -0.066247463
-0.53444773 -0.60572034 -0.21147442
-0.53529072 -0.96826738 -0.061891556
-0.55344373 -0.5734753 -0.3005414
-0.56742871 -0.51446134 -0.40184832
-0.57818174 -0.40804237 -0.54160643
-0.55171871 -0.66994435 -0.19767952
-0.54702473 -0.96771532 -0.05899334
-0.5509907 -0.82996339 -0.033391476
-0.56334871 -0.71119136 -0.19041634
-0.57641071 -0.58565432 -0.35638762
-0.59084475 -0.52633435 -0.45934057
-0.56461573 -0.96690029 -0.054650307
-0.56566674 -0.83909136 -0.067716599
-0.58755875 -0.63468629 -0.33980751
-0.58603472 -0.72429031 -0.24449635
-0.59975076 -0.59804028 -0.41313028
-0.57480472 -0.89997035 -0.033165455
-0.5973137 -0.69571036 -0.30693865
-0.60310274 -0.64317232 -0.37735653
-0.61552572 -0.60641736 -0.45147848
-0.60908771 -0.73761135 -0.29944324
-0.61881876 -0.65175635 -0.41531658
-0.59390074 -0.96557432 -0.047431469
-0.61781371 -0.80540031 -0.25666761
-0.63951373 -0.61916131 -0.50978136
-0.61968571 -0.92879337 -0.13720655
-0.64040971 -0.7557233 -0.37408161
-0.64117175 -0.8194204 -0.31181145
-0.65240276 -0.72688836 -0.43890238
-0.64919573 -0.8911193 -0.26298761
-0.65695274 -0.8288973 -0.34905958
-0.65703571 -0.89600939 -0.28130722
-0.69171071 -0.69162029 -0.5913353
