# .PCD v0.7 - Point Cloud Data file format
VERSION 0.7
FIELDS x y z
SIZE 4 4 4
TYPE F F F
COUNT 1 1 1
WIDTH 1
HEIGHT 1024
VIEWPOINT 0 0 0 1 0 0 0
POINTS 1024
DATA ascii
1.0816654 -0.06264472 -0.29279518
1.0816953 -0.087964654 -0.47109795
1.0372214 -0.14526069 -0.24094486
1.0096804 -0.19520462 -0.17399788
1.0027504 -0.25063372 -0.16781616
1.0042094 -0.19585061 -0.1786809
0.99514043 -0.24850667 -0.15645313
0.99842542 -0.19611561 -0.18107224
1.0038484 -0.14157867 -0.22171688
0.97055042 -0.021257639 -0.016806126
0.99791843 -0.1417017 -0.22329521
0.95064139 0.057231307 -0.0010800362
0.94832844 -0.10347271 0.016726017
0.9501434 0.012841344 -0.043261051
0.94633341 0.010597348 -0.060152054
0.94091439 0.055197358 -0.01785183
0.9404704 -0.10814261 -0.014391899
0.95566338 -0.31408262 -0.18058109
0.95281643 -0.24785864 -0.15819788
0.94392443 -0.037704647 -0.13589001
0.93865544 0.0060763359 -0.094182968
0.92375541 -0.16097271 0.023759842
0.92940444 0.048762321 -0.068392277
0.93615139 -0.042514682 -0.17066288
0.91484541 0.10170633 -0.047559261
0.91027844 0.14086431 -0.010635853
0.92163944 0.044415355 -0.10249805
0.92322141 -0.086583614 -0.16440725
0.9164694 -0.12242067 -0.10941124
0.8989554 0.18054736 -0.01515913
0.92434943 -0.049824655 -0.22347593
0.91913742 -0.0054346919 -0.18071985
0.90310442 0.095571339 -0.098517895
0.89113939 -0.21926367 0.00035381317
0.8945424 0.13317233 -0.077291012
0.87583643 0.22723734 -0.020494938
0.88704538 -0.18302071 -0.11519718
0.87030041 0.25735331 -0.023921013
0.86859143 0.17586535 -0.060223103
0.86600441 -0.022425652 -0.038030148
0.86436141 0.25742233 -0.023938179
0.85662639 -0.32490361 0.042404175
0.86199242 -0.27998161 -0.0036149025
0.8641144 -0.16725862 -0.021819115
0.85689443 0.14161032 -0.010751247
0.85802639 0.22745436 -0.020531178
0.85481942 -0.015799642 0.007183075
0.85530144 0.020763338 0.0030169487
0.8522144 -0.21341872 0.029696941
0.85292441 -0.15959966 0.023563862
0.85209239 0.22752631 -0.020542145
0.84486943 -0.32465363 0.042366982
0.84702939 -0.15948963 0.023550034
0.84555739 0.18124634 -0.015274048
0.84654939 0.25762731 -0.023974895
0.83967042 -0.27226663 0.036394119
0.8411364 -0.15938163 0.023533821
0.83912241 0.14184731 -0.010787964
0.83963042 0.18132031 -0.015285015
0.83805543 0.058990359 -0.001347065
0.83379042 -0.27214968 0.036377907
0.83063644 -0.05868268 0.01205492
0.82874644 0.25782734 -0.024008274
0.82346141 -0.15906262 0.023488045
0.82419538 -0.10112369 0.016888142
0.81689543 -0.21274662 0.029602051
0.81830043 -0.10102463 0.016872883
0.81688541 0.25795835 -0.024029255
0.81393343 0.021389365 0.0029230118
0.81095541 0.25802332 -0.024039268
0.8044014 -0.27157366 0.036295891
0.80513239 -0.21253061 0.029570103
0.80651444 -0.10082865 0.016842842
0.80408943 0.18175632 -0.015354156
0.80212241 0.021561325 0.0028958321
0.8025884 0.05949533 -0.0014262199
0.79852539 -0.27146161 0.036280155
0.79817039 0.18182731 -0.015365124
0.7966814 0.059576333 -0.0014371872
0.79136539 0.10849231 -0.0070128441
0.78884143 -0.10053968 0.016799927
0.78545642 0.10856831 -0.0070261955
0.78724843 0.25827736 -0.024082184
0.78295344 -0.10044563 0.016788006
0.77808338 -0.014621675 0.007007122
0.7813254 0.25833935 -0.024092197
0.77574039 -0.21200466 0.029492855
0.77403843 0.14267033 -0.010917187
0.76269144 -0.32300866 0.042131901
0.76321143 0.22853035 -0.020704269
0.75990039 -0.057579637 0.011890888
0.76040041 -0.01436764 0.0069680214
0.76355839 0.25852233 -0.024122238
0.76082343 0.022142351 0.0028071404
0.75450844 -0.01428467 0.0069541931
0.7549274 0.02222234 0.0027947426
0.75224543 -0.21159971 0.029435158
0.75352544 -0.099985719 0.016717911
0.75085139 0.18237036 -0.015452862
0.7517184 0.25864136 -0.024143219
0.74698341 -0.15776765 0.023296833
0.7441144 0.10908234 -0.0071058273
0.74546343 0.22871536 -0.020736217
0.74223942 -0.057321668 0.011851788
0.73983741 -0.27038872 0.036126137
0.74050242 -0.21140265 0.029405117
0.73821342 0.10915232 -0.0071191788
0.73463339 -0.21130466 0.029390812
0.73523343 -0.15758169 0.023271084
0.73588043 -0.09971869 0.016676903
0.73268843 0.14315432 -0.010994911
0.7313534 0.022535324 0.0027461052
0.7293604 -0.15748966 0.023256779
0.72131044 0.18269134 -0.015506268
0.7199834 0.06057632 -0.0015940666
0.71703142 -0.21101868 0.02934885
0.71236742 -0.099374652 0.016624928
0.70871943 0.10949731 -0.0071730614
0.70908141 0.14341831 -0.011037827
0.70950139 0.18281531 -0.015525818
0.70999539 0.22907233 -0.020795822
0.70740539 -0.013645649 0.0068559647
0.7041164 -0.32194972 0.041978836
0.70152241 -0.01356864 0.0068449974
0.69881541 -0.26969361 0.036024094
0.69769543 0.18293732 -0.015547276
0.69563842 -0.013492644 0.0068321228
0.69641739 0.060860336 -0.0016379356
0.69241142 -0.32174969 0.041952133
0.6929574 -0.26959765 0.036009789
0.69357443 -0.21064866 0.029294014
0.69413739 -0.15695572 0.023174763
0.6917944 0.18299735 -0.015556812
0.68771338 -0.21055865 0.029280186
0.6818524 -0.21046972 0.029266834
0.67924941 0.10982531 -0.0072259903
0.68046439 0.22935432 -0.020844936
0.67799741 -0.013269663 0.0067968369
0.68076938 0.25931334 -0.024258137
0.67712742 -0.098881721 0.016551018
0.67369944 0.14379436 -0.011101246
0.67409539 0.18317336 -0.015586853
0.67125744 -0.098802686 0.016538143
0.66481042 -0.15653265 0.02311182
0.66157639 0.11001432 -0.0072579384
0.65841842 -0.21012068 0.029212952
0.65951842 -0.098645687 0.016514778
0.65448642 -0.012982666 0.0067520142
0.65714842 0.25951934 -0.024294853
0.6536504 -0.098568678 0.016501904
0.64861143 -0.012912691 0.0067400932
0.64896339 0.023543358 0.0025858879
0.64505541 0.22967535 -0.020902157
0.64308441 0.023610353 0.0025758743
0.6402874 -0.26877964 0.035885811
0.63915741 0.22972631 -0.020910263
0.6368624 -0.012774646 0.0067167282
0.63443941 -0.26869261 0.035872936
0.63499641 -0.20978665 0.029162884
0.6328274 0.18356532 -0.015654087
0.63354141 0.25971836 -0.024331093
0.62914443 -0.20970464 0.029150963
0.62580544 0.061648309 -0.0017690659
0.62226343 -0.32062972 0.041782856
0.62378943 -0.15597665 0.02302599
0.62104541 0.18367136 -0.015673161
0.61924642 -0.012573659 0.0066847801
0.61793244 -0.15590072 0.023015022
0.61846238 -0.098124623 0.016431808
0.61448944 0.11049134 -0.0073390007
0.61298341 -0.055637717 0.01158905
0.61337441 -0.012507677 0.0066747665
0.60783142 0.02399534 0.0025119781
0.6081714 0.061830342 -0.0017981529
0.60474443 -0.32037067 0.041743755
0.60673839 -0.097982645 0.016407967
0.60337543 0.18382734 -0.01569891
0.6012544 -0.055502653 0.011566162
0.60195941 0.024057329 0.0025019646
0.60229439 0.061890364 -0.0018081665
0.5989064 -0.32028663 0.041730881
0.59989041 -0.20931065 0.029089928
0.5968464 0.11065936 -0.0073680878
0.5974884 0.18387735 -0.015708923
0.59815544 0.26000035 -0.024383068
0.58952641 -0.055371642 0.011545181
0.59225941 0.26004535 -0.024390221
0.5863654 0.26009035 -0.024396896
0.58234644 -0.20908463 0.029055119
0.58280641 -0.15546262 0.022943974
0.57780242 -0.055242658 0.011523724
0.57744342 -0.097641706 0.016354084
0.57333142 0.11087531 -0.0074048042
0.56705242 0.062231362 -0.0018668175
0.56157738 0.11097932 -0.007422924
0.56255239 0.23034632 -0.021020889
0.55806041 -0.31972361 0.04164505
0.55666542 0.23038936 -0.021030903
0.55402142 -0.097382665 0.016312122
0.54489338 0.23047531 -0.021047115
0.54056638 -0.31949663 0.04160881
0.54143941 -0.20858872 0.02897501
0.53473639 -0.31942272 0.041597843
0.53646243 -0.097197652 0.016281128
0.53154439 0.024743319 0.0023860931
0.5301674 -0.15486062 0.022847176
0.5274654 0.26050735 -0.024478912
0.52391642 -0.20838869 0.028942108
0.52475941 -0.097077608 0.016261101
0.52071738 0.14517033 -0.011342049
0.5195474 -0.011556685 0.0065150261
0.52157938 0.26054633 -0.024486065
0.51547343 0.23068136 -0.02108717
0.51569343 0.26058435 -0.024493217
0.5114224 -0.31913769 0.04155302
0.51180637 -0.26709068 0.035624027
0.50640041 -0.20819664 0.028911114
0.50678939 -0.15461469 0.022806168
0.50370938 0.23075932 -0.021101952
0.50392342 0.26066035 -0.024508953
0.5022344 0.025000334 0.0023398399
0.50250542 0.062795341 -0.0019659996
0.49750242 0.18465036 -0.015852928
0.49782842 0.23079735 -0.021110058
0.49581242 -0.05442667 0.011385918
0.49611741 -0.011347651 0.0064768791
0.49394342 -0.31893265 0.041520119
0.4892644 -0.15443861 0.022777081
0.48606941 0.23087335 -0.02112627
0.4862754 0.26076835 -0.024529934
0.48305541 -0.20795369 0.028870106
0.48342341 -0.15438163 0.022767067
0.47987741 0.18476933 -0.015874863
0.47682142 -0.26670766 0.035560131
0.47269741 -0.011150658 0.00644207
0.4729394 0.025238335 0.0022959709
0.4709934 -0.26664662 0.035550117
0.46733141 0.06306833 -0.0020160675
0.46555242 -0.20777965 0.028841972
0.46178541 0.11175936 -0.0075669289
0.4607124 -0.054122686 0.011332035
0.46099141 -0.011056662 0.0064249039
0.46275041 0.26090634 -0.024559975
0.46147141 0.063111365 -0.0020251274
0.46006542 -0.15416265 0.02272892
0.4559204 0.11179936 -0.0075750351
0.4551374 -0.011010647 0.0064167976
0.45317942 -0.31848967 0.041447163
0.4535104 -0.26646972 0.03552103
0.4500564 0.11183935 -0.0075831413
0.45051441 0.18495536 -0.01591301
0.45080441 0.23108536 -0.021169186
0.44875041 -0.096376657 0.01613903
0.44185942 -0.26635671 0.035501003
0.44255242 -0.15400767 0.02270174
0.44290841 -0.096327662 0.016129971
0.43780541 0.025502324 0.0022478104
0.43639141 -0.20750761 0.028793812
0.43267041 0.14577734 -0.011458874
0.43318042 0.23118436 -0.021190166
0.43195242 0.025544345 0.0022387505
0.43217742 0.063317358 -0.0020642281
0.43056142 -0.20745564 0.028784752
0.43088043 -0.15390766 0.022684097
0.42703441 0.18509436 -0.01594305
0.4273054 0.23121536 -0.021195889
0.4256314 -0.053845644 0.011281967
0.41826141 -0.31814766 0.041387081
0.4189004 -0.20735562 0.028766155
0.4148834 0.11206335 -0.007627964
0.41529742 0.18516034 -0.015954971
0.41572842 0.26115733 -0.024613857
0.41439342 0.02566433 0.0022149086
0.4137024 -0.096097708 0.016088009
0.4096874 0.23130834 -0.021216869
0.40833941 -0.010668635 0.0063519478
0.40289542 0.063506365 -0.0021018982
0.40141442 -0.20721066 0.028739929
0.39527142 -0.26594067 0.035427094
0.39558741 -0.20716369 0.028731823
0.39618441 -0.095968723 0.016064167
0.39162242 0.14601332 -0.011507988
0.3911874 0.063577354 -0.0021162033
0.3891764 -0.31788862 0.041340828
0.38033241 0.23145133 -0.021247864
0.37386942 0.11229634 -0.0076770782
0.37325841 -0.010442674 0.0063080788
0.37173042 -0.31774366 0.041316986
0.37198842 -0.26575363 0.035392761
0.3680124 0.11232734 -0.0076832771
0.36836842 0.18540132 -0.016008854
0.36616942 -0.26570964 0.035385132
0.36645541 -0.2069447 0.028689861
0.36671641 -0.15341866 0.022593975
0.36699742 -0.095769644 0.016024113
0.36272442 0.23153031 -0.021266937
0.36174342 0.025987327 0.0021500587
0.36192343 0.063743353 -0.0021519661
0.35664141 0.18545532 -0.016022205
0.35552442 -0.053373694 0.011188984
0.3558954 0.026020348 0.0021429062
0.35004741 0.026052356 0.0021357536
0.34871241 -0.26558161 0.035360813
0.34491441 0.18550736 -0.016034126
0.34403741 -0.010273635 0.0062718391
0.34266242 -0.31752264 0.041275024
0.34289542 -0.26554167 0.035353184
0.33851942 0.063863337 -0.0021791458
0.33707741 -0.26550162 0.035345078
0.33756942 -0.15322971 0.022554874
0.3333874 0.23165131 -0.021296978
0.3323524 -0.010211647 0.0062589645
0.33351541 0.26151532 -0.024701118
0.33250841 0.026143312 0.0021157265
0.33266941 0.063892365 -0.0021839142
0.3312614 -0.26546264 0.035337925
0.32716441 0.14632434 -0.011579037
0.32732841 0.18558133 -0.016052246
0.31986642 -0.20663762 0.02862978
0.32008439 -0.15312564 0.022533894
0.32031941 -0.095491648 0.015967846
0.31578842 0.23171735 -0.021315098
0.31360441 -0.31732571 0.041235924
0.31381139 -0.26535165 0.035315037
0.3100394 0.26159835 -0.024722099
0.3082234 -0.20656967 0.028614998
0.30843142 -0.15306067 0.022520065
0.3086544 -0.095430613 0.015954018
0.30360842 0.11262333 -0.0077519417
0.3038854 0.18567234 -0.016075134
0.30298242 -0.053090692 0.011126995
0.30328241 0.026281357 0.0020847321
0.30282241 -0.095400691 0.015947819
0.29775441 0.11264634 -0.0077581406
0.29617339 -0.31721771 0.041213989
0.29130942 -0.05303669 0.011115074
0.2861684 0.14648432 -0.011620045
0.28547442 -0.053010702 0.011107922
0.28494039 -0.20644367 0.028587818
0.2803134 0.14650536 -0.011626244
0.27963939 -0.052984715 0.011103153
0.27978441 -0.0099666715 0.0062007904
0.27990741 0.026379347 0.0020608902
0.2787464 -0.31711864 0.041193962
0.2794964 -0.095289707 0.015923023
0.2748374 0.26170832 -0.024754047
0.27406439 0.026402354 0.0020551682
0.27330041 -0.20638669 0.028575897
0.26872841 0.18579036 -0.016108036
0.26796842 -0.052936673 0.011089802
0.26822141 0.026424348 0.0020489693
0.26712841 -0.31705761 0.041181087
0.2676504 -0.15285969 0.022473812
0.2624954 0.064182341 -0.0022559166
0.26166141 -0.20633268 0.028563023
0.25679439 0.11279136 -0.0077981949
0.2572394 0.26175636 -0.024768829
0.2566494 0.064202309 -0.0022611618
0.25617442 -0.095191717 0.015897751
0.25094441 0.11280936 -0.0078029633
0.25115541 0.18584234 -0.016124249
0.2497054 -0.31697369 0.041160107
0.2498554 -0.26501369 0.035242081
0.2501784 -0.15278566 0.022456169
0.24550742 0.26178634 -0.024778843
0.24495742 0.064239323 -0.0022721291
0.24389639 -0.3169477 0.041153908
0.24404141 -0.26498866 0.035234928
0.24451441 -0.09514761 0.015886784
0.23808941 -0.31692171 0.041148186
0.23339441 0.11285931 -0.007818222
0.23358241 0.18588835 -0.01613903
0.23296541 -0.052808642 0.011055946
0.23307639 -0.0097976923 0.0061559677
0.2324174 -0.26494062 0.035223007
0.2275444 0.11287534 -0.0078229904
0.22784039 0.23197532 -0.021392822
0.22791541 0.26182634 -0.024794102
0.22742441 0.064291358 -0.0022878647
0.22169539 0.11289036 -0.0078282356
0.2217764 0.14667636 -0.011678219
0.22198039 0.23198831 -0.021399021
0.21573439 0.064322352 -0.0022969246
0.2151154 -0.2061497 0.028516769
0.21015641 0.18594235 -0.01615715
0.20980841 0.026606321 0.0019950867
0.20389241 -0.0097156763 0.0061311722
0.20325141 -0.31678963 0.0411129
0.1983674 0.14672732 -0.011695862
0.19844541 0.18596536 -0.01616621
0.19853741 0.23203433 -0.021416187
0.19820341 0.06436336 -0.0023131371
0.1925144 0.14673835 -0.011702061
0.19267541 0.23204535 -0.021419048
0.19221941 -0.0096876621 0.0061211586
0.1923584 0.064376354 -0.0023179054
0.19163841 -0.31675267 0.041102886
0.1866634 0.14674932 -0.011704922
0.1864484 0.026660323 0.0019769669
0.1860314 -0.2060647 0.02849102
0.18612739 -0.15257871 0.022397995
0.1810064 0.26191032 -0.024828911
0.1749614 0.14676934 -0.011713982
0.1747124 -0.0096506476 0.0061078072
0.17448542 -0.15255165 0.022387981
0.1745764 -0.094947696 0.015824795
0.1684964 -0.26474261 0.035164833
0.1632584 0.14678735 -0.011722088
0.16341841 0.26193333 -0.024842262
0.1571494 -0.052624702 0.010993004
0.15755641 0.26194036 -0.024846077
0.1572524 0.026711345 0.001955986
0.1570204 -0.15251768 0.022374153
0.1452564 -0.26469767 0.03514719
0.13982241 0.11303431 -0.0078892708
0.1398564 0.14681435 -0.011737823
0.13997041 0.26195735 -0.024857044
0.1339744 0.11304033 -0.0078930855
0.1338644 -0.009591639 0.0060777664
0.1339304 0.064465344 -0.0023589134
0.1281544 0.14682436 -0.01174593
0.1279954 -0.052587628 0.01097393
0.1282464 0.26196533 -0.024864197
0.12778541 -0.31661963 0.041052818
0.12796241 -0.094875693 0.015790939
0.1222804 0.11304933 -0.0079011917
0.12233141 0.18606132 -0.016220093
0.1223634 0.23212534 -0.021468163
0.12238441 0.26196933 -0.024868011
0.1222204 0.026750326 0.00192976
0.12224741 0.064475358 -0.0023670197
0.1164774 0.18606436 -0.016222954
0.1165234 0.26197231 -0.024870872
0.1163104 -0.09486568 0.015783787
0.11060241 0.14683533 -0.011756897
0.11062241 0.18606734 -0.016225815
0.11064541 0.23213035 -0.021473885
0.1105614 0.064482331 -0.0023741722
0.10475241 0.14683735 -0.011761189
0.1047684 0.18606931 -0.01623106
0.1046904 -0.0095706582 0.0060601234
0.1046124 -0.20593965 0.028430939
0.10463341 -0.15245962 0.022338867
0.10465641 -0.094859719 0.015777111
0.098914407 0.18607134 -0.016232967
0.093046404 0.11306131 -0.007917881
0.093013406 -0.05256772 0.010951996
0.093076408 0.26197934 -0.024885178
0.092971407 -0.2646507 0.035111904
0.092983402 -0.20593572 0.028423786
0.087200403 0.11306232 -0.0079221725
0.087191403 0.026764333 0.0019097328
0.087195404 0.064488351 -0.0023870468
0.087157406 -0.31659365 0.041028023
0.081351407 0.18607235 -0.016243935
0.081351407 -0.15245461 0.022325993
0.075505406 0.11306131 -0.0079278946
0.075498402 0.18607235 -0.016247272
0.075521402 -0.05256772 0.010941982
0.075531408 -0.15245569 0.022320747
0.075526401 -0.094855666 0.015759945
0.069711402 -0.15245771 0.02231884
0.063802406 0.14683634 -0.011783123
0.063767403 0.26197636 -0.024900913
0.063940406 -0.31659961 0.041015148
0.063907407 -0.20593965 0.028409004
0.063891403 -0.15246069 0.022315979
0.063874409 -0.094859719 0.015753746
0.057950407 0.14683431 -0.01178503
0.057916403 0.23213035 -0.021503925
0.058030404 -0.052574635 0.010932922
0.058091406 -0.2059437 0.028406143
0.058069408 -0.15246367 0.022313118
0.052160405 0.026753306 0.0018930435
0.052141406 0.064478338 -0.0024051666
0.046394404 -0.09487164 0.015745163
0.040400404 0.14682335 -0.011795044
0.040509406 -0.0095876455 0.0060267448
0.040484406 0.026744306 0.0018868446
0.040687405 -0.26467562 0.035087109
0.040646404 -0.20595968 0.028398991
0.040608406 -0.15247869 0.022305012
0.040568404 -0.09487772 0.015743732
0.034674406 -0.0095926523 0.0060248375
0.034616407 0.064463317 -0.0024142265
0.034877405 -0.26468265 0.035084724
0.028663404 0.18604636 -0.016270161
0.028877404 -0.052601695 0.010921001
0.028595407 0.26195532 -0.024919033
0.028772406 0.064457357 -0.0024170876
0.028966404 -0.15249264 0.022301197
0.023046404 -0.052609682 0.01091814
0.022733405 0.26195031 -0.024919987
0.023257405 -0.26470065 0.035079956
0.023146406 -0.1525017 0.022297859
0.016998403 0.14680034 -0.011804104
0.016904406 0.23209935 -0.021522045
0.017129406 0.026717365 0.0018777847
0.017088406 0.06444335 -0.0024209023
0.017383404 -0.2059927 0.028388977
0.017325409 -0.15251064 0.022295952
0.011147402 0.14679235 -0.011806965
0.011100404 0.18602735 -0.016276836
0.011334404 -0.0096236467 0.0060148239
0.011568405 -0.20600367 0.02838707
0.0054974034 -0.009632647 0.0060119629
0.0058944076 -0.31668162 0.040992737
8.9406967e-05 -0.31669462 0.040990829
-0.0064065978 0.14676732 -0.011813164
-0.0065775961 0.26191634 -0.024932861
-0.012203597 0.11297536 -0.0079660416
-0.011939593 -0.052670717 0.010905743
-0.012066595 0.02666831 0.0018668175
-0.012126595 0.064396322 -0.0024309158
-0.011695594 -0.20605361 0.028379917
-0.018303595 0.26189935 -0.024938107
-0.017324597 -0.31674063 0.040986061
-0.023900598 0.11295336 -0.0079698563
-0.023681596 -0.0096906424 0.0060038567
-0.024167597 0.26189035 -0.02493906
-0.023746595 0.026644349 0.0018639565
-0.029812597 0.14672434 -0.011823177
-0.029886596 0.18596232 -0.016292095
-0.029146597 -0.2061007 0.028375149
-0.035267591 -0.052726626 0.010899067
-0.035425596 0.026617348 0.0018601418
-0.035069592 -0.15262961 0.022279739
-0.041445598 0.11291534 -0.0079760551
-0.041694596 0.23200935 -0.02154398
-0.040548593 -0.31681466 0.040980816
-0.047455601 0.18592632 -0.016297817
-0.0471076 0.026587307 0.0018548965
-0.046469592 -0.26488161 0.035061836
-0.046714596 -0.15266562 0.022278786
-0.053144597 0.11288631 -0.0079798698
-0.053221591 0.14667231 -0.011827946
-0.052947588 0.026571333 0.0018548965
-0.0589936 0.11287135 -0.0079798698
-0.059074588 0.14665735 -0.011830807
-0.058359601 -0.15270472 0.022274971
-0.064926602 0.14664233 -0.011832237
-0.065024592 0.18588436 -0.016303062
-0.06472259 0.064270318 -0.0024471283
-0.063774593 -0.31690371 0.040977955
-0.064049594 -0.20621765 0.02836895
-0.0702646 -0.052833676 0.010890961
-0.070566602 0.06425333 -0.002448082
-0.069715597 -0.26497066 0.035058975
-0.076863594 0.23193032 -0.021554947
-0.075389601 -0.31695366 0.040977955
-0.087766595 -0.052896619 0.010890007
-0.094195597 0.14655733 -0.011837959
-0.094449602 0.23188233 -0.021559238
-0.093728594 -0.0099036694 0.005988121
-0.092967592 -0.26507461 0.035058975
-0.093142591 -0.20633972 0.028367043
-0.093301602 -0.15284169 0.022273064
-0.09943559 -0.052942634 0.0108881
-0.099680595 0.026418328 0.0018467903
-0.099796601 0.064156353 -0.0024528503
-0.10603059 0.18576735 -0.016312122
-0.10617659 0.23184836 -0.021562099
-0.10627159 0.26170433 -0.024963856
-0.1044296 -0.31709671 0.040977955
-0.10478259 -0.20639372 0.028367043
-0.1051356 -0.095270634 0.015707016
-0.1116486 0.11270636 -0.0079922676
-0.1114896 0.064113319 -0.0024552345
-0.1104086 -0.26516163 0.035058975
-0.1109666 -0.095296621 0.01570797
-0.1175006 0.11268532 -0.0079908371
-0.1169406 -0.053016663 0.010887146
-0.1160476 -0.31715965 0.040978909
-0.1162226 -0.26519263 0.035058975
-0.11660259 -0.15294862 0.02227211
-0.11679759 -0.095323682 0.015707016
-0.1236066 0.18570834 -0.016315937
-0.1231836 0.06406635 -0.0024561882
-0.12861261 -0.053070664 0.010887146
-0.12889761 0.026300311 0.0018439293
-0.1284616 -0.09537971 0.015706062
-0.13505858 0.11261731 -0.0079922676
-0.13532761 0.18566632 -0.016314983
-0.13444859 -0.053098679 0.010886192
-0.13460758 -0.010075688 0.0059847832
-0.13474059 0.026274323 0.0018429756
-0.13347659 -0.31726265 0.040979862
-0.13388461 -0.20654571 0.028367996
-0.14118761 0.18564433 -0.016316891
-0.13928661 -0.31729865 0.040982723
-0.14734259 0.26157331 -0.024970055
-0.14657658 0.063967347 -0.0024561882
-0.14552659 -0.20661271 0.02836895
-0.14573461 -0.15310168 0.022273064
-0.14595759 -0.09546864 0.01570797
-0.1526196 0.11254334 -0.0079951286
-0.15196058 -0.053186655 0.010887146
-0.1509096 -0.31737268 0.040984154
-0.1515626 -0.15313566 0.022273064
-0.15179259 -0.095499635 0.01570797
-0.15908161 0.26153135 -0.024972916
-0.15693259 -0.26543462 0.035063744
-0.15739059 -0.15316868 0.022274017
-0.16432759 0.11249131 -0.0079960823
-0.16482559 0.23164535 -0.021572113
-0.16253158 -0.31745172 0.040987015
-0.16299459 -0.20671868 0.028371811
-0.1632176 -0.15320361 0.022274971
-0.1683436 -0.31749272 0.040987968
-0.1692926 -0.095598698 0.015708923
-0.17531258 -0.053314686 0.0108881
-0.1755006 -0.010282636 0.0059857368
-0.17512658 -0.095633626 0.015709877
-0.18046558 -0.20683372 0.028375149
-0.18790558 0.14618433 -0.011847973
-0.1871886 -0.010347664 0.0059871674
-0.18843257 0.26141632 -0.024976254
-0.18735558 0.026011348 0.001844883
-0.18653458 -0.15335071 0.022278786
-0.19337958 0.063735306 -0.0024561882
-0.1915966 -0.31766462 0.040994167
-0.19981158 0.18539435 -0.016320229
-0.2001746 0.26136732 -0.024978161
-0.19923058 0.063703358 -0.0024552345
-0.19819459 -0.15342963 0.02228117
-0.19846958 -0.095779657 0.015714169
-0.20532158 0.11228836 -0.0079951286
-0.2054866 0.14609736 -0.011847019
-0.20490059 0.025911331 0.0018458366
-0.20508459 0.063670337 -0.0024552345
-0.20322558 -0.31775665 0.040997982
-0.20430759 -0.095818639 0.015712738
-0.21117958 0.11225635 -0.007994175
-0.21134758 0.14606732 -0.011847019
-0.21703759 0.11222434 -0.0079932213
-0.21720859 0.14603633 -0.011847019
-0.21764159 0.23141634 -0.02157402
-0.22289559 0.11219132 -0.007994175
-0.22351259 0.23138833 -0.02157402
-0.22366658 0.26126236 -0.024978161
-0.22264358 0.063568354 -0.0024528503
-0.22829857 0.02576834 0.0018501282
-0.23461559 0.11212432 -0.0079922676
-0.2352556 0.23133034 -0.02157402
-0.23372459 -0.053687692 0.010898113
-0.23541659 0.26120734 -0.024978161
-0.23415059 0.025731325 0.0018520355
-0.2343536 0.063497365 -0.002450943
-0.23230457 -0.31800365 0.041010857
-0.24047458 0.11208934 -0.0079922676
-0.23956758 -0.0537287 0.010900974
-0.2387276 -0.20727062 0.028391838
-0.24565157 -0.010719657 0.0059981346
-0.24455559 -0.20731962 0.028395176
-0.25238758 0.14583832 -0.011843204
-0.25261059 0.18511933 -0.016319275
-0.2530416 0.26111931 -0.024978161
-0.25068858 -0.15382361 0.022297859
-0.25735059 -0.010802686 0.0059990883
-0.2577776 0.063346326 -0.0024471283
-0.2562156 -0.20741868 0.028399944
-0.2641196 0.14576733 -0.01184082
-0.26479658 0.26105833 -0.024978161
-0.26363459 0.063306332 -0.0024471283
-0.26204559 -0.2074697 0.028402805
-0.26235959 -0.15392065 0.022301197
-0.26998457 0.14573133 -0.01184082
-0.27049458 0.23114336 -0.021572113
-0.26926658 0.025491357 0.0018577576
-0.2672146 -0.31833065 0.041028976
-0.2675246 -0.26631665 0.035101891
-0.27564558 0.11186832 -0.0079860687
-0.27655157 0.26099533 -0.024977207
-0.2753506 0.063226342 -0.0024428368
-0.27303359 -0.31838763 0.041031837
-0.28196058 0.18494636 -0.016314983
-0.28224459 0.23107636 -0.021570206
-0.28242958 0.26096332 -0.024977207
-0.27885458 -0.31844664 0.041036129
-0.2795386 -0.20762861 0.028409958
-0.28737459 0.11178935 -0.007982254
-0.28812259 0.23104233 -0.021571159
-0.2868326 0.025362313 0.0018639565
-0.29323858 0.11174935 -0.0079808235
-0.29345459 0.14557934 -0.011836052
-0.2924566 -0.011068642 0.0060119629
-0.29932258 0.14554036 -0.011835098
-0.29957759 0.18483531 -0.016312122
-0.3000696 0.26086432 -0.024974823
-0.29878959 0.06305635 -0.0024380684
-0.3028706 -0.20785272 0.028421879
-0.31132358 0.18475932 -0.016309261
-0.30870458 -0.20791066 0.028427124
-0.3090626 -0.15434062 0.022324085
-0.3169336 0.14541835 -0.011830807
-0.31771359 0.26075935 -0.024972916
-0.3163746 0.062922359 -0.0024318695
-0.31961557 -0.31888461 0.041062832
-0.32843959 0.11149335 -0.0079722404
-0.33430859 0.11144835 -0.0079708099
-0.33343959 -0.01141268 0.0060267448
-0.33929858 -0.011464655 0.0060310364
-0.3378886 -0.20821369 0.028444767
-0.34629458 0.14520335 -0.011822224
-0.34995958 -0.15475261 0.022347927
-0.35714459 0.02478236 0.0018911362
-0.3642166 0.18438536 -0.016294956
-0.36240658 -0.054773688 0.010951996
-0.36953658 0.11116636 -0.007956028
-0.37597859 0.18429536 -0.016293049
-0.37412059 -0.054890633 0.010958195
-0.3744556 -0.011791646 0.0060477257
-0.3765696 0.26037735 -0.024960995
-0.37473759 0.024621308 0.0018987656
-0.37503159 0.062432349 -0.0024080276
-0.37206557 -0.31951666 0.041105747
-0.3815496 0.14492536 -0.011808872
-0.38031659 -0.011848688 0.0060520172
-0.38245758 0.26033634 -0.024959087
-0.37789559 -0.31959164 0.041110992
-0.37918958 -0.15507162 0.022367954
-0.37964457 -0.09733665 0.015790939
-0.38677058 0.062326312 -0.0024032593
-0.3854976 -0.097399712 0.015794754
-0.39303458 0.11096531 -0.0079460144
-0.39264259 0.06227231 -0.0023989677
-0.38998058 -0.26767361 0.035189152
-0.39088759 -0.15520465 0.02237606
-0.39918759 0.14477831 -0.01180315
-0.39851359 0.062217355 -0.0023970604
-0.39539358 -0.31982267 0.041126728
-0.3962996 -0.20888662 0.028489113
-0.3972086 -0.097527623 0.015800953
-0.40506759 0.14472735 -0.011801243
-0.41127759 0.18401331 -0.016280174
-0.41166458 0.23019934 -0.021542072
-0.40994158 0.024281323 0.0019178391
-0.4089216 -0.097659707 0.015810013
-0.41654357 0.11075431 -0.0079360008
-0.41513759 -0.05532372 0.010984898
-0.41780758 0.26007831 -0.024950027
-0.41383559 -0.20910466 0.028503895
-0.41477859 -0.09772563 0.015814781
-0.4224236 0.11070031 -0.0079331398
-0.42137057 -0.012268662 0.0060768127
-0.42723757 -0.012331665 0.0060801506
-0.42959857 0.25998831 -0.024946213
-0.42456961 -0.32022572 0.041156769
-0.4259966 -0.15562463 0.022404194
-0.43418461 0.11058933 -0.0079278946
-0.43523157 0.23001134 -0.021533966
-0.4337576 0.06187433 -0.0023770332
-0.4318496 -0.1556977 0.022408962
-0.4323566 -0.09793067 0.015829086
-0.44036561 0.14441335 -0.011784077
-0.44112456 0.22996336 -0.021531105
-0.4367066 -0.26829672 0.035233974
-0.43770456 -0.15577161 0.022415161
-0.44445956 -0.055655718 0.011005878
-0.44551259 0.061755359 -0.0023698807
-0.44407958 -0.098071694 0.015838146
-0.45183158 0.11041933 -0.007917881
-0.45249659 0.18365735 -0.016262054
-0.45139056 0.061694324 -0.0023670197
-0.4583866 0.18360436 -0.016259193
-0.45881057 0.22981435 -0.021523952
-0.45580357 -0.098215699 0.01584816
-0.46008861 -0.26863062 0.035259724
-0.46948558 0.11024231 -0.0079069138
-0.46648759 -0.20980871 0.028554916
-0.46699059 -0.15615261 0.022441864
-0.47569358 0.14407635 -0.01176405
-0.4717856 -0.26880264 0.035273075
-0.47967058 -0.056079626 0.011034966
-0.4807936 0.061380327 -0.0023460388
-0.4771356 -0.32101166 0.041217804
-0.47763461 -0.26889062 0.035278797
-0.47926462 -0.098513722 0.015869141
-0.48714757 0.11006033 -0.0078959465
-0.4863106 0.023458362 0.0019698143
-0.48513061 -0.098589659 0.015873909
-0.4937526 0.18327332 -0.016242027
-0.49183458 -0.013071656 0.0061278343
-0.4921906 0.023389339 0.0019741058
-0.48882556 -0.32119763 0.041232109
-0.48933458 -0.26906872 0.035293102
-0.4996506 0.18321633 -0.016237259
-0.50010759 0.22944933 -0.021505833
-0.49728757 -0.056301713 0.011049747
-0.4946726 -0.32129169 0.041238785
-0.49576861 -0.21022964 0.028587818
-0.50515658 0.14377832 -0.011746883
-0.50316161 -0.056377649 0.011055946
-0.51105058 0.14371735 -0.011744022
-0.51144761 0.18310034 -0.01623106
-0.51021856 0.061049342 -0.002325058
-0.51660156 0.10974431 -0.0078759193
-0.51781762 0.22928435 -0.02149725
-0.51572061 0.023109317 0.001994133
-0.51221561 -0.32157969 0.041264057
-0.51274657 -0.26943469 0.035323143
-0.52284259 0.14359236 -0.011735916
-0.52372259 0.22922832 -0.021492958
-0.51920658 -0.21058261 0.028614044
-0.5303936 0.30277932 -0.029876232
-0.52749258 0.022965312 0.0020031929
-0.52445859 -0.26962364 0.035337925
-0.5256266 -0.15697861 0.022502899
-0.5342856 0.10954636 -0.0078630447
-0.53464061 0.14346534 -0.01172781
-0.5350526 0.18286031 -0.016217232
-0.5333786 0.022892356 0.0020089149
-0.53093261 -0.21076465 0.028627872
-0.53149456 -0.15706563 0.022510052
-0.54095662 0.18279934 -0.01621294
-0.54222357 0.30267632 -0.029870033
-0.54476458 -0.013743639 0.0061759949
-0.5438506 -0.099396706 0.015934944
-0.54733056 -0.3221817 0.041313171
-0.5485276 -0.21104372 0.028649807
-0.54972857 -0.099481702 0.015941143
-0.55824459 0.14320433 -0.011712074
-0.55867356 0.18261135 -0.016201019
-0.5595026 0.25885832 -0.024888992
-0.55997658 0.30251735 -0.029861927
-0.55693358 0.022592306 0.0020289421
-0.55734557 0.06048435 -0.002286911
-0.55439359 -0.21113861 0.028657913
-0.5637756 0.10920435 -0.0078411102
-0.56414759 0.14313734 -0.011705875
-0.56508857 0.22882134 -0.02147007
-0.56195056 -0.057175636 0.01111412
-0.56324059 0.060410321 -0.0022821426
-0.55904156 -0.32239068 0.041328907
-0.56084961 -0.15751362 0.022544861
-0.57005256 0.14306933 -0.011702061
-0.56783462 -0.057259679 0.011119843
-0.57181656 0.30240935 -0.029857159
-0.56547558 -0.27031469 0.035392761
-0.57557857 0.10906333 -0.0078310966
-0.57724959 0.25868535 -0.024878025
-0.57075661 -0.32260263 0.041347027
-0.57199758 -0.21142864 0.028680801
-0.58283061 0.22863835 -0.021458149
-0.58093256 0.060185313 -0.0022659302
-0.57661659 -0.32270968 0.041357994
-0.57786959 -0.21152663 0.028688908
-0.58549356 -0.057515621 0.01113987
-0.58598459 -0.014306664 0.0062179565
-0.58958459 0.30224335 -0.029847145
-0.58639961 0.022201359 0.0020580292
-0.58307058 -0.27062464 0.035419941
-0.58374059 -0.21162665 0.028697968
-0.59368056 0.14279336 -0.011683941
-0.59919661 0.10877335 -0.0078120232
-0.60058159 0.22845036 -0.021447182
-0.59819257 0.022039354 0.0020689964
-0.5941996 -0.3230387 0.041383743
-0.59610862 -0.15807962 0.022591114
-0.59677857 -0.10019171 0.015995026
-0.60650158 0.22838634 -0.02144289
-0.60006356 -0.32315063 0.041392803
-0.60067362 -0.27094269 0.035444736
-0.61141258 0.14257932 -0.011670113
-0.6090526 -0.057868719 0.011168003
-0.60956156 -0.014644682 0.0062427521
-0.61545759 -0.014730692 0.006248951
-0.61921757 0.30195636 -0.029831886
-0.61241257 -0.27115965 0.03546381
-0.61311358 -0.21213567 0.028739929
-0.62283158 0.10847235 -0.0077910423
-0.62083757 -0.058050632 0.011180878
-0.62135458 -0.014817655 0.0062561035
-0.61828458 -0.27126968 0.035471916
-0.6189906 -0.2122407 0.028748035
-0.61963457 -0.15847468 0.022623062
-0.6296286 0.18180835 -0.016149044
-0.63465559 0.10831833 -0.0077800751
-0.63611358 0.22805935 -0.021421909
-0.63262761 -0.058234692 0.011195183
-0.64098561 0.14221132 -0.011643887
-0.6390546 -0.015083671 0.0062761307
-0.6424076 0.25800633 -0.024837017
-0.63800257 -0.10085464 0.016047001
-0.65426761 0.25787634 -0.024828911
-0.65131557 0.021278322 0.0021271706
-0.65982258 0.22778833 -0.021404266
-0.65770161 0.059139311 -0.0021891594
-0.65495658 -0.15909064 0.02267313
-0.6556856 -0.10115063 0.016071796
-0.66212159 -0.058708668 0.011232853
-0.66802257 -0.058805704 0.011240959
-0.66857558 -0.015541673 0.0063118935
-0.67262661 0.30140936 -0.029798031
-0.66952759 0.058968365 -0.0021772385
-0.67392558 -0.058903694 0.011249065
-0.67448258 -0.015634656 0.0063209534
-0.6780026 0.25760931 -0.024812222
-0.67856556 0.30134636 -0.029796124
-0.67495358 0.02092135 0.0021538734
-0.68294656 0.18115133 -0.016103268
-0.68393856 0.25754136 -0.024806976
-0.6845066 0.30128235 -0.029790878
-0.67705959 -0.27241862 0.035571098
-0.6863026 -0.015824676 0.0063328743
-0.6904496 0.30121833 -0.029788017
-0.6844216 -0.15962863 0.022717953
-0.68517959 -0.10165966 0.016113758
-0.69384056 0.10750836 -0.0077209473
-0.69428861 0.14150834 -0.011593819
-0.69269556 0.020647347 0.0021767616
-0.69812459 -0.016017675 0.0063500404
-0.70175558 0.25733435 -0.024793148
-0.70569056 0.10733932 -0.007707119
-0.70729458 0.22721833 -0.021365166
-0.70769662 0.25726432 -0.024787903
-0.70828259 0.30102235 -0.029775143
-0.70452762 0.020460308 0.0021910667
-0.70139259 -0.21379769 0.028880119
-0.70288861 -0.10197568 0.016139984
-0.7116186 0.10725331 -0.0076999664
-0.7142306 0.30095631 -0.029768944
-0.70728761 -0.21391571 0.028890133
-0.71854562 0.18068534 -0.016069889
-0.71528059 -0.059609652 0.011306763
-0.71586961 -0.016311646 0.0063738823
-0.71688259 0.058255315 -0.0021219254
-0.7217856 -0.016411662 0.0063819885
-0.7255286 0.25705034 -0.024775028
-0.73106056 0.22691935 -0.021346092
-0.7282086 0.020077348 0.0022211075
-0.72416157 -0.27340472 0.035656929
-0.72571957 -0.16041672 0.022785187
-0.73533857 0.10690331 -0.0076742172
-0.73581058 0.14092731 -0.011550903
-0.7363596 0.18044531 -0.0160532
-0.73087561 -0.21439672 0.028931141
-0.73242956 -0.10251772 0.016184807
-0.74174857 0.14084232 -0.011544228
-0.74295056 0.22676736 -0.021334171
-0.7375316 -0.16064966 0.022803783
-0.74720657 0.10672432 -0.0076599121
-0.74932057 0.25675732 -0.024754047
-0.74858159 -0.21476567 0.028964043
-0.75956559 0.14058131 -0.011525154
-0.75731361 -0.01702565 0.0064311028
-0.75608456 -0.10296571 0.016222954
-0.76607656 0.18003231 -0.016023159
-0.76674461 0.22645533 -0.021312237
-0.76261461 -0.060464621 0.011377811
-0.76323861 -0.017130673 0.0064411163
-0.77202457 0.17994732 -0.016016006
-0.7737686 0.30026531 -0.029725075
-0.77618456 0.057303309 -0.0020470619
-0.78460461 0.22621536 -0.021294117
-0.78569061 0.30012131 -0.029715061
-0.78156161 0.019175351 0.0022959709
-0.7797606 -0.10342669 0.016263008
-0.78928757 0.14013535 -0.011489868
-0.79165357 0.30004835 -0.029708862
-0.7952376 0.14004433 -0.011483192
-0.79288757 -0.017666638 0.0064849854
-0.79761958 0.29997534 -0.029704094
-0.79074156 -0.16173863 0.022900105
-0.80247658 0.22597033 -0.021275997
-0.80292857 0.25606835 -0.024704933
-0.80358559 0.29990131 -0.029698849
-0.79937059 0.018861353 0.0023198128
-0.80662256 0.10579133 -0.0075879097
-0.80713761 0.13985932 -0.011468887
-0.80410057 -0.061253667 0.011445045
-0.80257958 -0.16199064 0.022921085
-0.81308961 0.13976634 -0.011462212
-0.8106916 -0.017996669 0.0065131187
-0.81904256 0.13967335 -0.011454105
-0.81964856 0.17925131 -0.015963078
-0.81662858 -0.018108666 0.0065221786
-0.81777161 0.056596339 -0.0019888878
-0.81269062 -0.27541661 0.035837173
-0.82907659 0.018323362 0.0023651123
-0.82966661 0.056387365 -0.0019721985
-0.8337726 -0.061840653 0.01149416
-0.83502162 0.018214345 0.0023751259
-0.83561659 0.056282341 -0.0019631386
-0.83310658 -0.10451269 0.016356945
-0.84538656 0.29937035 -0.029662132
-0.84156656 0.056176364 -0.0019550323
-0.83904058 -0.10463667 0.016366005
-0.85479558 0.13909733 -0.011407852
-0.85616559 0.22520536 -0.021219254
-0.84818757 -0.27628064 0.035915852
-0.84912956 -0.21701467 0.029163837
-0.86139357 0.17861032 -0.01591301
-0.85881758 0.017768323 0.0024118423
-0.86476958 0.017655313 0.0024218559
-0.8726896 0.13880134 -0.011383057
-0.87457561 0.25508034 -0.024631977
-0.87528658 0.29897535 -0.029633045
-0.86778957 -0.16343665 0.023048878
-0.86873257 -0.10527265 0.016422749
-0.8781026 0.10458434 -0.0074892044
-0.87537259 -0.062694669 0.011569977
-0.87668061 0.017426312 0.0024399757
-0.87284559 -0.21758163 0.029214859
-0.88132161 -0.062819719 0.01157999
-0.8820346 -0.019386649 0.0066308975
-0.88653761 0.25490832 -0.024620056
-0.88326257 0.055415332 -0.0018911362
-0.8920216 0.22467035 -0.021176815
-0.89252061 0.25482136 -0.024612904
-0.88859457 0.017194331 0.0024600029
-0.88471156 -0.21787071 0.029242039
-0.8960036 0.10426831 -0.0074629784
-0.89800358 0.22457933 -0.021171093
-0.89154458 -0.16398764 0.023099899
-0.89251161 -0.10579562 0.016469955
-0.90197557 0.10416132 -0.0074539185
-0.90115458 0.055078328 -0.0018620491
-0.89748859 -0.16412771 0.023110867
-0.89846158 -0.10592866 0.016479969
-0.90513057 -0.063328624 0.011623859
-0.90712059 0.054965317 -0.0018520355
-0.9074586 -0.27779663 0.036056042
-0.90937757 -0.16441071 0.023138046
