# .PCD v0.7 - Point Cloud Data file format
VERSION 0.7
FIELDS x y z
SIZE 4 4 4
TYPE F F F
COUNT 1 1 1
WIDTH 1
HEIGHT 1024
VIEWPOINT 0 0 0 1 0 0 0
POINTS 1024
DATA ascii
0.40738216 -1.061323 -0.14191961
0.40130717 -1.0609171 -0.14087772
0.39978015 -0.85489905 -0.11590862
0.39372915 -0.85453904 -0.1148777
0.38767916 -0.8541801 -0.11384773
0.38707715 -0.77049911 -0.10370874
0.38620818 -0.64974213 -0.089076519
0.38309416 -1.0597111 -0.13775778
0.37702817 -1.0593121 -0.1367197
0.37654117 -0.98956311 -0.12827063
0.37446415 -0.69216406 -0.09224987
0.37369317 -0.58180213 -0.078881741
0.37333417 -0.53035307 -0.072649479
0.36732817 -0.53006506 -0.071634769
0.36030215 -0.37889612 -0.05234766
0.36399916 -0.92504013 -0.11848068
0.35992816 -0.32358706 -0.045650482
0.35838017 -0.98842108 -0.12516785
0.35747418 -0.85241008 -0.10870075
0.35640016 -0.6912061 -0.089182854
0.34650716 -0.099507093 -0.016570568
0.34881017 -0.45085204 -0.059105396
0.35233217 -0.98804414 -0.12413454
0.34797317 -0.32310104 -0.043640614
0.35010216 -0.64787412 -0.082954407
0.34966117 -0.58061707 -0.074813843
0.34055716 -0.09931004 -0.015576839
0.34026816 -0.05439806 -0.010138512
0.34628618 -0.98766804 -0.12310171
0.34159815 -0.2606281 -0.035102844
0.34437016 -0.6905731 -0.087141514
0.33602816 -0.32261908 -0.041631699
0.33808616 -0.6472621 -0.080918789
0.33489117 -0.14340806 -0.019943714
0.32737216 0.1081109 0.011465549
0.32814816 -0.016202092 -0.0035786629
0.33085316 -0.45005405 -0.056075573
0.33463517 -1.0565701 -0.12946463
0.32966918 -0.26017308 -0.033099651
0.33134118 -0.52836514 -0.065551758
0.32166615 0.073408902 0.008231163
0.32072717 0.22644991 0.026750565
0.32370916 -0.25994706 -0.032099724
0.32336316 -0.20352614 -0.0252738
0.32566717 -0.57945204 -0.070753574
0.32535216 -0.52808607 -0.064539433
0.31500617 0.19604594 0.024035454
0.31482217 0.22658092 0.027729511
0.31407216 0.35114592 0.042800426
0.31889418 -0.4495281 -0.054059505
0.31812516 -0.32190406 -0.038620472
0.30982417 0.073727906 0.010204315
0.30910015 0.19618189 0.025015354
0.30891916 0.2267099 0.028709412
0.31035316 -0.015669107 -0.00060844421
0.30792916 0.39401889 0.048946381
0.31479517 -0.76651704 -0.091422558
0.31146216 -0.20309913 -0.02327776
0.31110418 -0.14259708 -0.01595974
0.30464417 -0.053287089 -0.0041885376
0.30301717 0.2268399 0.029688358
0.30442417 -0.015494108 0.00038051605
0.30179715 0.43680993 0.055082321
0.30135018 0.51376688 0.064390182
0.30652216 -0.37664413 -0.043293476
0.29658118 0.32108194 0.042046547
0.30055818 -0.37639904 -0.042289734
0.30442616 -1.0546631 -0.12430286
0.30402917 -0.9850831 -0.1158886
0.30325517 -0.84931803 -0.099472523
0.29922315 -0.14219809 -0.013971806
0.30171016 -0.57830811 -0.06670475
0.30141717 -0.52698207 -0.060497761
0.29303917 -0.097765088 -0.0076293945
0.28918716 0.59062892 0.07559824
0.29069516 0.32119292 0.043020248
0.28961617 0.51391494 0.066321373
0.29764616 -0.92110205 -0.10716963
0.29362518 -0.20246613 -0.02028656
0.29572716 -0.5780251 -0.065691471
0.28616616 0.07435894 0.014144421
0.28711018 -0.097576141 -0.0066394806
0.28532717 0.22722393 0.032623291
0.28508416 0.27153593 0.037979603
0.28644216 0.024145901 0.0080742836
0.28481117 0.32130289 0.04399538
0.28291216 0.66717291 0.085807323
0.28417516 0.43707591 0.057990551
0.28398716 0.47143891 0.062143326
0.28903517 -0.44823408 -0.049026489
0.28833517 -0.32073414 -0.033614635
0.28007016 0.10932392 0.019336224
0.28052816 0.024310887 0.0090603828
0.27765617 0.55790889 0.073552132
0.27723616 0.63583589 0.082972527
0.28268117 -0.37567103 -0.039282799
0.28561318 -0.92040706 -0.10512066
0.27395415 0.14978993 0.025190353
0.27304718 0.32152092 0.045942307
0.27243716 0.43725091 0.059929371
0.27203116 0.51413596 0.069220543
0.27710617 -0.4477241 -0.047016621
0.27672517 -0.37543106 -0.038280487
0.27959818 -0.92006207 -0.10409784
0.27921817 -0.84798408 -0.095386505
0.27610618 -0.25817406 -0.024110794
0.27837017 -0.68719614 -0.075956821
0.26844618 0.074823916 0.017095566
0.26890716 -0.01445508 0.0063085556
0.26594818 0.55803788 0.075481415
0.26717016 0.32162893 0.046917439
0.26701316 0.35198092 0.050583363
0.26538315 0.66730791 0.088683605
0.27238417 -0.68689704 -0.074941635
0.27155018 -0.52563012 -0.055456638
0.26177016 0.2277289 0.036531448
0.26279816 0.024802923 0.012016296
0.26009816 0.55810291 0.076444149
0.26031917 0.51428092 0.071150303
0.26518816 -0.44722009 -0.045009613
0.26721418 -0.84732604 -0.093346596
0.26454318 -0.31981707 -0.02961874
0.26422918 -0.25774109 -0.022117615
0.26618317 -0.6437031 -0.068746567
0.26363817 -0.14102006 -0.0080165863
0.26584315 -0.57663012 -0.060643673
0.25689316 0.024964929 0.013000488
0.25542116 0.32184494 0.048861504
0.25527117 0.35218489 0.052526474
0.25386417 0.63603795 0.08681345
0.25377518 0.66733694 0.088981152
0.25505915 0.39488089 0.057683468
0.25484815 0.43751091 0.062832355
0.25467816 0.4718419 0.066980362
0.25887418 -0.37471604 -0.035279751
0.25801417 -0.20122504 -0.014322758
0.25987417 -0.5763551 -0.059635639
0.25074518 0.075282931 0.020042419
0.25157815 -0.096459031 -0.00070047379
0.25000417 0.22797793 0.038483143
0.24978918 0.27224094 0.043829441
0.25098816 0.025126934 0.01398325
0.24824315 0.59103894 0.082331181
0.24954817 0.32195193 0.049834251
0.24802417 0.63608694 0.087773323
0.24799818 0.6673249 0.088428497
0.24919418 0.39497489 0.058653355
0.25481316 -0.76335812 -0.081246853
0.25179216 -0.14063406 -0.0060358047
0.24468416 0.11020494 0.025221348
0.24566418 -0.096276045 0.00028848648
0.24391517 0.27235591 0.044802189
0.24296817 0.47200093 0.068911552
0.24276617 0.51449692 0.07404232
0.24986616 -0.98187804 -0.10665655
0.24956515 -0.91835809 -0.098986626
0.24616018 -0.20081806 -0.012336731
0.23879516 0.11034989 0.026201248
0.23954517 -0.051327109 0.0066804886
0.23824817 0.22822392 0.040433407
0.23656517 0.59115392 0.084254265
0.23635617 0.63618588 0.089691162
0.24104115 -0.37401104 -0.032281399
0.24078616 -0.31891608 -0.02562952
0.23087716 0.5584209 0.081255436
0.24050617 0.70416689 -0.17522049
0.23542917 -0.44597709 -0.039999485
0.23485216 -0.31869304 -0.024632454
0.23651317 -0.68513215 -0.068870544
0.23431617 -0.20041609 -0.010353565
0.23578316 -0.52404809 -0.049424648
0.22684416 0.15089494 0.033018589
0.22773716 -0.050981104 0.0086503029
0.22504017 0.55848289 0.082215309
0.22595116 0.35268694 0.057376385
0.22469518 0.63628387 0.09160614
0.23357317 0.70491993 -0.15048552
0.23216015 -1.0502571 -0.11196947
0.23125318 -0.8453871 -0.087240696
0.22839817 -0.20021605 -0.0093626976
0.22813118 -0.1398741 -0.0020794868
0.22128716 0.07603389 0.024943352
0.22076017 0.19814593 0.039680481
0.22150418 0.025922894 0.018895149
0.21920317 0.55854595 0.08317852
0.21990716 0.39543593 0.063492298
0.21972317 0.4380199 0.068631172
0.22615117 -1.0499011 -0.11094475
0.22272319 -0.25625706 -0.015159607
0.22457317 -0.68455505 -0.066851616
0.22248018 -0.20001709 -0.00837183
0.21508616 0.15116489 0.034971237
0.21488819 0.19827193 0.040654182
0.21593717 -0.05063808 0.010619164
0.21304217 0.63638091 0.093522549
0.21355417 0.51484895 0.078858376
0.21656516 -0.19981909 -0.0073828697
0.21814418 -0.57446313 -0.052591801
0.21004018 -0.050468087 0.011603355
0.20889318 0.22883093 0.045302391
0.20753816 0.55866992 0.085096359
0.20721918 0.63642895 0.094479561
0.21359718 -0.9163661 -0.09287262
0.21088418 -0.25584114 -0.013176441
0.21264318 -0.68398309 -0.064833641
0.20333916 0.15143192 0.036922455
0.20315018 0.19852293 0.042602539
0.20170918 0.5587309 0.086057186
0.20265317 0.32278889 0.057594299
0.20253217 0.35308093 0.061248302
0.20786417 -0.97947609 -0.099507809
0.20496818 -0.25563514 -0.012185574
0.19575217 0.59154892 0.090968132
0.19679916 0.32289189 0.058562279
0.19668117 0.35317791 0.062215328
0.20368418 0.7385779 -0.15460348
0.19621617 0.4726209 0.076622486
0.20134416 -0.84381306 -0.082166672
0.19883317 -0.19923103 -0.0044155121
0.19236216 -0.049962103 0.014550209
0.18993017 0.59160388 0.091925144
0.19299316 0.70933193 -0.0055184364
0.19716218 0.73899794 -0.13817644
0.19038117 0.4726969 0.07758522
0.19618317 0.79424989 -0.10703373
0.19358316 -0.3721801 -0.024309635
0.19564217 -0.91539109 -0.089822769
0.19537017 -0.84350204 -0.081152439
0.19476217 -0.68313503 -0.061811447
0.19415218 -0.52225709 -0.04240942
0.18573117 0.15182793 0.039845467
0.18639818 0.7100479 0.018024445
0.19438916 0.82750189 -0.24354649
0.18989518 -0.97847104 -0.096451759
0.18702316 -0.19884408 -0.0024404526
0.18840218 -0.57315004 -0.047575474
0.18013418 0.077055931 0.031788349
0.17958918 0.22942293 0.050159454
0.17865017 0.66717088 0.081819534
0.17984918 0.71075892 0.041407585
0.18199816 -0.44381404 -0.031011581
0.18174016 -0.37173307 -0.022321701
0.18415818 -1.0474551 -0.10379171
0.18227717 -0.52175713 -0.040408611
0.17384017 0.19913894 0.047465324
0.17457318 -0.011823058 0.022032261
0.17838216 0.73971891 -0.11019945
0.17289019 0.47292292 0.080469131
0.17274317 0.51532888 0.085581303
0.17745817 -0.84258008 -0.07811451
0.17541617 -0.25461912 -0.007235527
0.16788116 0.22965592 0.052099228
0.16677219 0.55909395 0.091805458
0.16651016 0.63675988 0.10116816
0.16732016 0.39623994 0.072178364
0.16688716 0.71216589 0.087693214
0.16691917 0.51539588 0.086539268
0.16990417 -0.37129009 -0.020334721
0.17217818 -1.046771 -0.10175371
0.17194518 -0.97748005 -0.093400478
0.17173219 -0.91411209 -0.085762501
0.17121017 -0.75917411 -0.06708765
0.16971916 -0.3163141 -0.013708591
0.16951117 -0.25441813 -0.0062475204
0.16228318 0.15234792 0.043737411
0.16129717 0.66712791 0.080176353
0.16047418 0.7128619 0.11059332
0.16675717 0.82899594 -0.12159157
0.16464618 -0.5721221 -0.043572426
0.15655318 0.1123029 0.039869308
0.15504017 0.59192991 0.097662449
0.15465817 0.71291691 0.11224031
0.16014919 0.82929194 -0.097442627
0.15830517 -0.44288206 -0.027028561
0.15956318 -0.84167111 -0.075082779
0.15790418 -0.31589413 -0.01172781
0.15892318 -0.63872111 -0.050627708
0.15069416 0.1124379 0.040842533
0.15042818 0.1996209 0.051347256
0.15107116 -0.011195064 0.025947571
0.14923218 0.5919829 0.098618507
0.15181118 -0.25382304 -0.0032844543
0.15262517 -0.52052605 -0.035417557
0.14471817 0.15273094 0.046653271
0.14457917 0.19973993 0.052316189
0.14436018 0.27423793 0.06128931
0.14421418 0.32379192 0.067260265
0.14412516 0.35403192 0.070902348
0.14400017 0.39658594 0.076029301
0.14387518 0.43907392 0.08114624
0.14377418 0.47329092 0.085268497
0.14704618 -0.63819408 -0.048624516
0.14574918 -0.19751704 0.0044593811
0.14557219 -0.13732314 0.011713505
0.14684919 -0.57136512 -0.040574551
0.13907918 0.078043938 0.038612366
0.13886717 0.15285689 0.047625542
0.13817516 0.39667094 0.076989174
0.13783717 0.51572692 0.091330528
0.14123318 -0.68066514 -0.052771568
0.13986117 -0.19733107 0.0054454803
0.13289016 0.19997692 0.054254532
0.13190717 0.55944693 0.09754324
0.13236317 0.66705394 0.077445507
0.13148817 0.71304792 0.11604214
0.13614517 0.74027693 -0.089195728
0.13589618 0.7947759 -0.078199863
0.13629216 -1.044759 -0.095648766
0.13550618 -0.75746608 -0.061049461
0.13529617 -0.68039703 -0.051769733
0.12736818 0.078319907 0.040560246
0.12717116 0.15310794 0.049564362
0.12981316 0.8296169 -0.071521759
0.12873417 -0.44174206 -0.022062778
0.13045818 -1.0978911 -0.1010704
0.12936118 -0.68013108 -0.050768852
0.12907317 -0.57061803 -0.037581444
0.12893918 -0.51956403 -0.031433582
0.12194618 -0.092622042 0.020934582
0.12102018 0.27465892 0.065153599
0.12173917 -0.010429084 0.030830383
0.12164117 0.028493941 0.035516262
0.12041218 0.51592195 0.094199181
0.12376117 0.79499692 -0.065684795
0.12417217 -0.97490811 -0.085289478
0.12362217 -0.75690913 -0.0590415
0.11566218 0.078592896 0.042503357
0.11548217 0.15335691 0.051504135
0.11529518 0.23067689 0.060812473
0.11431318 0.63716888 0.1097436
0.11792017 0.74077189 -0.0699687
0.11691917 -0.44129503 -0.020078659
0.11805517 -0.91132605 -0.076660633
0.11739118 -0.63689804 -0.043624401
0.11618217 -0.13645411 0.016617298
0.10973317 0.11336094 0.047644138
0.10964117 0.15347993 0.052472591
0.10953217 0.2004419 0.058125496
0.10870218 0.55967593 0.10136032
0.10862718 0.59234989 0.10529423
0.10890117 0.47372192 0.091016293
0.11224718 -0.97428107 -0.083265781
0.11031017 -0.13628304 0.017597198
0.11119517 -0.51885414 -0.028449535
0.10369817 0.20055693 0.059091568
0.10363118 0.23089689 0.062743187
0.10317117 0.43961391 0.087859154
0.10589817 0.82975191 -0.060921669
0.10495418 -0.36893106 -0.0094428062
0.10628917 -0.97397006 -0.08225441
0.10483317 -0.31405807 -0.0028386116
0.10539717 -0.56964004 -0.033595562
0.098048173 0.1136179 0.049583435
0.098226175 0.029067934 0.039411545
0.097043172 0.59245193 0.10719919
0.097605169 0.32455993 0.074965477
0.09745317 0.39725691 0.083711147
0.098235175 0.71074295 0.038925171
0.099259175 0.74204892 -0.019767761
0.10033217 -0.97366107 -0.081243515
0.09948317 -0.56939805 -0.032600403
0.092127174 0.15384591 0.055377483
0.094620176 -1.0958931 -0.094977856
0.094250172 -0.91012812 -0.072627544
0.093703173 -0.63588512 -0.039634705
0.086064175 0.27527392 0.070935249
0.08546517 0.5925529 0.10910225
0.085834175 0.39742094 0.085629463
0.085753173 0.4398399 0.090731144
0.085689172 0.4740009 0.094840527
0.08842317 -0.97304606 -0.07922554
0.088168174 -0.8381691 -0.063001633
0.087866172 -0.67830312 -0.04377079
0.08090017 -0.091486096 0.027776241
0.080245174 0.27537489 0.071899414
0.080236174 0.66690993 0.072553158
0.080028169 0.39750189 0.086588383
0.080559172 0.74383891 0.050797462
0.079891175 0.47406992 0.095796585
0.082596175 -1.0418531 -0.086529732
0.082084171 -0.75500011 -0.05202961
0.074345171 0.32493192 0.078807354
0.073821172 0.63747394 0.11639357
0.074413173 0.74442589 0.073973179
0.074024171 0.51642692 0.10183716
0.076406173 0.82966191 -0.068770409
0.075629175 -0.43976307 -0.013149738
0.075118169 -0.13527405 0.023466587
0.069061175 -0.0090970993 0.039595604
0.06900017 0.029768884 0.044268131
0.068165176 0.56006593 0.10802937
0.068354174 0.44006193 0.093600273
0.069953173 0.70872092 -0.028539658
0.068310171 0.7450099 0.096988201
0.06973917 -0.43954909 -0.012162685
0.070686169 -1.0412251 -0.084507465
0.069539174 -0.31288004 0.0030684471
0.069861174 -0.51724005 -0.021503448
0.063035175 0.11437589 0.055394173
0.063271172 -0.046475112 0.036055565
0.063216172 -0.0089520812 0.040568352
0.062380172 0.56011993 0.10898113
0.062619172 0.39774293 0.089460373
0.064211175 0.70834994 -0.040888786
0.064578176 0.7949239 -0.070875645
0.063662171 -0.31268704 0.0040502548
0.063962169 -0.5170151 -0.020513535
0.057206176 0.11449993 0.056360245
0.057152174 0.15456092 0.061175346
0.05742617 -0.046326101 0.037027359
0.057047173 0.23175693 0.070454597
0.05737517 -0.0088090897 0.041538239
0.056554176 0.59280193 0.11385345
0.058316171 0.70833588 -0.041446686
0.056345172 0.74590391 0.13225555
0.058504172 -0.83677208 -0.057988644
0.057705171 -0.25079703 0.012449265
0.058286175 -0.67703712 -0.038785458
0.05762817 -0.19482505 0.019178391
0.05142317 0.080046892 0.053171158
0.051270172 0.20156491 0.067776203
0.051535174 -0.0086660981 0.042509556
0.050819173 0.56022894 0.11088133
0.053797171 0.87067491 -0.17346668
0.052667171 -0.90809011 -0.065591812
0.051769175 -0.19465411 0.02015543
0.045454174 0.20167392 0.068739414
0.045041174 0.56028187 0.11183357
0.045312174 0.32538694 0.083605289
0.045277171 0.3555429 0.087229252
0.044826172 0.74595493 0.13414335
0.047488175 0.87085891 -0.14314365
0.046193175 -0.43870211 -0.0082144737
0.046110176 -0.36689913 0.00041341782
0.046948172 -1.0933251 -0.086882591
0.046418175 -0.63392103 -0.031674862
0.046283171 -0.51634407 -0.0175457
0.039689172 0.15490991 0.064069271
0.039230172 0.5929479 0.1167016
0.039648172 0.66678792 0.068771362
0.039434172 0.39805889 0.09328413
0.039070174 0.74597991 0.13508749
0.039310172 0.51679194 0.10755157
0.040312171 -0.43849409 -0.0072288513
0.040998172 -1.0930121 -0.08587265
0.040803172 -0.90752113 -0.063585758
0.040056173 -0.1943121 0.022111416
0.034102172 -0.090238094 0.035569191
0.033988174 0.030585885 0.050085545
0.033415172 0.63776892 0.12302923
0.034724172 0.7082749 -0.043673515
0.033529174 0.5168519 0.10850239
0.035064172 0.79465294 -0.086857796
0.034998171 -1.039381 -0.078457832
0.034932174 -0.97036004 -0.070166588
0.034615174 -0.63344312 -0.029688835
0.028261174 -0.090086102 0.036542416
0.028223172 -0.045591116 0.04188633
0.028192174 -0.0081030726 0.046388149
0.028159171 0.030719936 0.05105257
0.027688172 0.59304392 0.11859846
0.028043173 0.66675091 0.067694187
0.029327173 0.87102294 -0.11616945
0.028492171 -0.36631012 0.0033621788
0.029057171 -1.0390791 -0.077451706
0.028395172 -0.24990213 0.017345428
0.028348174 -0.19397414 0.024064541
0.022271171 0.1152299 0.062153339
0.022421174 -0.089934111 0.03751421
0.022361174 -0.0079640746 0.047358513
0.022032171 0.44063792 0.10123634
0.022924174 0.70824391 -0.044784546
0.023195174 0.8294189 -0.089213848
0.023365173 0.87101793 -0.11704683
0.022820171 -0.63297009 -0.027706623
0.022497173 -0.19380713 0.025038242
0.016476173 0.080804884 0.058970451
0.016532172 -0.0078260899 0.048327446
0.016154174 0.59313893 0.12049246
0.016322173 0.32582891 0.088393211
0.016303174 0.35596293 0.092012405
0.016126171 0.63789093 0.12586737
0.017410174 0.87100291 -0.11944962
0.017214172 -1.091774 -0.081838608
0.016684171 -0.24955106 0.019300461
0.010468172 0.44077793 0.10314131
0.011118172 0.70821291 -0.045895576
0.011207173 -0.96920705 -0.066151619
0.010830173 -0.24937606 0.0202775
0.010800172 -0.19347405 0.02698946
0.010769172 -0.13350511 0.034189224
0.0047581717 0.2766369 0.084379196
0.0048611723 0.031246901 0.05492115
0.0047071725 0.39851993 0.099012375
0.0047751721 0.74458593 0.079703331
0.0046581719 0.51714587 0.11325359
0.0054511726 0.79418492 -0.11411476
0.005445173 0.82913792 -0.11242676
0.0054741725 0.87099594 -0.12076569
0.0053311717 -1.091166 -0.079825401
0.005224172 -0.83435011 -0.048994541
0.0049791727 -0.24920309 0.021254539
-0.00094682723 -0.0074160695 0.051230431
-0.0011348277 0.59327996 0.12333441
-0.00051882677 0.82914388 -0.11188364
-0.0008118283 -0.43706405 -0.00034046173
-0.00073682703 -0.67460513 -0.028853416
-0.00078682788 -0.5146091 -0.0096487999
-0.0067948271 0.11581993 0.066972256
-0.0068278275 0.27682292 0.086295605
-0.0067768274 0.031505942 0.056854248
-0.0067698276 0.74391693 0.053179264
-0.0068788277 0.51726091 0.11515141
-0.0064278273 0.87085992 -0.14321041
-0.0067178272 -0.24885905 0.023206234
-0.0066288272 -0.6743691 -0.027862549
-0.0067418274 -0.13304007 0.03710556
-0.012605827 0.15592492 0.072733402
-0.012648827 0.56080389 0.12131739
-0.012643827 0.51731789 0.11609936
-0.012563827 -0.24868906 0.024181366
-0.018409828 -0.088897109 0.044307232
-0.018409828 0.23307788 0.082937241
-0.018409828 0.031762898 0.058785439
-0.018409828 0.5608539 0.12226534
-0.018409828 0.66659892 0.063398361
-0.018409828 0.47518992 0.11198759
-0.018409828 -0.36478603 0.01120615
-0.018409828 -0.83331108 -0.045009613
-0.018409828 -0.31009507 0.017768383
-0.018409828 -0.63135505 -0.020777702
-0.018409828 -0.56482804 -0.012795448
-0.018409828 -0.51397812 -0.0066947937
-0.024216827 0.081657887 0.065719604
-0.024213828 0.11616689 0.069859505
-0.024196828 0.27709794 0.089164257
-0.024226828 -0.0068801045 0.055098534
-0.024163827 0.5934639 0.12711716
-0.024191827 0.32642794 0.095083237
-0.024317827 0.70811391 -0.049219608
-0.024262827 0.74290192 0.012981415
-0.024339829 -1.089674 -0.074799538
-0.024320828 -0.90450203 -0.052584648
-0.024251828 -0.2483511 0.026131153
-0.024291828 -0.63112915 -0.019789696
-0.024284828 -0.56461203 -0.011808395
-0.030023828 0.081776917 0.066681385
-0.030033827 0.032016933 0.060713291
-0.030030828 0.66655892 0.062329292
-0.029931828 0.51748788 0.11894417
-0.029872827 0.79879791 0.15268421
-0.030131828 -0.43607605 0.0045671463
-0.030116826 -0.36441612 0.013162136
-0.030181827 -0.67343807 -0.0239048
-0.035881825 -0.088465095 0.047213554
-0.03585583 -0.0066170692 0.057028294
-0.035750829 0.32659489 0.096991539
-0.035652827 0.63824791 0.13436842
-0.035714827 0.44132292 0.1107502
-0.035690829 0.51754391 0.1198926
-0.035602827 0.79881394 0.15362644
-0.035967827 -0.36423206 0.014140129
-0.036137827 -0.9039731 -0.050590515
-0.035931826 -0.24801707 0.028078556
-0.036051828 -0.63068211 -0.017814636
-0.041703828 -0.088322043 0.04818058
-0.041684829 -0.043907106 0.053506374
-0.04155083 0.27736992 0.092032433
-0.041669827 -0.0064860582 0.057994366
-0.041529827 0.32667792 0.09794426
-0.041399829 0.63828695 0.1353116
-0.041818827 -0.36404908 0.015118599
-0.041980825 -0.74968112 -0.031123638
-0.041795827 -0.30939007 0.021672249
-0.041948825 -0.67298114 -0.021926403
-0.047522828 -0.088181138 0.04914856
-0.047354825 0.23356092 0.087723255
-0.047479827 -0.0063560605 0.058959484
-0.047142826 0.63832492 0.13625336
-0.047917828 0.7415269 -0.041388512
-0.047643825 0.79652488 0.021294594
-0.047666825 -0.36386812 0.016095161
-0.04794883 -0.90345013 -0.04859972
-0.04791183 -0.83204508 -0.040036678
-0.047805827 -0.63023913 -0.015841484
-0.047771826 -0.56376207 -0.0078706741
-0.053232826 0.0822469 0.070528507
-0.053186826 0.15667892 0.079451561
-0.052911829 0.59368789 0.13183928
-0.052888829 0.63832188 0.13620615
-0.053890828 0.74117893 -0.055120468
-0.053706829 -0.67252803 -0.01995182
-0.053679828 -0.63002014 -0.014855862
-0.053606827 -0.51274705 -0.00079774857
-0.058680829 0.5611999 0.12888336
-0.058656827 0.59373188 0.13278437
-0.059788827 0.7080099 -0.052533627
-0.059531827 0.8716619 -0.010471821
-0.059848826 -1.0347511 -0.062409401
-0.064798832 0.1169529 0.076583385
-0.064725831 0.2036379 0.086971283
-0.064868823 0.032759905 0.066493511
-0.064462826 0.51781893 0.1246233
-0.065879829 0.82955194 -0.07823658
-0.065259829 -0.43492711 0.010443211
-0.065458827 -0.67208207 -0.017978668
-0.065422833 -0.62958503 -0.012885571
-0.065006822 -0.13154805 0.046801567
-0.070509829 0.20373493 0.087927341
-0.070480824 0.23393792 0.091546535
-0.070706829 -0.0058441162 0.062815189
-0.070142828 0.59381992 0.13467026
-0.072140828 0.82904691 -0.11971378
-0.071925826 0.87116694 -0.092337608
-0.071042828 -0.36315203 0.020000458
-0.071674824 -1.0342011 -0.060411453
-0.070933826 -0.24703705 0.033912182
-0.071333826 -0.6718601 -0.016993523
-0.071230829 -0.56293106 -0.0039396286
-0.07118383 -0.51214814 0.0021452904
-0.076416828 0.082706928 0.074371338
-0.075882822 0.59386289 0.13561344
-0.076041833 0.44177991 0.11739254
-0.077642828 0.79501092 -0.066131592
-0.077160828 -0.62915611 -0.01091671
-0.076702826 -0.19109809 0.041566372
-0.082168825 0.11727989 0.07945919
-0.082068831 0.20392889 0.089838505
-0.082352825 -0.042976081 0.06026125
-0.082309827 -0.0055930614 0.064740181
-0.081927828 0.32724392 0.1046114
-0.081795827 0.44184393 0.11833954
-0.08144483 0.7464779 0.15483952
-0.08462283 0.87065893 -0.17612553
-0.083553828 -1.0868151 -0.064784527
-0.08349283 -1.033658 -0.058415413
-0.082657829 -0.30819607 0.028490543
-0.087954827 0.11738694 0.080416203
-0.087808825 0.2342149 0.094409466
-0.087753825 0.27806991 0.099662304
-0.08810883 -0.0054680705 0.065702438
-0.088060826 0.033241928 0.070338249
-0.087691829 0.3273229 0.10556221
-0.087257825 0.74627692 0.1469655
-0.089465827 -1.0865381 -0.063785553
-0.089143828 -0.83033407 -0.033097744
-0.089040831 -0.74781513 -0.023212433
-0.08841183 -0.2465601 0.036824226
-0.08894483 -0.67120314 -0.014036655
-0.088341825 -0.19079614 0.043504238
-0.088807829 -0.56232107 -0.00099563599
-0.093741827 0.11749393 0.081374168
-0.093623824 0.20411992 0.091749191
-0.093958825 -0.042717099 0.062188148
-0.093908824 -0.0053440928 0.066664219
-0.093357824 0.39974391 0.11517715
-0.095900826 0.79426789 -0.10890865
-0.096874826 0.9073059 -0.19482565
-0.095211826 -0.96432912 -0.048183441
-0.095125824 -0.90141714 -0.04064846
-0.09475483 -0.62852108 -0.0079665184
-0.094078824 -0.1308341 0.051635265
-0.099524826 0.11760092 0.082333565
-0.09946683 0.1575039 0.087111473
-0.099758826 -0.042589068 0.063150406
-0.099353828 0.23439693 0.096317291
-0.099704824 -0.0052210689 0.067625523
-0.098827824 0.59403288 0.13938141
-0.099217825 0.3274799 0.10746336
-0.098917827 0.63813192 0.13205433
-0.099111825 0.39981192 0.11612415
-0.10121983 0.70788288 -0.056385517
-0.10395983 0.90724289 -0.28067541
-0.10067783 -0.67077112 -0.012067795
-0.099975824 -0.19049811 0.045440197
-0.099887826 -0.13069308 0.052601337
-0.10536083 0.083265901 0.079167366
-0.10524382 0.15760493 0.088065147
-0.10497782 0.32755691 0.10841417
-0.10467483 0.6381079 0.13153839
-0.10567183 0.66628289 0.055411339
-0.10710983 -1.0325911 -0.054429531
-0.10700183 -0.96381807 -0.046195507
-0.10597283 -0.30753505 0.032377243
-0.10647583 -0.62810409 -0.0060024261
-0.11101983 0.15770394 0.089020252
-0.11089183 0.23457593 0.098223209
-0.11129183 -0.004977107 0.069547176
-0.11068583 0.35767394 0.11295938
-0.11043382 0.63808292 0.1310215
-0.11095983 0.7449159 0.093367577
-0.11188883 -0.36193907 0.026816368
-0.11300983 -1.0323291 -0.053435802
-0.11179782 -0.30737209 0.03334856
-0.11233383 -0.62789714 -0.0050206184
-0.11692683 0.083484888 0.081082344
-0.11671183 0.20449489 0.095564365
-0.11722883 -0.086544096 0.060731411
-0.11649283 0.32771093 0.11031246
-0.11643983 0.3577469 0.11390829
-0.11636483 0.40001494 0.11896753
-0.11899083 0.7078259 -0.058033466
-0.12466282 0.86905891 -0.44036341
-0.11784383 -0.43327904 0.019230366
-0.11878583 -0.96331406 -0.044210434
-0.11826482 -0.67013407 -0.0091204643
-0.11807182 -0.5613271 0.003903389
-0.11798183 -0.51060104 0.0099754333
-0.12256883 0.15790194 0.090932369
-0.12294482 -0.042083085 0.066999435
-0.12180983 0.5617159 0.13925838
-0.12211382 0.40008193 0.11991453
-0.12197082 0.47626293 0.12903118
-0.12189183 0.51834488 0.13406754
-0.13122483 0.90711194 -0.46004963
-0.12442483 -0.82892311 -0.027164459
-0.12344383 -0.30705011 0.035289288
-0.12404583 -0.62748814 -0.0030574799
-0.12848783 0.083700895 0.082996368
-0.12834083 0.15799993 0.09188652
-0.12818882 0.23484093 0.10108137
-0.12858683 0.034056902 0.077056408
-0.12800384 0.32786292 0.11221027
-0.12899283 0.7438789 0.052593231
-0.13592583 0.8260439 -0.36550665
-0.13761583 0.86889392 -0.46747065
-0.13070083 -1.03155 -0.050451756
-0.13013482 -0.74625313 -0.016312599
-0.12903082 -0.18976903 0.050273418
-0.12891182 -0.13000405 0.057424545
-0.12976682 -0.56093812 0.0058612823
-0.13462083 -0.08615309 0.063617229
-0.13452883 -0.04183507 0.068921566
-0.13319983 0.59428191 0.1450243
-0.13480982 0.66616893 0.052767277
-0.13495283 -0.24532914 0.044574261
-0.13561183 -0.56074607 0.0068392754
-0.13977683 0.20486093 0.099376202
-0.14041483 -0.086025059 0.064580441
-0.14023583 -0.0043801069 0.074346542
-0.14117482 -0.43257511 0.023124218
-0.14260283 -1.0841211 -0.054814816
-0.14233583 -0.96232307 -0.040244579
-0.14219782 -0.8994801 -0.032727718
-0.14204183 -0.82823706 -0.024205685
-0.14076382 -0.24518013 0.04554224
-0.14554083 0.20495093 0.1003294
-0.14593282 0.034395933 0.079929352
-0.14525783 0.32808691 0.11505747
-0.14518884 0.35810292 0.11864758
-0.14647382 0.6661219 0.051713467
-0.14499483 0.4425199 0.12874317
-0.14491683 0.47648591 0.13280535
-0.15208584 0.79197788 -0.24053144
-0.14822084 -0.96207905 -0.039254665
-0.14657384 -0.24503112 0.046508312
-0.14630884 -0.12960112 0.060314178
-0.14729881 -0.56036413 0.008793354
-0.15159184 0.084124923 0.086820602
-0.15171084 0.034506917 0.080886364
-0.15044484 0.56193888 0.14396238
-0.15093383 0.35817289 0.11959314
-0.15044084 0.7139079 0.14416933
-0.15846282 0.79171693 -0.2554698
-0.15439484 -1.0836021 -0.052825451
-0.15395182 -0.89901006 -0.030750751
-0.15339983 -0.66889513 -0.0032324791
-0.15224782 -0.18920207 0.054133415
-0.15313882 -0.56017506 0.0097703934
-0.15758482 -0.0040301085 0.077222347
-0.15608582 0.59444189 0.14878225
-0.15657184 0.40047294 0.12558937
-0.16849482 0.82508594 -0.44361353
-0.16028783 -1.0833451 -0.051832676
-0.15998283 -0.96159613 -0.037275791
-0.15964782 -0.82756305 -0.021247864
-0.16336483 -0.0039150715 0.078179359
-0.16231284 0.63785195 0.1263895
-0.16219884 0.4426969 0.13157558
-0.17130083 0.79119289 -0.28553772
-0.17509481 0.82489091 -0.45944357
-0.16399184 -0.24459112 0.049405575
-0.16857484 0.20530593 0.10413313
-0.16837484 0.27921593 0.1129694
-0.16981283 0.66602588 0.049606323
-0.16804582 0.4005999 0.1274786
-0.17776182 0.7909289 -0.30066967
-0.17010984 -0.36029506 0.036523342
-0.17137584 -0.82712114 -0.01927948
-0.16979483 -0.24444604 0.05037117
-0.16964382 -0.18878603 0.057025433
-0.17064983 -0.55961514 0.012696266
-0.17051283 -0.50894904 0.018753529
-0.17502582 -0.040992081 0.075636387
-0.17467484 0.71227491 0.09054327
-0.18425182 0.79066288 -0.31587267
-0.17577082 -0.30564809 0.044003487
-0.17667282 -0.6257081 0.0057501793
-0.17986983 0.2793709 0.11486435
-0.18069583 -0.0035740733 0.081052303
-0.17904383 0.5621559 0.14865828
-0.17939183 0.4428699 0.13440228
-0.19076982 0.79039693 -0.33114052
-0.18251282 -0.62551606 0.0067272186
-0.18658283 -0.04075706 0.077552319
-0.18574682 0.23568994 0.11058426
-0.18561384 0.27944893 0.1158123
-0.18646982 -0.0034620762 0.082008362
-0.18635282 0.035161912 0.086623192
-0.18732983 0.66595191 0.048030376
-0.18501684 0.47686291 0.13940144
-0.19731584 0.79012895 -0.34647465
-0.18936384 -0.96041512 -0.032333851
-0.18917382 -0.89763808 -0.024833679
-0.18702883 -0.1883781 0.059913158
-0.19173384 0.15903789 0.10236645
-0.19135684 0.27952492 0.11676025
-0.19073984 0.47691593 0.14034128
-0.19060782 0.51893389 0.14536238
-0.19357982 -0.43105412 0.031867504
-0.19299483 -0.24387515 0.054229259
-0.19282082 -0.18824303 0.060876369
-0.19382182 -0.50824511 0.022645473
-0.19733882 0.20573694 0.10888433
-0.19657183 0.44303992 0.13722944
-0.19939682 -0.43089104 0.032836437
-0.20150083 -1.0815921 -0.044890404
-0.20067483 -0.8260411 -0.014364719
-0.19879183 -0.24373507 0.055193424
-0.20016083 -0.66731405 0.0045952797
-0.19841984 -0.12843704 0.068965435
-0.19980982 -0.55870605 0.017569542
-0.19964683 -0.50807214 0.023617268
-0.20189783 0.56232393 0.15241146
-0.20178983 0.59475088 0.15628433
-0.20229584 0.44309592 0.1381712
-0.20978782 0.73922193 -0.13003063
-0.20720482 -1.0283421 -0.037569523
-0.20546883 -0.50790012 0.024589539
-0.20899382 0.1593079 0.1052165
-0.20857984 0.2797519 0.11959934
-0.20955282 -0.0030210614 0.085831165
-0.21504784 -1.099381 -0.10492182
-0.21359682 -1.0332671 -0.054554462
-0.21146283 -0.55835104 0.019514561
-0.21128884 -0.50772905 0.025559425
-0.21474484 0.15939689 0.10616636
-0.21320182 0.59482491 0.15815735
-0.21388784 0.40109193 0.13502645
-0.21361881 0.47712192 0.14410448
-0.21658182 -0.35905409 0.044262409
-0.22287881 -1.1179972 -0.16791344
-0.21941483 -0.96586812 -0.051186562
-0.21794283 -0.74313211 -0.0015964508
-0.21767184 -0.66674209 0.0075235367
-0.21576282 -0.12806404 0.071843147
-0.22049284 0.15948492 0.10711527
-0.21987483 0.32900989 0.12735415
-0.21976584 0.35897893 0.13093233
-0.22350582 -0.66655409 0.0084991455
-0.22175881 -0.18758607 0.065681458
-0.22639182 0.1197809 0.10331535
-0.22715682 -0.084191084 0.078968525
-0.22670582 0.035892904 0.093303204
-0.22549382 0.35904294 0.13187647
-0.22517782 0.44331491 0.14193535
-0.24395981 0.7882179 -0.45572853
-0.23731384 -1.0878892 -0.24423552
-0.23112082 -0.83473408 -0.04718256
-0.22754383 -0.18745708 0.066641331
-0.22893384 -0.55782604 0.022431374
-0.23214182 0.11987191 0.10426521
-0.23198783 0.15965992 0.10901642
-0.23180884 0.20623493 0.11457443
-0.23152384 0.28004694 0.12338448
-0.23246482 0.035993934 0.094255447
-0.23043483 0.56252694 0.15709734
-0.23121983 0.3591069 0.13281822
-0.23398584 -0.3586061 0.047158241
-0.23377684 -0.30418503 0.053654194
-0.23660982 0.44342291 0.14381552
-0.23630983 0.51930189 0.15287113
-0.25153983 -1.036815 -0.30624056
-0.24057183 -0.55748308 0.024374485
-0.24328682 0.20639694 0.11646843
-0.24428684 -0.039633095 0.087112427
-0.24266684 0.3592329 0.13470459
-0.25995383 -1.0554011 -0.37304163
-0.24488583 -0.18707514 0.069521427
-0.24464384 -0.12745905 0.076633453
-0.24618381 -0.50672805 0.031382561
-0.25005081 -0.039524078 0.088067532
-0.24754283 0.56264591 0.15990639
-0.24851483 0.32934391 0.13207245
-0.24803883 0.44352892 0.14569426
-0.25527784 0.085903943 0.10396957
-0.25600082 -0.083620071 0.083747387
-0.25444683 0.28033394 0.1271615
-0.25410983 0.35935789 0.13658857
-0.26839381 0.7358309 -0.26246881
-0.25342682 0.51943392 0.15568256
-0.27219585 -0.91798711 -0.36867952
-0.25644183 -0.18682504 0.071437359
-0.25982884 0.35941893 0.13752937
-0.25931284 0.47751892 0.15161419
-0.26626083 -0.44550705 -0.037878513
-0.27483284 -0.73278511 -0.27164984
-0.26221684 -0.18670106 0.072396278
-0.26900283 -0.53741908 -0.11267042
-0.26554683 0.3594799 0.13847017
-0.26793182 0.66685188 0.074944496
-0.26501784 0.47756693 0.1525526
-0.27448684 -0.45796311 -0.099656582
-0.29265985 -1.0483451 -0.58374453
-0.28974283 -0.95356405 -0.50602865
-0.27734584 -0.55086505 -0.17583466
-0.27329183 -0.08328706 0.086614132
-0.27033183 0.56280088 0.16364622
-0.27018383 0.59518391 0.16750717
-0.27139983 0.3296029 0.13584137
-0.27126282 0.35954094 0.1394124
-0.27426183 0.66634095 0.061344147
-0.27087784 0.44373691 0.1494503
-0.28228384 0.70499694 -0.14747286
-0.27812684 -0.32140505 -0.039268494
-0.29047385 -0.71037006 -0.3606534
-0.27905384 -0.08317709 0.087573528
-0.27884683 -0.038993061 0.092838287
-0.27734983 0.28061289 0.13093615
-0.27867284 -0.0017690659 0.097274303
-0.27658585 0.4437879 0.15038919
-0.28858283 -0.39742303 -0.15496063
-0.30798784 -0.99056506 -0.64885139
-0.30438882 -0.88055015 -0.55724382
-0.28201884 -0.19677711 0.012107372
-0.28400183 0.086359918 0.10871935
-0.28328085 0.23700893 0.12667322
-0.28442383 -0.0016691089 0.098228455
-0.28212884 0.47770891 0.15536451
-0.31363085 -0.8982811 -0.62897253
-0.29495785 -0.34426308 -0.16405249
-0.29251283 -0.27172208 -0.1031785
-0.28974283 0.086448908 0.10967016
-0.28938085 0.16049892 0.1184926
-0.28879285 0.2807489 0.13282156
-0.28782985 0.47775492 0.15630054
-0.28762382 0.51969194 0.16129923
-0.30895883 -0.51017213 -0.35857058
-0.30590284 -0.42211306 -0.28409481
-0.30360782 -0.35601306 -0.22818756
-0.29878885 -0.21716809 -0.1107564
-0.29511285 0.16057992 0.11944246
-0.30128983 -0.056431115 -0.027941704
-0.29823184 0.02917093 0.045033455
-0.29985183 0.66427588 0.0063734055
-0.29369783 0.44393891 0.15320253
-0.30875283 0.70320094 -0.20600176
-0.29352883 0.47780091 0.15723848
-0.29331982 0.51973295 0.16223431
-0.31480983 -0.43481207 -0.35050344
-0.32384184 -0.68758106 -0.56600285
-0.30460584 0.076747894 0.032500267
-0.29862982 0.59535289 0.17217541
-0.29982984 0.35983789 0.1441164
-0.30631784 0.66375393 -0.0075178146
-0.29940084 0.44398791 0.15413952
-0.32389084 -0.44776309 -0.41822481
-0.31358883 -0.16758204 -0.17745256
-0.33085385 -0.63714004 -0.58097172
-0.30996585 0.1518929 0.043657303
-0.30594984 0.2809509 0.13565636
-0.30431482 0.59538692 0.17310715
-0.30569485 0.32997793 0.14149427
-0.30662483 0.63739693 0.12018013
-0.30470783 0.51981592 0.16410446
-0.32174084 0.061425924 -0.089630604
-0.32738084 -0.083576083 -0.21626854
-0.31519285 0.22978789 0.057392597
-0.31140584 0.33003891 0.14243841
-0.33626685 0.73189193 -0.41580057
-0.31062084 0.47793791 0.16005039
-0.34258282 -0.47442305 -0.55761576
-0.33054683 0.053548932 -0.1524086
-0.32897484 0.092860937 -0.11779356
-0.31585583 0.56309688 0.1711216
-0.31672582 0.40210491 0.15195417
-0.31608883 0.51989794 0.16597939
-0.34941185 -0.41825414 -0.56783867
-0.34354782 -0.27161205 -0.4387188
-0.35020584 0.73108089 -0.44728184
-0.35589683 -0.35309505 -0.57025242
-0.33696383 0.31439191 -0.033526421
-0.33226183 0.63510394 0.06619215
-0.35953185 -0.22018707 -0.51208162
-0.34238982 0.38841391 -0.023497581
-0.34354383 0.55783594 0.073544502
-0.34202284 0.59199488 0.10464239
-0.34559384 0.51178789 0.031624317
-0.35176983 0.63335693 0.025116444
-0.37001783 0.69903493 -0.34142971
-0.35446084 0.5081439 -0.028939724
-0.36741483 0.42082891 -0.16805649
-0.38999984 0.14106792 -0.48935652
-0.38827184 0.17697489 -0.45581579
-0.38578585 0.22861189 -0.40757656
-0.36641684 0.63096392 -0.031719685
-0.38396582 0.69808495 -0.3722558
-0.37492785 0.4541519 -0.19688845
-0.39277384 0.27984792 -0.42189169
-0.39104784 0.31478292 -0.38896942
-0.38437784 0.44983792 -0.26170063
-0.38915685 0.54120791 -0.23669958
-0.40270784 0.2736969 -0.49102259
-0.39803582 0.69712591 -0.40334845
-0.39400783 0.4454419 -0.32774448
-0.39879683 0.53769195 -0.3022728
-0.39290383 0.65674388 -0.19344759
-0.40511882 0.69664294 -0.41899967
-0.40382183 0.44096091 -0.39505768
-0.41382983 0.43639192 -0.46369362
-0.41125184 0.48479891 -0.41684246
-0.41388384 0.61754191 -0.35218048
-0.41199684 0.65209794 -0.31843042
-0.42197284 0.64960289 -0.38557482
