# .PCD v0.7 - Point Cloud Data file format
VERSION 0.7
FIELDS x y z
SIZE 4 4 4
TYPE F F F
COUNT 1 1 1
WIDTH 1
HEIGHT 1024
VIEWPOINT 0 0 0 1 0 0 0
POINTS 1024
DATA ascii
1.0800631 -0.040212691 -0.3703804
1.0674641 -0.039988697 -0.37051344
1.0706052 -0.014035702 -0.48475075
1.0219171 -0.031268656 -0.31292248
1.0125791 -0.073624671 -0.33669662
1.0014862 0.011381328 -0.30002642
1.0017282 -0.075243652 -0.34951448
0.98580909 0.066794336 -0.27523136
0.97978908 0.066713333 -0.2766614
0.98106307 -0.16512769 -0.33504248
0.96029508 0.10388035 -0.26967669
0.97228909 -0.12355167 -0.36461735
0.95535409 0.1027683 -0.27966356
0.96471107 -0.16778773 -0.35425949
0.9550451 0.060872316 -0.32697535
0.9564001 -0.2275787 -0.33785057
0.95978111 -0.04423666 -0.41575861
0.94828111 -0.17046767 -0.37356758
0.94695312 -0.083462656 -0.41419649
0.94873607 -0.045839667 -0.42882538
0.93044907 0.097151339 -0.33000851
0.94868708 0.25240535 -0.48071957
0.94320011 -0.046643674 -0.43537331
0.93728411 -0.17226464 -0.38648558
0.91161007 0.15134132 -0.2251215
0.93381107 -0.12959069 -0.40993547
0.93589211 -0.085131705 -0.42725372
0.9366011 -0.005006671 -0.43315744
0.92644811 -0.28694373 -0.34864044
0.9290061 -0.23228973 -0.36993074
0.9063881 0.10903835 -0.23288059
0.90301406 -0.22176772 -0.30887556
0.89326811 -0.10931665 -0.27858829
0.8834101 0.23489034 -0.19403744
0.8895601 0.020187318 -0.2467823
0.8842591 -0.020881653 -0.25422144
0.8686561 0.07472831 -0.2254796
0.86414808 0.2359423 -0.18591642
0.8701421 0.021565318 -0.23852158
0.87687808 -0.21942872 -0.29764271
0.86726511 -0.10721463 -0.26746655
0.86594409 -0.059542716 -0.25577641
0.8636831 0.022022307 -0.23577452
0.85836911 -0.018965662 -0.24318838
0.85723007 0.022478342 -0.23302937
0.86550611 -0.27852267 -0.30681467
0.85734308 -0.21768969 -0.28924847
0.85344511 0.26969731 -0.31000566
0.85427111 -0.34381062 -0.31749249
0.8364861 0.076867342 -0.21182728
0.8343631 0.15603834 -0.19244146
0.8321721 0.23767531 -0.17243862
0.83790809 0.023839295 -0.22481155
0.84774911 -0.34316963 -0.31467533
0.82909507 0.11398131 -0.20012474
0.84123409 -0.34253162 -0.31186342
0.83786911 -0.21596473 -0.28088331
0.82157612 0.15680635 -0.18703461
0.85881907 0.30210531 -0.53267574
0.80753112 0.20709532 -0.16951752
0.80746812 0.23830432 -0.16892672
0.81845009 -0.21425265 -0.27254438
0.8167851 -0.14999169 -0.25683451
0.8024441 0.15795231 -0.17894554
0.80791712 -0.055110633 -0.23101664
0.81034112 -0.14945668 -0.25407362
0.79808909 0.079398334 -0.19553757
0.80150211 -0.054623663 -0.22827959
0.79529709 0.23845232 -0.16874647
0.80706507 -0.27309567 -0.2816534
0.8055371 -0.21311873 -0.26700163
0.7907871 0.11639631 -0.18389845
0.79509109 -0.05413872 -0.22554445
0.79408509 -0.014262676 -0.21580744
0.80227309 -0.33873266 -0.29504538
0.78868806 -0.053655684 -0.22281456
0.7831291 0.2385993 -0.16856146
0.77579409 0.20886832 -0.15612745
0.78346509 -0.10053366 -0.23164368
0.77704811 0.23867232 -0.16846561
0.78130412 -0.013336658 -0.21036673
0.78933811 -0.33748072 -0.28946638
0.7685461 -0.012414694 -0.20493269
0.76754409 0.028739333 -0.19490051
0.77481812 -0.2701357 -0.26777744
0.7590341 0.11838031 -0.17045259
0.76217711 -0.011955678 -0.2022233
0.76838911 -0.26954764 -0.26501131
0.75676411 -0.051256657 -0.20920134
0.75273108 0.23895931 -0.16806936
0.75483209 0.029615343 -0.18949652
0.75711012 -0.33437663 -0.27556467
0.74091011 0.0831213 -0.17128944
0.74005508 0.11955833 -0.16241837
0.7491371 -0.26779467 -0.25673056
0.74623907 -0.14418167 -0.2266345
0.73374009 0.11994833 -0.15974569
0.74273008 -0.26721364 -0.25397539
0.74134409 -0.20753771 -0.23945141
0.73986107 -0.14366168 -0.22390461
0.72646207 0.16244733 -0.14681864
0.7416991 0.27097833 -0.30800962
0.73042208 -0.0096796751 -0.18870735
0.7219581 0.084343314 -0.16325665
0.72112912 0.12072635 -0.1544075
0.72712708 -0.14262563 -0.21845675
0.71683812 0.032216311 -0.17335558
0.7250371 -0.33131272 -0.26173449
0.72355211 -0.26547867 -0.24572849
0.70650309 0.21268833 -0.12690353
0.71144009 -0.0083276629 -0.18063259
0.74786812 0.33211833 -0.57707167
0.7158401 -0.20534569 -0.22851229
0.71441609 -0.14159566 -0.21301937
0.70414811 0.23951632 -0.16720152
0.71691507 0.27124631 -0.30749559
0.7107951 -0.26432973 -0.24024439
0.70947909 -0.20480067 -0.22578239
0.69808012 0.23958331 -0.16708469
0.69881707 -0.0074326992 -0.1752615
0.6979211 0.033501327 -0.1653204
0.73500109 0.33224332 -0.57674456
0.70312411 -0.20425767 -0.2230587
0.69251412 -0.0069866776 -0.17258072
0.68343812 0.12303734 -0.13845634
0.68253708 0.16500533 -0.12826157
0.68148512 0.21405035 -0.11635828
0.67524409 0.21438831 -0.11372757
0.6921491 0.27150834 -0.30695772
0.67992407 -0.0060976744 -0.16722441
0.68409508 -0.20263773 -0.21490049
0.67446911 -0.045162678 -0.17413139
0.6738171 0.2398513 -0.16660452
0.66379911 0.16608733 -0.1203475
0.66736007 -0.0052146912 -0.16188145
0.69389409 0.30890435 -0.47138739
0.67525011 -0.38487071 -0.25391674
0.67012012 -0.13803166 -0.19407654
0.65917212 0.088347316 -0.13665152
0.65842611 0.12455833 -0.1278677
0.66888911 -0.38424772 -0.25116968
0.66768807 -0.32589871 -0.2370224
0.65292412 0.088742316 -0.13400555
0.6962471 0.3672353 -0.72784948
0.65122306 -0.13652462 -0.18599653
0.6430831 -0.042874694 -0.1607666
0.64148808 0.037296295 -0.14136267
0.64619809 -0.1994347 -0.19865751
0.63172209 0.21673131 -0.095386505
0.63682312 -0.042420685 -0.15810061
0.64235508 -0.32353371 -0.22611237
0.6410681 -0.25811774 -0.21028662
0.64266807 0.27201533 -0.30580664
0.62980407 -0.0025916696 -0.14591455
0.66431409 0.33290732 -0.57483673
0.63238108 -0.13502866 -0.17794466
0.62108111 0.1268093 -0.11207151
0.62432009 -0.041515648 -0.15277767
0.62356311 -0.0021576881 -0.14326143
0.6495831 0.30932832 -0.47023058
0.65789312 0.33296531 -0.57465553
0.6273281 -0.19785172 -0.19057274
0.61896712 -0.087830722 -0.1614213
0.6111021 -0.0012956858 -0.13796663
0.61033809 0.039367318 -0.12814236
0.60647911 -0.086888731 -0.1560955
0.63061011 0.30950534 -0.4697113
0.59696007 0.092248321 -0.11029959
0.59866208 -0.00043666363 -0.13267946
0.62428612 0.30956334 -0.46953535
0.64381307 0.36768335 -0.72623873
0.60559708 -0.37809771 -0.22384834
0.60453111 -0.32003266 -0.20982838
0.60108811 -0.1325627 -0.16457367
0.59011608 0.12865734 -0.098978519
0.59316409 -0.039274693 -0.13951445
0.5917151 0.040596306 -0.12024164
0.59301007 -0.37688762 -0.21841764
0.5770331 0.17102432 -0.08371973
0.5761711 0.21968234 -0.071984291
0.60532612 0.3097353 -0.46899939
0.61298811 0.33336329 -0.57333851
0.5835011 -0.19420868 -0.17180252
0.57017112 0.21979231 -0.071383476
0.57385314 0.0012663007 -0.1221385
0.59900808 0.30979234 -0.46881771
0.5642041 0.21985334 -0.071243286
0.57087213 0.24092031 -0.16427469
0.56148112 0.0021113157 -0.11688328
0.6045351 0.36800432 -0.72496843
0.5679031 -0.37448663 -0.20759153
0.55674613 -0.083171666 -0.13489342
0.55878013 0.24103832 -0.16397047
0.55462211 0.043024302 -0.10450935
0.5800581 0.30996031 -0.46826172
0.58735007 0.3335833 -0.57255268
0.5595721 -0.25100368 -0.17530346
0.54631311 0.22003335 -0.07081461
0.54845911 0.043425322 -0.10189533
0.55442309 -0.31544966 -0.18827152
0.5401811 0.17308533 -0.068171501
0.54360712 -0.035750687 -0.11843061
0.54230213 0.043826342 -0.099283695
0.57453912 0.33369035 -0.57215261
0.54818612 -0.31488472 -0.18558931
0.54712009 -0.24993163 -0.16996241
0.53472811 0.13192332 -0.075570583
0.5381881 -0.081798732 -0.12698555
0.52917409 0.096422315 -0.081604481
0.52793908 0.1737653 -0.063005447
0.5438931 0.27295732 -0.30320358
0.57183409 0.36826235 -0.72387457
0.53468913 -0.24886471 -0.16462946
0.52584511 -0.080888689 -0.12172651
0.55532712 0.33384931 -0.57153845
0.5304141 -0.37093264 -0.19143343
0.51772612 0.045415342 -0.08886528
0.51025212 0.13335031 -0.065229416
0.5105511 0.22038233 -0.069910526
0.51648009 0.24144131 -0.16285372
0.5425241 0.33395332 -0.57112265
0.55222511 0.36841434 -0.72319937
0.5035221 0.17511332 -0.052708626
0.50459409 0.22043931 -0.069753647
0.5054701 0.046203315 -0.083669662
0.50806111 -0.12535673 -0.12485647
0.49858013 0.098278344 -0.068662643
0.49134612 0.17578232 -0.04757452
0.49440011 -0.032299697 -0.097505569
0.50691509 0.27328533 -0.3021245
0.49575111 -0.12441772 -0.11960459
0.48672813 0.22060829 -0.069274426
0.49051112 -0.18662566 -0.13201237
0.48281011 -0.077742636 -0.10339642
0.48215112 -0.031449676 -0.092300415
0.48629212 0.24171734 -0.16200638
0.48102212 0.047768295 -0.073299408
0.47369912 0.13546234 -0.049791336
0.46705511 0.1771093 -0.037332535
0.48228014 0.27349734 -0.30137444
0.49174312 0.31070232 -0.46549368
0.47455311 -0.36570865 -0.16737556
0.47286713 -0.24361569 -0.13812828
0.47206011 -0.18514472 -0.12412262
0.47119513 -0.12255472 -0.10912943
0.46155813 0.13615835 -0.044665337
0.47612414 0.27354932 -0.30118275
0.46274412 0.048930347 -0.065555573
0.45494011 0.17776835 -0.032225609
0.46996713 0.27360135 -0.30098963
0.48496112 0.3344053 -0.56917953
0.44889212 0.17809534 -0.029676437
0.44284812 0.17842233 -0.027128696
0.44506714 0.22098732 -0.068099499
0.44553512 -0.02892369 -0.076738358
0.44828913 -0.24155468 -0.12759733
0.43733513 0.13754034 -0.034437656
0.44003913 -0.074656665 -0.085188389
0.43895611 0.010316312 -0.064871311
0.46024612 0.31095034 -0.46443462
0.46579114 0.33454931 -0.56850433
0.44062012 -0.12025362 -0.096091747
0.43077612 0.17907333 -0.022039413
0.43317214 0.22109234 -0.0677495
0.43288612 0.010714352 -0.062297344
0.42569211 0.10263532 -0.037843704
0.42991114 -0.24002367 -0.1197257
0.42919412 -0.18173665 -0.10580158
0.42842513 -0.11934167 -0.090892315
0.41965213 0.10299134 -0.035291672
0.42178613 -0.073350728 -0.077420712
0.44662812 0.33469033 -0.56781769
0.42526811 -0.36117071 -0.14616442
0.41319412 0.1389063 -0.0242486
0.41533312 0.22124732 -0.067211628
0.41571313 -0.072918713 -0.074836731
0.41422713 0.05198431 -0.045004368
0.41913211 -0.36060971 -0.14352465
0.41392711 0.24234235 -0.15981436
0.42075312 0.27400035 -0.29938841
0.40818614 0.05236131 -0.042447567
0.43385911 0.3347823 -0.56735134
0.41233313 -0.30281073 -0.12722445
0.40156111 0.1040563 -0.027645588
0.40305212 -0.026027679 -0.058692455
0.40481412 -0.17981762 -0.095384598
0.40187612 0.2424413 -0.15942669
0.38952613 0.10476035 -0.022560596
0.38913512 0.14025933 -0.014095306
0.41470912 0.33491832 -0.56664133
0.39463812 -0.35838372 -0.13298845
0.39329812 -0.23699969 -0.10405159
0.38351712 0.1051113 -0.020021439
0.38313311 0.1405943 -0.011563301
0.38561812 0.2214973 -0.066282749
0.38450512 0.013867319 -0.041771412
0.37751213 0.1054613 -0.017484665
0.37713611 0.14092934 -0.00903368
0.37889111 -0.024397671 -0.048434734
0.39731812 0.31141931 -0.4622016
0.37245911 0.014645338 -0.036663532
0.37381113 -0.11529964 -0.06761837
0.37176412 0.24268132 -0.15842867
0.36603811 0.054972351 -0.024605751
0.36776811 -0.11485773 -0.06504631
0.35917413 0.14192832 -0.0014567375
0.36185813 0.2216903 -0.065509319
0.38281113 0.33513832 -0.56543064
0.36413711 -0.35563463 -0.11987638
0.36173111 -0.11441571 -0.062473297
0.35354212 0.10685235 -0.0073595047
0.36544812 0.27442235 -0.29746866
0.35630411 -0.17604274 -0.074669361
0.34923711 -0.068234622 -0.046565533
0.35197112 -0.35454565 -0.1146493
0.34768713 0.24286735 -0.1576004
0.34243613 0.016569316 -0.023938656
0.32897112 0.18446833 0.020842552
0.33080512 -0.02118969 -0.028018475
0.34088713 0.27460033 -0.29657364
0.33376414 -0.35292262 -0.10682631
0.33268613 -0.23206764 -0.078117371
0.33217013 -0.17418569 -0.064367294
0.32624111 0.22196931 -0.064301491
0.32481712 -0.020793676 -0.025476456
0.33475012 0.27464432 -0.29634666
0.32770512 -0.35238463 -0.10422134
0.31850612 0.018090308 -0.013799667
0.32062313 -0.23109668 -0.072958469
0.3114911 0.14455235 0.018652439
0.31323412 -0.065739691 -0.031261444
0.33181712 0.33547133 -0.56341553
0.31412113 -0.17280668 -0.056667328
0.30688113 -0.019611657 -0.017866611
0.31633911 0.27477235 -0.29565573
0.30955613 -0.35078067 -0.096427441
0.30811512 -0.17234963 -0.054104328
0.29961911 0.1451993 0.023656368
0.29929811 0.18600833 0.033335686
0.30127311 -0.06491667 -0.026179314
0.30061013 0.019220352 -0.0062193871
0.30029812 0.058975339 0.0032095909
0.30211413 -0.17189366 -0.05154562
0.30406812 0.27485633 -0.29518557
0.31270713 0.3355903 -0.56263447
0.29704612 -0.29294962 -0.077786446
0.28802812 0.11059833 0.020300388
0.28870311 0.019968331 -0.0011754036
0.28840712 0.059690297 0.0082373619
0.28210112 0.1109333 0.022803307
0.28369212 -0.10878068 -0.029251575
0.2856701 0.27497935 -0.29447031
0.27286011 0.22236031 -0.062380314
0.27339411 -0.34761065 -0.080902576
0.27218011 -0.16963273 -0.038777351
0.26434812 0.11193335 0.030295372
0.26468411 0.061109304 0.018268585
0.26738212 -0.34708768 -0.078320503
0.25902012 0.021820307 0.011392593
0.25876611 0.061460316 0.02077055
0.26101512 -0.28994173 -0.062352657
0.26060811 -0.22632569 -0.047307491
0.26542911 0.31228834 -0.45702267
0.25583813 -0.42040068 -0.09075737
0.2471801 0.022554338 0.016404629
0.24866411 -0.22538668 -0.042203426
0.24795112 -0.10624772 -0.014046669
0.24103713 0.062511325 0.028263569
0.25288412 0.31236333 -0.45649433
0.25541911 0.33593035 -0.56021643
0.24201012 -0.10582966 -0.011519432
0.23466012 0.1486963 0.051033497
0.23557112 -0.0149827 0.012370586
0.23137712 0.22264433 -0.060794353
0.2334761 0.24366635 -0.15332031
0.23047411 -0.1665197 -0.020998478
0.21953112 0.22272134 -0.06032753
0.21807513 -0.059281647 0.0091614723
0.2136071 0.22275931 -0.060091496
0.21350911 -0.34244365 -0.05521059
0.21324211 -0.2860077 -0.041900635
0.21267012 -0.16520363 -0.013412476
0.21213311 0.27543932 -0.29147053
0.2057071 0.064586341 0.04319334
0.20754713 -0.34193462 -0.052654743
0.20674512 -0.16476768 -0.010888577
0.2090041 0.31261331 -0.45460033
0.20107311 -0.22168463 -0.02188158
0.19988611 0.27551031 -0.29094934
0.19396712 0.065270305 0.048154354
0.19376212 0.2755453 -0.29068661
0.18810311 0.065610349 0.050631523
0.19647112 0.31268233 -0.4540453
0.19183511 0.33627433 -0.55739069
0.18330312 -0.22031766 -0.014296532
0.17603612 0.1915893 0.079447269
0.17666112 -0.011241674 0.037330627
0.17945711 0.24399835 -0.15109253
0.1815201 0.27561432 -0.29015446
0.17806512 -0.41336673 -0.057308674
0.17761011 -0.28311473 -0.026658535
0.17026012 0.15208632 0.078155518
0.17094412 -0.056159675 0.0291605
0.17054111 0.06662631 0.058048248
0.17211612 -0.41283673 -0.054751396
0.17148112 -0.21941262 -0.0092525482
0.17109111 -0.10090262 0.01862669
0.16928011 0.27568233 -0.28961754
0.15860912 0.15269232 0.083062649
0.15288311 0.11807233 0.077302456
0.16006711 0.33643335 -0.55592251
0.14836411 -0.41073066 -0.044549465
0.14818212 -0.33692569 -0.02721262
0.14804411 -0.28074163 -0.014014721
0.14135912 0.068300307 0.070370674
0.13536212 0.15389234 0.09284544
0.13587911 -0.098499715 0.033590317
0.13466512 0.33655435 -0.55472136
0.13059811 -0.40916568 -0.036920547
0.13002412 -0.098103702 0.036077499
0.12376311 0.15448731 0.097727299
0.12387511 0.19190234 0.08163166
0.12548411 0.24430031 -0.14873552
0.12456512 -0.33496171 -0.017097473
0.12447312 -0.27886671 -0.0039396286
0.12436911 -0.21584362 0.010843277
0.12427612 -0.15878862 0.024226665
0.11833212 -0.097314656 0.041041374
0.11301312 0.2233513 -0.055826664
0.11238211 -0.0072466731 0.064544678
0.11349612 0.24436331 -0.14819241
0.11422412 0.27596933 -0.28712368
0.11507811 0.31309235 -0.45029354
0.10882011 0.31312132 -0.44999552
0.10689811 -0.33350271 -0.009534359
0.10684112 -0.2774747 0.0035943985
0.10677612 -0.21452564 0.018344402
0.10068811 0.070604324 0.087537289
0.095276117 0.22344434 -0.055024624
0.094971113 -0.051234663 0.061373711
0.095036119 -0.15671068 0.036666393
0.089124113 0.19209433 0.083161354
0.089158118 -0.050863683 0.063835621
0.089124113 0.032066345 0.083251476
0.090053111 0.31320632 -0.44908857
0.089303114 -0.40556866 -0.01919651
0.083324112 0.071577311 0.094863415
0.077543117 0.22353435 -0.054209709
0.077543117 -0.0051196814 0.079286575
0.077543117 0.032742321 0.088143349
0.071768112 0.072222352 0.099740505
0.071290113 0.31328833 -0.44816971
0.065725118 0.22359133 -0.053657532
0.065948114 -0.049388647 0.073669434
0.065981112 0.033414304 0.093027592
0.059817113 0.2236203 -0.053377628
0.060231116 0.072862327 0.10460758
0.058785118 0.31334132 -0.44754934
0.054389115 0.19227135 0.084751606
0.054367118 -0.048657656 0.078574657
0.054138117 -0.32920069 0.01304245
0.054331116 -0.093052685 0.068205357
0.047597118 0.24468231 -0.14510059
0.048708115 0.073499322 0.10946655
0.048477113 -0.15344769 0.056465626
0.048539117 -0.092671692 0.070662498
0.043015115 0.12389034 0.12358236
0.042906117 0.034747303 0.10277271
0.042954117 0.073816299 0.11189365
0.037325114 0.15884435 0.13408566
0.037028115 0.19235533 0.085569382
0.037031114 -0.047569692 0.085918427
0.036881115 -0.15264267 0.061397552
0.030281115 0.22375631 -0.051960468
0.031458117 0.074448347 0.1167407
0.031188115 -0.091536701 0.078020573
0.025492117 -0.046848655 0.090804577
0.018468115 0.22380835 -0.051383495
0.019012116 -0.39956671 0.010944366
0.019517116 -0.15144473 0.068778515
0.019640114 -0.090784729 0.082918644
0.013886116 0.19246131 0.08668232
0.014157116 0.036391318 0.11491156
0.014244117 0.075388312 0.1239996
0.0066591129 0.2238583 -0.050797462
0.0085151121 0.075700343 0.1264143
0.0073581189 -0.39858669 0.015937328
0.0078241155 -0.20727068 0.060495377
0.0081101134 -0.090037644 0.087807655
0.00075311214 0.22388333 -0.0505023
-0.00029288232 0.24488634 -0.14272833
-0.0030438825 0.037367344 0.1221714
-0.0034038872 -0.089294732 0.09268856
-0.0083928853 0.16109234 0.15330362
-0.011052884 0.22393131 -0.049908638
-0.014075883 0.27652633 -0.28081274
-0.0098708868 -0.32409471 0.04040432
-0.0093388855 -0.1494717 0.081037521
-0.016955882 0.22395432 -0.049609661
-0.014489882 0.038012326 0.12700367
-0.022453882 0.31365132 -0.44336843
-0.014900886 -0.088556707 0.097560406
-0.019780882 0.16164535 0.15808725
-0.020071886 0.077244341 0.13846254
-0.028699882 0.31367332 -0.4430356
-0.021453887 -0.32318372 0.045353413
-0.020642884 -0.088188708 0.099994659
-0.025596887 0.12740433 0.15245628
-0.025470883 0.16192132 0.16047955
-0.032387882 0.27659231 -0.27985573
-0.027239881 -0.32272965 0.047825336
-0.026602887 -0.14830166 0.088370323
-0.031946883 -0.043308675 0.11511564
-0.031773888 0.0013782978 0.12549829
-0.033020884 -0.32227772 0.050295353
-0.032807887 -0.26676172 0.063191414
-0.032349885 -0.14791363 0.090809345
-0.036974885 0.12797832 0.15724134
-0.036834888 0.16247034 0.16525364
-0.039093882 -0.39472264 0.035832405
-0.043384887 -0.042612672 0.11995554
-0.043194883 0.0020413399 0.13032341
-0.053678878 0.31375533 -0.4416914
-0.049723886 0.19272131 0.089882374
-0.048732884 0.03992635 0.14145041
-0.050665878 -0.39377171 0.040786266
-0.050341882 -0.32092863 0.057691574
-0.04929588 -0.086366713 0.11213541
-0.055503882 0.19274235 0.090183258
-0.056105889 -0.32048267 0.060152531
-0.055557884 -0.20276362 0.087461472
-0.06609688 0.24512833 -0.13930273
-0.068999879 0.27671534 -0.27789736
-0.059925891 0.079369307 0.15525341
-0.065989889 0.0033563375 0.13995171
-0.072075881 0.2451483 -0.13898039
-0.06560389 0.079669297 0.15764427
-0.067623891 -0.31959265 0.065069675
-0.071014889 0.12967932 0.17155647
-0.075963877 0.22416931 -0.046523571
-0.078054883 0.24516732 -0.13865662
-0.081199892 0.27675432 -0.27723265
-0.071276881 0.079968333 0.16003466
-0.081863888 0.22418833 -0.046205521
-0.077607878 -0.040550649 0.1344285
-0.091135882 0.31386834 -0.43963242
-0.078176878 -0.14485365 0.11026144
-0.084557883 -0.26293463 0.085242271
-0.087983884 0.13051832 0.17869043
-0.087781884 0.1649003 0.18665171
-0.10361788 0.31390333 -0.43893337
-0.089239888 -0.083859622 0.12905359
-0.093631886 0.13079631 0.18106461
-0.093422882 0.16516632 0.18901968
-0.10559688 0.27682632 -0.27588463
-0.094166882 0.042425334 0.16061163
-0.093932889 0.0811553 0.16957426
-0.096787877 -0.39002067 0.060520649
-0.095636882 -0.19997066 0.10450649
-0.10545688 0.2242623 -0.044918537
-0.099830888 0.042733312 0.16299772
-0.10751089 0.19291633 0.092965603
-0.10523788 0.081744313 0.17433548
-0.10781088 -0.31651968 0.082217693
-0.11401888 -0.38863772 0.067886353
-0.12314589 0.22431332 -0.043937683
-0.11704888 0.0062572956 0.16150331
-0.11975389 -0.38817865 0.070340633
-0.1410549 0.3139993 -0.43680048
-0.14218387 0.2769233 -0.27381563
-0.12808189 0.044261336 0.1749053
-0.13121387 -0.38726562 0.075239658
-0.13693789 -0.38681167 0.077683449
-0.1363979 -0.31436473 0.094408512
-0.1497829 0.24537134 -0.13465929
-0.14120689 -0.19684964 0.12386656
-0.14031687 -0.080713689 0.15067148
-0.14527988 0.0078363419 0.17341757
-0.15575689 0.2453863 -0.13431454
-0.1446839 0.083776295 0.19093752
-0.14837289 -0.38590771 0.082571507
-0.15305987 -0.2579897 0.11440659
-0.1555129 0.13380134 0.20706749
-0.15545088 0.16730332 0.20879459
-0.1644139 0.2244193 -0.041588306
-0.15623888 0.04576534 0.18676949
-0.17848188 0.31408232 -0.4346137
-0.15874287 -0.2575857 0.11682463
-0.16526687 0.19307435 0.096215248
-0.17030689 0.2244333 -0.041247368
-0.16254887 -0.035553694 0.17032528
-0.17875686 0.27700734 -0.27168846
-0.18471786 0.31409532 -0.43424463
-0.1629189 -0.079342663 0.16023254
-0.17103988 0.19308734 0.096549511
-0.17620087 0.2244463 -0.040903568
-0.17009789 -0.25678068 0.12165546
-0.16956288 -0.19493765 0.13590765
-0.18209389 0.22445935 -0.040558338
-0.19094488 0.27703232 -0.27096939
-0.17689589 -0.38367063 0.09475565
-0.17625588 -0.31140071 0.11139727
-0.17790288 0.13486934 0.21647072
-0.18258888 0.19311333 0.097222328
-0.17943588 -0.034580648 0.17745638
-0.17903489 0.0096993446 0.18765259
-0.18258989 -0.38322669 0.097188473
-0.18382788 0.16737032 0.21043539
-0.18505687 -0.034258664 0.17983055
-0.18990487 0.04754132 0.20094872
-0.20952088 0.24550134 -0.13115168
-0.19894987 -0.30973572 0.12106466
-0.19728589 -0.13715965 0.16075754
-0.19670889 -0.077317655 0.17452049
-0.20567986 0.19316131 0.098588467
-0.20146489 0.010922313 0.19710732
-0.20109889 0.04812634 0.2056613
-0.20071986 0.08660531 0.21450853
-0.20291787 -0.13680571 0.16314363
-0.20580888 0.1361863 0.22818756
-0.20706287 0.011225343 0.19946861
-0.20630288 0.086883307 0.21685648
-0.21099886 -0.38103062 0.1093154
-0.20910487 -0.19230872 0.1526885
-0.21137887 0.13644731 0.23052549
-0.21722388 0.19318235 0.099281311
-0.22876588 0.19320232 0.099982262
-0.22799888 -0.37972969 0.11656952
-0.22723287 -0.30768365 0.13310766
-0.22540188 -0.13539964 0.1726656
-0.23453888 0.19321233 0.1003356
-0.24101588 0.22456831 -0.037015438
-0.23365888 -0.37929767 0.11898565
-0.23489088 0.16746634 0.21349669
-0.25132287 0.24556935 -0.12859964
-0.23416689 0.088261306 0.22857046
-0.23931488 -0.37886769 0.1213975
-0.23662388 -0.13470262 0.17741632
-0.24057588 0.01302731 0.21359158
-0.24015889 0.050144315 0.2221036
-0.24496686 -0.37843972 0.12380743
-0.24222887 -0.13435668 0.17978859
-0.24584189 -0.45646471 0.10591364
-0.24614787 0.013323307 0.21593857
-0.25061488 -0.37801272 0.12621641
-0.24916887 -0.25128573 0.15527153
-0.25128889 0.050713301 0.22678661
-0.25542587 -0.30566162 0.14510536
-0.27046788 0.22460932 -0.035184383
-0.25780487 -0.030159652 0.21053267
-0.27520487 0.24560034 -0.12710762
-0.28232989 0.27717531 -0.26536274
-0.25639388 0.089348316 0.23791265
-0.26190189 -0.37716168 0.13103151
-0.26105288 -0.30526167 0.14750147
-0.25831887 -0.073699653 0.20055628
-0.26282188 -0.45510763 0.11317444
-0.26325187 0.16750634 0.21525431
-0.26337588 -0.029850662 0.21288157
-0.26240188 0.051277339 0.23146152
-0.26461387 -0.13298064 0.18926144
-0.27317387 -0.37631673 0.13583755
-0.27412388 -0.45420963 0.11800528
-0.27241787 0.13926435 0.25614071
-0.28070086 0.19327331 0.10321426
-0.27396089 0.01479435 0.2276535
-0.27791387 -0.30406767 0.15467358
-0.27723587 -0.24938065 0.16719151
-0.27647388 -0.18793267 0.18125534
-0.28026587 0.1675263 0.21632957
-0.27856588 0.090421319 0.24722862
-0.28443187 -0.37547773 0.14063549
-0.28061587 -0.072414696 0.20997334
-0.28347188 0.13976634 0.26077747
-0.29991388 0.22464031 -0.033310413
-0.28562489 -0.02862668 0.22226429
-0.28913787 -0.30327767 0.15944672
-0.28694189 -0.13162166 0.19870949
-0.29104987 -0.45287472 0.12523746
-0.28962988 0.09095335 0.25187635
-0.29403389 -0.24825162 0.17432451
-0.29614887 0.015954316 0.23699665
-0.30231589 -0.45199162 0.13005066
-0.30954587 0.19329935 0.10506868
-0.30119288 0.053228319 0.24777746
-0.30594489 -0.30210167 0.16659546
-0.30521387 -0.24750465 0.17906952
-0.30365089 -0.13061363 0.20577526
-0.30861989 0.16755033 0.21815634
-0.33713588 0.27722335 -0.26182938
-0.30672187 0.053503335 0.25010347
-0.31251389 -0.37340063 0.15260267
-0.31104487 0.14100832 0.2723403
-0.33489487 0.24565232 -0.12326145
-0.31713289 -0.30132467 0.17135239
-0.32685187 0.19331032 0.10620165
-0.31828189 0.017100334 0.24631262
-0.32110488 -0.18510467 0.20016432
-0.31950086 -0.070204675 0.2263875
-0.32588288 -0.12928468 0.21517563
-0.33041888 -0.4498077 0.1420517
-0.33838889 0.19331634 0.10696459
-0.34702086 0.22467035 -0.030229568
-0.32825187 0.092788339 0.26809549
-0.33304289 0.14198631 0.28156328
-0.33548486 -0.02592665 0.24328041
-0.33430988 0.054865301 0.26170063
-0.33375487 0.093047321 0.27040529
-0.33867589 -0.24529368 0.19326639
-0.34100789 -0.025631666 0.24560738
-0.33925489 0.093305349 0.27271461
-0.34423989 -0.24492866 0.19562769
-0.34652787 -0.025337696 0.24793339
-0.35283989 -0.44808573 0.15161943
-0.37056887 0.22467631 -0.028648376
-0.35618287 -0.29864269 0.18794346
-0.35269886 -0.068348706 0.24039459
-0.35498887 0.14295334 0.29076147
-0.35964587 0.16757035 0.22155571
-0.37645689 0.22467732 -0.028249741
-0.36403087 -0.44723266 0.15639448
-0.38860288 0.24566734 -0.11966228
-0.39801687 0.27724135 -0.25775528
-0.36551687 -0.18234962 0.21896553
-0.37105289 -0.18200964 0.22130966
-0.37018389 -0.12667769 0.23389769
-0.39411587 0.22467631 -0.027043343
-0.37337989 0.019901335 0.26949549
-0.37842187 -0.29713768 0.1973896
-0.39029488 0.19332135 0.11048365
-0.40000388 0.2246753 -0.026637554
-0.37957788 -0.023591697 0.26185369
-0.37766689 0.095088303 0.28883648
-0.38798887 0.16756731 0.22350025
-0.38314089 0.095339298 0.2911334
-0.38952288 -0.29639167 0.20210171
-0.38863787 -0.24205464 0.21445131
-0.38861188 0.095590353 0.29342842
-0.39624387 -0.36736768 0.18824339
-0.39127988 -0.066228688 0.25666332
-0.39605689 -0.022731662 0.26879358
-0.39532787 0.020996332 0.27872467
-0.39471388 0.057786345 0.28707838
-0.39868587 -0.18032867 0.23299932
-0.39776388 -0.12508172 0.24554634
-0.40499288 0.16756135 0.22468853
-0.41336086 0.19331431 0.11209059
-0.40154389 -0.022447705 0.27110147
-0.44062588 0.27723235 -0.25480938
-0.40018588 0.058047295 0.28937769
-0.40420187 -0.17999572 0.23533249
-0.40628287 0.021538317 0.28333044
-0.44671389 0.27722931 -0.25438356
-0.41289988 -0.36619562 0.19532728
-0.40877488 -0.12445062 0.2501955
-0.41112089 0.058565319 0.29396868
-0.41506988 0.14554733 0.31593227
-0.42199787 0.16755134 0.22589254
-0.41798687 -0.021598697 0.27802372
-0.42179689 -0.23994762 0.22850132
-0.42073387 -0.1790027 0.2423234
-0.4542329 0.24564534 -0.11508751
-0.46497288 0.2772193 -0.25309229
-0.42137188 0.097076297 0.30716848
-0.43088689 -0.44223267 0.18489647
-0.43152085 0.14603132 0.32111025
-0.43900189 0.16753733 0.22711039
-0.4588649 0.22464532 -0.022490501
-0.4329519 0.059592307 0.30313444
-0.45372489 0.1932863 0.11496735
-0.4377099 0.097808301 0.31402063
-0.44452289 0.023408294 0.29940128
-0.48931989 0.27720129 -0.2513504
-0.44384786 0.060100317 0.30770826
-0.44822088 -0.17737073 0.25394249
-0.45306787 -0.44060868 0.19434643
-0.4526839 -0.12196773 0.26872826
-0.45473287 0.060605347 0.31227732
-0.45919487 -0.17672569 0.25858068
-0.4882929 0.2246173 -0.020354748
-0.46487686 0.099013329 0.32540846
-0.48072186 -0.43860966 0.20611954
-0.47803286 -0.018556654 0.30328465
-0.49000886 0.16747731 0.23085928
-0.48804185 0.025492311 0.31768036
-0.5380109 0.27714634 -0.24778652
-0.49203786 -0.17481571 0.27245426
-0.49727789 -0.43742567 0.21316433
-0.49295887 0.14595133 0.32565451
-0.54409689 0.27713835 -0.24733639
-0.49196789 0.10019732 0.33676243
-0.49872389 -0.23519164 0.26106453
-0.5027889 -0.43703371 0.21550846
-0.5171479 0.19320434 0.11965561
-0.52949089 0.22456032 -0.017296314
-0.50412989 0.1459313 0.32650232
-0.54372191 0.2455433 -0.10853434
-0.5035609 0.062835336 0.33276129
-0.50278389 0.10066533 0.34129333
-0.51077193 -0.28850871 0.25351858
-0.50966388 -0.23452967 0.26569271
-0.54126292 0.22454131 -0.01640749
-0.51624691 -0.28816372 0.25583744
-0.5127359 -0.11866063 0.29405355
-0.51529992 0.14591032 0.32735729
-0.54714793 0.22453135 -0.015960693
-0.52059191 -0.23387367 0.27031231
-0.51817691 -0.11836666 0.29634666
-0.52088392 0.1458993 0.32778835
-0.52055293 0.027019322 0.33132935
-0.51978189 0.063563347 0.33956337
-0.5189839 0.10136133 0.34807968
-0.53030288 -0.43509465 0.22721052
-0.58061689 0.2770803 -0.24458838
-0.53021789 -0.17263466 0.28857565
-0.53579789 -0.43471068 0.2295475
-0.58670288 0.27706933 -0.24412441
-0.5381189 -0.28679663 0.26509953
-0.53565991 -0.1723277 0.29087257
-0.53322089 -0.058769643 0.31644058
-0.55750889 0.19312835 0.12274361
-0.5359779 0.064284325 0.34635448
-0.53515893 0.10205132 0.35485554
-0.55234891 0.16735935 0.23563147
-0.54311693 -0.015364647 0.33063841
-0.58548188 0.24546832 -0.10535049
-0.59887588 0.27704632 -0.24319363
-0.55801588 0.1673463 0.23607445
-0.59144694 0.24545532 -0.10488939
-0.5467599 0.064761341 0.35087347
-0.55448991 -0.28578466 0.27202749
-0.55330288 -0.23192972 0.28414059
-0.59741491 0.24544334 -0.10442638
-0.55874491 -0.23160869 0.28644228
-0.5693509 0.1673193 0.23696756
-0.58057189 0.19307631 0.12454653
-0.55668491 0.10295933 0.36386728
-0.5669769 -0.3558057 0.26075459
-0.56556588 0.14579535 0.33129358
-0.56471789 -0.014329672 0.33971357
-0.60934591 0.24541634 -0.1034956
-0.56291193 0.065469325 0.35764265
-0.57243592 -0.35545367 0.26306629
-0.5708369 -0.28478163 0.2789464
-0.57416892 -0.43205971 0.24585438
-0.56828994 0.065704346 0.35989666
-0.5674299 0.10340834 0.36836529
-0.57108688 -0.056871712 0.33236551
-0.57963789 -0.4316867 0.24817657
-0.57673693 0.1457653 0.33218861
-0.57366693 0.065938294 0.36215067
-0.57648593 -0.05660373 0.33463526
-0.5862639 -0.4816497 0.23919964
-0.5862729 -0.013308704 0.34876347
-0.63321191 0.2453593 -0.10161448
-0.58352792 0.10407633 0.37510347
-0.60335588 0.16722834 0.23968744
-0.61516792 0.19298631 0.12730026
-0.62954992 0.22434831 -0.0095324516
-0.59968489 -0.35370666 0.27461672
-0.59802091 -0.28313369 0.29044533
-0.60902292 0.16721129 0.24014759
-0.62093389 0.19297034 0.12776566
-0.63543588 0.22433233 -0.0090613365
-0.59600389 0.030462325 0.3629837
-0.6021719 -0.22908872 0.30478668
-0.60694289 -0.42983967 0.2597723
-0.6046629 0.14568335 0.33445168
-0.61469191 0.16719532 0.24060869
-0.60050189 0.067094326 0.37339067
-0.61056489 -0.35301667 0.27922535
-0.60887593 -0.28248268 0.29503632
-0.60483491 -0.11378866 0.3328476
-0.6382339 0.19291931 0.12916946
-0.61121589 0.067551315 0.37787962
-0.61841089 -0.22816163 0.31164265
-0.62329191 -0.42874569 0.26671457
-0.61564589 0.10539132 0.3885417
-0.62100089 -0.11295766 0.33965158
-0.64976794 0.19288331 0.13011551
-0.63259089 0.14559233 0.33676052
-0.67075694 0.22422832 -0.0061964989
-0.63312393 -0.1669777 0.33197165
-0.63352388 0.032121301 0.3787117
-0.68691492 0.24520832 -0.097288609
-0.64136893 -0.28055769 0.30877161
-0.63567692 -0.053723633 0.35950947
-0.64504993 -0.42730671 0.27594662
-0.65436792 0.16706532 0.24388266
-0.66706789 0.19282633 0.13154554
-0.68252993 0.22419131 -0.0052285194
-0.64855391 -0.35064071 0.29531336
-0.65175092 -0.47711867 0.26703262
-0.66003591 0.1670453 0.24435949
-0.6884169 0.22417229 -0.0047426224
-0.65396893 -0.35030574 0.29760551
-0.6464029 -0.053212702 0.36401367
-0.65493488 0.14551234 0.33863735
-0.66570592 0.16702533 0.24483633
-0.67860293 0.19278634 0.13250732
-0.65066993 -0.01033169 0.37578869
-0.65757793 -0.27961069 0.31561947
-0.70019293 0.2241323 -0.0037646294
-0.71078688 0.24513131 -0.095320702
-0.69013691 0.19274533 0.13347626
-0.70608091 0.22411132 -0.0032725334
-0.66024089 0.033280313 0.38990545
-0.6624729 -0.05245167 0.37076139
-0.67218488 -0.42553669 0.28745461
-0.68271089 0.16696131 0.24627542
-0.66557592 0.033509314 0.39213848
-0.66462392 0.069788337 0.40023851
-0.67560488 -0.3489787 0.30676126
-0.66935289 -0.11052066 0.35998964
-0.6678229 -0.052199662 0.3730073
-0.71785688 0.2240693 -0.0022845268
-0.67090988 0.033738315 0.39437342
-0.67317289 -0.05194968 0.37525368
-0.73466092 0.2450493 -0.093328476
-0.6831159 -0.22455066 0.33894062
-0.6800679 -0.1099897 0.36449528
-0.68156689 0.034193337 0.39883661
-0.69180393 -0.34799665 0.31361437
-0.68992192 -0.27774662 0.32927942
-0.69719791 -0.34767169 0.31589556
-0.69386089 -0.22396463 0.34347057
-0.69077188 -0.10946268 0.36899471
-0.74140888 0.22398132 -0.00028753281
-0.75256693 0.24498332 -0.091817379
-0.71672791 0.16682333 0.24920225
-0.69987392 -0.050708652 0.3864603
-0.71005988 -0.42311162 0.30350447
-0.7108019 0.14528334 0.34345531
-0.73628193 0.19256431 0.13742065
-0.75318789 0.22393531 0.0007185936
-0.70082194 0.10876334 0.42415333
-0.71143192 -0.27652663 0.33835745
-0.70996088 -0.22309273 0.35025644
-0.70830691 -0.16304773 0.36362839
-0.71683693 -0.47277862 0.29465866
-0.75907689 0.22391135 0.0012254715
-0.70816493 0.035315335 0.40997458
-0.70612293 0.1089673 0.42636871
-0.7168029 -0.27622467 0.34062529
-0.71532089 -0.22280473 0.35251665
-0.7136569 -0.16277462 0.36587954
-0.72224188 -0.47242564 0.29694939
-0.77644593 0.24489033 -0.089780331
-0.72412789 -0.34606367 0.32728148
-0.71748692 -0.10816163 0.38022137
-0.71586293 -0.049975693 0.39316845
-0.72764593 -0.47207373 0.29924059
-0.71671689 0.10937333 0.43079472
-0.72282189 -0.10790473 0.38246155
-0.7352249 -0.47553664 0.28428555
-0.77674592 0.22383732 0.0027556419
-0.72562391 0.034239352 0.40460968
-0.78838688 0.24484134 -0.088749409
-0.73076892 -0.11106867 0.36416149
-0.72868389 -0.052184701 0.38055134
-0.75074792 0.16667235 0.2521925
-0.73275089 0.06760931 0.39268351
-0.75073189 -0.43495268 0.25231647
-0.74256289 0.027600348 0.36010933
-0.8003279 0.24479133 -0.087716579
-0.74986088 -0.17428666 0.30353165
-0.77666593 0.19238633 0.14095926
-0.79441589 0.22376031 0.004298687
-0.7483809 0.099396348 0.35874748
-0.75852692 -0.17841762 0.2806263
-0.76519692 -0.12667865 0.27332163
-0.80619788 0.22370732 0.0053362846
-0.76844192 0.0174523 0.29212141
-0.78042692 -0.30410665 0.20108461
-0.79397792 0.19230431 0.14250135
-0.77886891 -0.030445695 0.25649548
-0.82421392 0.24468631 -0.085624695
-0.78770989 -0.034077704 0.23323631
-0.7831099 0.086868346 0.2677145
-0.80112588 -0.38678962 0.13269234
-0.80065292 -0.14276868 0.17976236
-0.81129092 0.1922183 0.14406061
-0.80384892 0.0035573244 0.19910049
-0.8170619 0.19218934 0.14458132
-0.81688493 0.12439734 0.18852568
-0.8155039 0.15929532 0.19861269
-0.84154689 0.22353834 0.0084915161
-0.85407591 0.24454731 -0.082975388
-0.8327449 -0.27616972 0.07274437
-0.83022892 -0.21262771 0.09111166
-0.82860392 0.19212931 0.14563227
-0.84743893 0.22350931 0.0090227127
-0.8329249 -0.052663684 0.11429262
-0.82799393 0.070661306 0.15006256
-0.8347249 -0.097669661 0.10123634
-0.83437788 0.19209832 0.14616156
-0.85142988 -0.28557271 0.023267269
-0.87797093 0.24442935 -0.080825329
-0.87277389 -0.3526687 -0.043841362
-0.86299789 0.10868233 0.067826271
-0.86842692 -0.021813691 0.029438496
-0.8779369 -0.025553703 0.0044527054
-0.89210993 -0.3628487 -0.095128536
-0.88181788 -0.11790472 -0.022811413
-0.88041991 0.13809532 0.028870583
-0.90189493 -0.36800164 -0.12108135
-0.89942288 -0.3097437 -0.10382032
-0.89152288 0.09895432 -0.0068364143
-0.8899799 0.13497031 0.0038723946
-0.89918792 -0.07993573 -0.06003046
-0.89718193 -0.033122659 -0.04611063
-0.91914994 -0.31968564 -0.1560607
-0.91382194 0.24424034 -0.077549458
-0.92362392 -0.19867271 -0.14474154
-0.92082793 -0.13468271 -0.12557459
-0.92485893 -0.004873693 -0.11147261
-0.93361092 -0.20321971 -0.17109632
-0.93060195 0.08561635 -0.10912657
-0.92488492 0.21393931 -0.070412636
-0.93658292 -0.048629701 -0.14963055
-0.94636285 -0.26815265 -0.21586037
-0.95955992 -0.34006363 -0.26307344
-0.95090389 -0.1476267 -0.20480251
-0.95060492 0.0787853 -0.16148853
