# .PCD v0.7 - Point Cloud Data file format
VERSION 0.7
FIELDS x y z
SIZE 4 4 4
TYPE F F F
COUNT 1 1 1
WIDTH 1
HEIGHT 1024
VIEWPOINT 0 0 0 1 0 0 0
POINTS 1024
DATA ascii
0.82198524 0.33992803 -0.25831699
0.81716627 0.38790506 -0.21729231
0.81084025 0.38806403 -0.21596098
0.80594826 0.46775705 -0.2270093
0.79854524 0.46851504 -0.21632719
0.79195327 0.38849205 -0.21258926
0.79095924 0.43358004 -0.20386314
0.78880328 0.34183902 -0.23923016
0.78293025 0.511585 -0.2419982
0.79858828 0.15935606 -0.43830013
0.78179026 0.30600804 -0.28735113
0.77588224 0.34237403 -0.23425817
0.76378828 0.34228903 -0.2366209
0.78527528 0.10320204 -0.49127388
0.77735728 0.10489005 -0.47720909
0.74837428 0.43360505 -0.20823002
0.74875224 0.46918103 -0.21173906
0.75312823 0.20545101 -0.3102541
0.74587923 0.34196603 -0.2424202
0.74278224 0.43327802 -0.21343994
0.75173724 0.16863805 -0.35598421
0.74547523 0.20689201 -0.29690695
0.75380325 0.10990703 -0.43536997
0.73785329 0.20832604 -0.2836132
0.72903728 0.26272404 -0.19973421
0.70558625 0.40742302 0.023386002
0.75444329 0.05903703 -0.50240421
0.70628428 0.35918301 -0.040322304
0.72351527 0.43397403 -0.20565701
0.73825729 0.11321503 -0.4077611
0.72873026 0.17318702 -0.31557608
0.69334227 0.40779006 0.02686882
0.72283727 0.11649203 -0.38038111
0.73983526 0.54171604 -0.54772091
0.68280828 0.32821101 -0.045348167
0.69847924 0.17915905 -0.26245403
0.70775026 0.069569051 -0.41870594
0.71683323 0.54381001 -0.51051617
0.67070526 0.44579604 -0.044250011
0.69195724 0.51114106 -0.25906706
0.67793828 0.21958107 -0.17914629
0.70345324 0.58313406 -0.43937302
0.69243723 0.073017061 -0.39126492
0.66270328 0.27427304 -0.085260868
0.68825525 0.63576007 -0.3482213
0.65264928 0.40743601 0.018208027
0.65469426 0.44884405 -0.0028419495
0.69144225 0.029478014 -0.4463253
0.69407725 0.54588008 -0.47369909
0.64481628 0.36623001 0.037900925
0.63901424 0.36617404 0.03666687
0.64101124 0.40733206 0.015733719
0.67355424 0.585585 -0.39135027
0.63278127 0.33615106 0.039983749
0.64749628 0.47617704 -0.11567593
0.65494823 0.13088804 -0.2598772
0.62602323 0.33700001 0.048994064
0.63134325 0.44864905 -0.0078139305
0.65155125 0.638322 -0.28985119
0.63212729 0.19222003 -0.14598989
0.62702024 0.22911304 -0.090411186
0.61973727 0.28172803 -0.011146069
0.61579627 0.36594403 0.031741142
0.64428425 0.63882905 -0.27829504
0.63941324 0.67401803 -0.2252841
0.63979024 0.084848046 -0.29694986
0.62085223 0.60038602 -0.088855267
0.60418129 0.36582601 0.029278755
0.62983024 0.63983607 -0.25530815
0.60951424 0.48205703 -0.029897213
0.62264025 0.64033705 -0.24387407
0.60212624 0.44839802 -0.014029026
0.60365427 0.48201004 -0.031146049
0.60337329 0.19786304 -0.095541954
0.59163326 0.28659302 0.037315845
0.60680723 0.59825301 -0.13440609
0.61066425 0.51226401 -0.24778509
0.60306627 0.093077064 -0.23118925
0.57511926 0.36552507 0.023122787
0.58990127 0.64437604 -0.14930487
0.60234624 0.50952506 -0.29446793
0.59412128 0.052419066 -0.27058697
0.57047528 0.23966205 0.0080857277
0.59028625 0.59393805 -0.22539186
0.57108629 0.40667206 0.00088596344
0.56021327 0.28898007 0.059622765
0.59489024 -0.010401964 -0.3533411
0.58608824 0.59284103 -0.24851227
0.56348526 0.36540204 0.020659924
0.58128828 0.642663 -0.19135094
0.57026029 0.52365905 -0.06001997
0.59384829 -0.059850991 -0.41600609
0.55766624 0.36534005 0.01942873
0.57185525 0.67695504 -0.15132618
0.55397826 0.15218604 -0.080799103
0.54715824 0.20886505 0.0030488968
0.54283327 0.24480402 0.056215763
0.57287526 -0.0048669577 -0.31313801
0.54025024 0.21021402 0.015160084
0.57760924 -0.104137 -0.44917631
0.55478525 0.67648506 -0.1654973
0.53336626 0.21155804 0.027227879
0.57017827 -0.10207599 -0.43535519
0.52957529 0.24681503 0.074859142
0.56174827 0.55415303 -0.32942009
0.55788624 0.59139103 -0.28090096
0.53319627 0.33597803 0.029354095
0.54908025 0.67632705 -0.1702342
0.53773826 0.44781205 -0.027711868
0.55111629 0.00059705973 -0.27340984
0.55209029 0.59117806 -0.28578901
0.52738428 0.33591104 0.028126717
0.52436626 0.40620005 -0.0090150833
0.51225227 0.24658102 0.071210861
0.52015126 0.44764504 -0.03144598
0.52255929 0.069197059 -0.14148092
0.50608927 0.21687603 0.075039864
0.54075223 -0.093926966 -0.38064623
0.51722229 0.52323806 -0.071321011
0.51555425 0.070836067 -0.12884808
0.51084024 0.11365801 -0.066156864
0.52802527 -0.042461991 -0.29471493
0.52249628 0.0077700615 -0.22117615
0.50523925 0.36475903 0.0083417892
0.50682324 0.40601605 -0.012731075
0.50857526 0.072467029 -0.11626291
0.4983013 0.33556604 0.021988869
0.50162327 0.074091017 -0.10372829
0.49185428 0.16521901 0.029286861
0.50835228 0.011311054 -0.19536686
0.50115728 0.56672305 -0.097383022
0.49952027 0.52309203 -0.075089931
0.48335028 0.24618202 0.065139771
0.50659627 -0.036816955 -0.25524807
0.51130825 0.58966804 -0.32018185
0.48665929 0.33542407 0.019532681
0.48926929 0.40582901 -0.016446114
0.49080929 0.44735804 -0.037670135
0.47909728 0.28795105 0.042533875
0.50069028 0.64012903 -0.25869989
0.4974243 0.67489207 -0.21313715
0.4849363 0.44730005 -0.038916111
0.48733729 0.016565025 -0.1570282
0.47755828 0.40570205 -0.018923283
0.47407228 0.080520034 -0.054064274
0.46599129 0.24593604 0.061496735
0.48906228 0.63975906 -0.26842213
0.48586729 0.67456806 -0.22273827
0.47439229 0.48087603 -0.058635235
0.4758943 0.52289307 -0.080120087
0.4891713 -0.13700098 -0.35924625
0.47840729 -0.029402971 -0.20334625
0.4734613 0.020029008 -0.13172007
0.4726893 0.59943002 -0.12054491
0.4643853 0.36428404 -0.00028610229
0.48323628 0.63957405 -0.27329206
0.46998528 0.522843 -0.081377029
0.46045229 0.083693027 -0.029519081
0.45587328 0.28763902 0.037652016
0.45854428 0.36421406 -0.0015192032
0.4500623 0.28756005 0.036429882
0.46447229 -0.025742948 -0.17769527
0.48063928 -0.19203097 -0.41792488
0.4429183 0.12873203 0.055277824
0.45373029 0.56636202 -0.10749817
0.4548493 0.59930408 -0.12435722
0.44586328 0.33491606 0.010935783
0.44825828 0.40537804 -0.025121212
0.4506453 -0.022115946 -0.15224886
0.4598603 0.63882703 -0.29284096
0.42883328 0.17276406 0.091407776
0.43419528 0.33476704 0.0084776878
0.42306629 0.17267007 0.090203762
0.4324533 0.030249059 -0.056951046
0.42835829 0.33469105 0.0072498322
0.43066028 0.40517902 -0.028840065
0.44103429 0.72280902 -0.19146395
0.45201528 -0.18326193 -0.36361408
0.43965229 -0.12260395 -0.26629114
0.41964129 0.24525803 0.051779747
0.43524328 0.72267807 -0.19620085
0.42721829 0.48042205 -0.068645954
0.44493029 -0.18109494 -0.3501749
0.41293028 0.21651703 0.065241814
0.4189893 0.033598065 -0.032411098
0.42024329 0.44663304 -0.052622318
0.40697029 0.096124053 0.066828728
0.40576228 0.17238206 0.086595058
0.4191303 0.59904605 -0.1319809
0.41175428 0.36364102 -0.01138401
0.41672829 0.52237403 -0.092701912
0.41387928 -0.058968961 -0.1449852
0.4121533 0.56603104 -0.11635828
0.42177829 0.67276001 -0.27600527
0.4084613 0.44650704 -0.055114269
0.41080329 0.52232003 -0.093961239
0.40004128 0.36349303 -0.013852119
0.40487528 0.52226603 -0.095221043
0.38844228 0.17209005 0.082985878
0.3906253 0.24481803 0.045705795
0.39667228 0.44637904 -0.057610035
0.40618628 0.72201002 -0.22013998
0.39768529 0.48012602 -0.07490921
0.3989473 0.52221203 -0.096479893
0.41667128 -0.25151497 -0.39926386
0.3826673 0.17199206 0.08178091
0.38969728 -0.0061689615 -0.040138245
0.39431128 0.56588507 -0.12015915
0.39528629 0.59886903 -0.13706923
0.39663428 0.64448804 -0.16045618
0.39077628 0.44631505 -0.058856964
0.38305128 -0.0044339895 -0.0279212
0.3893213 0.59882402 -0.13834
0.3816123 0.33407205 -0.0025830269
0.3915813 0.67643201 -0.17813587
0.38366628 0.40463006 -0.038763046
0.38586128 0.48000604 -0.077414036
0.37439829 0.28648806 0.020550728
0.39560428 -0.24463195 -0.35873222
0.37867329 0.64437103 -0.16429615
0.3795763 0.67636204 -0.18070602
0.38280728 0.72147006 -0.23940611
0.37118328 -0.10277802 -0.13786411
0.3615703 0.24436402 0.039629936
0.3632583 0.00072604418 0.0084648132
0.3704983 0.56568605 -0.12522697
0.37141529 0.59868801 -0.14215899
0.36601728 0.40441704 -0.042486191
0.36447829 -0.10084194 -0.12529421
0.3590003 0.36296302 -0.022490978
0.3633453 0.52187908 -0.10404205
0.37478229 -0.23783892 -0.31868792
0.35362828 -0.042478979 -0.033215046
0.35947129 0.59859604 -0.1447053
0.35313129 0.36288601 -0.023725986
0.36156029 0.67625505 -0.18456507
0.35536429 0.44592103 -0.066345215
0.36789528 -0.23559493 -0.3054471
0.34219229 0.17128605 0.073356152
0.3470563 -0.040684938 -0.021028996
0.3441183 0.24408603 0.035984039
0.35470328 0.64421105 -0.16942024
0.3576653 0.75620306 -0.22690201
0.3435463 0.44578704 -0.068841934
0.33174229 0.21519303 0.048294067
0.33790529 -0.093178928 -0.075491905
0.33551228 0.36265105 -0.027431965
0.3527033 -0.30495292 -0.37275124
0.32593229 0.21509504 0.047082901
0.33473128 0.56537902 -0.1328373
0.33670929 0.64408803 -0.17326498
0.3306773 0.40398103 -0.049937248
0.33952329 0.75612807 -0.23081017
0.3351883 -0.14765698 -0.14217997
0.31791329 0.012520015 0.091782093
0.3314963 0.67607403 -0.19100094
0.31601828 0.28560603 0.008327961
0.31717029 0.33317304 -0.016115189
0.3217333 0.52147603 -0.11287117
0.3320953 -0.29782599 -0.3325901
0.32711929 -0.22232896 -0.22707129
0.30654928 0.13324606 0.08536005
0.3074393 0.17065805 0.066133976
0.3091723 0.24351501 0.028688908
0.31761029 0.59826404 -0.15362787
0.31130329 0.33308905 -0.017343998
0.3129833 0.40375704 -0.053663254
0.31578228 0.52141804 -0.11413288
0.31534129 -0.14163893 -0.10460091
0.30001929 0.10105002 0.10065413
0.30708328 0.40368205 -0.054905891
0.30983028 0.52135903 -0.11539412
0.31373328 -0.21798402 -0.20135593
0.29425028 0.10093403 0.099462032
0.29584229 0.17044401 0.063724995
0.2968533 0.21459407 0.041027069
0.30668229 0.64388001 -0.17967892
0.30118129 0.40360606 -0.056148052
0.3029103 0.47912404 -0.094973087
0.28919929 0.13290906 0.081767082
0.2874473 0.05488205 0.12189007
0.29712629 0.75594705 -0.2399292
0.28922129 -0.13373297 -0.055162907
0.2769343 0.10058105 0.095881939
0.2751773 0.019122064 0.13778782
0.27594328 0.054634035 0.1195178
0.2869463 0.56495404 -0.14299726
0.28765929 0.59802008 -0.160007
0.28933629 0.67581105 -0.20002317
0.2915853 -0.28384894 -0.2536912
0.27505428 0.28496003 -0.00023508072
0.2701883 0.054509044 0.11833286
0.2833063 0.67577207 -0.20131302
0.27843428 0.44502103 -0.082587242
0.27914828 0.47885904 -0.099998951
0.26773128 0.21407902 0.034967899
0.27017829 0.33248407 -0.025963306
0.2782293 0.72201103 -0.22641706
0.27828529 -0.27926892 -0.22779894
0.27417129 -0.20516592 -0.12537909
0.26100928 0.16978902 0.056498051
0.2619023 0.21397406 0.033756733
0.2648893 0.36167103 -0.042263985
0.2721763 0.72197902 -0.22771692
0.2529133 0.054130018 0.11477804
0.26301128 0.56473505 -0.14807987
0.26520428 0.67565608 -0.20518398
0.26612028 0.72194707 -0.22901487
0.26951829 -0.35843593 -0.31748009
0.2507953 0.24252206 0.016524792
0.25160828 0.28457904 -0.005130291
0.2422573 0.099859059 0.088726044
0.24007329 -0.015752971 0.14826679
0.2449493 0.24241906 0.015307903
0.25103328 0.564623 -0.15062618
0.24797928 0.40290606 -0.067342281
0.24940729 0.47852004 -0.10628223
0.25618529 -0.35354394 -0.29113197
0.23706229 0.13186705 0.070981979
0.23987429 0.28438604 -0.0075778961
0.24649429 0.64344603 -0.19252825
0.24205829 0.40282601 -0.068585873
0.23400529 0.28428906 -0.0088028908
0.22921629 0.018065035 0.12835169
0.24295129 -0.34869295 -0.26498604
0.23548429 -0.19266993 -0.051134109
0.22739629 0.24210906 0.011655807
0.22897129 0.33185703 -0.03458786
0.23499928 0.67545807 -0.21164322
0.23251729 -0.26354796 -0.13875008
0.21965329 0.13150907 0.067387104
0.2168773 -0.058480978 0.15106678
0.21712629 -0.01631099 0.1435709
0.2215433 0.24200505 0.010438919
0.2270553 0.56439704 -0.1557169
0.22762129 0.59751105 -0.17278385
0.2230773 0.33176601 -0.035820961
0.22840428 0.64331204 -0.19638824
0.22558229 0.47824204 -0.1113143
0.21933429 -0.11266094 0.077007771
0.22105429 0.56434 -0.15699005
0.21766829 0.36098206 -0.052164078
0.21905529 0.44428405 -0.095103264
0.22660729 -0.41677493 -0.32890606
0.21645629 -0.18653899 -0.014637947
0.21051028 0.28389406 -0.013701916
0.21310829 0.44420904 -0.096356869
0.2143423 0.52036905 -0.13562202
0.20281829 0.16865003 0.044448853
0.20351529 0.21289706 0.021631718
0.2046323 0.28379506 -0.01492691
0.2090513 0.564224 -0.15953827
0.20957328 0.59735405 -0.17662191
0.2071583 0.44413304 -0.097609043
0.1941513 -0.016879976 0.13887501
0.19521829 0.05282402 0.10292387
0.20355329 0.59730101 -0.17790222
0.20425528 0.64312905 -0.20153809
0.2012073 0.44405603 -0.098862171
0.20172629 0.47795904 -0.11634827
0.19460128 -0.10523397 0.12374496
0.19181728 0.21267605 0.019207954
0.18780629 -0.05723995 0.15844679
0.18840429 -0.017024934 0.13770103
0.19224529 0.24147505 0.0043497086
0.20033029 -0.40661591 -0.27630711
0.19741429 -0.33204001 -0.17507124
0.19422328 -0.25043792 -0.064296246
0.19140929 -0.1784839 0.033385754
0.18847229 -0.103396 0.13532209
0.18809628 0.36053705 -0.058357239
0.17851929 0.098474026 0.075598717
0.18011029 0.21245104 0.016780853
0.18110129 0.28339005 -0.019829273
0.1773783 0.016823053 0.11773586
0.17787629 0.052419066 0.099368095
0.18217729 0.36044705 -0.059595108
0.17627929 -0.099741995 0.1583519
0.17114928 -0.017460942 0.13418007
0.17521429 0.28328806 -0.021054268
0.18007529 0.64294302 -0.20669508
0.17784129 0.47767004 -0.12138796
0.18087929 -0.39911002 -0.23739004
0.17538829 -0.24400598 -0.027697086
0.16877429 0.24104202 -0.00052309036
0.17299329 0.56387007 -0.16718626
0.17142229 0.44366804 -0.1051302
0.16435429 -0.097228944 0.17411375
0.16150428 0.13027501 0.055397987
0.15963629 -0.017755985 0.13183212
0.16697529 0.56381005 -0.16846323
0.1679723 0.64284801 -0.20927525
0.16803229 -0.39415902 -0.2116971
0.15667629 0.21199602 0.011928082
0.15812129 0.33072907 -0.049394131
0.1619193 0.64280003 -0.21056509
0.15164529 0.28287303 -0.025958061
0.14851829 0.016109049 0.11183691
0.14893629 0.051730037 0.093438148
0.14574929 0.28276801 -0.027184963
0.14628729 0.33053404 -0.05186224
0.14708729 0.40149206 -0.088522911
0.14894229 -0.38681298 -0.17352915
0.14679728 -0.31360394 -0.075227261
0.13860229 0.16732901 0.031187057
0.13908228 0.21164906 0.0082850456
0.13939428 0.24048805 -0.0066180229
0.13696229 0.015819013 0.10947895
0.1373473 0.051450014 0.091065884
0.14113529 0.40140504 -0.089771271
0.14539929 -0.48312491 -0.29331017
0.14262629 -0.38438493 -0.16090393
0.13117929 0.015672028 0.10829782
0.13768429 0.64260805 -0.21572304
0.13897929 -0.48047596 -0.28024006
0.1299983 -0.09819597 0.16715097
0.12804629 0.28245103 -0.030865192
0.12997828 0.47707504 -0.13147497
0.13258429 -0.47783798 -0.26722622
0.13006128 -0.37955791 -0.13579321
0.12434628 -0.15700191 0.1618557
0.12104828 0.16695702 0.02756691
0.12146828 0.21129704 0.0046420097
0.11928828 -0.018810987 0.12361574
0.12259528 0.33014005 -0.05680418
0.12366428 0.44302705 -0.11517191
0.12438828 0.51936603 -0.15464115
0.11907328 0.59652901 -0.19585228
0.11666729 0.33004004 -0.058040142
0.11693228 0.35942405 -0.073235989
0.11405928 -0.22313493 0.091380119
0.10873728 0.096876025 0.061270714
0.10933628 0.16670501 0.025152683
0.10739728 -0.059415936 0.14210987
0.10996428 0.23992002 -0.012716293
0.11032628 0.28212905 -0.034546852
0.10705828 -0.098855913 0.16250992
0.10317228 0.12897903 0.043397903
0.097617283 0.16645205 0.022738934
0.095881283 -0.05973798 0.13977671
0.096190281 -0.019428968 0.1189189
0.10066328 0.56313103 -0.18251514
0.098871283 0.32973707 -0.061748981
0.090120286 -0.059900939 0.13860989
0.094622284 0.56306803 -0.18379307
0.092935279 0.32963502 -0.062984943
0.085105285 0.050157011 0.08039093
0.08776328 0.44253004 -0.12271214
0.085562281 -0.29141098 0.045426846
0.083728284 -0.15298194 0.18553877
0.078847282 -0.019900978 0.11539602
0.082534283 0.56294 -0.18635321
0.08105728 0.32943004 -0.065460205
0.081506282 0.40051305 -0.10226011
0.081771284 0.44244602 -0.12397003
0.079557285 -0.28924102 0.057250023
0.078293279 -0.21101695 0.16075277
0.078004286 -0.15315992 0.18438768
0.07483428 0.28147006 -0.04191494
0.07648728 0.56287605 -0.18763304
0.075115286 0.32932705 -0.066697121
0.06746228 0.014017045 0.095316887
0.07141228 -0.55976301 -0.28190517
0.062226281 0.12803501 0.034994125
0.06183628 0.049565017 0.075644016
0.064387284 0.56274605 -0.19019127
0.064168282 0.51865602 -0.16735506
0.063784279 -0.44955593 -0.12732506
0.062572286 -0.35372895 -0.0010418892
0.060825281 -0.15369898 0.18093681
0.056223281 0.095617056 0.050518036
0.056369282 0.12789804 0.033792973
0.058334284 0.56268108 -0.1914711
0.057278283 0.32901502 -0.070407867
0.057943281 0.47613803 -0.14663506
0.058135282 0.51858306 -0.16862631
0.054871283 -0.20324093 0.20536375
0.050508283 0.12776005 0.032590866
0.049739283 -0.061059952 0.1304388
0.052098282 0.51851004 -0.16989994
0.044530284 0.09533006 0.048128128
0.045784283 0.44193205 -0.13152122
0.046061281 0.51843607 -0.1711731
0.045495283 -0.44206792 -0.090175152
0.038681284 0.095186055 0.046932697
0.038185284 -0.06139797 0.12810469
0.039646283 0.39986306 -0.11101627
0.039444283 -0.43959302 -0.077887058
0.037891284 -0.15442997 0.1763339
0.033141281 0.20946002 -0.013592243
0.033658281 0.39976907 -0.11226702
0.032764282 -0.342372 0.058407784
0.032019284 -0.20400602 0.20079279
0.032298282 -0.10108691 0.14742994
0.034634281 -0.61521393 -0.29877806
0.034142282 -0.54332799 -0.20466995
0.027396284 0.28056401 -0.051749229
0.027571285 0.35794204 -0.09187603
0.027666284 0.39967406 -0.1135211
0.026411284 -0.1548 0.17403078
0.028417284 -0.61234599 -0.28572893
0.021122284 0.094749033 0.043345928
0.021248285 0.16474503 0.0070366859
0.020838285 -0.061910987 0.12460279
0.020973284 0.01275903 0.085873127
0.021673284 0.39957803 -0.11477184
0.021811284 0.47565103 -0.15423107
0.021417284 -0.43222898 -0.041290283
0.020580284 -0.20439297 0.19850969
0.020669285 -0.15498596 0.17288208
0.020766284 -0.10144192 0.1451087
0.015420284 0.20907801 -0.017241955
0.015460284 0.23801404 -0.032254219
0.015202284 0.048347056 0.066145897
0.015812285 -0.53526491 -0.16671228
0.0094692837 0.16447306 0.0046191216
0.0095102843 0.20894903 -0.018458843
0.0096822847 0.39938605 -0.11727715
0.0091362838 -0.26388901 0.19578314
0.0092282835 -0.10179991 0.14278793
0.0035602837 0.12663305 0.022978783
0.003577284 0.16433704 0.0034098625
0.0034922836 -0.022019982 0.10012913
0.003718284 0.47540203 -0.15803194
0.0037372839 0.51791304 -0.180089
0.0034562838 -0.10197991 0.14162779
0.0037032841 -0.52994698 -0.14164925
-0.0023197161 -0.022187948 0.098953724
-0.0023197161 -0.20517796 0.19394302
-0.0083417166 0.44113603 -0.14286423
-0.0083987163 -0.59539098 -0.20849991
-0.0083187167 -0.52467293 -0.11677027
-0.014051717 0.09385705 0.036167145
-0.014155716 0.20842904 -0.023330212
-0.013909716 -0.062955976 0.11759806
-0.013945716 -0.022525966 0.09660387
-0.013779717 -0.205576 0.19165993
-0.013873717 -0.10252601 0.13814592
-0.019762715 -0.022695959 0.095428944
-0.019809715 0.011621058 0.077603817
-0.019440716 -0.25973994 0.21854591
-0.019580716 -0.15631396 0.16482878
-0.025793716 0.09355402 0.033773899
-0.026485715 0.47498003 -0.16437292
-0.025340715 -0.15650696 0.16367769
-0.026506716 -0.58707291 -0.17054415
-0.031667717 0.093402028 0.032577038
-0.032197718 0.32738805 -0.089000225
-0.032359716 0.39870101 -0.12605429
-0.030987715 -0.20617801 0.18823385
-0.037115719 -0.063668966 0.11292791
-0.037933718 0.23688006 -0.043262959
-0.038048718 0.27926403 -0.065289974
-0.038179718 0.32727605 -0.090240002
-0.036727719 -0.2063809 0.18709278
-0.042922717 -0.063848972 0.11175871
-0.043273717 0.046763062 0.05426693
-0.044390719 0.39850205 -0.12856293
-0.049555719 0.16307902 -0.0074782372
-0.050257716 0.35657406 -0.10807323
-0.048016716 -0.26079696 0.21288776
-0.051185716 -0.66980594 -0.24099398
-0.048392717 -0.15728694 0.15907478
-0.048587717 -0.10363895 0.1311841
-0.055652719 0.20749706 -0.031858921
-0.054517716 -0.40134996 0.11268473
-0.055552717 -0.504013 -0.019109249
-0.060355719 -0.064393938 0.10825586
-0.062646717 0.44030705 -0.15423107
-0.060216717 -0.39904195 0.12422991
-0.059932716 -0.157682 0.15677404
-0.061362717 -0.50147802 -0.00710392
-0.066954717 0.092475057 0.025393963
-0.067305714 0.16264904 -0.011110306
-0.067528717 0.20722502 -0.034297943
-0.066170715 -0.064576983 0.10708809
-0.067884721 0.27865303 -0.071453094
-0.068691716 0.44021302 -0.15549326
-0.065895714 -0.396743 0.1357317
-0.071479715 -0.158081 0.15447092
-0.078047715 -0.024440944 0.083673
-0.080293715 0.35602707 -0.11431408
-0.080541715 0.39789206 -0.13610029
-0.079668716 -0.56274194 -0.059225082
-0.085075721 0.16221404 -0.014744282
-0.084334716 0.045614064 0.045942783
-0.082721718 -0.20803398 0.17795992
-0.086910717 -0.65246195 -0.16489697
-0.083036721 -0.15848297 0.1521697
-0.083377719 -0.10478002 0.12421894
-0.085470721 -0.56009394 -0.047086239
-0.08945372 -0.065316975 0.10241413
-0.09260872 0.39768606 -0.13861418
-0.093797721 -0.7101199 -0.22945786
-0.092788719 -0.64961392 -0.15238428
-0.093846716 -0.26253492 0.20383596
-0.094600715 -0.15888792 0.14986801
-0.095799714 -0.48648697 0.064004898
-0.10232171 0.091524065 0.018204689
-0.10286472 0.16177303 -0.018380165
-0.09956672 -0.38314396 0.20388889
-0.10561872 -0.70417792 -0.20401525
-0.10275472 -0.55221695 -0.010937214
-0.10693872 -0.065880954 0.098908901
-0.10940371 0.23529905 -0.05796814
-0.10975072 0.27777505 -0.080091
-0.11038671 0.35546905 -0.12056112
-0.11440971 0.12364101 -0.0010938644
-0.11341872 0.0088890195 0.058690071
-0.11063972 -0.37868291 0.22628784
-0.11106772 -0.26320201 0.20043993
-0.11196372 -0.15950197 0.14641571
-0.12134572 0.23502803 -0.06042099
-0.11961371 0.044601023 0.038805962
-0.12243972 0.35524201 -0.12306118
-0.12282072 0.39716202 -0.14490128
-0.11730472 -0.20931 0.17111111
-0.1277267 0.27739102 -0.083796978
-0.1281867 0.32553303 -0.10888815
-0.12307572 -0.209526 0.16996908
-0.12395272 -0.474271 0.12209082
-0.13068871 -0.026073933 0.073086739
-0.13336071 -0.63000494 -0.066074848
-0.13612372 -0.066834986 0.093065739
-0.1397237 0.27713203 -0.086268902
-0.14022771 0.32529306 -0.11137819
-0.1346257 -0.20995992 0.16768599
-0.13907471 -0.62725002 -0.053930283
-0.13514571 -0.16033298 0.14181089
-0.14368671 0.090384066 0.0098109245
-0.14494272 0.20540404 -0.050168037
-0.13861771 -0.37366802 0.25179911
-0.14476871 -0.62450701 -0.041829109
-0.1409457 -0.16054195 0.14065981
-0.14618371 -0.21039802 0.16540194
-0.15206471 -0.68090099 -0.10413408
-0.1504427 -0.62177497 -0.029773235
-0.14736071 -0.10694796 0.1114459
-0.14796971 -0.53167695 0.083540916
-0.15590972 0.12253302 -0.0095329285
-0.15366071 -0.067416966 0.089558125
-0.1513247 -0.26479 0.19252014
-0.15196571 -0.21061796 0.16426086
-0.15255371 -0.16096395 0.13835907
-0.16144972 0.089885056 0.0062117577
-0.16286471 0.20496905 -0.053834915
-0.16322172 0.23406106 -0.069013119
-0.1608777 0.043388009 0.030471802
-0.15649971 -0.31265897 0.2162447
-0.15708572 -0.26502091 0.19138908
-0.15902372 -0.10735196 0.10912371
-0.15908071 -0.52664596 0.10673714
-0.15710771 -0.45993298 0.19043303
-0.16778871 0.12221104 -0.011946201
-0.16921371 0.23392004 -0.070244312
-0.17248271 -0.7813639 -0.20400095
-0.16734672 -0.61364502 0.0061359406
-0.16417171 -0.16139001 0.13605499
-0.1625677 -0.45757693 0.20168114
-0.17824271 -0.778292 -0.19137526
-0.16998371 -0.16160399 0.13490486
-0.17707671 -0.068203986 0.084879875
-0.17372571 -0.31338102 0.2128768
-0.18615972 0.15964204 -0.035367012
-0.1835117 -0.027767956 0.062491894
-0.18450771 0.042679012 0.025707722
-0.17947371 -0.31362396 0.2117548
-0.18237571 -0.10817093 0.10447598
-0.18107271 -0.5167039 0.1526289
-0.1898957 0.0065330267 0.043301105
-0.19042072 0.042501032 0.024516106
-0.18522172 -0.31386691 0.21063375
-0.19540071 -0.76915401 -0.15377712
-0.19703671 0.088870049 -0.00099229813
-0.19920871 0.23321003 -0.076390266
-0.19579472 0.0063470602 0.042115688
-0.1900427 -0.37593096 0.24180269
-0.19195771 -0.51179296 0.17532969
-0.20587471 0.27567106 -0.099880219
-0.19991271 -0.10879391 0.10098982
-0.20943671 0.12106305 -0.020397186
-0.20639871 -0.06920594 0.079031944
-0.21190271 0.27553505 -0.10111809
-0.2032427 -0.26689893 0.18233681
-0.20410872 -0.21263999 0.15398407
-0.20830572 -0.65287 0.016606808
-0.20611271 -0.59505898 0.088406086
-0.20276771 -0.50692195 0.19786882
-0.2160207 0.15885204 -0.041441917
-0.21409771 0.041778028 0.019748688
-0.20722371 -0.37670296 0.23847198
-0.20991471 -0.21286899 0.15284204
-0.21157572 -0.59244591 0.099991798
-0.2081477 -0.50449997 0.20908213
-0.2188317 -0.028931975 0.055423737
-0.21941471 0.0055940151 0.037375927
-0.21868871 -0.37722296 0.23625088
-0.22552671 -0.31559891 0.20277786
-0.22417471 -0.49729294 0.24247694
-0.23866472 0.087655067 -0.0094041824
-0.2392597 0.12022305 -0.026438236
-0.24130571 0.23219204 -0.085006237
-0.24538971 -0.86397201 -0.2019701
-0.24027671 -0.74533492 -0.055548191
-0.23315871 -0.21379393 0.14827394
-0.24462171 0.087479055 -0.010606289
-0.24242671 -0.029721975 0.050711155
-0.24579771 -0.74241191 -0.04347229
-0.23861171 -0.57954198 0.15729189
-0.23990771 -0.16423792 0.12108374
-0.24091771 -0.11027592 0.092852116
-0.23477271 -0.49253601 0.26454782
-0.24754971 -0.070640981 0.070837021
-0.25129971 -0.73950297 -0.031444073
-0.24574971 -0.16446298 0.1199317
-0.2571817 0.11971205 -0.03006506
-0.2579287 0.15771902 -0.049958229
-0.25423771 -0.030122936 0.048351765
-0.25192073 -0.63125592 0.11008072
-0.25159371 -0.16468996 0.11877871
-0.25932771 -0.071057975 0.06849575
-0.25744072 -0.16491598 0.11762714
-0.2691437 0.11936706 -0.032485008
-0.26751372 0.040110052 0.0090107918
-0.26016471 -0.31712192 0.19604397
-0.26769471 -0.73084193 0.0043907166
-0.2644017 -0.11114091 0.088200092
-0.27687171 0.20209605 -0.07710886
-0.2774857 0.23129702 -0.092400074
-0.27270171 0.0038570166 0.026702881
-0.26914272 -0.16537291 0.11532307
-0.2828967 0.20193905 -0.078337193
-0.27940971 0.039732039 0.0066227913
-0.28710371 0.11884606 -0.036116123
-0.28536171 0.039541066 0.005428791
-0.27858371 -0.61809796 0.16715288
-0.2820397 -0.11179799 0.084710121
-0.2737577 -0.48897702 0.2823
-0.29236472 0.086045027 -0.020232201
-0.28973371 -0.031340957 0.041273117
-0.28929371 -0.719459 0.051560879
-0.2843757 -0.27032799 0.16649485
-0.28559572 -0.21592802 0.13799095
-0.28671271 -0.16606396 0.11186504
-0.28912571 -0.61290795 0.18970203
-0.2925747 -0.16629595 0.11071205
-0.29381171 -0.11224002 0.082383156
-0.28517771 -0.48956102 0.28012276
-0.30508772 0.11831903 -0.039749146
-0.29488671 -0.31867892 0.18931007
-0.29998171 -0.71383697 0.07489109
-0.2972737 -0.21641201 0.13570595
-0.29970071 -0.11246294 0.081218719
-0.29089072 -0.48985499 0.27903414
-0.3130627 0.20114505 -0.08447504
-0.30751371 -0.031960964 0.037734032
-0.30833772 0.0026660562 0.019579887
-0.3055917 -0.11268598 0.08005476
-0.3134447 -0.032168984 0.03655386
-0.31516272 0.038579047 -0.00054502487
-0.30497271 -0.38125092 0.21959972
-0.3230947 0.11778504 -0.043384075
-0.3202377 0.0022630095 0.017204762
-0.3134647 -0.27159697 0.16083479
-0.30910671 -0.44776601 0.25323009
-0.32910272 0.11760604 -0.044595242
-0.31651872 -0.381805 0.21738005
-0.31517372 -0.60011095 0.24538469
-0.33511171 0.11742604 -0.045806885
-0.3263917 -0.69997793 0.13249397
-0.3194907 -0.49133998 0.27359295
-0.34112471 0.11724603 -0.047019958
-0.33719972 -0.033008933 0.031827927
-0.33904871 0.037796021 -0.0053272247
-0.3280727 -0.38236302 0.21515989
-0.34627271 0.084379017 -0.031076908
-0.34406671 0.001447022 0.012452126
-0.3450287 0.037599027 -0.006524086
-0.3500407 -0.91049999 -0.10547495
-0.33677971 -0.27262992 0.15630579
-0.33059871 -0.59255391 0.27833176
-0.33955672 -0.16818398 0.10148668
-0.35315871 0.11688304 -0.049446106
-0.34798771 -0.074288905 0.050914764
-0.35541672 -0.90730196 -0.093261242
-0.34908971 -0.80545598 0.029531002
-0.34261471 -0.27288991 0.15517378
-0.3357057 -0.59005493 0.28923702
-0.33517271 -0.54795796 0.29957581
-0.34690571 -0.11427194 0.071905136
-0.3559967 0.0010350347 0.010074139
-0.3607747 -0.90411597 -0.08108902
-0.34079671 -0.587565 0.30010509
-0.34088072 -0.54827195 0.29850006
-0.3513267 -0.16866392 0.099177837
-0.36297771 0.037002027 -0.010112286
-0.36611372 -0.90094393 -0.068964005
-0.3657867 -0.074956954 0.047394753
-0.36896572 0.03680104 -0.011309147
-0.35876971 -0.32162493 0.17696285
-0.36013371 -0.27367693 0.15177774
-0.35230371 -0.548904 0.29634571
-0.3763127 0.083429039 -0.037108898
-0.3783617 0.15431404 -0.074348927
-0.37290871 -0.034291983 0.024738789
-0.36755672 -0.21939296 0.12198687
-0.3690027 -0.16939193 0.095716953
-0.3596327 -0.49346596 0.26597691
-0.38232872 0.083237052 -0.03831625
-0.37182671 -0.27420694 0.14951181
-0.38361171 -0.075631917 0.043873787
-0.37930572 -0.21990293 0.11969995
-0.3684037 -0.58519894 0.31168985
-0.3807987 -0.16988093 0.093410015
-0.39436772 0.082851052 -0.04073
-0.39536071 0.11559206 -0.057944298
-0.38352972 -0.27474099 0.14724684
-0.37518072 -0.55018002 0.29203987
-0.39783472 -0.00043094158 0.0017471313
-0.3879067 -0.32300395 0.17134905
-0.37981772 -0.58585602 0.30955076
-0.38394871 -0.451621 0.23897505
-0.39374372 -0.32328302 0.17022705
-0.4094207 -0.96994799 -0.093647003
-0.39694971 -0.22067493 0.11626673
-0.39851272 -0.17062193 0.089944839
-0.41244972 0.082266033 -0.044354916
-0.39760771 -0.38580102 0.20183992
-0.39304072 -0.6652109 0.27759171
-0.3941347 -0.49533099 0.25944996
-0.41848171 0.082070053 -0.045564175
-0.40612671 -0.77359194 0.15644598
-0.41033471 -0.17112094 0.087636948
-0.42066771 -0.036046982 0.015276909
-0.4218027 -0.0012849569 -0.0030140877
-0.40923071 -0.386388 0.19961977
-0.42517072 -0.96015996 -0.057314873
-0.41120872 -0.77076501 0.16773891
-0.43038672 -0.95692295 -0.045290947
-0.42051071 -0.22171599 0.11169004
-0.42396671 -0.11732692 0.056751728
-0.41141972 -0.49627799 0.25618792
-0.42132571 -0.76514298 0.19020987
-0.4153097 -0.55245894 0.28450584
-0.4186337 -0.45346195 0.2323947
-0.44076371 -0.95048994 -0.021377087
-0.41793171 -0.65230602 0.33168173
-0.42105272 -0.55278891 0.2834301
-0.42295471 -0.49691492 0.25401306
-0.44706571 0.034129024 -0.026885986
-0.42339271 -0.65175194 0.33429193
-0.43632072 -0.277188 0.13705111
-0.43993771 -0.17238194 0.081861019
-0.4383367 -0.38787395 0.19406986
-0.45106971 -0.94410998 0.0023651123
-0.4607887 0.080677032 -0.054027081
-0.4551487 -0.07840699 0.029775143
-0.4591237 0.033707023 -0.029288292
-0.4418087 -0.45471197 0.2280097
-0.4611277 -0.078642905 0.028598785
-0.45396572 -0.27802199 0.13365078
-0.45593172 -0.223306 0.10482168
-0.4440487 -0.55412096 0.27912712
-0.45773271 -0.17314893 0.078393936
-0.46860272 -0.037852943 0.005800724
-0.46366972 -0.17340702 0.077239037
-0.4677597 -0.22384292 0.10253096
-0.4819147 -0.0034749508 -0.01493597
-0.4832707 0.032854021 -0.034088135
-0.46983871 -0.32699698 0.15562487
-0.48794171 -0.0036979914 -0.016129971
-0.47570971 -0.32729 0.15450191
-0.48158172 -0.92527395 0.072584152
-0.47959971 -0.22438496 0.1002388
-0.47919571 -0.38999993 0.18629694
-0.48660871 -0.92217797 0.084140778
-0.47092772 -0.73768991 0.30024576
-0.4874447 -0.17444593 0.072612762
-0.50141072 0.032207012 -0.037693024
-0.49550372 -0.12027401 0.042741776
-0.48246172 -0.45693892 0.22033501
-0.48438972 -0.55649799 0.27159691
-0.49934772 -0.17497092 0.070300102
-0.4967477 -0.39092594 0.1829648
-0.4887557 -0.59232694 0.28924799
-0.51671672 -0.039709985 -0.0036869049
-0.51345176 -0.12102991 0.039236069
-0.50370574 -0.81996399 0.24253893
-0.51518375 -0.22602993 0.093363762
-0.51688975 -0.32936698 0.14663601
-0.50066674 -0.72415596 0.35509109
-0.52112472 -0.22630793 0.092217922
-0.52319074 -0.17603296 0.065671921
-0.52018672 -0.39217597 0.17852402
-0.53142476 -0.12179393 0.035728931
-0.51561475 -0.50217491 0.23661709
-0.53911376 -0.081793964 0.013294697
-0.51825774 -0.81149095 0.27536392
-0.51207876 -0.724922 0.35301113
-0.53070873 -0.28173393 0.11890793
-0.51757777 -0.59410101 0.28390789
-0.53742075 -0.12204999 0.034558773
-0.52307671 -0.80868894 0.28623104
-0.55115372 -0.082290947 0.010936737
-0.55442375 -0.0062039495 -0.029268265
-0.52639776 -0.65826994 0.3153019
-0.53065175 -0.55928296 0.26299381
-0.53492373 -0.45988292 0.21046877
-0.54638672 -0.33088094 0.14101505
-0.55086976 -0.22770995 0.086484909
-0.53490174 -0.59517998 0.28070498
-0.54954672 -0.39376301 0.17296886
-0.54068375 -0.59554297 0.27963686
-0.54224575 -0.55999094 0.2608428
-0.56278872 -0.22827798 0.084189892
-0.57711875 -0.042101979 -0.015563965
-0.56130975 -0.39440495 0.17074776
-0.58317477 -0.042345941 -0.01675415
-0.55515975 -0.66015297 0.31003094
-0.57947874 -0.123869 0.026368141
-0.58923572 -0.042589962 -0.017941952
-0.55782872 -0.72803897 0.34468985
-0.56092173 -0.66053301 0.30897713
-0.58299673 -0.17874891 0.05409193
-0.57897776 -0.39537591 0.16741514
-0.58665973 -0.22942394 0.079600811
-0.58899373 -0.17902499 0.052931786
-0.59152275 -0.12439591 0.024024963
-0.59943473 -0.084312975 0.0015001297
-0.58487177 -0.39570194 0.16630268
-0.57244974 -0.6612969 0.30686998
-0.59754777 -0.12466091 0.022852898
-0.57971472 -0.50595897 0.22465706
-0.58174372 -0.46257502 0.20169592
-0.59076875 -0.39602894 0.16519308
-0.58122176 -0.59811097 0.27216578
-0.58290374 -0.56250697 0.25331783
-0.60099477 -0.17958099 0.05061388
-0.58398974 -0.66206592 0.30476284
-0.60699975 -0.17985994 0.049454689
-0.58976471 -0.662453 0.30370903
-0.59725577 -0.507016 0.22139502
-0.62364775 -0.08534497 -0.003223896
-0.60037172 -0.56360394 0.25009298
-0.60310775 -0.50736994 0.22030783
-0.60522175 -0.46394795 0.19730997
-0.61438775 -0.39734799 0.1607461
-0.62854671 -0.231466 0.071562767
-0.61026073 -0.59998196 0.26682806
-0.61202872 -0.56433994 0.24794292
-0.63105172 -0.18098694 0.044815063
-0.62068272 -0.50843996 0.21704578
-0.63775575 -0.28714901 0.098466873
-0.64586473 -0.12681299 0.013475895
-0.62874472 -0.46533996 0.19292068
-0.62953871 -0.56545395 0.24471903
-0.64912271 -0.18184191 0.041331768
-0.65191776 -0.12708598 0.012301922
-0.64721173 -0.33622199 0.12188578
-0.64990175 -0.39935797 0.15407515
-0.65316874 -0.33654493 0.12075996
-0.63605672 -0.66558999 0.29528189
-0.64415473 -0.50988394 0.21269608
-0.64185774 -0.66598791 0.29422808
-0.66167474 -0.28839594 0.0939188
-0.66766071 -0.28870994 0.092782974
-0.65103471 -0.60265297 0.25935888
-0.67365074 -0.28902596 0.091644764
-0.66411573 -0.46745998 0.1863389
-0.67964375 -0.28934199 0.090506077
-0.66270876 -0.60342699 0.25722504
-0.67356175 -0.51171392 0.2072587
-0.67945176 -0.51208299 0.20617199
-0.68184173 -0.46853596 0.18304682
-0.68534476 -0.51245397 0.20508385
-0.69742274 -0.40209991 0.14517593
-0.70093572 -0.33917099 0.11174583
-0.69367272 -0.46925801 0.18085289
-0.69713873 -0.51319891 0.20290899
-0.71290874 -0.33983797 0.10949278
-0.69780576 -0.60577995 0.25082111
-0.69983673 -0.57002002 0.23181677
-0.71529275 -0.40314597 0.14183807
-0.73381972 -0.18594199 0.025063992
-0.71485472 -0.51432496 0.199646
-0.73694074 -0.23693699 0.050857067
-0.72330576 -0.47108597 0.17536402
-0.73689073 -0.34118396 0.1049819
-0.74299371 -0.23724991 0.049705029
-0.74904776 -0.23756391 0.04855299
-0.72713274 -0.60777396 0.24548578
-0.74889976 -0.34186298 0.10272694
-0.73300672 -0.60817701 0.24442005
-0.73851675 -0.51584393 0.1952939
-0.76116675 -0.238195 0.046248913
-0.76387274 -0.29387802 0.074564934
-0.74693674 -0.57315999 0.22321796
-0.75301373 -0.47294098 0.16987514
-0.77329975 -0.23883098 0.043942928
-0.75629675 -0.51699501 0.192029
-0.76222873 -0.51738101 0.19094086
-0.78544474 -0.23946995 0.04163599
-0.76816374 -0.51776892 0.18985271
-0.77683777 -0.47444695 0.16548204
-0.79410774 -0.29554695 0.068863869
-0.79905576 -0.40815896 0.12624598
-0.81107175 -0.408894 0.12401581
-0.82727575 -0.34638494 0.088047981
-0.81576174 -0.52090997 0.18114471
-0.83938074 -0.34709591 0.085788727
-0.83366275 -0.52210897 0.1778779
-0.85150176 -0.34781295 0.083527088
-0.84261376 -0.47868401 0.15339279
-0.84861273 -0.47907597 0.15229368
-0.86363375 -0.34853297 0.08126688
-0.86700076 -0.299658 0.055164814
-0.85461473 -0.47946995 0.1511941
-0.86530972 -0.41225296 0.11397886
-0.87135476 -0.41263193 0.11286306
-0.86662972 -0.48025995 0.14899492
-0.88344973 -0.41339296 0.11063099
-0.89402574 -0.35035294 0.07560873
-0.91840172 -0.35182899 0.071080685
-0.96850371 -0.41885 0.094988823
