# .PCD v0.7 - Point Cloud Data file format
VERSION 0.7
FIELDS x y z
SIZE 4 4 4
TYPE F F F
COUNT 1 1 1
WIDTH 1
HEIGHT 1024
VIEWPOINT 0 0 0 1 0 0 0
POINTS 1024
DATA ascii
0.93298197 0.22588289 0.053296566
0.91422093 0.18451989 0.10257483
0.93973696 0.081279874 -0.12704611
0.91050094 0.25117487 -0.0016412735
0.90495998 0.25088388 -0.0052504539
0.89445293 0.22379589 0.028321743
0.90280896 0.081991851 -0.12624741
0.86419797 0.14767486 0.12213993
0.89816093 0.3345359 -0.13758612
0.87233394 0.22258788 0.014000893
0.87718195 0.24942291 -0.023323536
0.85411394 0.11185688 0.1087079
0.86208695 -0.022220135 0.046901703
0.89188993 0.36210591 -0.18415022
0.84262192 0.15157688 0.15221786
0.88118392 0.3337459 -0.14880037
0.84558797 0.18330187 0.08268261
0.85413396 -0.071151078 0.015506744
0.86045694 0.2485379 -0.034193516
0.86747795 0.28814685 -0.089383125
0.84830397 0.05623889 0.061336517
0.88186592 0.40152186 -0.25149822
0.85621995 0.28758186 -0.096746445
0.86415893 0.33294988 -0.16003132
0.83349097 0.10327691 0.036801815
0.83185297 0.13959289 0.049947739
0.82768196 0.13793188 0.035440922
0.82829696 0.22492486 0.03046751
0.82349396 0.13626289 0.020878792
0.80686593 0.19215989 0.15630579
0.82950693 0.24955088 -0.028087139
0.82747793 0.047019899 -0.01156044
0.85882592 0.40055889 -0.26687527
0.87158394 0.47491589 -0.37077808
0.86002594 0.44122589 -0.32792139
0.81668597 0.096273899 -0.021796227
0.83568496 0.33161086 -0.1787982
0.85420495 0.44099987 -0.33183241
0.85987395 0.47449088 -0.37868452
0.78567696 0.1958279 0.18620586
0.79718196 0.23168588 0.090434551
0.81086093 0.0065018535 -0.023435116
0.81477493 0.041387856 -0.056023121
0.82997596 0.33134091 -0.18255854
0.84149295 0.39983088 -0.27843523
0.85401195 0.47427687 -0.38264322
0.79254997 -0.067942083 0.029502869
0.80308396 0.29173887 -0.059499264
0.83670694 0.44031686 -0.3435812
0.80072194 -0.18298012 -0.03954649
0.78302795 -0.019010127 0.059709549
0.78263694 0.25938088 0.063040733
0.80984396 0.3327809 -0.16855812
0.78719294 0.096061885 -0.027005196
0.78037393 -0.067434132 0.03148365
0.77469593 0.021276891 0.080180645
0.78011495 0.053703904 0.033704758
0.80182892 0.33426887 -0.15254211
0.81830895 0.39885086 -0.29389048
0.79385096 0.33575088 -0.13659811
0.75157094 0.24158287 0.17836666
0.76485795 -0.018291116 0.062643528
0.75968695 0.26418889 0.1076746
0.76205295 0.022420883 0.087068558
0.76228797 0.060712874 0.085026741
0.79478598 0.36193687 -0.19801331
0.77612495 -0.1818431 -0.03548336
0.77153695 -0.11524612 0.0044736862
0.74408996 0.24320489 0.19279289
0.76213098 -0.06667918 0.034448624
0.76408297 0.2994799 0.01732254
0.80743992 0.4391669 -0.36322117
0.75139296 0.1094299 0.076690674
0.76159793 0.17356789 -0.013578415
0.75276095 -0.01781714 0.064592838
0.75000197 0.022873878 0.089000702
0.77014995 0.34015089 -0.089226246
0.79133397 0.40042287 -0.27660513
0.80157095 0.43893486 -0.36715937
0.72303993 0.24687487 0.22499466
0.77519095 0.4031049 -0.2436285
0.72974294 0.14837587 0.11182785
0.73500496 0.18269485 0.064169884
0.71968192 0.1189509 0.1499157
0.75920594 0.40575987 -0.21097231
0.72256798 -0.0166471 0.069452763
0.71992195 0.023989856 0.093813896
0.71719795 0.065822899 0.11888981
0.72374296 0.3487559 0.0035529137
0.70181793 0.11953986 0.15273046
0.69353896 0.15643889 0.17566061
0.69204193 0.19742888 0.18978071
0.69925398 0.066449881 0.12173653
0.70856297 0.35156786 0.033908844
0.72769195 0.41098887 -0.14658117
0.68761396 0.1566239 0.17658758
0.67986995 0.27958488 0.25026655
0.69591093 0.024867892 0.09764576
0.71990794 0.4122799 -0.13067532
0.69244897 -0.015501142 0.074288845
0.69352293 0.35435188 0.063985825
0.73296392 0.47965288 -0.31444311
0.67576897 0.15699089 0.17844152
0.70444894 0.41484189 -0.09908247
0.67536896 0.067274868 0.12552261
0.66136992 0.1995759 0.20557356
0.68913692 0.4173789 -0.06778717
0.68153495 0.41863787 -0.052250385
0.66529495 -0.062801063 0.05010891
0.65399992 0.02636987 0.10432053
0.65625995 0.38649786 0.08147192
0.66643596 0.42113686 -0.021384239
0.66604096 -0.17693812 -0.017388344
0.64890093 0.38779891 0.096327782
0.66361195 -0.23902017 -0.053704262
0.65995395 -0.17667609 -0.016392231
0.62910295 0.2494539 0.2394805
0.63962692 0.068486869 0.1311717
0.63061798 0.12182689 0.16391277
0.65412593 0.46036386 -0.080232143
0.64778793 -0.17615515 -0.014405251
0.61740792 0.24976486 0.24127865
0.63518494 -0.06163913 0.054951668
0.61364597 0.32607186 0.2807107
0.64526397 -0.23819214 -0.050685406
0.61433595 0.20092386 0.21286392
0.62179196 0.069081903 0.13398647
0.61082894 0.15895987 0.18856955
0.63965195 0.49311188 -0.11920929
0.59814197 0.28168291 0.26278448
0.62694293 -0.23737508 -0.047674179
0.61981696 -0.10896009 0.029132843
0.60106492 0.12274688 0.16853571
0.60398096 0.069669902 0.13679457
0.61682397 0.46609288 -0.0029754639
0.59804994 0.069863856 0.13772774
0.60055792 0.43178189 0.11017084
0.61474097 -0.23683614 -0.045671463
0.59013993 0.39363587 0.16064787
0.61936694 0.5344919 -0.16363716
0.57656097 0.25083387 0.24754858
0.59495896 0.49954188 -0.02566433
0.59646195 -0.23603517 -0.042674065
0.57652593 0.029046893 0.11659861
0.60671192 0.57672286 -0.22843647
0.58712298 -0.17361313 -0.004527092
0.56162393 0.20238686 0.22100687
0.55949897 0.32318687 0.2455349
0.58428794 -0.23550707 -0.040682316
0.55577993 0.20254689 0.22190666
0.56464696 0.029445887 0.11847448
0.56725192 0.43030286 0.088085651
0.57022995 0.5002979 -0.016328335
0.57212692 -0.2349841 -0.038693428
0.56563097 -0.10685116 0.03786087
0.55722094 -0.058731139 0.067435741
0.54315597 0.32230788 0.23493052
0.56293392 -0.17262715 -0.00060415268
0.53427893 0.2832489 0.27253485
0.54478598 0.07157588 0.14609289
0.56920594 0.58117187 -0.14779425
0.56366593 0.53969586 -0.081121445
0.55689394 -0.17238218 0.00037384033
0.53628093 0.12470388 0.1786356
0.53448993 0.16117287 0.20041752
0.53730392 0.36463386 0.16619968
0.54044795 0.39125991 0.12795353
0.53040695 0.12487686 0.17954969
0.52422494 0.25216091 0.25555992
0.55713296 0.58115888 -0.1490345
0.54482192 -0.17189711 0.0023264885
0.53332293 -0.057868063 0.071243763
0.53100896 -0.0096991062 0.10000467
0.51866496 0.12522191 0.1813755
0.51693392 0.16166586 0.20313263
0.52506596 -0.0094971061 0.10094452
0.52073497 0.36379689 0.1553669
0.52378798 0.3904559 0.11700058
0.54078692 0.53888386 -0.096603394
0.53275895 -0.17141718 0.0042757988
0.50911593 0.20379585 0.22908878
0.50329393 0.20394886 0.22998285
0.50350094 0.072862864 0.1525526
0.51753193 -0.23268312 -0.029796124
0.49355996 0.16231388 0.20674276
0.50132197 -0.0086961389 0.10469675
0.49856997 0.36267185 0.14088249
0.48772293 0.16247386 0.20764256
0.48365393 0.25315887 0.26175261
0.48426095 0.28172988 0.25368357
0.50542796 -0.23218411 -0.027831078
0.50264895 -0.17023307 0.0091328621
0.47208494 0.25343889 0.2635169
0.47332296 0.28109586 0.24665451
0.47731695 0.31872886 0.19226885
0.49333596 -0.23169011 -0.02586937
0.46841294 0.20485389 0.23533249
0.46630394 0.25357687 0.26439762
0.48729396 -0.23144418 -0.024890423
0.48461494 -0.16953617 0.012033463
0.46052295 0.25371587 0.26527977
0.46236295 0.28045887 0.23961687
0.48151696 0.46512988 -0.027602196
0.46781096 -0.055571139 0.081645489
0.46578196 -0.0075221062 0.11029768
0.47521594 -0.23095614 -0.02293539
0.45426494 0.12706286 0.19135475
0.45646495 0.074284852 0.15988684
0.47010696 0.46464688 -0.035205364
0.47205094 -0.29955107 -0.063000202
0.44842494 0.12722588 0.19225788
0.44588494 0.27949786 0.22903872
0.45230094 0.033067882 0.13612461
0.47903094 0.61063492 -0.25099325
0.45398194 0.36038989 0.11177254
0.45666394 0.38718486 0.072930813
0.46314895 -0.2304731 -0.020981312
0.46060294 -0.16862017 0.015890598
0.45789593 -0.10287207 0.055085659
0.44641194 0.033250868 0.13704681
0.47314095 0.61045992 -0.25503016
0.45711896 -0.23023313 -0.020008087
0.45193493 -0.10266012 0.056033611
0.43674994 0.12754989 0.1940608
0.44406193 -0.054764092 0.085401535
0.44213694 -0.0067561269 0.11401367
0.43855795 0.31659389 0.1671958
0.42947894 0.16403687 0.21660852
0.43623194 -0.0065671206 0.1149416
0.43464094 0.033611894 0.13888454
0.42203394 0.2060219 0.24242687
0.43032894 -0.0063791275 0.11586666
0.44147995 0.46342987 -0.054269314
0.44834995 0.53555691 -0.15908527
0.41590494 0.25226188 0.24860191
0.41831395 0.27787989 0.21135473
0.44649494 0.57758188 -0.22443819
0.42846096 0.38579386 0.054437637
0.43874195 0.49512789 -0.1045413
0.42811295 -0.10182315 0.059816837
0.41278195 0.27755386 0.20780754
0.41543195 0.075486898 0.16626167
0.42636496 0.4239049 -0.00512743
0.43295395 0.49489588 -0.10841846
0.43668896 0.53513187 -0.16696024
0.42961696 -0.29777807 -0.05609417
0.42216194 -0.10161608 0.060762882
0.41443095 -0.053776085 0.090076923
0.41071096 0.31504691 0.14920092
0.41112894 0.034325898 0.14255381
0.41713995 0.38523287 0.047018528
0.42423394 0.46269187 -0.065750122
0.40178394 0.12850291 0.19945049
0.42136493 0.49443188 -0.11618042
0.41497794 -0.22858316 -0.013216496
0.39387193 0.2509129 0.23455667
0.40084895 -0.0054511428 0.12048674
0.41270894 0.46219787 -0.073419094
0.41556194 0.49419889 -0.12006712
0.40671894 -0.16662115 0.024511814
0.38835093 0.25057286 0.23103857
0.41329694 0.53427589 -0.18275023
0.38907194 -0.0050851107 0.12232685
0.40115795 0.46169987 -0.081104279
0.39695296 -0.2278921 -0.010318279
0.39244995 -0.10059613 0.065466881
0.38643694 0.35688585 0.067750931
0.39202896 0.4223119 -0.027794361
0.40156296 0.53384489 -0.19066954
0.37894994 -0.052620113 0.095658779
0.37730595 -0.0047241449 0.12416458
0.38958594 0.46120089 -0.088801384
0.38494894 -0.22743708 -0.0083932877
0.36426294 0.20742387 0.25123358
0.37142596 -0.0045441389 0.12508488
0.36834493 0.27492088 0.17934561
0.37895095 -0.22721118 -0.0074315071
0.36276495 0.27458787 0.17577362
0.38061196 0.49278888 -0.14345932
0.35528696 0.12973189 0.20659685
0.35510695 0.2485199 0.20987272
0.35717994 0.27425486 0.17220068
0.36023796 0.31221688 0.11662674
0.36494195 -0.16512412 0.031163692
0.35379896 -0.0040101409 0.12783384
0.35158995 0.27391988 0.16862488
0.36317796 -0.29510814 -0.045343399
0.34368494 0.13003188 0.20837688
0.34792796 -0.0038341284 0.12874889
0.34599394 0.2735849 0.16504669
0.35748294 0.42069685 -0.050579071
0.36621794 0.53253889 -0.21451044
0.35909995 -0.35632807 -0.080928326
0.35715196 -0.29487211 -0.044372082
0.35302696 -0.1647051 0.033055782
0.33841196 0.2474829 0.19925165
0.34331396 0.31125987 0.10571575
0.33952594 0.077617884 0.17800283
0.35472295 0.45968887 -0.11197329
0.33098096 0.16653287 0.23168373
0.32986596 0.20787287 0.2533226
0.35438496 0.53209984 -0.22248745
0.32433194 0.20750791 0.24983263
0.32725394 0.24678791 0.19215584
0.34093794 -0.35558909 -0.077984333
0.33516994 -0.16408509 0.035887718
0.32050595 0.13062388 0.21192551
0.33150494 0.38094085 -0.0090241432
0.33720896 0.45892489 -0.12360811
0.33956394 0.49111888 -0.17091322
0.32574993 0.38064986 -0.012785435
0.33367595 0.49087787 -0.17485046
0.31274495 -0.0027951002 0.13421965
0.31908995 -0.22501212 0.0021328926
0.31733295 -0.16347414 0.038711548
0.30666396 0.27121788 0.13990879
0.31421995 0.3800649 -0.020322323
0.31503496 -0.29325408 -0.037601471
0.29636493 0.1673649 0.23695374
0.29993594 0.03753686 0.15980148
0.29880294 0.078710854 0.18427086
0.30659896 0.35266989 0.015827656
0.31597194 0.49015188 -0.18668127
0.30714494 -0.22458607 0.0040335655
0.29157794 0.13134688 0.21634674
0.29060295 0.16750187 0.23782969
0.29299393 0.078863859 0.18516159
0.30085295 0.35236388 0.012093544
0.31005895 0.48990887 -0.19063234
0.28579894 0.13148886 0.21722889
0.28802595 0.2443279 0.1672368
0.29059795 -0.049875081 0.10947657
0.28933394 -0.0021201372 0.13785076
0.28972396 0.27019191 0.12909269
0.29223093 0.30834991 0.072816849
0.29510096 0.35205591 0.0083599091
0.29942894 0.4179529 -0.088823318
0.29520896 -0.22416312 0.0059318542
0.29185295 -0.097306073 0.081298828
0.28652495 0.30802286 0.069146633
0.29101694 -0.29235417 -0.033753395
0.28764895 -0.16247517 0.043400764
0.28595394 -0.097121179 0.082222462
0.27424595 0.13177186 0.2189908
0.27332693 0.16790688 0.24045372
0.27763996 -0.0017871261 0.13966179
0.28529295 0.37858987 -0.039214134
0.28774494 0.41739589 -0.096516132
0.28171894 -0.16227907 0.044335842
0.28005794 -0.096938074 0.083143711
0.27112794 0.24326086 0.15651274
0.27273196 0.2691589 0.11824751
0.27509794 0.30736589 0.061795712
0.28189495 0.41711688 -0.10036516
0.28054795 -0.35320407 -0.068237305
0.27416494 -0.096754134 0.084067822
0.27603796 0.41683686 -0.10421944
0.26624894 0.35050988 -0.010369301
0.27686596 0.52919185 -0.27470922
0.26703393 -0.29147309 -0.029922485
0.25791293 0.30637491 0.050745487
0.27085894 0.52896488 -0.27875328
0.24952894 -0.04866308 0.1158638
0.25505695 -0.29103917 -0.028011322
0.25349894 -0.22271818 0.012543678
0.25209793 -0.16131109 0.048995495
0.24171895 0.039108872 0.16876888
0.25038195 0.3767969 -0.061995506
0.25655293 0.48769489 -0.22636032
0.23677695 -0.00065010786 0.14597559
0.24308695 -0.29061013 -0.026106358
0.23884495 -0.095676124 0.08958149
0.22939895 0.20118386 0.1900897
0.23195894 -0.048157096 0.11858988
0.23094594 -0.00049114227 0.1468749
0.23009895 0.039413869 0.17055368
0.22922595 0.080495894 0.19493151
0.23840395 -0.35160714 -0.061476231
0.23565395 -0.2221151 0.015364647
0.22235595 0.13300788 0.2268858
0.22610594 -0.047990143 0.11949587
0.22915295 0.30470788 0.032265663
0.22429195 0.039564908 0.17144489
0.23486395 0.41485888 -0.13129425
0.23239195 -0.35138315 -0.06051445
0.21644394 0.16720086 0.2323699
0.22012694 0.24001688 0.1241827
0.22560595 0.34831387 -0.036727428
0.23096395 0.45422387 -0.19409132
0.21977495 0.34799689 -0.040505409
0.22500095 0.45395687 -0.19804239
0.21782894 -0.22152108 0.018175602
0.21662195 -0.16018313 0.054559708
0.20509395 0.13340688 0.22950554
0.20997895 0.26530689 0.078255653
0.21182394 0.3036989 0.021141529
0.22059295 0.48619187 -0.25035143
0.21319695 -0.28955609 -0.021356106
0.20116694 0.19927585 0.17236471
0.20302194 0.23892087 0.11335278
0.20182694 0.00029188395 0.1513567
0.20809495 0.34736186 -0.048075199
0.19359595 0.1336689 0.23124886
0.20382994 -0.4312281 -0.10371017
0.20236395 -0.35028416 -0.055718422
0.18983395 0.19850689 0.16525364
0.18876995 0.081485868 0.20110273
0.19759995 0.37405986 -0.096399307
0.19636394 -0.35006815 -0.054762363
0.19186294 -0.094290078 0.096885681
0.18863694 0.30234188 0.0062618256
0.18299894 0.081624866 0.20197964
0.19338395 0.41284788 -0.15854645
0.19509195 0.45261189 -0.21785021
0.19649194 0.48517787 -0.26642036
0.19174895 -0.43076712 -0.10177326
0.17935395 -0.046687126 0.12672186
0.18580095 0.3734439 -0.10408354
0.17878695 0.34575987 -0.067052364
0.17989294 0.37313485 -0.10792923
0.17837694 -0.34942609 -0.051900387
0.17532095 -0.15891212 0.061013699
0.16768594 -0.046369135 0.12852049
0.16632995 0.041030884 0.18031263
0.17550994 0.41197586 -0.17028046
0.16114095 0.0013529062 0.15760183
0.16389194 0.2624439 0.048936844
0.16054395 0.041172862 0.18119669
0.16701995 0.34511387 -0.074667454
0.16639595 -0.34900409 -0.04999733
0.16256295 -0.093455136 0.10142469
0.15343495 0.13442791 0.23622847
0.15810195 0.26208186 0.045256615
0.16212794 0.37220287 -0.11949348
0.15952295 -0.28773111 -0.012868404
0.15670694 -0.09329015 0.10233068
0.14880395 0.16239488 0.1902585
0.15757795 0.41109788 -0.18204737
0.15554994 -0.42941409 -0.095977306
0.14319594 0.041594863 0.18384075
0.14932194 0.34413987 -0.086116314
0.15025495 0.37157786 -0.1272192
0.14843795 -0.3483811 -0.047149181
0.13652095 0.13317287 0.22577858
0.13854295 0.19500089 0.13311052
0.14340995 0.34381288 -0.089939117
0.14245595 -0.34817511 -0.046200275
0.13999695 -0.15786117 0.066511631
0.13163994 0.041872859 0.18560076
0.13571894 -0.2869491 -0.0091195107
0.13487495 -0.21887606 0.031193733
0.13330895 -0.092642128 0.10594368
0.12827995 0.2340799 0.066104889
0.12633695 0.0022288561 0.16292477
0.13478094 0.44987386 -0.25775433
0.13145694 -0.42853612 -0.092132092
0.13049695 -0.34776717 -0.044308186
0.12543894 -0.42832011 -0.091174126
0.12235796 -0.15735012 0.069248676
0.12263996 0.44931889 -0.26578236
0.11854596 -0.34736413 -0.042421341
0.11714695 -0.21833712 0.033958912
0.11124095 -0.21815914 0.034878731
0.10993796 -0.092009127 0.10954571
0.10253395 0.13063788 0.20480585
0.10324395 0.15911788 0.16195679
0.10363595 -0.044690132 0.13835573
0.10573096 0.2587899 0.011998653
0.10600396 -0.28599709 -0.0044541359
0.097522952 0.15870386 0.15840673
0.099260956 0.23217988 0.047791481
0.091158956 0.12978488 0.19779062
0.094131954 -0.28562409 -0.0025954247
0.086767957 0.19142288 0.10072565
0.089367956 -0.42705017 -0.085442066
0.088701956 -0.34637707 -0.037717342
0.082293957 0.25730389 -0.0028662682
0.079406954 0.083985865 0.21767855
0.083362952 -0.42684311 -0.084492207
0.082737952 -0.34618407 -0.036780357
0.077132955 0.2957229 -0.065141201
0.073666953 0.084109902 0.21854353
0.075402953 -0.15602809 0.076513767
0.069399953 0.19021291 0.089875698
0.070085958 0.23025787 0.029399872
0.068470955 0.0036228895 0.17173672
0.070536956 0.25655687 -0.010319233
0.068204954 0.043340862 0.19522572
0.062693954 0.003757894 0.17261457
0.067029953 0.40661287 -0.24138832
0.063279957 -0.090787113 0.11670971
0.057302952 0.1557799 0.13346767
0.057790957 0.18940187 0.082627773
0.056693956 0.043597877 0.1969676
0.059964955 0.3391639 -0.14383841
0.052282952 -0.21643811 0.044035912
0.045415953 0.12633288 0.16961956
0.046155952 0.1885879 0.075363636
0.044997953 0.084718883 0.22286654
0.047366954 -0.42562515 -0.078802109
0.039973952 0.15451187 0.12273455
0.040329956 0.1881789 0.07172966
0.040754952 0.22831285 0.010926723
0.03943795 0.043976903 0.19957352
0.042208955 0.3658219 -0.19740915
0.041041955 -0.34485906 -0.030240536
0.040510952 -0.21610612 0.045857906
0.039990954 -0.0901981 0.12027264
0.036143951 0.36549491 -0.20134449
0.03509295 -0.34467512 -0.029308319
0.028977955 0.22752887 0.0035147667
0.027841954 0.084431887 0.22058153
0.023253953 0.25352991 -0.04026413
0.023404954 -0.42483813 -0.075028419
0.023040954 -0.28347915 0.0084886551
0.022708952 -0.15461618 0.084621906
0.022540953 -0.089766085 0.12293768
0.016630953 0.1241439 0.15191793
0.016960952 0.18653488 0.057155609
0.017904954 0.36450988 -0.21317148
0.016861953 -0.15446407 0.085519791
0.010969954 0.15237987 0.10478592
0.010916954 -0.089482129 0.12470865
0.0050739534 0.12326187 0.14481688
0.0052399533 0.18570685 0.049851894
0.0053469529 0.22594988 -0.011350155
0.0050589535 -0.042302132 0.15337563
0.0054529533 -0.42426115 -0.072210312
-0.00063004671 0.18529189 0.046194553
-0.00072504673 -0.042169094 0.15425253
-0.00043104682 0.33574885 -0.18277311
-0.00052804686 -0.42407113 -0.071272373
-0.00070004677 -0.089202106 0.12647867
-0.0065090465 0.18487591 0.042532921
-0.0065090465 0.044952869 0.20649481
-0.0065090465 -0.15386611 0.089099884
-0.0065090465 -0.51192909 -0.12232208
-0.012347046 -0.15371913 0.08999157
-0.012314047 -0.088926136 0.12824488
-0.018281046 0.18403989 0.035200596
-0.018388048 0.22435588 -0.026268482
-0.018563047 0.2899189 -0.12623644
-0.018862046 0.40228391 -0.29756212
-0.018462047 -0.42350906 -0.068463326
-0.018553047 -0.51152915 -0.12042332
-0.023927046 0.1210379 0.12701178
-0.024890047 0.36218387 -0.24090433
-0.025049048 0.4019689 -0.30160427
-0.024019048 -0.15342814 0.091777802
-0.029900046 0.14935488 0.079526901
-0.030646047 0.28917891 -0.13393736
-0.029445047 0.045422852 0.20993757
-0.030884046 0.3340109 -0.20238352
-0.035572045 0.12014085 0.11986589
-0.03539905 -0.041391134 0.1595006
-0.035277046 0.0059248805 0.1874218
-0.036435045 0.2496689 -0.078003407
-0.041077048 0.07889086 0.17865753
-0.041318044 -0.088251173 0.1326499
-0.046859048 0.078421891 0.17514467
-0.04802905 -0.34221417 -0.016379356
-0.047114044 -0.08811909 0.1335268
-0.048636049 -0.51055115 -0.11569214
-0.05566705 0.36049891 -0.26082945
-0.053175047 -0.1527161 0.096222878
-0.060178049 0.22153187 -0.052506447
-0.060497046 0.24809885 -0.093196392
-0.06652905 0.24770385 -0.097004414
-0.064246044 0.077009857 0.1645875
-0.067655049 0.33189988 -0.22603846
-0.070054047 0.076536894 0.16106462
-0.073808044 0.33154488 -0.22999525
-0.072674043 -0.50979215 -0.11192608
-0.077535048 0.17980689 -0.0016512871
-0.075365044 0.044773877 0.20555067
-0.075868048 0.076062858 0.15753889
-0.076849043 -0.21301609 0.063885689
-0.081144042 0.04428488 0.20207167
-0.082295045 -0.1520291 0.10064888
-0.089477047 -0.34106809 -0.009979248
-0.094755046 0.14450186 0.039523602
-0.096256047 0.2190749 -0.075129509
-0.092718042 0.043304861 0.19510555
-0.093349047 0.07463485 0.14693785
-0.096011043 -0.42120117 -0.0563941
-0.093932047 -0.15176111 0.1024127
-0.093433045 -0.087093174 0.14052868
-0.10229205 0.2186619 -0.078913212
-0.098830044 -0.040046096 0.1690526
-0.099188045 0.07415688 0.14339876
-0.10080504 -0.28010613 0.027580738
-0.10663105 0.1436069 0.032207489
-0.10833605 0.2182489 -0.082699299
-0.10458805 -0.039929092 0.16991568
-0.11151405 0.35741687 -0.29694748
-0.10791805 -0.42086512 -0.054549217
-0.10721605 -0.34059411 -0.0072512627
-0.11188004 0.11421287 0.073132515
-0.11012805 0.041826904 0.18463469
-0.11610104 -0.039697111 0.17164373
-0.11844505 -0.27966315 0.030277729
-0.12722705 0.2437079 -0.1352725
-0.12828805 0.28312886 -0.1960783
-0.12494504 -0.3401311 -0.0045304298
-0.12432204 -0.27951807 0.031173706
-0.12300105 -0.15110809 0.10681152
-0.12233704 -0.086482108 0.14488077
-0.12709706 0.0077478886 0.20117569
-0.13652305 0.35602587 -0.31310415
-0.13085105 -0.33997911 -0.0036244392
-0.13266405 -0.50798815 -0.1025753
-0.13865805 0.2161659 -0.10168409
-0.14062105 0.28235686 -0.20391417
-0.13530806 -0.21162516 0.072778702
-0.13865705 -0.50781506 -0.10164738
-0.14347905 0.17503589 -0.042576313
-0.14557205 0.24248987 -0.14682436
-0.14679605 0.28196889 -0.20783854
-0.13926905 0.039340854 0.16712475
-0.14820005 0.32722288 -0.27777529
-0.13966405 -0.086126149 0.14748383
-0.15083306 0.21532589 -0.10930538
-0.15170005 0.24208289 -0.1506834
-0.14613505 0.07029289 0.11497688
-0.14698206 -0.21135813 0.074548721
-0.15693206 0.21490389 -0.11311913
-0.15097006 0.0383389 0.16010046
-0.15203705 -0.15047914 0.1111927
-0.16160405 0.17371386 -0.05381012
-0.16036305 -0.33923513 0.00089073181
-0.15784006 -0.15035611 0.1120677
-0.16384806 0.068825901 0.10426855
-0.16274805 -0.08566314 0.15094376
-0.16857105 0.036826909 0.1495409
-0.17031705 -0.21083814 0.078077793
-0.17327306 0.0063588619 0.19249773
-0.18400505 0.27962589 -0.23146009
-0.17805505 -0.33880216 0.0035877228
-0.17614706 -0.21071106 0.078957558
-0.18142006 -0.56475812 -0.12936544
-0.18447705 0.13768691 -0.015662193
-0.19023106 0.27923286 -0.23541117
-0.18033606 0.035812855 0.14248753
-0.18394905 -0.33866006 0.0044865608
-0.18496905 0.0053168535 0.18553686
-0.18888006 -0.27799016 0.040990829
-0.19529106 0.1076299 0.022201538
-0.19655605 0.13675988 -0.023078442
-0.19804405 0.17104387 -0.076369286
-0.19082606 0.0047948956 0.18205261
-0.19474106 -0.27785808 0.041877747
-0.19363205 -0.21033508 0.081593513
-0.19263506 -0.14963812 0.11729574
-0.19945705 -0.2102111 0.082472801
-0.20545205 -0.56408709 -0.12565136
-0.20866005 0.13582987 -0.030506134
-0.20255806 0.0037458539 0.17507648
-0.21337806 0.23795485 -0.18947029
-0.20394506 0.033772886 0.12834263
-0.21044305 -0.50583917 -0.090568066
-0.21641605 -0.50568217 -0.089651108
-0.22247605 0.16924191 -0.091483116
-0.22448206 0.2102049 -0.15532732
-0.22774705 0.27685088 -0.25920153
-0.21579105 0.032744884 0.12124968
-0.22997805 0.32240188 -0.33019829
-0.22077106 -0.41791111 -0.037223339
-0.21580605 -0.14917809 0.12076664
-0.22346306 -0.56359714 -0.12287426
-0.22239006 -0.50552708 -0.088735104
-0.22610405 0.0016348958 0.16108656
-0.22856605 -0.20961016 0.086846828
-0.22612604 -0.084466159 0.16040182
-0.24448705 0.23585588 -0.20900631
-0.23854606 -0.41748518 -0.034517288
-0.23188105 -0.08436209 0.16125774
-0.24354805 0.10377389 -0.0071902275
-0.24702105 0.16742486 -0.10665131
-0.24961005 0.10328788 -0.010878086
-0.25317404 0.16696787 -0.11045122
-0.25547305 0.20802987 -0.17466116
-0.24383205 3.8862228e-05 0.15056181
-0.25039205 -0.41720706 -0.032718182
-0.24870905 -0.33717412 0.014304638
-0.24601905 -0.20926112 0.089462757
-0.25223404 -0.50477213 -0.084168434
-0.24813105 -0.037277102 0.19130373
-0.25183305 -0.20914608 0.090332508
-0.25052705 -0.14851707 0.12595177
-0.25944906 -0.56265408 -0.1173501
-0.26791906 0.2071529 -0.18242025
-0.26950705 0.23415887 -0.22470617
-0.27167806 0.16559088 -0.12187719
-0.26343304 0.028589904 0.092761517
-0.26634404 -0.33679312 0.016965866
-0.26209104 -0.14830512 0.12767458
-0.28206205 0.23330486 -0.23257923
-0.28187704 0.13015586 -0.075371265
-0.27998406 -0.41653317 -0.028234482
-0.27365306 -0.14809614 0.12939262
-0.28802404 0.12967688 -0.079134464
-0.28397104 -0.33642107 0.019618511
-0.27787906 -0.083566129 0.16807747
-0.28984407 -0.33630008 0.020501614
-0.29727605 -0.63834113 -0.1568141
-0.29836604 0.099351883 -0.040516376
-0.30266604 0.16327488 -0.1409955
-0.29139706 -0.0042701364 0.12236357
-0.29571804 -0.33617908 0.021384716
-0.30650905 0.12823087 -0.090440273
-0.29494905 -0.040102124 0.17432976
-0.29737306 -0.0048141479 0.11882591
-0.29676205 -0.14769012 0.13282347
-0.31511006 0.16234088 -0.14866829
-0.30954805 -0.41588908 -0.023771286
-0.30745804 -0.33594209 0.023145676
-0.30411905 -0.20816308 0.09813261
-0.32623604 0.2302829 -0.26025915
-0.31171805 -0.27543515 0.05946064
-0.30659306 -0.08309716 0.17231989
-0.32136506 -0.41564018 -0.02199316
-0.31919506 -0.33570915 0.024902821
-0.31755504 -0.27532512 0.060330868
-0.32531404 -0.56105214 -0.10730934
-0.31871507 -0.04235214 0.16038752
-0.31985405 -0.14729911 0.13624287
-0.34832406 0.26909089 -0.33549643
-0.33206806 0.054643869 0.0029335022
-0.32733005 -0.20775217 0.10157967
-0.34635204 0.15998787 -0.16791344
-0.33063805 -0.043484092 0.15340185
-0.33908606 -0.41527516 -0.019331455
-0.34429106 0.053596854 -0.0044031143
-0.33892906 -0.20755309 0.10329866
-0.33528206 -0.082651079 0.17654467
-0.34923306 -0.5605101 -0.10368633
-0.34542504 -0.0092101097 0.09040451
-0.34852105 -0.33514613 0.029284477
-0.34101906 -0.082564175 0.17738867
-0.35679704 -0.4149211 -0.01667738
-0.36349905 -0.63674217 -0.14672852
-0.36118704 -0.56024712 -0.10188007
-0.36614805 0.09382385 -0.08163023
-0.37148106 0.15808588 -0.18337917
-0.36267906 0.052016854 -0.015433311
-0.35839006 -0.27458614 0.066406727
-0.35446206 -0.14674014 0.1413517
-0.36716205 -0.56011814 -0.10097837
-0.37235305 0.093314886 -0.085389137
-0.37484604 0.12284487 -0.13217545
-0.38128206 0.19907486 -0.25296211
-0.36056405 -0.046338141 0.13587666
-0.36355704 -0.010879099 0.079695702
-0.36882204 0.051487863 -0.019117355
-0.36610407 -0.33482212 0.031904697
-0.37313604 -0.55999011 -0.10007811
-0.37856606 0.092804909 -0.089152336
-0.37497306 0.050956905 -0.022805214
-0.38478705 0.092292905 -0.092918396
-0.38321504 -0.50183517 -0.064348221
-0.40283906 0.22498989 -0.30817747
-0.38915706 -0.50171512 -0.063456535
-0.38783306 -0.013121128 0.065372467
-0.38752905 -0.27408916 0.07072258
-0.39956704 -0.63594109 -0.14127445
-0.41249806 0.11984986 -0.15513039
-0.41961804 0.1963079 -0.27676344
-0.40896106 -0.5592491 -0.094693184
-0.40697604 -0.50136715 -0.060790539
-0.42862305 0.22319287 -0.32428408
-0.41203105 0.04775089 -0.045000076
-0.40266106 -0.20652717 0.11270571
-0.40055704 -0.14604813 0.14812469
-0.43246105 0.19537687 -0.28473043
-0.40631405 -0.14596611 0.1489687
-0.40549406 -0.085435092 0.16257763
-0.41885304 -0.50114113 -0.059018135
-0.42166305 -0.41371614 -0.0070080757
-0.41150305 -0.086035073 0.15910149
-0.44533306 0.19444185 -0.29271412
-0.42465505 -0.33381408 0.040583611
-0.42700905 -0.052728117 0.097053528
-0.43688205 0.045588851 -0.059869289
-0.45042506 0.1168139 -0.17822218
-0.45398805 0.15178287 -0.23407745
-0.43983606 0.012887895 -0.012234211
-0.42933804 -0.14564615 0.1523366
-0.45360807 -0.63483709 -0.1331625
-0.47117406 0.19255888 -0.30873013
-0.44527605 -0.054498136 0.086398602
-0.45960805 -0.63472217 -0.13226509
-0.46948904 0.11527985 -0.18981934
-0.45137906 -0.055091083 0.082839489
-0.45517406 -0.019392133 0.025710583
-0.45700005 -0.41311914 -0.0017762184
-0.45155805 -0.27309114 0.080152512
-0.47265404 0.085005879 -0.14603233
-0.47586206 0.1147669 -0.19369316
-0.45974806 -0.3332631 0.04575491
-0.47160706 -0.63449508 -0.13047552
-0.46860006 -0.5581221 -0.085793495
-0.49364406 0.21862686 -0.36484718
-0.47438005 0.042308867 -0.082277298
-0.48862606 0.11373585 -0.20145226
-0.47143805 -0.3330881 0.047471523
-0.46629006 -0.20562106 0.12202692
-0.48051706 -0.55791312 -0.084025383
-0.47818205 -0.50008816 -0.050203323
-0.49502006 0.1132189 -0.20533752
-0.48054305 -0.41274613 0.0016946793
-0.47197905 -0.092108071 0.12415361
-0.48647505 -0.55781013 -0.083141327
-0.48607406 -0.022294104 0.0075488091
-0.48312604 -0.33291811 0.049186707
-0.49003905 -0.49989313 -0.048452377
-0.50439602 0.08234787 -0.16517925
-0.51670706 0.18922186 -0.33692217
-0.48815304 -0.058674157 0.061425686
-0.49227604 -0.02287811 0.0039067268
-0.48416007 -0.093338072 0.1171279
-0.49596605 -0.49979717 -0.047577381
-0.51425004 0.1116609 -0.21701622
-0.52324307 0.18874091 -0.34096527
-0.49848506 -0.023464143 0.0002617836
-0.50758207 -0.63384718 -0.12512445
-0.51357508 -0.63374418 -0.12423611
-0.49636805 -0.094574153 0.11008883
-0.51029903 -0.55741316 -0.079618454
-0.50781804 -0.49961013 -0.04583025
-0.52353305 0.080737889 -0.17671108
-0.53634107 0.1877749 -0.34906721
-0.50387603 -0.27236909 0.087803841
-0.50248206 -0.095195115 0.10656452
-0.51281303 -0.061090171 0.047084808
-0.52088106 0.0055108666 -0.06022644
-0.52772403 -0.68277913 -0.15123653
-0.51966804 -0.49942714 -0.044085503
-0.51251006 -0.20503813 0.12875271
-0.53748202 0.036743879 -0.11991549
-0.51556903 -0.14458007 0.16487265
-0.55292302 0.10851288 -0.24048424
-0.54383403 0.0361799 -0.12370014
-0.52405703 -0.20490211 0.13042593
-0.52131206 -0.14451617 0.16570568
-0.52701408 -0.097689092 0.092435837
-0.55558908 0.078030884 -0.19601631
-0.56388307 0.14325386 -0.30139828
-0.54335803 -0.49907809 -0.04060936
-0.57042003 0.14274186 -0.30539417
-0.55033606 -0.27179915 0.094555855
-0.56285304 -0.41158718 0.013744831
-0.55291706 -0.20458013 0.13460159
-0.56403005 -0.10147208 0.071146488
-0.57295704 -0.49866909 -0.036279202
-0.59840906 0.10478491 -0.26804829
-0.57497704 -0.067223132 0.010997772
-0.58544403 -0.63261908 -0.11364841
-0.56386805 -0.14877313 0.14329147
-0.59386504 -0.6817351 -0.14148521
-0.59142804 -0.63253409 -0.11277246
-0.60728908 0.073634863 -0.22710133
-0.58749908 -0.068467081 0.0037398338
-0.58236402 -0.33164912 0.063637733
-0.58263606 -0.10338217 0.06045866
-0.62301505 0.13860285 -0.33752823
-0.59885204 -0.033013105 -0.058543205
-0.60320705 -0.0020831227 -0.10882139
-0.58819705 -0.33158511 0.064481735
-0.60588408 -0.68156415 -0.13972521
-0.60339803 -0.6323691 -0.11102152
-0.58227605 -0.1507501 0.13284969
-0.58885503 -0.10402209 0.056890488
-0.62029606 0.072523892 -0.2349143
-0.58842605 -0.15141207 0.12936354
-0.63624704 0.13755685 -0.34560347
-0.60634005 -0.070342124 -0.0071735382
-0.61143208 -0.55596107 -0.064796448
-0.62239105 -0.003868103 -0.12012434
-0.60483003 -0.20406216 0.14207458
-0.61059606 -0.20400912 0.1429038
-0.62744504 -0.41083914 0.023104668
-0.63928908 -0.63190717 -0.10579252
-0.63211203 -0.49794716 -0.027684212
-0.66408706 0.099355876 -0.3077755
-0.62212503 -0.20390612 0.14455557
-0.67614704 0.13438785 -0.36993647
-0.63918203 -0.4107191 0.024795532
-0.65124804 -0.63176411 -0.10405731
-0.67265004 0.0680269 -0.26632452
-0.63789403 -0.15676016 0.10135889
-0.67923105 0.067458868 -0.2702713
-0.69059306 0.097148895 -0.32378626
-0.69621503 0.13278788 -0.38216352
-0.67906404 0.024049878 -0.20404816
-0.67696905 -0.77026612 -0.18228626
-0.64518005 -0.20371407 0.1478529
-0.65774006 -0.11115211 0.017408848
-0.68559206 0.023457885 -0.20791626
-0.65474004 -0.27076107 0.1095829
-0.65094203 -0.20366818 0.14867449
-0.65656507 -0.1587891 0.090805531
-0.69212806 0.022864878 -0.21178913
-0.70564204 0.065174878 -0.28609228
-0.67438406 -0.41038507 0.029852867
-0.68711907 -0.63136917 -0.098871231
-0.67940205 -0.49746007 -0.020867348
-0.71723604 0.0949229 -0.33986521
-0.68878508 -0.078614175 -0.054824352
-0.69474202 -0.042280138 -0.11450338
-0.68025005 -0.41033417 0.030693531
-0.69595402 -0.68046612 -0.12664127
-0.67530608 -0.16083318 0.080220699
-0.68866605 -0.55510908 -0.053629398
-0.71889704 0.064024866 -0.29402637
-0.68144804 -0.33070117 0.077879906
-0.70795506 -0.68034416 -0.12491131
-0.68688607 -0.20575517 0.1401639
-0.70303804 -0.49724716 -0.01747942
-0.73884505 0.062289894 -0.30596209
-0.71442008 -0.081208169 -0.069606304
-0.73152304 0.019275904 -0.23511314
-0.70370805 -0.4101401 0.034045696
-0.72595704 -0.6801731 -0.12232542
-0.73901802 -0.014829099 -0.18865728
-0.74472106 0.01806885 -0.2429204
-0.70555103 -0.20788318 0.12976265
-0.76419306 0.090976894 -0.36817122
-0.72755504 -0.11845809 -0.022484303
-0.71803308 -0.20930916 0.1228137
-0.72561604 -0.16634816 0.05185461
-0.73616207 -0.55469614 -0.046825409
-0.77226406 0.059372902 -0.32594109
-0.77769005 0.089837909 -0.37630033
-0.75556308 -0.76945513 -0.17095518
-0.74687207 -0.63082308 -0.090298176
-0.74035203 -0.11980611 -0.029782295
-0.73006004 -0.27022308 0.12030172
-0.74474806 -0.40984613 0.039887905
-0.75317907 -0.12116009 -0.03709507
-0.75029206 -0.49688214 -0.010738373
-0.75061107 -0.40980917 0.040718555
-0.74550307 -0.33025712 0.086986542
-0.77369404 -0.76930517 -0.16836309
-0.79915506 0.057014883 -0.34200239
-0.77394503 -0.67977816 -0.11546516
-0.75731003 -0.16984409 0.034018517
-0.76210403 -0.4968031 -0.0090613365
-0.76800907 -0.49676615 -0.0082244873
-0.79833508 -0.020479143 -0.22340107
-0.80453604 0.012568891 -0.27825546
-0.79182005 -0.76916808 -0.16578007
-0.78594005 -0.67969412 -0.11376143
-0.77004206 -0.1712541 0.026861668
-0.77893108 -0.1238851 -0.051764488
-0.80561405 -0.053166091 -0.17894745
-0.79185605 -0.12525707 -0.059120178
-0.78957307 -0.55433208 -0.039236069
-0.78572404 -0.49666113 -0.0057163239
-0.79833007 -0.12594515 -0.062803268
-0.78217703 -0.26995414 0.12765646
-0.80659807 -0.6304161 -0.081811428
-0.80143905 -0.55426508 -0.037558079
-0.80343604 -0.49656814 -0.003215313
-0.86018103 0.051629901 -0.37839842
-0.83137906 -0.093171179 -0.13685846
-0.86700606 0.051023901 -0.38246441
-0.86505407 0.006955862 -0.31393242
-0.82093602 -0.40945309 0.050638676
-0.81534708 -0.32992417 0.096826553
-0.83734703 -0.1301071 -0.08497715
-0.88068306 0.049809873 -0.39060926
-0.82679504 -0.40943116 0.051460743
-0.82536107 -0.22168607 0.063229561
-0.85773504 -0.095895112 -0.15196943
-0.86434507 -0.096580088 -0.15575743
-0.87196606 -0.059766114 -0.21738338
-0.84437406 -0.40937215 0.053923607
-0.83480704 -0.27054614 0.13072968
-0.86352503 -0.1329121 -0.099836349
-0.87009007 -0.1336171 -0.10355949
-0.88422507 -0.098644078 -0.16714239
-0.84746903 -0.27208418 0.12381792
-0.86655504 -0.18202609 -0.027264118
-0.86247003 -0.49633807 0.00507164
-0.89874905 -0.062449157 -0.23287249
-0.85608208 -0.32980317 0.1025219
-0.88324708 -0.13503307 -0.11101818
-0.86190003 -0.32979017 0.1033349
-0.92629308 0.001226902 -0.34995842
-0.87366903 -0.40929717 0.058013916
-0.89643604 -0.13645416 -0.11849117
-0.91085505 -0.10141808 -0.18237829
-0.91892707 -0.064476073 -0.24452925
-0.87952805 -0.40928608 0.058828831
-0.88608205 -0.49628216 0.0083656311
-0.92567205 -0.065155089 -0.24842453
-0.92422307 -0.10281414 -0.19002151
-0.88517505 -0.32975012 0.10657167
-0.90567505 -0.18643612 -0.049135208
-0.91628605 -0.13859814 -0.12973213
-0.92291808 -0.13931614 -0.13348627
-0.93762404 -0.10421711 -0.19768047
-0.95310503 -0.035449147 -0.31370449
-0.89843303 -0.27830416 0.09604454
-0.90897608 -0.23146814 0.017023563
-0.97443503 -0.0033110976 -0.37822914
-0.96632403 -0.06926018 -0.27188015
-0.93226004 -0.40923613 0.066138744
-0.95169306 -0.1916551 -0.074815273
-1.002149 -0.0059370995 -0.39448452
-0.93699205 -0.28304011 0.075080872
-0.94344604 -0.28383511 0.071574688
-0.94336605 -0.32972509 0.11462069
-0.97154403 -0.1939171 -0.085878372
-0.99836904 -0.11060613 -0.23234034
-0.95638007 -0.28543109 0.064554691
-0.98972803 -0.14658409 -0.17123938
-1.0051631 -0.11132413 -0.23621035
-0.96664506 -0.32974607 0.11782169
-0.98234606 -0.28864509 0.050471783
-0.99398005 -0.24153417 -0.029766083
-1.0496529 -0.044950128 -0.36978912
-1.063596 -0.046332121 -0.37787533
-1.020422 -0.24469012 -0.04428339
