# .PCD v0.7 - Point Cloud Data file format
VERSION 0.7
FIELDS x y z
SIZE 4 4 4
TYPE F F F
COUNT 1 1 1
WIDTH 1
HEIGHT 1024
VIEWPOINT 0 0 0 1 0 0 0
POINTS 1024
DATA ascii
0.76053798 0.31266916 -0.76344776
0.76014602 0.25200719 -0.82907581
0.780918 0.1378572 -1.1262789
0.75050795 0.25531018 -0.79533195
0.75574398 0.1517722 -0.99776697
0.73149693 0.26182717 -0.72873974
0.73799896 0.34296221 -0.80088568
0.72433305 0.34368122 -0.79351187
0.72433496 0.16589421 -0.86784172
0.71297395 0.31529117 -0.7379899
0.69712293 0.21658421 -0.70354891
0.68679798 0.1805402 -0.73345089
0.68596399 0.3167702 -0.72351694
0.67762899 0.18411618 -0.70062494
0.67234695 0.27106416 -0.63706875
0.68076301 0.12002218 -0.81673765
0.66570199 0.2714532 -0.63354778
0.67250502 0.31750417 -0.71630096
0.65906298 0.27184021 -0.63003063
0.66578698 0.3178702 -0.71269655
0.68817198 0.0062332153 -1.0707126
0.67276096 0.068549216 -0.87917471
0.65060997 0.1946522 -0.60387087
0.66913903 0.38791716 -0.83416176
0.66347599 0.072712183 -0.84503078
0.64176404 0.19810021 -0.57220554
0.65427899 0.076834202 -0.81121254
0.63919103 0.2729972 -0.61949873
0.64567602 0.31896317 -0.70190573
0.62431204 0.20489919 -0.50973463
0.62700701 0.23340416 -0.54436684
0.63898802 0.31932616 -0.69831467
0.62598002 0.27376419 -0.61249685
0.63624597 0.34827119 -0.74591064
0.64189005 0.38923621 -0.81926394
0.62718904 0.088971198 -0.71160984
0.61394596 0.23420519 -0.53751564
0.64805198 -0.038787842 -0.98587465
0.62952197 0.34861916 -0.74227381
0.61279595 0.27452821 -0.60550261
0.59733105 0.2080242 -0.48244762
0.60869193 0.050421178 -0.72173977
0.59087193 0.20843321 -0.47908068
0.59964299 0.27528816 -0.59852171
0.58791196 0.23579717 -0.52384758
0.61919594 0.4268502 -0.95501375
0.57797301 0.2092492 -0.47235584
0.62059498 -0.13560379 -1.0669689
0.60243499 -0.015640795 -0.81363153
0.57517004 0.11226118 -0.52034569
0.57493496 0.23658818 -0.51703262
0.579965 0.2764222 -0.58807468
0.59356403 -0.011140823 -0.78013659
0.58934295 0.35068721 -0.72051764
0.57399499 0.066782176 -0.59280586
0.573421 0.27679819 -0.58459759
0.584584 -0.061276793 -0.83747864
0.59268296 0.46568817 -0.95476866
0.59428704 -0.18685687 -1.0754156
0.57430196 0.39247918 -0.78226471
0.58661401 0.46518117 -0.96287298
0.545847 0.21127319 -0.45559454
0.553828 0.27792221 -0.57418489
0.56703103 -0.051880836 -0.77038479
0.57255995 0.43436521 -0.85254097
0.556063 0.3523882 -0.70247889
0.55757099 -0.10009384 -0.82311153
0.54979897 -0.042661786 -0.70452595
0.51804698 0.13754821 -0.31247377
0.55822998 -0.16531885 -0.93386078
0.54129899 -0.038116813 -0.67204475
0.55224395 0.43526119 -0.84128666
0.54030299 -0.090374827 -0.7563138
0.52541399 0.02338618 -0.52289963
0.54078698 0.39407218 -0.7638936
0.55217803 0.46667817 -0.94245958
0.50818998 0.097777188 -0.3482976
0.51389003 0.21327519 -0.43889856
0.526402 0.32536519 -0.63777161
0.50751996 0.21367317 -0.43556881
0.51047003 0.24048817 -0.48311758
0.522964 0.3540712 -0.68451977
0.53938901 0.46628219 -0.94926786
0.54097295 -0.22016084 -0.97480679
0.50669998 -0.071472764 -0.62634373
0.499924 -0.016002834 -0.51395082
0.49311399 0.039733171 -0.40098381
0.52840495 0.51202416 -0.98636198
0.52351701 -0.20914185 -0.90528965
0.484166 0.17417121 -0.35356188
0.498485 -0.066853762 -0.59457254
0.47137398 0.11167121 -0.23901272
0.49368298 0.32709718 -0.62013674
0.50081396 0.39596021 -0.74196196
0.490017 -0.12462378 -0.66614866
0.48227498 -0.057743788 -0.53189278
0.47849199 0.24240518 -0.46626568
0.482526 0.28197616 -0.53623199
0.475961 -0.003202796 -0.42237473
0.497931 -0.19299984 -0.80340958
0.45904699 0.1125412 -0.23274183
0.465354 0.17540121 -0.34382391
0.48183399 -0.11974776 -0.6340456
0.47608498 0.28233922 -0.53279972
0.491696 0.43791121 -0.80770683
0.49510098 0.47184318 -0.86766768
0.50253296 0.5113852 -0.99856377
0.459095 0.1758092 -0.34058285
0.46634799 -0.048796773 -0.47030783
0.454281 0.059363186 -0.25446796
0.46322298 0.28306419 -0.52594185
0.44671199 0.063187182 -0.22591591
0.47832099 0.43849218 -0.800282
0.48161399 0.4723922 -0.86011791
0.44059998 0.11383921 -0.22334671
0.457719 -0.1053828 -0.53943872
0.46770298 0.39751416 -0.72377491
0.47488198 0.47266519 -0.85634661
0.43446499 0.11427021 -0.22022057
0.450389 0.28378516 -0.51909685
0.464977 0.43907118 -0.79287291
0.46815899 0.47293818 -0.85258198
0.430994 0.14349216 -0.2678318
0.42986599 0.021388173 -0.24631071
0.45077598 0.35770416 -0.64529181
0.458316 0.43935919 -0.78917265
0.424822 0.14390922 -0.26466084
0.43157998 0.21837419 -0.39580154
0.43423498 -0.091402769 -0.44732094
0.42240798 0.025364161 -0.21783066
0.418515 0.074423194 -0.14228582
0.44169399 0.32982719 -0.59207869
0.41609198 0.11555618 -0.21085501
0.42529398 0.21876019 -0.39250374
0.426543 -0.086825848 -0.41715288
0.41246399 0.074867189 -0.13923454
0.43774 0.35835421 -0.63820076
0.41901499 0.21914518 -0.38920975
0.42134899 0.24580121 -0.43610096
0.42480099 0.28521818 -0.5054388
0.407684 0.033210158 -0.16160488
0.40641898 0.075309217 -0.13618565
0.445072 0.51670122 -0.91262674
0.434219 -0.23965085 -0.69460773
0.411356 -0.07778883 -0.35756779
0.418421 0.2855742 -0.5020299
0.42473498 0.35900217 -0.63112068
0.428204 0.39935416 -0.7020607
0.40385798 -0.073329806 -0.32816458
0.427966 0.4745602 -0.83005762
0.40984499 -0.13751686 -0.45281267
0.39168099 0.11725819 -0.19839478
0.39405999 0.14598221 -0.24883986
0.396864 0.17984116 -0.30830097
0.402419 0.24691719 -0.42609358
0.39067599 0.18024021 -0.30508471
0.38229498 0.077070177 -0.1240077
0.402991 0.33184218 -0.57115984
0.41188699 0.44135821 -0.76336765
0.40280098 -0.21835482 -0.56704569
0.38179898 0.14680517 -0.24252653
0.387714 0.22105718 -0.37277555
0.376344 0.0016891956 -0.12238884
0.39296499 0.28699017 -0.48842764
0.41136098 0.5179382 -0.89352369
0.39511898 -0.21315086 -0.53586388
0.38727 -0.12331986 -0.36299562
0.37831798 0.18103319 -0.29866266
0.38354897 0.24802619 -0.41611099
0.39233798 0.36060816 -0.61347485
0.38750598 -0.20799482 -0.50495672
0.36189499 0.047412217 -0.060636997
0.385878 0.36092716 -0.60995483
0.38895699 0.40116918 -0.68045998
0.38719299 -0.28952587 -0.64006567
0.36900797 0.22219419 -0.36294556
0.355946 0.047858179 -0.057654858
0.35826498 0.078815162 -0.11186266
0.377323 0.33317018 -0.55727291
0.391222 0.51867318 -0.88210583
0.365264 -0.10948777 -0.27543783
0.35524598 0.11978221 -0.17977476
0.35312998 -0.043193817 -0.12927485
0.36473399 0.24912721 -0.40615082
0.37893799 0.4427672 -0.7450366
0.38140699 0.47642419 -0.80394077
0.37188399 -0.27844083 -0.57672787
0.349195 0.12020022 -0.1766777
0.35657099 0.22294819 -0.35640478
0.361294 0.28874218 -0.47148657
0.36453 0.33382916 -0.55034781
0.37478399 0.47668818 -0.80022478
0.37783298 0.51916015 -0.87451267
0.36432999 -0.27297485 -0.54548073
0.33917099 -0.034909844 -0.074560642
0.35497698 0.28909117 -0.46810675
0.36816698 0.47695118 -0.79650879
0.37114799 0.51940322 -0.87072182
0.33220699 0.049634159 -0.045744896
0.351762 0.33448517 -0.54343271
0.356442 0.40266216 -0.66254759
0.336781 -0.091602802 -0.16215467
0.354958 0.47747618 -0.78909254
0.34903798 -0.35347581 -0.6349926
0.33601499 -0.17315483 -0.296
0.32912999 0.18417317 -0.27306557
0.354067 0.56478715 -0.93730497
0.33476698 -0.2515918 -0.42320681
0.34448698 0.52036917 -0.85559082
0.32349899 0.29081917 -0.45124483
0.33310199 0.44471121 -0.71951056
0.31487098 -0.1588608 -0.21019268
0.30699798 0.12309521 -0.15506363
0.31484199 0.25202817 -0.37970066
0.31995797 0.3361122 -0.52619696
0.321659 0.36407816 -0.57491684
0.32658198 0.44498616 -0.71587896
0.32862198 0.47851819 -0.77429676
0.31938201 -0.33044386 -0.50969458
0.30468199 0.18572116 -0.26032257
0.29859799 0.0831092 -0.081641674
0.32205498 0.4787772 -0.77060699
0.28919399 0.023438215 0.0259552
0.32050997 0.56587517 -0.91804695
0.30728298 0.3367582 -0.51932192
0.31120598 0.40472418 -0.63759899
0.31356198 0.44553518 -0.70862198
0.31549597 0.4790352 -0.76692057
0.289152 -0.061737776 0.027203083
0.30476898 0.40501517 -0.63404799
0.30894199 0.4792932 -0.763237
0.311317 0.52156317 -0.83675671
0.28301299 0.12473017 -0.1427598
0.28860199 0.2270332 -0.32060385
0.27752799 0.024327159 0.031780243
0.29218 0.2925272 -0.43445158
0.27912599 0.053570211 -0.019056797
0.30056798 0.44608021 -0.70137691
0.27854598 0.15365016 -0.18922758
0.27170399 0.0247702 0.034689426
0.285936 0.29286617 -0.43110275
0.29191899 0.40559721 -0.62695265
0.294083 0.44635218 -0.69775772
0.295858 0.47980618 -0.75587988
0.288508 -0.38801587 -0.5153079
0.283737 -0.30279279 -0.35914755
0.27859899 -0.21102285 -0.1909709
0.26413101 -0.0088458061 0.096736431
0.27768499 0.25416821 -0.359972
0.279697 0.2932052 -0.42775393
0.29379299 0.56673717 -0.90270472
0.28138599 -0.38214076 -0.48464298
0.258371 -0.0083928108 0.099591255
0.26007301 0.025653183 0.040503025
0.26307198 0.085639179 -0.063602924
0.26100099 -0.1225028 0.0082802773
0.26723701 0.29388016 -0.4210639
0.255678 0.055294216 -0.0072417259
0.27075797 0.3665452 -0.54709578
0.27466398 0.44716418 -0.68692589
0.25101998 -0.040866852 0.15954924
0.25316298 0.1267522 -0.12742376
0.24686599 -0.0074908137 0.10529041
0.24846099 0.026532173 0.046311378
0.26629597 0.40675217 -0.6128006
0.24532199 -0.040404797 0.16234732
0.24721 0.12715417 -0.12436199
0.24266499 0.026970208 0.049210072
0.24538299 0.086892188 -0.054607868
0.26872897 0.60148418 -0.94614267
0.25683498 0.33931118 -0.49193287
0.26175201 0.44770318 -0.67971897
0.24573499 0.22958016 -0.29797077
0.23949899 0.087308168 -0.051612854
0.26204398 0.60167921 -0.9422698
0.25055799 0.33962721 -0.48852062
0.22964799 -0.0061438084 0.11382723
0.23108599 0.027843177 0.055007458
0.25027597 0.48158517 -0.73023176
0.23991199 -0.34796381 -0.30613279
0.23631398 -0.26605678 -0.15892792
0.23353998 0.23030019 -0.29152489
0.227745 0.088136196 -0.045630932
0.24731299 0.56822515 -0.87599754
0.24077798 0.40789616 -0.59869385
0.242434 0.44850516 -0.66893196
0.24379198 0.4818362 -0.72658157
0.22976299 -0.26098776 -0.13127899
0.22282799 -0.096785784 0.16301918
0.22345398 0.12875116 -0.11213875
0.22456899 0.15716821 -0.16126394
0.22588199 0.1906572 -0.21915579
0.21819699 -0.0052518249 0.11951208
0.23441499 0.40818119 -0.59517479
0.23731498 0.48208818 -0.72293282
0.23537199 0.60245717 -0.9268136
0.23084399 0.48233819 -0.71928787
0.21995498 -0.33153784 -0.22027063
0.22749999 0.56885517 -0.8646059
0.21926598 0.34119517 -0.47150469
0.217513 -0.43625081 -0.38781691
0.21043 -0.24603486 -0.049693584
0.20441099 -0.084393859 0.23764515
0.20569499 0.12994021 -0.10299253
0.20783798 0.19177622 -0.20970964
0.20105799 -0.0039198399 0.12802601
0.22090799 0.5690642 -0.86081266
0.21302499 0.3415072 -0.4681077
0.21081999 -0.43029284 -0.35826969
0.19840099 -0.080616832 0.26039124
0.19992098 -0.036745787 0.18467712
0.20072699 0.15870917 -0.14888859
0.19535598 -0.0034788251 0.13086128
0.205314 0.29720819 -0.38777399
0.19478199 0.15909117 -0.14580154
0.19583799 0.19251716 -0.20342255
0.19709899 0.23244017 -0.27224588
0.19915599 0.29753619 -0.38445759
0.20056398 0.34212816 -0.46132755
0.197607 -0.41853678 -0.29995155
0.191046 0.23279417 -0.26903963
0.19984899 0.52551919 -0.77336359
0.18537199 -0.22667384 0.056017399
0.19215599 0.4838292 -0.69748783
0.17678198 -0.13770878 0.22962427
0.18805699 0.57010221 -0.8419137
0.18483399 0.45088017 -0.63673687
0.17819798 -0.40127778 -0.21430159
0.171711 -0.034491777 0.19858408
0.16692099 -0.0012838244 0.14501238
0.17359099 0.26007617 -0.30454493
0.17743498 0.41071022 -0.56363583
0.17183599 -0.3956238 -0.18623257
0.16496798 -0.077830791 0.27667713
0.16608499 -0.034044862 0.20136118
0.16689199 0.23420221 -0.2562418
0.16125 -0.00084781647 0.14783716
0.16206199 0.033000171 0.089647293
0.16275899 0.062038183 0.039727211
0.16951999 0.34366721 -0.44441795
0.15941298 -0.077369809 0.27938604
0.16046399 -0.033597827 0.20413733
0.158586 0.13307118 -0.078686714
0.16086799 0.2345522 -0.25304794
0.15634498 0.033424199 0.092523098
0.16332899 0.34397316 -0.44104385
0.16575098 0.45166022 -0.62606096
0.15688899 -0.2797128 0.050960064
0.15772399 0.37193316 -0.48516083
0.16009699 0.48505518 -0.6794076
0.160974 0.52687716 -0.75122261
0.14934599 0.26143217 -0.29160166
0.15451899 0.52710217 -0.7475419
0.14151698 0.16249919 -0.11809778
0.142115 0.19581121 -0.17523861
0.1433 0.26177019 -0.28837156
0.146 0.41209316 -0.54621363
0.146725 0.4524352 -0.6154108
0.13893899 -0.26498878 0.12811136
0.13758299 -0.18980885 0.25752401
0.13789599 0.30078018 -0.35144377
0.13450399 0.094631195 0.0019659996
0.12931898 0.1349982 -0.063559532
0.13083398 0.2362892 -0.23711157
0.127327 0.0017461777 0.16475725
0.127832 0.03552717 0.10687733
0.13122499 0.26244217 -0.28192091
0.13180299 0.30110019 -0.34815598
0.13347098 0.41264117 -0.53926468
0.13407399 0.45294821 -0.608325
0.13456799 0.4860262 -0.66499996
0.12873098 -0.35735476 0.0038971901
0.12720698 -0.25537276 0.17852306
0.12819999 0.48626718 -0.66140461
0.11838399 0.19725418 -0.16276455
0.11646199 0.036361158 0.11260843
0.11917099 0.26311117 -0.27547693
0.11963299 0.30173922 -0.34158754
0.12096399 0.41318721 -0.5323267
0.12144599 0.4534592 -0.60124969
0.12183999 0.48650819 -0.65781164
0.11566799 -0.030059814 0.22629213
0.11288099 0.23732221 -0.22757483
0.11472099 0.41345918 -0.528862
0.11098899 -0.34162676 0.08211422
0.10655299 0.19797021 -0.15654182
0.10564499 0.096612215 0.016744137
0.10848399 0.41373116 -0.52540064
0.10884399 0.45396817 -0.59418869
0.10064399 0.19832718 -0.15343189
0.10093999 0.23800617 -0.22122955
0.09919399 0.0038821697 0.17881823
0.098625988 -0.07236886 0.30910826
0.10080199 -0.52245486 -0.18975592
0.10022799 -0.44461882 -0.058215618
0.09497799 0.23834717 -0.21805954
0.09378399 0.03801918 0.12405109
0.095626988 0.3472892 -0.40409994
0.096462987 0.48746517 -0.64347696
0.09366399 -0.32628083 0.15847301
0.093128994 -0.071919799 0.31180334
0.093387991 -0.028313816 0.23733425
0.088696986 0.16583818 -0.090552807
0.087545991 -0.22290683 0.34887934
0.082854986 0.16620421 -0.08750391
0.083071992 0.2390272 -0.21172667
0.083594993 0.41481018 -0.51158094
0.083714992 0.45497817 -0.58009863
0.082030989 -0.11065781 0.3847971
0.077222988 0.30395019 -0.3186717
0.076871991 0.068143189 0.083359241
0.077329993 0.37568617 -0.44097376
0.077388987 0.41507816 -0.50813293
0.076903991 -0.42218387 0.047550201
0.071185991 0.30426317 -0.31540585
0.071185991 0.37597018 -0.43759155
0.071185991 0.48841318 -0.62918854
0.071185991 -0.20953476 0.4191184
0.071185991 -0.15233982 0.46264505
0.071185991 -0.070134759 0.32256842
0.071185991 -0.49241781 -0.052890778
0.071185991 -0.4166888 0.073468208
0.065402992 0.1391632 -0.030443668
0.065549992 0.040071189 0.13831902
0.065461993 0.099349201 0.037363052
0.06577199 -0.10928786 0.39269114
0.06564799 -0.026154816 0.25110722
0.065515988 -0.41124082 0.099171162
0.059441991 0.20080316 -0.13172674
0.060017988 0.0068321824 0.19843817
0.059132989 0.30488616 -0.30888557
0.058802988 0.41587919 -0.49780273
0.060361989 -0.10883379 0.39532137
0.06024399 -0.069248796 0.32794237
0.059889991 -0.40583587 0.12467146
0.05385099 0.13990921 -0.024446964
0.052795991 0.37681818 -0.42746592
0.052620992 0.41614419 -0.4943676
0.054956988 -0.10837984 0.39794827
0.047717988 0.20150316 -0.12554359
0.04748299 0.24104822 -0.19277859
0.048668988 0.041291177 0.14686108
0.048496991 0.070132196 0.097823143
0.046674989 0.37709922 -0.42409468
0.046441987 0.41640919 -0.49093056
0.047756992 -0.57039678 -0.1143589
0.049318992 -0.068366766 0.33331203
0.04231799 0.14065117 -0.018456936
0.042109989 0.1687482 -0.06619978
0.04076599 0.34994018 -0.37409878
0.040270992 0.4166742 -0.48749876
0.039973989 0.45672321 -0.55555391
0.04354199 -0.024444818 0.26210022
0.042740989 -0.46360779 0.078510284
0.036015991 0.20220017 -0.11936855
0.037183989 0.070921183 0.10359621
0.034106988 0.41693819 -0.48406887
0.039471991 -0.18641579 0.54066515
0.038765989 -0.10702479 0.40582514
0.036325991 -0.55800879 -0.060203552
0.038027991 -0.024018824 0.26484632
0.033470988 -0.27307379 0.42358446
0.034201991 -0.18594384 0.54317617
0.033819988 -0.14908481 0.48060942
0.032405991 -0.37946177 0.24919033
0.024727989 0.1698252 -0.057101727
0.022259988 0.37821817 -0.41063976
0.02179499 0.41746318 -0.47721863
0.028499991 -0.14862478 0.48317003
0.027995989 -0.10612679 0.4110713
0.01984499 0.10242319 0.060824394
0.016532991 0.35110021 -0.36083078
0.02261699 -0.10567987 0.413692
0.02170499 -0.36920285 0.29765511
0.015039988 0.043705165 0.16390419
0.0095049888 0.41798717 -0.47037792
0.017903991 -0.25934279 0.49209929
0.018415991 -0.18453383 0.550704
0.017870989 -0.14770579 0.48829222
0.01724299 -0.10523283 0.41631317
0.016658988 -0.065743804 0.34939003
0.0078469887 0.14285916 -0.00053071976
0.00999799 0.010557175 0.22356129
0.0094529912 0.044105172 0.16673946
0.012791991 -0.2548368 0.51459312
0.01052599 -0.021907806 0.2785511
0.0021199882 0.14322418 0.0024523735
0.003869988 0.044503212 0.16957331
-0.00012101233 0.26963317 -0.21153498
-0.0015810132 0.35196316 -0.35090256
0.007716991 -0.25036383 0.53692341
0.0079139918 -0.1835978 0.55571938
0.0058089867 -0.064877868 0.35473919
-0.0055320114 0.2440272 -0.16449976
-0.006765008 0.30826521 -0.27318287
-0.0076090097 0.35225016 -0.3475976
-0.0034470111 -0.58024883 0.019199371
0.00038999319 -0.064445853 0.35741425
-0.0098990127 0.17195821 -0.038949966
-0.0065900087 0.011782169 0.23191118
-0.012722008 0.30856717 -0.26994991
-0.008502014 0.10431719 0.075432301
-0.0059200078 -0.020651817 0.28675842
-0.011392012 -0.020235837 0.28949118
-0.021399014 0.1726622 -0.032914639
-0.023106009 0.2450062 -0.15511084
-0.027142011 0.17301321 -0.029899597
-0.020250008 -0.10213578 0.43462324
-0.024883009 -0.55607176 0.12232733
-0.022322014 -0.019404829 0.29495335
-0.032139011 0.14539617 0.020303249
-0.030289009 0.075582206 0.13810444
-0.03766001 0.35367119 -0.33111286
-0.022248007 -0.22775578 0.64994001
-0.023492008 -0.18081784 0.57074022
-0.037831008 0.14575517 0.023273468
-0.034141012 0.013805211 0.24579811
-0.042426012 0.31007117 -0.2538228
-0.035879008 0.075965166 0.14097023
-0.04441601 0.38124019 -0.3738389
-0.032025009 -0.06187582 0.37342739
-0.029442012 -0.32026184 0.52914906
-0.046465009 0.24630117 -0.14262056
-0.040621012 0.047657192 0.19219017
-0.03392601 -0.17989981 0.57573938
-0.038818009 -0.4767698 0.2954731
-0.036244012 -0.38385284 0.44296932
-0.050062008 0.17440921 -0.017857552
-0.052292012 0.24662316 -0.13950396
-0.05562301 0.35451621 -0.32125092
-0.037689008 -0.22634184 0.65724611
-0.043881014 -0.47130978 0.31941319
-0.03922601 -0.31091881 0.57340002
-0.056844011 0.20765918 -0.070245743
-0.05262401 0.077107191 0.14955616
-0.046900012 -0.099952817 0.44767046
-0.046116009 -0.37391186 0.48847723
-0.044066012 -0.30629885 0.59528637
-0.061493009 0.17510217 -0.011847973
-0.066092014 0.31126118 -0.2409606
-0.067572013 0.35507619 -0.31468773
-0.049547009 -0.17852879 0.58323336
-0.059424013 -0.63536084 0.09122324
-0.053893015 -0.46051681 0.36675215
-0.053545013 -0.060180783 0.38408041
-0.055006012 -0.016936839 0.31131029
-0.066217005 0.14753819 0.038094997
-0.068358004 0.20832717 -0.064140797
-0.061576009 0.015804172 0.25965118
-0.062753007 0.049213171 0.20346403
-0.07065101 0.27340221 -0.17358255
-0.064825013 0.10803819 0.10452604
-0.073538005 0.3553552 -0.3114109
-0.053352013 -0.22740984 0.65223312
-0.056038007 -0.14138985 0.52402925
-0.058842003 -0.45518482 0.39015102
-0.058914006 -0.059759855 0.38673925
-0.055844009 -0.36412382 0.53330612
-0.069676012 -0.62291276 0.14202118
-0.061285004 -0.14094579 0.52657509
-0.065811008 -0.50999081 0.31911802
-0.063755006 -0.44989276 0.41337013
-0.064278007 -0.059339762 0.38939905
-0.065863013 -0.016121805 0.31675243
-0.060654014 -0.35928476 0.55547333
-0.059225008 -0.3009218 0.62096643
-0.077536017 0.14824522 0.044010162
-0.076031014 0.10877216 0.11032724
-0.063878015 -0.22873676 0.64585209
-0.074742004 -0.61676478 0.16712046
-0.071285009 -0.015714824 0.31947041
-0.083190009 0.14859819 0.04696703
-0.084293008 0.17647916 0.00015306473
-0.087144017 0.2485382 -0.12083673
-0.077982008 0.016993165 0.2679472
-0.089673012 0.31244022 -0.22813272
-0.080435008 0.078994215 0.16383934
-0.091404006 0.35618818 -0.30158997
-0.07670401 -0.015309811 0.32218933
-0.06981501 -0.30233979 0.61451626
-0.088837013 0.14895016 0.049920082
-0.089980006 0.17682117 0.0031480789
-0.095554009 0.31273317 -0.22493172
-0.087219015 0.10950321 0.11612034
-0.097348005 0.35646421 -0.29831982
-0.075498015 -0.17626584 0.59570312
-0.08476001 -0.6046108 0.21674728
-0.075118005 -0.30305183 0.61128426
-0.098719016 0.2491712 -0.11463261
-0.090312004 0.051137209 0.21752405
-0.099814013 0.27494216 -0.15785789
-0.092805013 0.10986722 0.11901522
-0.10328601 0.35674018 -0.29505301
-0.079713017 -0.23073983 0.63625145
-0.10011701 0.14965117 0.055823326
-0.094624013 -0.5926528 0.26559734
-0.08778201 -0.42403984 0.52689314
-0.09103401 -0.057252765 0.40267706
-0.086229011 -0.35268378 0.58618546
-0.085741013 -0.30448079 0.60481024
-0.09029901 -0.2320838 0.62983036
-0.092680007 -0.13830483 0.54182625
-0.091064006 -0.30519879 0.60156536
-0.11421502 0.21096921 -0.039791584
-0.12107101 0.3575632 -0.28526592
-0.095600009 -0.23275876 0.62661314
-0.099872008 -0.095660806 0.47368526
-0.10372502 -0.013296843 0.33575821
-0.096391007 -0.30591786 0.59831905
-0.11700201 0.15069616 0.064664364
-0.12181 0.25042719 -0.10224581
-0.10134701 -0.1740278 0.60815334
-0.10311101 -0.13743281 0.54690313
-0.10434201 -0.46672583 0.50418139
-0.109115 -0.012896836 0.33846903
-0.12262101 0.15104216 0.06760931
-0.11775501 0.053040206 0.23154831
-0.12884702 0.27646416 -0.14218378
-0.12066601 0.1116752 0.13346338
-0.10900001 -0.46150386 0.52654123
-0.10706301 -0.30736184 0.59181213
-0.131327 0.2119472 -0.03069067
-0.12468801 0.081969202 0.18661308
-0.12622401 0.1120342 0.13634729
-0.11154 -0.23479283 0.61694241
-0.113525 -0.13656485 0.5519762
-0.11421601 -0.46087587 0.52937031
-0.11373301 -0.42001987 0.5451951
-0.14042601 0.27706718 -0.13592768
-0.12916201 -0.67912483 0.22249126
-0.11835001 -0.35719478 0.56653833
-0.11776102 -0.30881381 0.58528709
-0.14094701 0.17986417 0.030028343
-0.14271301 0.21259618 -0.024631977
-0.13237201 0.020898163 0.2955122
-0.146207 0.27736819 -0.13280296
-0.13570601 0.082704186 0.19229221
-0.12800302 -0.55224979 0.43079329
-0.12392502 -0.13569987 0.55704641
-0.12452102 -0.42161381 0.53856611
-0.12372401 -0.35795379 0.56324911
-0.14504801 0.15242219 0.079369068
-0.13778602 0.021283209 0.29826307
-0.13962801 0.054545164 0.24274111
-0.15408401 0.3156262 -0.1930356
-0.14287101 0.11310619 0.14499426
-0.15775301 0.27796721 -0.12655973
-0.146704 0.083435178 0.1979661
-0.14841001 0.11346221 0.1478734
-0.13288002 -0.23753083 0.60398722
-0.13430601 -0.13483977 0.56211138
-0.13385101 -0.31100476 0.5754714
-0.16202602 0.2525962 -0.080641747
-0.15219802 0.083800197 0.20080042
-0.14231402 -0.53932381 0.4838171
-0.13949201 -0.13441086 0.56464338
-0.14672901 -0.010123789 0.357409
-0.16542301 0.21388316 -0.012537956
-0.15947501 0.11417121 0.1536274
-0.14264701 -0.17131579 0.62374544
-0.14777701 -0.54020381 0.48043346
-0.14674301 -0.46583986 0.50932217
-0.14528501 -0.36100781 0.55005026
-0.17735201 0.31676418 -0.180336
-0.16316801 0.084526181 0.20646524
-0.16500001 0.11452419 0.15650225
-0.14798601 -0.17196679 0.62051916
-0.15730201 -0.64225376 0.36644602
-0.15480901 -0.052340865 0.43443012
-0.15069102 -0.36177683 0.54674006
-0.17297401 0.15412819 0.094033241
-0.17674801 0.21452218 -0.0065016747
-0.179185 0.2535162 -0.071409702
-0.15333001 -0.17261887 0.61728716
-0.15765101 -0.091050863 0.5021801
-0.160096 -0.051937819 0.43707132
-0.16278201 -0.0089488029 0.36550713
-0.18489501 0.25382018 -0.068337917
-0.17017901 0.023578167 0.31473207
-0.159692 -0.24099278 0.58770227
-0.16420402 -0.54285777 0.47025442
-0.16019002 -0.13270581 0.57475901
-0.165378 -0.051535845 0.43970823
-0.160794 -0.31469584 0.55902624
-0.192276 0.2797482 -0.10787487
-0.18155 0.11557919 0.16511631
-0.16855401 -0.46919179 0.49587202
-0.17346402 -0.0081707835 0.37090015
-0.18967402 0.15514219 0.10281229
-0.169401 -0.17458582 0.60756636
-0.17519002 -0.54463887 0.46344423
-0.17402302 -0.47003579 0.49249935
-0.17593101 -0.050733805 0.4449811
-0.19934201 0.21579117 0.0055513382
-0.17567201 -0.13143682 0.58233833
-0.17853701 -0.089402795 0.51251411
-0.20270902 0.1834982 0.062697411
-0.20768702 0.2550332 -0.056064606
-0.181254 -0.2437948 0.57460022
-0.18014503 -0.17590582 0.60106611
-0.18497902 -0.4717288 0.48573923
-0.18646601 -0.049935818 0.45024824
-0.201426 0.087043166 0.22624731
-0.20355102 0.11697316 0.17658138
-0.18666202 -0.2444998 0.57131433
-0.18552801 -0.17656887 0.59781027
-0.19171602 -0.54732776 0.45319414
-0.185974 -0.1305958 0.58738613
-0.19172901 -0.049537778 0.45288324
-0.21623802 0.21673518 0.014573097
-0.219055 0.2556352 -0.049937725
-0.20904002 0.11732018 0.17944431
-0.200093 -0.0062398314 0.38436222
-0.19333401 -0.31918883 0.53915119
-0.22186002 0.21704918 0.017576218
-0.21021801 0.059345186 0.27897501
-0.21231601 0.08775419 0.23188639
-0.205405 -0.70098686 0.3870492
-0.20223901 -0.048744798 0.45814323
-0.22502702 0.18479621 0.074527264
-0.20829901 -0.55003786 0.44290543
-0.20697102 -0.47514379 0.47216225
-0.207488 -0.048349857 0.46077442
-0.21071401 -0.0054728389 0.38973904
-0.205098 -0.36957276 0.51340246
-0.23309001 0.21767318 0.023578167
-0.221012 0.06007117 0.28453016
-0.223187 0.088462174 0.23752022
-0.20711702 -0.17923582 0.58474302
-0.216591 -0.70300186 0.38003826
-0.21384102 -0.55094576 0.43946505
-0.20968902 -0.32146084 0.52915716
-0.23869902 0.2179842 0.026576996
-0.213788 -0.24805284 0.55481911
-0.22219601 -0.70401287 0.37652445
-0.22089002 -0.63320684 0.404212
-0.21797502 -0.047562838 0.46602917
-0.21515501 -0.32222283 0.52581644
-0.23952302 0.1581412 0.12906504
-0.227806 -0.70502687 0.3730073
-0.22154701 -0.37195182 0.50331402
-0.228275 -0.43718481 0.47472239
-0.22704202 -0.37274885 0.49994421
-0.25282001 0.18640119 0.089277267
-0.22880802 -0.18193078 0.57160902
-0.23904601 -0.70706284 0.36595726
-0.237663 -0.63611376 0.39374208
-0.23367202 -0.046388865 0.47390604
-0.237194 -0.0035728216 0.403162
-0.24165002 -0.55552185 0.42220116
-0.233219 -0.13077176 0.58862543
-0.242479 -0.0031958222 0.40584326
-0.26156002 0.15945417 0.14069223
-0.263906 0.18703818 0.095166206
-0.25570101 0.090566158 0.25438929
-0.24723101 -0.55644381 0.41873503
-0.247758 -0.0028188229 0.40852404
-0.25596002 -0.71013677 0.35534525
-0.25041902 -0.44056082 0.46107721
-0.25303301 -0.0024437904 0.41120243
-0.27497202 0.1876722 0.10104942
-0.26111302 0.02990818 0.36115837
-0.26650202 0.091261208 0.26000214
-0.25060302 -0.18465376 0.55840635
-0.26161101 -0.71116781 0.3517971
-0.24951702 -0.13271785 0.57878733
-0.251127 -0.083753824 0.54855728
-0.25454602 -0.04483676 0.48439312
-0.254619 -0.37676477 0.48302126
-0.28339502 0.22044617 0.050504208
-0.26401702 -0.5592258 0.40830517
-0.26241401 -0.48383582 0.43790436
-0.26015502 -0.37757385 0.47962332
-0.27472302 0.063648164 0.31222725
-0.26302102 -0.25456381 0.52485704
-0.26496002 -0.044065833 0.48963022
-0.29153901 0.18861717 0.10986137
-0.277033 0.030999184 0.36931515
-0.28267401 0.092297196 0.26840925
-0.26852402 -0.25529683 0.52150822
-0.277042 -0.64298785 0.36914301
-0.27358401 -0.48560083 0.43099642
-0.27267 -0.44397378 0.44735527
-0.29447901 0.1614002 0.15808916
-0.27250102 -0.18740582 0.54513502
-0.27570102 -0.33072984 0.48878002
-0.29995 0.16172117 0.16098309
-0.28762501 0.031722188 0.37474632
-0.29625601 0.1227572 0.22505236
-0.27799201 -0.18809783 0.54180622
-0.28478101 -0.48737586 0.42407227
-0.31118101 0.22196019 0.065405369
-0.286796 -0.33230281 0.48198938
-0.29060403 -0.25824785 0.50805712
-0.29969802 -0.64697182 0.35497713
-0.29600602 -0.48915982 0.41712618
-0.290921 -0.042153835 0.50270605
-0.30348301 0.032800198 0.38288546
-0.29614002 -0.25898981 0.5046854
-0.30063602 -0.4482888 0.4301033
-0.29610202 -0.041773796 0.50531912
-0.30032501 0.00089716911 0.43526316
-0.29909301 -0.38329983 0.45570707
-0.32454902 0.19048721 0.12744427
-0.31206602 0.066102207 0.33153915
-0.31788501 0.12408519 0.23639822
-0.30168301 -0.2597338 0.50130844
-0.30725801 -0.4909538 0.41016245
-0.30555901 0.0012642145 0.43793106
-0.32724002 0.16331822 0.17543125
-0.32025701 0.094687164 0.28798437
-0.304268 -0.13931382 0.54571342
-0.30283502 -0.080765843 0.56880522
-0.31289402 -0.49185383 0.40667343
-0.30645001 -0.041017771 0.51054001
-0.31078902 0.001630187 0.44059801
-0.32561001 0.095025182 0.2907753
-0.322467 -0.65099883 0.340734
-0.338126 0.16395116 0.18120241
-0.33095801 0.095362186 0.29356527
-0.31835401 -0.26197886 0.49114704
-0.32817701 -0.65201187 0.33716106
-0.32610202 -0.56961179 0.36969423
-0.31678402 -0.040264845 0.51576042
-0.32392401 -0.26273084 0.48775101
-0.319325 -0.082663774 0.55887842
-0.329501 -0.26348484 0.48435116
-0.331449 -0.33867681 0.4546361
-0.35442001 0.16489619 0.18984413
-0.335085 -0.26424086 0.48094702
-0.34318101 -0.57249677 0.35906124
-0.33035001 -0.08393681 0.55223846
-0.34118202 -0.49638987 0.38915443
-0.34008002 -0.45442486 0.40574932
-0.33706102 -0.33948183 0.45119619
-0.35984501 0.16520917 0.19272423
-0.36286202 0.19263619 0.14788818
-0.35109001 -0.65609181 0.32281733
-0.337439 -0.14335382 0.52565813
-0.33587402 -0.084576845 0.54891109
-0.34574401 -0.45531082 0.40224838
-0.33740401 -0.038768768 0.52618408
-0.34400502 -0.38997078 0.42809725
-0.35083503 0.035990179 0.4072423
-0.354496 0.068858206 0.35353804
-0.346275 -0.2657578 0.474123
-0.35141402 -0.45619881 0.39874601
-0.348308 -0.34110081 0.44430208
-0.362957 0.097369194 0.31027746
-0.34998602 -0.19725978 0.49813128
-0.36032602 -0.57540476 0.34838343
-0.35709101 -0.45708978 0.39523745
-0.37608701 0.16614419 0.20134926
-0.361312 0.036690176 0.41264343
-0.37166002 0.12734818 0.26466846
-0.36654702 0.037038207 0.41534138
-0.36116502 -0.19869685 0.49134445
-0.37411901 -0.66021383 0.30839109
-0.37989402 -0.66125083 0.30477238
-0.36359102 -0.087797761 0.53221321
-0.37536401 -0.50191176 0.36797047
-0.37237102 -0.20014179 0.48453903
-0.37085402 -0.14745581 0.505445
-0.36821702 -0.036551833 0.54179239
-0.37654701 -0.34518278 0.42698622
-0.38951001 0.099020183 0.32417011
-0.38221502 -0.3460058 0.42350721
-0.40307501 0.16768819 0.21569824
-0.387438 0.038424194 0.42612314
-0.40372401 0.1292702 0.28157043
-0.391312 -0.27190781 0.44664145
-0.38923302 -0.20232177 0.47429609
-0.38765502 -0.14953077 0.49527645
-0.394867 -0.20305276 0.4708724
-0.404048 -0.50657976 0.35018015
-0.38986501 -0.037666798 0.53663301
-0.40306702 0.039455175 0.43419933
-0.39909801 0.007722199 0.48577738
-0.41969901 0.13022017 0.29000139
-0.408317 -0.27424586 0.43625927
-0.41795102 -0.58526182 0.31246042
-0.404257 0.0080721974 0.48842621
-0.41346702 0.040138185 0.43957806
-0.42124 0.10097522 0.3408041
-0.40662 -0.039537787 0.52656937
-0.41866001 0.040479183 0.44226646
-0.42288902 0.0732252 0.3891263
-0.426514 0.10129821 0.34357023
-0.419691 -0.27581584 0.42931223
-0.41747701 -0.20599377 0.45713234
-0.42956701 -0.58726382 0.30521345
-0.42578301 -0.46795583 0.35275316
-0.41221902 -0.040164828 0.52320528
-0.42385 0.040818214 0.44495201
-0.43563899 0.13116318 0.29842329
-0.43538502 -0.58826876 0.30158234
-0.431555 -0.46887684 0.34918022
-0.41782501 -0.040793777 0.51983643
-0.43871203 -0.51226187 0.32866621
-0.423437 -0.041423798 0.51646328
-0.43421701 0.041495204 0.45032215
-0.438575 0.07421416 0.39731026
-0.44624403 0.13178819 0.30403137
-0.44312099 -0.47072577 0.34201908
-0.42905703 -0.042054772 0.51308632
-0.43939599 0.041832209 0.45300627
-0.44379804 0.074542165 0.40003729
-0.43843898 -0.15585279 0.46452236
-0.44457099 0.0421682 0.455688
-0.44901499 0.074869215 0.40276241
-0.44825104 -0.27977479 0.41186237
-0.44590101 -0.20971382 0.43985033
-0.45873502 -0.59231579 0.28700638
-0.44411799 -0.15656376 0.46108007
-0.45614603 -0.51513684 0.31783819
-0.440267 0.010504186 0.50693846
-0.45398399 -0.28057277 0.40835714
-0.464591 -0.59333384 0.28334904
-0.44596002 -0.04396081 0.5029254
-0.44539604 0.010848165 0.50957823
-0.45828101 -0.40726686 0.35771847
-0.45490703 0.042838216 0.46105146
-0.45972499 -0.28137279 0.40484619
-0.45549598 -0.15799177 0.45418644
-0.46634498 -0.47445178 0.32763624
-0.46464399 0.075846195 0.41093016
-0.46987203 -0.40904582 0.35057116
-0.46984604 0.076170206 0.41365147
-0.48220798 -0.59640384 0.27234745
-0.47038499 0.04383719 0.46908617
-0.479036 0.10448617 0.37118435
-0.47699502 -0.28378487 0.39428806
-0.48809502 -0.59743285 0.26866722
-0.47050503 -0.10041976 0.46772814
-0.46859702 -0.046522856 0.48931217
-0.466562 0.010994196 0.51234818
-0.47834101 -0.16087079 0.44033718
-0.49121901 -0.52095282 0.29604435
-0.48731199 -0.41173184 0.33981228
-0.48068401 0.044499159 0.47443819
-0.48854402 -0.28540385 0.3872242
-0.48600003 -0.21500182 0.41545105
-0.47995898 -0.047813773 0.48248005
-0.49131301 -0.36205077 0.35649538
-0.49175903 -0.21576583 0.41194439
-0.50297201 -0.52291179 0.2887373
-0.48354802 0.0091722012 0.50217342
-0.49713102 -0.36291778 0.35291719
-0.49752501 -0.2165308 0.40843534
-0.49334404 -0.10315681 0.4539361
-0.50097597 0.078097165 0.42995119
-0.50329804 -0.21729779 0.40491915
-0.51315904 -0.48202276 0.29862022
-0.50878704 -0.36465681 0.34574699
-0.504807 -0.10453582 0.44701242
-0.50277007 -0.050416827 0.46875525
-0.51283097 -0.16524577 0.41941738
-0.52657199 -0.52685976 0.27406025
-0.50849307 -0.051071763 0.46531105
-0.50629699 0.0067201853 0.48854113
-0.51149201 0.046466172 0.49046946
-0.52165306 0.079367161 0.44079924
-0.52920806 -0.29113483 0.36234236
-0.52646601 -0.22038579 0.39081001
-0.53841805 -0.52884877 0.2666893
-0.53416204 -0.41899776 0.31089211
-0.53219199 -0.36816382 0.33134604
-0.52782404 -0.10731483 0.43310547
-0.52749598 0.046438158 0.49183035
-0.53196895 0.079997182 0.44621515
-0.54394102 -0.36992979 0.32411623
-0.54982805 -0.37081683 0.32049227
-0.549757 -0.22350681 0.37662029
-0.54064107 0.0029962063 0.4679513
-0.55777407 -0.42268777 0.29630613
-0.54639101 0.0023691654 0.46450233
-0.56144798 -0.22507882 0.36949635
-0.57238007 -0.49170876 0.26187134
-0.55214798 0.0017421842 0.46105003
-0.55616295 0.043452203 0.47469139
-0.56257606 -0.11153686 0.41209745
-0.56032097 -0.057040811 0.4341054
-0.57345307 -0.37438786 0.30594301
-0.57614303 -0.29781282 0.33359814
-0.57937801 -0.37528586 0.3022933
-0.57904506 -0.22745275 0.35876703
-0.59212697 -0.5379318 0.23324823
-0.56946802 -0.00015181303 0.45066118
-0.58492601 -0.22824776 0.35518122
-0.58589602 -0.11438882 0.39799309
-0.599401 -0.42923677 0.27057314
-0.59979999 -0.30120385 0.31910038
-0.60316205 -0.37890279 0.28763819
-0.60025203 -0.17648077 0.3663373
-0.61431503 -0.49863982 0.23582125
-0.609128 -0.37981284 0.2839613
-0.61736298 -0.43208086 0.25946331
-0.61762595 -0.30376983 0.30817223
-0.61444902 -0.23225486 0.33717537
-0.60934198 -0.1172688 0.38380718
-0.62336695 -0.43303382 0.25574923
-0.62937999 -0.43398881 0.25202847
-0.62707603 -0.3825568 0.27289915
-0.62111306 -0.11871982 0.37668324
-0.63552606 -0.30635583 0.29719305
-0.64451504 -0.50366879 0.21704817
-0.63821304 -0.23549879 0.32267427
-0.63571298 -0.18109679 0.34478331
-0.64509606 -0.38532281 0.26178408
-0.64165103 -0.18187284 0.34117222
-0.65350997 -0.43783486 0.23709345
-0.65349901 -0.30896282 0.28616714
-0.66552198 -0.31071079 0.27879143
-0.66924095 -0.38904381 0.24688911
-0.67777503 -0.44172084 0.22206831
-0.67529798 -0.38997984 0.24315023
-0.67757905 -0.31246877 0.27139139
-0.68136501 -0.39091885 0.23940516
-0.68995905 -0.44367886 0.21452045
-0.68743801 -0.39185977 0.23565722
-0.68966901 -0.31423581 0.26396847
-0.69961107 -0.39374983 0.22814322
-0.70571005 -0.39469779 0.22437716
-0.73286998 -0.45061278 0.18792534
