# .PCD v0.7 - Point Cloud Data file format
VERSION 0.7
FIELDS x y z
SIZE 4 4 4
TYPE F F F
COUNT 1 1 1
WIDTH 1
HEIGHT 1024
VIEWPOINT 0 0 0 1 0 0 0
POINTS 1024
DATA ascii
1.0867014 -0.11603576 0.011974812
1.0698024 -0.091612756 -0.12151623
1.0449344 -0.11536473 0.01023674
1.0330083 -0.11517578 0.0097694397
1.0454733 -0.09123677 -0.12243032
1.0819863 -0.043985724 -0.38388443
1.0587354 -0.065957725 -0.26203823
1.0463274 -0.065774739 -0.26245737
1.0211583 -0.090867698 -0.12329721
1.0401244 -0.065682709 -0.26266146
1.0339214 -0.065591753 -0.26286316
1.0277194 -0.06550175 -0.26306438
1.0617274 -0.019743741 -0.51624918
0.98090935 -0.1092158 0.041095734
1.0488733 -0.019566774 -0.51661158
0.97359031 -0.11447269 0.0062184334
1.0360204 -0.019390762 -0.51696157
0.96316636 -0.1684497 0.040178776
0.95936233 -0.067804754 0.023635864
0.98370433 -0.25927871 -0.16378117
0.95582634 -0.1215747 -0.041881561
0.94542331 -0.1758768 -0.0074462891
0.94944835 -0.084029734 -0.08671236
0.92521232 0.019288242 0.058198452
0.92264432 0.015641272 0.031225681
0.92658132 -0.22992879 -0.00038719177
0.93782133 -0.12878472 -0.090622425
0.92986935 -0.037003756 -0.075326443
0.92005533 0.011964262 0.0040316582
0.9220823 -0.23189372 -0.012363434
0.91756934 -0.23386472 -0.024375439
0.89684933 0.11264926 0.096399784
0.90486234 0.054592252 0.030667782
0.92200631 -0.048940718 -0.16014433
0.91379631 -0.18914479 -0.092308521
0.9305163 0.10144925 -0.28189516
0.90949535 -0.0030447245 -0.10690832
0.9092173 -0.19106871 -0.10459042
0.89936334 -0.24182373 -0.072823524
0.9046213 -0.19299978 -0.11691713
0.8947733 -0.24383169 -0.085035324
0.88242632 -0.074577749 -0.031388283
0.87979931 -0.026703715 -0.0090222359
0.87759531 0.013446271 0.0097355843
0.88861334 -0.18729776 -0.084052563
0.86460531 0.02191323 0.070040703
0.87861735 -0.23749775 -0.050143242
0.87534231 -0.17687172 -0.022055149
0.84900731 0.14834827 0.10302162
0.8507933 0.062888265 0.087470531
0.85428631 -0.1043008 0.057047844
0.85838431 0.22015524 -0.030826569
0.85479635 -0.41426677 0.00066280365
0.83797336 0.11354625 0.096723557
0.84060431 -0.014308751 0.073456764
0.8342793 -0.28464478 0.024298668
0.83445734 0.22041023 -0.031107426
0.82213831 0.024004281 0.080479622
0.81445736 0.11388725 0.096852779
0.81376135 0.14884126 0.10321188
0.80709034 0.18938226 0.11061478
0.83423436 0.24008024 -0.13925028
0.85198635 0.26964724 -0.30265617
0.8027063 0.11405325 0.096916676
0.84576535 0.26970726 -0.30269718
0.80369532 0.063611269 0.087738514
0.81160831 -0.33999473 0.014295578
0.81051332 -0.2841447 0.024458885
0.86020631 0.30475026 -0.49605751
0.7902863 0.14915723 0.10333776
0.7919333 0.063785255 0.087802887
0.79971534 -0.33973879 0.01437664
0.79633033 -0.16420275 0.046317577
0.78508931 0.11429828 0.097010612
0.78680634 0.024554253 0.080680847
0.79377031 -0.33961171 0.014415741
0.79150236 -0.22098976 0.036001682
0.79041433 -0.16409379 0.046354771
0.78017634 0.063956261 0.08786869
0.78782731 -0.33948678 0.014456749
0.78449833 -0.16398674 0.046390533
0.81467932 0.27000427 -0.30286741
0.83465034 0.30498123 -0.49612236
0.77858335 -0.16387969 0.046426773
0.76607633 0.18989527 0.11082554
0.76022232 0.18996626 0.11085463
0.78566432 0.24056226 -0.13961935
0.77135533 -0.41235477 0.0012497902
0.7640633 -0.33899575 0.014613628
0.76189035 -0.2204327 0.036187649
0.76275635 0.22114128 -0.031760216
0.75220335 -0.012893736 0.073968887
0.7515133 0.025077283 0.080878735
0.75493735 -0.16346174 0.046571732
0.74793231 -0.10243279 0.057693481
0.73753631 0.14983124 0.10361147
0.73681432 0.19024426 0.11097383
0.76139933 0.24079525 -0.13975954
0.77740532 0.27034825 -0.30300856
0.73905832 0.06453228 0.088090897
0.74755734 -0.41184872 0.001408577
0.74312234 -0.16325778 0.046641827
0.73096532 0.19031227 0.11100245
0.73318934 0.064612269 0.088121891
0.73933035 -0.28273779 0.024917603
0.73613936 -0.10224169 0.057760715
0.72946435 -0.057633698 0.065895557
0.72867435 -0.012545764 0.074098587
0.73024434 -0.10214776 0.057794571
0.72357535 -0.057544768 0.065927505
0.75877935 0.27051526 -0.30305433
0.77720433 0.30547923 -0.49616623
0.72972035 -0.41148072 0.0015268326
0.72639233 -0.21979469 0.036405563
0.71411932 0.15011328 0.10372877
0.71691436 -0.012376726 0.074163437
0.73714632 0.24102128 -0.13986826
0.70826834 0.15018326 0.10375977
0.70757931 0.19057828 0.11111784
0.71180534 -0.057368696 0.065992832
0.71103734 -0.012292743 0.074196815
0.71456933 -0.21958977 0.036475658
0.71256334 -0.10187072 0.05789566
0.70300734 0.11536026 0.097439766
0.70516032 -0.012210727 0.07422781
0.6971513 0.11543024 0.097469807
0.71896535 0.24118823 -0.13993025
0.70595235 -0.41100472 0.0016818047
0.70472932 -0.33784169 0.014993668
0.70379734 -0.28208774 0.025138855
0.70274931 -0.21938771 0.036547661
0.70309132 0.22171128 -0.032093525
0.69278133 0.025889277 0.081194878
0.74532133 0.30574423 -0.49612713
0.6968413 -0.21928877 0.03658247
0.68420935 0.19083428 0.1112318
0.6875363 -0.011966765 0.074322701
0.68691432 0.025966227 0.081224442
0.6919623 -0.28187972 0.025209427
0.68166333 -0.011886716 0.074353695
0.71535033 0.27089423 -0.30309629
0.68041033 0.065295279 0.088397503
0.68520731 0.22187525 -0.032156467
0.67579234 -0.01180774 0.074384689
0.68220335 -0.41054672 0.0018324852
0.68013132 -0.2816748 0.025280476
0.66669232 0.19102025 0.11131477
0.67924535 0.22192925 -0.032172203
0.66992033 -0.011729717 0.074416637
0.66931635 0.026194274 0.081316471
0.66869134 0.065439284 0.088457584
0.67321831 -0.21890074 0.036721706
0.67134535 -0.10125273 0.05812788
0.66476035 -0.056697786 0.066250801
0.66918135 -0.33719879 0.015212536
0.65231431 -0.011499763 0.074508667
0.67051631 0.24161625 -0.14001036
0.65846831 -0.41010576 0.0019817352
0.65733933 -0.3369928 0.015283585
0.64961034 -0.21852773 0.036856651
0.63751632 0.19131726 0.11145258
0.64945531 0.22219425 -0.032229424
0.67195833 0.27125525 -0.30304718
0.64000732 0.02655828 0.081466675
0.6455003 -0.33679074 0.015355587
0.66576231 0.27130526 -0.30303335
0.6341483 0.026628256 0.081496716
0.63781333 -0.21834677 0.036923885
0.62951833 -0.056227744 0.066438675
0.62061334 0.15114325 0.10418558
0.62002236 0.19148928 0.11153364
0.62364835 -0.056151688 0.066468716
0.62298936 -0.011131763 0.074658871
0.63420933 0.24192226 -0.13999033
0.61600834 0.066054285 0.088719845
0.62289435 -0.40947777 0.0021977425
0.62102932 -0.2807098 0.025626659
0.6184203 -0.10051972 0.058412552
0.6089403 0.15126127 0.10423946
0.6134153 -0.1612497 0.047379494
0.60359931 0.11647528 0.097926617
0.6137293 0.22249925 -0.032233238
0.60604131 -0.05592972 0.066558838
0.6054033 -0.01091975 0.074748516
0.60431135 0.066182256 0.088776588
0.60922134 -0.28052872 0.025693893
0.59670734 0.19170928 0.11164045
0.60079634 -0.10029072 0.058503628
0.59192032 0.11659324 0.097983837
0.59576333 -0.16100973 0.047474861
0.59492135 -0.10021573 0.058535576
0.60397333 0.24216825 -0.13992119
0.57977635 0.15154326 0.10437584
0.57923037 0.19186825 0.11171865
0.58092636 0.066432238 0.088889599
0.57730734 -0.099995792 0.058624744
0.56811637 0.15165228 0.10442877
0.57224035 -0.16070074 0.047597885
0.55645835 0.15175825 0.1044817
0.56613135 0.22288728 -0.032130241
0.56273532 -0.33549172 0.015828609
0.56201833 -0.27984375 0.025952816
0.55326635 -0.055306733 0.066824436
0.55221236 0.027540267 0.081896782
0.57291734 0.27201825 -0.30259323
0.54636633 0.027600229 0.081924438
0.58622032 0.30694425 -0.49525356
0.55092633 -0.33532375 0.015891552
0.55022734 -0.27968174 0.026017666
0.54154837 -0.055177748 0.066881657
0.54502237 -0.33524078 0.015924454
0.54209936 -0.099579751 0.058801651
0.53358036 0.11714727 0.098250866
0.53265935 0.19226623 0.11192465
0.53467536 0.027717233 0.081980705
0.53911835 -0.33515877 0.015956879
0.53623235 -0.099512756 0.058830738
0.52775031 0.11719924 0.098276615
0.53110236 -0.16019577 0.047807693
0.52343935 -0.010022759 0.075146675
0.52731436 -0.33499771 0.016019821
0.52450532 -0.099382699 0.058887482
0.51130235 0.027943254 0.08208847
0.51636034 -0.40782672 0.0028028488
0.50357836 0.19249523 0.11204958
0.51940233 0.24280924 -0.13947821
0.50897735 -0.2791478 0.026233673
0.49776432 0.19253927 0.11207485
0.49917832 0.067216277 0.089267731
0.50453937 -0.40766579 0.0028648376
0.50238132 -0.21653372 0.037641525
0.49239933 0.15229625 0.10476255
0.51728636 0.27240926 -0.30212927
0.52906132 0.30732423 -0.49466228
0.48613831 0.19262528 0.11212349
0.52271432 0.30736524 -0.49458742
0.48887032 0.22346926 -0.031702518
0.48542133 -0.27886373 0.026351452
0.47531334 0.11763626 0.098507881
0.47666731 -0.0095767379 0.075362682
0.48922932 0.24302226 -0.1392312
0.51002133 0.30744523 -0.4944334
0.48090434 -0.40735477 0.002989769
0.47129634 -0.054466784 0.067211628
0.46498233 -0.0094727278 0.075414658
0.47716433 0.24310428 -0.13911819
0.46776333 -0.27866071 0.026439667
0.46653232 -0.15948778 0.048120499
0.45749134 0.15255827 0.10490942
0.46511832 0.22363627 -0.031507492
0.48022634 0.27265424 -0.30173635
0.46244234 -0.33418578 0.016353607
0.46187732 -0.27859575 0.0264678
0.46124133 -0.2160787 0.037841797
0.47405234 0.27269328 -0.30166435
0.45252731 0.067604244 0.089471817
0.45654932 -0.33411771 0.016383648
0.45010933 -0.27846771 0.026524544
0.44731134 0.22375727 -0.031338215
0.44205332 -0.054203689 0.067343712
0.44161734 -0.0092737675 0.075517654
0.45304033 0.24326527 -0.13887024
0.47195932 0.30767828 -0.49392653
0.44362032 -0.21589774 0.037924767
0.44137633 0.22379726 -0.031278133
0.44701132 0.24330527 -0.13880444
0.42993832 -0.0091787577 0.075568676
0.42223632 0.19305825 0.1123848
0.43495333 0.24338228 -0.1386652
0.42776433 -0.40671974 0.0032577515
0.42492232 -0.098406732 0.059351444
0.41711032 0.11805928 0.098750591
0.41866931 -0.054007709 0.067446709
0.41826233 -0.0090867281 0.075618744
0.41791934 0.028730273 0.08249855
0.41282433 -0.053960741 0.067471504
0.41242534 -0.0090417266 0.075644493
0.44025832 0.30786228 -0.4934535
0.41481933 -0.2781058 0.026692867
0.41170833 0.22399127 -0.030953407
0.43391934 0.30789828 -0.49335432
0.40893832 -0.27804869 0.02671957
0.40789732 -0.1589368 0.048389435
0.40113634 -0.053869784 0.067521572
0.41851231 0.27303523 -0.30093527
0.40009132 0.06798625 0.089691639
0.40203732 -0.15888673 0.048416615
0.39355233 0.15298027 0.10517168
0.39984632 0.22406626 -0.030810356
0.39718133 -0.27793771 0.026771545
0.38803032 0.11824626 0.098867893
0.38945234 -0.053780735 0.067570686
0.38876832 0.028938234 0.082619667
0.38844532 0.068064272 0.089738846
0.39176232 -0.33344072 0.016690731
0.38160834 0.19329524 0.11254454
0.38361034 -0.0537377 0.067595482
0.38587633 -0.33338469 0.016719818
0.38446131 -0.1587407 0.048491478
0.37612534 0.15308225 0.10523987
0.38056833 -0.40622872 0.0034818649
0.37000433 0.19335824 0.11258984
0.38767734 0.27321225 -0.30046415
0.37128332 0.029054284 0.082691669
0.37097833 0.068175256 0.089809895
0.37410432 -0.33327776 0.016771793
0.36574432 -0.008710742 0.075837612
0.38151231 0.27324724 -0.30036449
0.36545634 0.029091239 0.082715511
0.36821932 -0.33322471 0.016797543
0.36024731 -0.053573787 0.067692757
0.35963032 0.02912724 0.082738876
0.35645032 -0.33312374 0.016849518
0.35604432 -0.2775808 0.026955605
0.34972334 -0.21507269 0.038345814
0.34888533 -0.097821772 0.059676647
0.34648833 0.22438627 -0.030069351
0.33548033 0.15329826 0.10539579
0.35069332 0.27341425 -0.29983854
0.33880132 -0.33297879 0.016926765
0.32940733 0.19355923 0.11274147
0.35157833 0.30833524 -0.49189234
0.33213234 -0.21494371 0.03841877
0.33135033 -0.097706735 0.059747696
0.31828734 0.11862928 0.099138737
0.31806633 0.15338123 0.10546064
0.31860635 0.068471253 0.090013504
0.31326532 -0.0083947182 0.076046467
0.31278932 0.06850028 0.090035439
0.31572634 -0.40566474 0.0037708282
0.31493133 -0.27727073 0.02712965
0.30667034 0.11868423 0.099181652
0.30187133 -0.053217709 0.067925453
0.30115533 0.068557262 0.090079784
0.31360534 0.30851823 -0.49111652
0.29731634 -0.27715272 0.027201653
0.28924632 0.11876124 0.099246502
0.29020134 -0.053156793 0.067968845
0.28303432 0.19375324 0.11291075
0.29043433 0.24420625 -0.13641214
0.28626934 -0.40545171 0.0038938522
0.28587633 -0.33259779 0.017147541
0.27763233 0.11880928 0.099286556
0.27829835 -0.0082187653 0.076178551
0.27810034 0.029563248 0.083051682
0.27789533 0.068662226 0.090164661
0.27970734 -0.27704376 0.027272701
0.27840233 0.24426627 -0.13617516
0.26686534 -0.05304271 0.068057537
0.27678034 0.27378225 -0.29838943
0.28197733 0.30866224 -0.49041939
0.26824033 -0.33248872 0.017217636
0.26004735 0.15361828 0.1056695
0.26356435 0.22482824 -0.028610229
0.26045233 0.068734229 0.090227604
0.26271033 -0.4053008 0.0039877892
0.25481933 0.029661238 0.083136559
0.25648633 -0.33242172 0.017263889
0.25540334 -0.097292721 0.060041428
0.24826834 0.19387424 0.11303282
0.25434634 0.24438125 -0.13567924
0.25093132 -0.40523177 0.0040345192
0.24580532 0.22491425 -0.02824831
0.24473134 -0.33235878 0.017309666
0.24422532 -0.21442479 0.03876543
0.23699233 0.11895823 0.099430561
0.23668233 0.19390923 0.11307049
0.23988733 0.22494227 -0.028124332
0.23770133 -0.052917778 0.068163872
0.23719934 0.068820238 0.09030962
0.23862633 -0.27682179 0.027429581
0.23836833 -0.21439773 0.038786888
0.23118833 0.11897725 0.099451542
0.23169234 -0.0080257654 0.076346874
0.23204634 -0.097193778 0.060125828
0.22586834 -0.008004725 0.076368809
0.23369834 0.27397323 -0.29742146
0.23771834 0.30884826 -0.48936844
0.21945232 0.15374726 0.10581064
0.22213334 0.22502327 -0.027740479
0.21377534 0.11902928 0.09951067
0.21365434 0.15376323 0.10582972
0.21351334 0.19397324 0.11314869
0.21560633 -0.40504974 0.0041685104
0.21535134 -0.33221775 0.017419815
0.21474233 -0.15773672 0.049162865
0.21453035 -0.097127736 0.06018877
0.20785633 0.15377825 0.10584879
0.20826933 0.029824257 0.083299637
0.20813933 0.068911254 0.090409756
0.21875733 0.30892426 -0.48889112
0.20929134 -0.27669269 0.027537823
0.20193133 0.19400227 0.11318779
0.20438433 0.22510225 -0.027339458
0.20271534 -0.052794755 0.068286896
0.21243733 0.30894828 -0.48872852
0.19688334 -0.052776754 0.068306446
0.19651634 0.068943262 0.090448856
0.19034833 0.19402826 0.11322546
0.19105333 -0.052759707 0.06832552
0.18500134 0.029888272 0.083377838
0.18550733 -0.15763873 0.049263477
0.17886934 0.15384626 0.10594368
0.17918433 0.029902279 0.083396435
0.17996334 -0.27658671 0.027641773
0.17315634 0.11912727 0.099645615
0.16735233 0.11913925 0.099663734
0.16727534 0.15386927 0.10598278
0.16773432 -0.052698791 0.068403721
0.16746435 0.069012284 0.090545654
0.16823234 -0.27655178 0.027681828
0.16147932 0.15387928 0.10600185
0.16419733 0.24476427 -0.13355017
0.16236734 -0.27653569 0.027700424
0.15574934 0.11916023 0.099700451
0.15584534 0.069034278 0.090582848
0.15374133 0.27428627 -0.2953825
0.15558234 0.30915326 -0.48718357
0.15053034 -0.21409875 0.039093494
0.14524333 0.22534025 -0.025879383
0.14759333 0.27430725 -0.29521322
0.14428833 0.029972255 0.083509445
0.14477533 -0.27649277 0.027758598
0.13834433 0.11918724 0.099756718
0.13890934 -0.27648073 0.027777672
0.13882034 -0.21407479 0.039130688
0.13244833 0.19412327 0.11340761
0.13265634 0.029990256 0.083546638
0.13289434 -0.15751475 0.049436569
0.12732434 -0.40476471 0.0044746399
0.12724334 -0.3319487 0.017720699
0.12098934 0.06908524 0.090691566
0.12144034 -0.40475374 0.0044927597
0.12137134 -0.3319388 0.017739773
0.11685933 0.27441025 -0.29433727
0.11555533 -0.4047448 0.0045118332
0.10944734 -0.052602708 0.068588734
0.10941933 -0.0077457428 0.076747894
0.11071333 0.27443027 -0.29415751
0.10955033 -0.21402973 0.039222717
0.10353734 0.11922324 0.099862576
0.10350233 0.19414926 0.11349583
0.10369633 -0.21402377 0.039240837
0.10364033 -0.096881688 0.06055069
0.091925338 0.19415528 0.11353064
0.092280336 0.27448726 -0.29360533
0.091989338 -0.21401376 0.039275646
0.091971338 -0.096872747 0.060586452
0.086134337 -0.0077297688 0.076818466
0.086134337 -0.40471369 0.0046005249
0.086134337 -0.33190078 0.017845631
0.080326334 0.069112241 0.090813637
0.074534334 0.11923528 0.099947453
0.074408337 -0.27640873 0.027975559
0.068769336 0.19416124 0.11359787
0.068673335 -0.0077257156 0.076869488
0.068545334 -0.27640778 0.027992725
0.062500335 0.22561628 -0.023514271
0.06285134 -0.0077257156 0.0768857
0.060892336 0.30943424 -0.48428726
0.062680334 -0.27640778 0.028009892
0.057131335 0.11923426 0.099996567
0.056995336 -0.0525828 0.068743706
0.056125335 0.24512023 -0.13044453
0.057060335 0.030034244 0.083770752
0.054582335 0.30945027 -0.48408127
0.051402334 0.19415927 0.11364555
0.051167335 -0.052584708 0.068759441
0.050125334 0.24513727 -0.13025427
0.045530334 0.11923128 0.10002947
0.045613334 0.19415724 0.11366272
0.044779334 0.22566628 -0.022960186
0.045389336 -0.0077307224 0.076934814
0.044124335 0.24515325 -0.13006115
0.041964334 0.30948228 -0.48366022
0.039730337 0.11922824 0.10004663
0.038872335 0.22568226 -0.022771358
0.036994334 0.27463925 -0.29184628
0.033977333 0.15395123 0.10637856
0.032123335 0.24518424 -0.12967253
0.033800334 0.03002423 0.083836555
0.033856336 0.069103241 0.090945721
0.028127335 0.11922127 0.10007763
0.027925335 -0.0077427626 0.076982498
0.024710335 0.27466923 -0.29143524
0.027784336 -0.096883714 0.060768604
0.021411337 -0.4047398 0.004781723
0.021635339 -0.27643675 0.028121471
0.021744333 -0.21403271 0.039473534
0.016592339 0.15393823 0.10642576
0.016284332 -0.0077547431 0.077013493
0.016114332 -0.096896708 0.060799599
0.010723338 0.11920524 0.10012579
0.010795332 0.15393227 0.10644245
0.010461338 -0.0077607632 0.077029705
0.010539338 0.030002236 0.083899498
0.0045413375 -0.052626789 0.068885803
0.0037583336 -0.40476972 0.004825592
-0.0007956624 0.15391928 0.10647249
-0.0016716644 -0.21406871 0.039534569
-0.0069056675 0.029978275 0.083944798
-0.014803663 0.30960625 -0.48168135
-0.012386665 0.15390325 0.10650253
-0.015866667 0.24529624 -0.12803555
-0.013697661 -0.33199078 0.018116474
-0.013379663 -0.21409172 0.039563656
-0.018283665 0.11916625 0.10020256
-0.023979664 0.15388525 0.10653257
-0.023858666 0.19408828 0.11384773
-0.027862668 0.24532127 -0.12760735
-0.024235666 0.069029272 0.091097832
-0.025665663 -0.40483969 0.0048985481
-0.025089666 -0.21411878 0.039591789
-0.031991668 0.22584724 -0.020358562
-0.033859663 0.24533224 -0.12739134
-0.031318665 -0.33203679 0.018158436
-0.031142667 -0.27654272 0.028253555
-0.030764662 -0.15758079 0.049893856
-0.030572668 -0.096979797 0.060918808
-0.037894666 0.22585928 -0.020144463
-0.035855666 0.069006264 0.091126442
-0.046332665 0.30966425 -0.48051929
-0.036610663 -0.15759569 0.049907684
-0.041229658 0.19405824 0.11389256
-0.04896266 0.27482224 -0.2888155
-0.041803665 0.029910266 0.084031582
-0.052638657 0.30967528 -0.48028135
-0.043067671 -0.33207172 0.018185616
-0.055099659 0.27483225 -0.28858519
-0.048738666 -0.27659577 0.028294563
-0.061236672 0.27484226 -0.28835344
-0.053435661 0.029882252 0.084060669
-0.054815657 -0.33211178 0.018211842
-0.058898665 0.11908323 0.10030365
-0.063842662 0.24538624 -0.12627935
-0.059996672 -0.15766472 0.049962521
-0.064700671 0.11906826 0.10031557
-0.064557664 0.15380126 0.10663366
-0.065069668 0.029850245 0.084088802
-0.07035666 0.15378726 0.10664845
-0.071049668 -0.0079357624 0.077231884
-0.076153658 0.15377223 0.10666275
-0.076531671 0.068904281 0.091225624
-0.078638665 -0.40503472 0.0050148964
-0.078067668 -0.2767027 0.028358459
-0.077538662 -0.1577248 0.050000668
-0.082696669 -0.0079727173 0.077258587
-0.091920666 0.27488828 -0.28716516
-0.088733666 -0.05286175 0.06911087
-0.088153668 0.068869233 0.09125185
-0.090411671 -0.4050898 0.0050387383
-0.090064667 -0.33225578 0.018287659
-0.089800663 -0.27675277 0.028383732
-0.08950267 -0.21433276 0.039737701
-0.09335167 0.19393528 0.11401749
-0.09692166 0.22595525 -0.017904282
-0.099524669 0.11896926 0.10039949
-0.099348672 0.15370625 0.10671759
-0.11567567 0.30976224 -0.47780418
-0.10153567 -0.2768057 0.028407574
-0.10121866 -0.21438271 0.039761543
-0.10062266 -0.097203791 0.061078548
-0.10532867 0.11895025 0.10041046
-0.10514667 0.15368825 0.10673189
-0.10559166 0.068811238 0.091290474
-0.11113366 0.11893028 0.10042572
-0.12052467 0.22598428 -0.016956329
-0.12379267 0.24546725 -0.1239152
-0.11743466 0.029675245 0.084206581
-0.11721667 0.068769276 0.091317654
-0.11813966 -0.097277701 0.061114788
-0.12372767 -0.053000748 0.069185734
-0.12574166 -0.40528077 0.0051045418
-0.12834665 0.15360928 0.10678244
-0.13163066 -0.40531677 0.005115509
-0.13822767 0.22600228 -0.016224384
-0.13512266 -0.008176744 0.077372551
-0.13489467 0.029603243 0.084243774
-0.14122668 -0.053081691 0.069219589
-0.14776868 0.24549025 -0.12291718
-0.14261368 -0.27702373 0.028485775
-0.14150167 -0.097388804 0.061161518
-0.14549467 0.19376528 0.11413765
-0.14653766 0.029552281 0.084267616
-0.14628866 0.068651259 0.091379642
-0.16609168 0.30980927 -0.47569227
-0.14848468 -0.27705878 0.028495789
-0.15592867 0.22601724 -0.015475273
-0.15318465 -0.097448766 0.061183453
-0.16456568 -0.053200781 0.069265842
-0.17781267 0.27497226 -0.28359222
-0.18499368 0.30982125 -0.47487116
-0.16609466 -0.27716976 0.028526783
-0.16867566 0.19367427 0.11418581
-0.17235368 -0.33273369 0.018435478
-0.17500868 0.11867326 0.10056162
-0.17952767 0.22603124 -0.014452457
-0.18372867 0.24551427 -0.12136221
-0.17875668 -0.40563971 0.005191803
-0.17739266 -0.21480173 0.039904594
-0.17698768 -0.1582157 0.050197601
-0.18972066 0.24551725 -0.12109756
-0.18146968 0.029381275 0.084337711
-0.18464866 -0.40568477 0.0051994324
-0.20234767 0.27498323 -0.28250551
-0.18869367 -0.15828973 0.050217628
-0.18824068 -0.097649753 0.061247826
-0.19217068 0.15334225 0.10691786
-0.19340467 -0.0084737539 0.077484608
-0.20170566 0.24552125 -0.12056112
-0.19311666 0.029318273 0.084358692
-0.19587767 -0.33290571 0.018471718
-0.20312569 0.22604024 -0.013396263
-0.20378166 0.15328526 0.10694075
-0.20542267 -0.053437769 0.069339752
-0.20506668 -0.0085427165 0.077506542
-0.22909766 0.30983728 -0.47289324
-0.20670667 -0.21500474 0.039952755
-0.20986769 0.11849928 0.10063076
-0.22688168 0.27499026 -0.28138924
-0.21027467 0.068332255 0.091504574
-0.21411666 -0.40592676 0.0052394867
-0.21211168 -0.15844876 0.050255775
-0.21539167 0.15322626 0.10696268
-0.21641669 0.029183269 0.084400654
-0.22001067 -0.40597874 0.0052475929
-0.22119766 0.15319628 0.10697365
-0.22224268 0.029148281 0.084411621
-0.24799567 0.30984026 -0.47201824
-0.22429869 -0.21513671 0.039978504
-0.22666067 0.19340527 0.11430359
-0.22839466 -0.0086887479 0.077546597
-0.23765868 0.24552727 -0.1189065
-0.22915968 -0.097920716 0.061315536
-0.23281267 0.15313327 0.10699558
-0.23422667 -0.008726716 0.077555656
-0.23355466 0.068195283 0.091546535
-0.26059666 0.30983925 -0.47142649
-0.23769867 -0.40613979 0.0052695274
-0.23706266 -0.33324772 0.018528461
-0.23603067 -0.21522969 0.039994717
-0.24045968 -0.053671777 0.069397449
-0.24005967 -0.0087657571 0.07756567
-0.23937568 0.068159282 0.091556549
-0.24189666 -0.21527773 0.040003777
-0.24406368 0.19331324 0.11433744
-0.24589369 -0.0088057518 0.07757473
-0.25563267 0.24552524 -0.11805344
-0.24555168 0.028999269 0.084451675
-0.25311068 -0.15876073 0.050316811
-0.26761666 0.24552226 -0.11747456
-0.25684267 0.068048239 0.09158659
-0.25896966 -0.15880972 0.050322533
-0.26218766 0.11819524 0.1007247
-0.26147267 0.19321626 0.11436987
-0.26800767 0.22603726 -0.010337353
-0.26339966 -0.0089297295 0.077602863
-0.28207567 0.27498424 -0.27877045
-0.26536769 -0.21547776 0.040032864
-0.26727566 0.19318223 0.11437988
-0.27390566 0.22603524 -0.010047436
-0.27959868 0.24551827 -0.11689043
-0.27308768 -0.4064917 0.0053067207
-0.27184266 -0.27801675 0.028674603
-0.27347666 0.15289325 0.10706854
-0.27980366 0.22603226 -0.0097551346
-0.27551368 -0.053934753 0.069450855
-0.27898666 -0.40655476 0.0053114891
-0.28570268 0.22602928 -0.0094623566
-0.31099167 0.30982625 -0.46898413
-0.28469068 0.19307727 0.11441088
-0.29159966 0.22602624 -0.0091671944
-0.28720367 -0.05402869 0.069466591
-0.29127169 0.11800325 0.10077143
-0.29091167 0.15278125 0.10709858
-0.29049668 0.19304127 0.11442089
-0.29304868 -0.054076731 0.069475651
-0.29593766 -0.33382171 0.018591881
-0.30339468 0.22601825 -0.0085711479
-0.30955368 0.24550128 -0.11539316
-0.31361267 -0.33401376 0.018607616
-0.31301168 -0.27843171 0.028717518
-0.31233567 -0.21592373 0.040088654
-0.32108867 0.22600424 -0.0076622963
-0.32030466 -0.4070217 0.0053448677
-0.32698569 0.22599828 -0.0073561668
-0.33351767 0.24548125 -0.11416149
-0.32092768 0.067584276 0.091687679
-0.32408267 -0.21604377 0.040099621
-0.32345268 -0.15939575 0.050402641
-0.32619068 0.11775124 0.10082769
-0.32813266 -0.054381788 0.06951952
-0.33211368 -0.40716475 0.0053534508
-0.33066267 -0.27862376 0.028732777
-0.33115467 0.19277328 0.11448765
-0.34550068 0.24546927 -0.1135335
-0.33802068 -0.40723878 0.005355835
-0.33449167 -0.098803699 0.06145668
-0.34324968 0.15241128 0.1071806
-0.35748166 0.24545628 -0.11289835
-0.34424967 0.06739527 0.091718674
-0.35153568 -0.054601729 0.069547653
-0.35054868 0.028187275 0.08460474
-0.35530767 0.11752325 0.10086966
-0.35591367 0.067296267 0.09173584
-0.36165068 -0.40754169 0.0053696632
-0.35865667 -0.1597597 0.050436497
-0.38632268 0.27490026 -0.27341652
-0.39917767 0.30975127 -0.46443653
-0.36756068 -0.40762073 0.0053715706
-0.36522168 -0.21649474 0.04013443
-0.39245367 0.27489227 -0.27308416
-0.36758167 0.067195237 0.091749668
-0.40547568 0.30974323 -0.46409655
-0.37347066 -0.40769976 0.0053744316
-0.37187669 -0.2791068 0.028762817
-0.37110066 -0.21656269 0.040139675
-0.37390867 0.027974248 0.084632874
-0.37776569 -0.27917975 0.028767586
-0.37765768 0.19243026 0.1145606
-0.38596067 0.22592425 -0.0041842461
-0.38080266 -0.054893792 0.069578648
-0.39342669 0.24540824 -0.11095047
-0.40471768 0.27487528 -0.27241755
-0.38436368 -0.33487374 0.01865387
-0.38365668 -0.27925378 0.028770447
-0.39941868 0.24539924 -0.11061811
-0.38874367 -0.21677274 0.040151596
-0.39027068 0.11722928 0.10091686
-0.38929167 0.19233924 0.11457682
-0.39388669 -0.16015679 0.050465584
-0.39609969 0.11717725 0.10092258
-0.40365466 0.22589523 -0.0031952858
-0.43697166 0.30970025 -0.46237612
-0.39976066 -0.16022569 0.050469875
-0.40192968 0.11712527 0.10093164
-0.40894568 -0.4082008 0.0053844452
-0.40639168 -0.21699077 0.040163517
-0.40674466 0.19219726 0.11460066
-0.44956964 0.30968028 -0.46167612
-0.41486067 -0.4082877 0.0053868294
-0.42134768 0.22586328 -0.0021891594
-0.41428065 0.066761255 0.091803551
-0.42077869 -0.40837675 0.0053868294
-0.41901869 -0.27971679 0.028788567
-0.41838568 0.19209927 0.11461687
-0.44764465 0.27480423 -0.27001715
-0.42012066 0.06670326 0.091810703
-0.42669469 -0.4084658 0.0053877831
-0.42242366 -0.099744737 0.061537743
-0.42477065 0.15173525 0.1072917
-0.42651069 0.027454257 0.084688663
-0.46846867 0.30964828 -0.4606123
-0.4291417 -0.16058379 0.050488472
-0.43059969 0.15168226 0.1072998
-0.43002868 0.19199926 0.11463165
-0.43289465 -0.010479748 0.077806473
-0.45990866 0.27478123 -0.2693162
-0.43235868 0.027393281 0.084694862
-0.43501967 -0.16065878 0.05049181
-0.43642968 0.15162927 0.10730648
-0.4382087 0.027330279 0.084699631
-0.4376477 0.066527247 0.091828823
-0.44003069 -0.099955738 0.061549664
-0.44276369 0.11674225 0.10097885
-0.44167566 0.19189727 0.11464643
-0.48736864 0.30961227 -0.45953226
-0.45673466 0.22579026 -0.00012636185
-0.45629168 -0.40892977 0.0053877831
-0.45349169 -0.21761376 0.040183544
-0.45266169 -0.1608867 0.05050087
-0.45392168 0.15146428 0.10732651
-0.45332468 0.19179225 0.11466074
-0.4616127 0.027074277 0.084720612
-0.46102667 0.066282272 0.091851711
-0.4681347 -0.40912277 0.0053868294
-0.46704268 -0.3360638 0.01867485
-0.46527368 -0.21777874 0.040187836
-0.47211367 -0.28047878 0.028800488
-0.48032767 0.22573423 0.0012888908
-0.48928869 0.24522024 -0.10541916
-0.47976065 -0.011019766 0.077842712
-0.49527967 0.24520528 -0.10505915
-0.4785707 0.066091239 0.091866493
-0.48309165 0.15117723 0.10735846
-0.49069566 -0.33644074 0.01867342
-0.48701668 -0.10055274 0.061576843
-0.48947966 0.11626524 0.10102558
-0.49219567 -0.056183755 0.069662571
-0.49148667 -0.011162758 0.077849865
-0.4947477 -0.21820778 0.040193558
-0.49532169 0.11620325 0.10103083
-0.49806666 -0.056259692 0.069664478
-0.51325667 0.24515927 -0.10396242
-0.50369066 -0.40972775 0.0053787231
-0.50252765 -0.33663577 0.018671513
-0.5098207 0.22565627 0.0030975342
-0.5070107 0.11607528 0.10104084
-0.53964067 0.27459824 -0.26457357
-0.50846469 0.026527226 0.084754467
-0.51244068 -0.21847576 0.040195465
-0.51285666 0.11601126 0.10104465
-0.52161765 0.22562224 0.0038356781
-0.51568365 -0.056492746 0.069673538
-0.5136807 0.065690279 0.091894627
-0.56297565 0.30944228 -0.45504856
-0.51641268 -0.10095471 0.061585426
-0.52751768 0.22560525 0.0042076111
-0.52081466 -0.011532724 0.077865601
-0.51953769 0.065621257 0.091898441
-0.5252797 -0.2813198 0.028799534
-0.52229565 -0.10103673 0.061588764
-0.52668267 -0.01160872 0.077870846
-0.54321867 0.24507523 -0.10209751
-0.53255165 -0.011685729 0.077873707
-0.54921168 0.24505824 -0.10171843
-0.53927767 -0.41037172 0.0053634644
-0.53804368 -0.33724374 0.018662453
-0.53508866 -0.1620577 0.050523758
-0.57031167 0.27451324 -0.26266336
-0.54396665 -0.33734876 0.018660545
-0.54150265 0.15055627 0.10741282
-0.56119865 0.24502128 -0.10095549
-0.59448665 0.30935723 -0.45310354
-0.54687965 -0.16223973 0.050525665
-0.54795265 0.11561024 0.10107374
-0.55016565 -0.01192075 0.077880859
-0.55248767 0.19080627 0.11476564
-0.55468667 0.065191269 0.091921806
-0.56881368 0.22547424 0.0068635941
-0.56766868 -0.3377797 0.018650532
-0.56859165 -0.057232797 0.069690704
-0.56641066 0.065042257 0.091928482
-0.57359666 -0.33788973 0.018646717
-0.57001567 0.19061428 0.11478186
-0.57447565 -0.057319701 0.069691658
-0.59116668 0.24492323 -0.099013329
-0.57527667 -0.10181874 0.061598778
-0.57722569 0.11525726 0.10109472
-0.58651465 0.22541326 0.0080308914
-0.59715968 0.24490327 -0.098620415
-0.58678466 -0.41129273 0.0053315163
-0.59138668 -0.33822674 0.018637657
-0.59831566 0.22537023 0.0088167191
-0.58987266 0.064735234 0.091939449
-0.59407967 -0.16300076 0.050522804
-0.60421765 0.22534925 0.0092148781
-0.61514366 0.24483925 -0.097427368
-0.63166869 0.27431726 -0.25870752
-0.59574169 0.064657271 0.091941833
-0.6046167 -0.41165572 0.0053167343
-0.60161066 0.064578235 0.091944695
-0.65751868 0.30916327 -0.44907427
-0.60652465 0.11488825 0.10111046
-0.6050967 0.19021428 0.11480951
-0.64394069 0.27427328 -0.25789452
-0.61171967 0.14972728 0.10746384
-0.62191969 0.22528124 0.010415554
-0.61482769 -0.012843728 0.077897549
-0.6500777 0.27425128 -0.25748539
-0.67012769 0.30912024 -0.44824743
-0.61879265 -0.22026271 0.040175438
-0.6167987 0.19007623 0.11481762
-0.61997968 0.025040269 0.084803581
-0.62243968 -0.10257071 0.06159687
-0.62659866 -0.013021767 0.077898502
-0.64511967 0.24472624 -0.095400333
-0.62586069 0.024954259 0.084804535
-0.63435864 -0.41228276 0.0052876472
-0.63174164 0.02486825 0.084806442
-0.63097066 0.064172268 0.091954708
-0.63516068 0.14943123 0.10747671
-0.63436168 0.18986428 0.11482954
-0.63837367 -0.013201773 0.077899456
-0.64516068 -0.058417737 0.069692612
-0.64272267 0.064004242 0.091956615
-0.70165467 0.30900824 -0.44614744
-0.64964569 -0.28359169 0.02874279
-0.64604765 -0.10296673 0.061591625
-0.64758867 0.11434424 0.10112953
-0.65733266 0.22513628 0.012870789
-0.6493907 0.024605274 0.084808826
-0.70796269 0.30898428 -0.44572258
-0.65432066 -0.22092575 0.040155888
-0.65317869 -0.16403276 0.050503731
-0.65527564 0.024515271 0.084810734
-0.65933067 0.11418223 0.10113382
-0.66745269 -0.28395277 0.028728485
-0.67504066 0.22506028 0.01412344
-0.66875869 -0.058809698 0.069690704
-0.66704965 0.024334252 0.08480978
-0.67604464 -0.41320771 0.005238533
-0.67338967 -0.28407472 0.028723717
-0.71145868 0.27401125 -0.25328636
-0.67212266 0.063574255 0.091963768
-0.67932868 -0.28419775 0.028717518
-0.6768477 -0.16447073 0.05049181
-0.68056566 -0.059010804 0.06968689
-0.68796766 -0.41348177 0.0052227974
-0.68276966 -0.16458172 0.050488472
-0.69275165 0.22497928 0.015393734
-0.70508569 0.24447423 -0.091203213
-0.69238669 -0.34031171 0.018546581
-0.6912117 -0.28444678 0.028706551
-0.68988967 -0.22162277 0.040130615
-0.68870765 0.11376727 0.10114288
-0.72987866 0.27393228 -0.25198936
-0.69297469 0.18911928 0.11486149
-0.70455867 0.22492427 0.016251564
-0.71708065 0.24442023 -0.090341568
-0.69566464 0.063217282 0.091966629
-0.69923466 -0.10390776 0.061572552
-0.70046765 0.11359626 0.10114479
-0.69971567 0.14856327 0.10750389
-0.70419168 -0.059421718 0.069680691
-0.74216068 0.27387828 -0.25111532
-0.70769066 -0.22198373 0.040118694
-0.70515168 -0.10401672 0.061570644
-0.71010166 -0.059526742 0.06967783
-0.74830168 0.27385026 -0.25067616
-0.71779269 -0.4141857 0.0051808357
-0.71058267 0.18888324 0.11486959
-0.72227365 0.22483927 0.017550468
-0.71601164 -0.059632719 0.069676876
-0.71333468 0.062941253 0.091965675
-0.72376066 -0.41432971 0.0051727295
-0.71831965 -0.16527075 0.050463676
-0.74107569 0.24430728 -0.088593483
-0.7605837 0.27379423 -0.24979353
-0.72688568 -0.28521878 0.02866745
-0.73570168 -0.41462177 0.005153656
-0.72988766 0.11315727 0.10114861
-0.74589568 0.22472024 0.019311428
-0.7369107 0.062564254 0.091965675
-0.74599868 -0.3415367 0.018476486
-0.74369967 0.023087263 0.084803581
-0.75770766 0.22465926 0.020202637
-0.75047266 -0.015073717 0.077881813
-0.79129469 0.27364826 -0.2475481
-0.75665069 -0.28588873 0.028631687
-0.75264066 0.14779526 0.10751677
-0.76116168 -0.22311872 0.040064812
-0.75985169 -0.1661157 0.050429821
-0.78307867 0.24409527 -0.085463524
-0.7614187 0.022781253 0.084798813
-0.76050764 0.062175274 0.091962814
-0.82783765 0.30847424 -0.43729353
-0.77155864 -0.41552371 0.0050916672
-0.7664097 0.062076271 0.091961861
-0.77582866 -0.3422547 0.018432617
-0.7835207 -0.41583377 0.0050706863
-0.82201469 0.27349323 -0.24525547
-0.7791487 0.022468269 0.08479166
-0.77821767 0.061876237 0.091958523
-0.78950465 -0.4159897 0.0050587654
-0.78644764 -0.28658479 0.028590679
-0.7836147 -0.16661876 0.050406456
-0.79315269 0.22446626 0.022922516
-0.82816064 0.27346128 -0.24479246
-0.79374367 -0.3426978 0.01840353
-0.81308866 0.24393427 -0.083168507
-0.79097766 0.022256255 0.084786892
-0.79837769 -0.2868697 0.028572559
-0.79687065 -0.22391778 0.040021896
-0.79879165 0.18762428 0.11489344
-0.81087768 0.22436523 0.024310589
-0.84659666 0.27336323 -0.24338818
-0.81157368 0.14688027 0.10751867
-0.8226977 0.22429627 0.025245667
-0.83710265 0.24379826 -0.081299305
-0.85889065 0.27329624 -0.24244356
-0.81464869 0.021823227 0.084776878
-0.88466465 0.30819023 -0.43307257
-0.82225269 -0.28745276 0.028535843
-0.84310669 0.24376428 -0.080826283
-0.82822466 -0.2876007 0.028525829
-0.8266657 -0.22461075 0.039980888
-0.82424968 0.11163926 0.10114384
-0.82337666 0.14669025 0.10751772
-0.82856965 -0.061794698 0.069605827
-0.83419865 -0.28774971 0.028515816
-0.87733167 0.27319324 -0.24101257
-0.8324157 0.021490276 0.084767818
-0.83142668 0.060941279 0.09194088
-0.83716166 -0.16780275 0.050344467
-0.83562869 -0.10662574 0.061468601
-0.83518565 0.14649624 0.10751581
-0.84633964 0.22415328 0.027137756
-0.86112267 0.24365824 -0.079397202
-0.8461507 -0.28805071 0.028494835
-0.84456068 -0.22503775 0.039953709
-0.8415767 -0.10675377 0.061461449
-0.8522507 0.22411728 0.027614594
-0.84523869 -0.016866744 0.077825546
-0.8491897 0.060616255 0.091932774
-0.85649765 -0.22532672 0.039933681
-0.85381067 0.11112928 0.10113478
-0.86407268 0.22404325 0.02857542
-0.85511267 0.060506284 0.091930866
-0.86099869 -0.16835278 0.050311565
-0.86998469 0.22400528 0.029060841
-0.86205965 0.020920277 0.084748745
-0.87007165 -0.28866571 0.028451443
-0.86696166 -0.16849178 0.05030489
-0.86564666 0.11092126 0.10113144
-0.87589866 0.22396725 0.029545784
-0.87016767 -0.062665761 0.069566727
-0.87441468 -0.22576779 0.039905548
-0.87292665 -0.16863269 0.05029583
-0.88086969 -0.017591774 0.077795506
-0.88340968 0.11060327 0.10112381
-0.8868137 -0.017714739 0.077791691
-0.88580066 0.020451248 0.084731579
-0.88920367 -0.10781175 0.061406612
-0.89276069 -0.017838717 0.077783585
-0.89174169 0.020332277 0.08472681
-0.89068764 0.059833229 0.091909885
-0.89832568 -0.2263698 0.03986454
-0.8968007 -0.16920477 0.05025959
-0.89526069 0.11038727 0.10111952
-0.89322668 0.18612826 0.11489153
-0.89768165 0.020212233 0.084720612
-0.90277165 -0.16934973 0.05025053
-0.90023869 0.14538723 0.1074996
