# .PCD v0.7 - Point Cloud Data file format
VERSION 0.7
FIELDS x y z
SIZE 4 4 4
TYPE F F F
COUNT 1 1 1
WIDTH 1
HEIGHT 1024
VIEWPOINT 0 0 0 1 0 0 0
POINTS 1024
DATA ascii
0.91487479 0.19822544 -0.19269848
0.89803177 0.23350841 -0.15734625
0.89192778 0.2335704 -0.1575141
0.89305478 0.27824843 -0.16636944
0.88708377 0.20125943 -0.16763449
0.88586479 0.27913141 -0.15798235
0.8740508 0.14811045 -0.21093035
0.87153977 0.32764745 -0.19062424
0.86346781 0.20079643 -0.17494249
0.85759181 0.20064944 -0.17704248
0.85274482 0.32810944 -0.18765545
0.86943477 0.43447745 -0.37770414
0.83713281 0.23403245 -0.15971041
0.83326477 0.57704842 -0.12727213
0.84352678 0.52657443 -0.21333218
0.83105677 0.23407441 -0.16002417
0.8325398 0.27836645 -0.1725502
0.85481781 0.43579841 -0.36077929
0.83519781 0.066788435 -0.24729347
0.82223982 0.52815545 -0.1892271
0.80704981 0.57807338 -0.11097527
0.80466682 0.11559844 -0.14303732
0.7947278 0.16662842 -0.05647707
0.83595282 0.38638842 -0.41552019
0.80622882 0.071800411 -0.21021509
0.77648979 0.22583544 0.050797939
0.77773178 0.29918545 0.039896488
0.79044878 0.11793345 -0.12502718
0.8117488 0.0066274405 -0.31344414
0.81143481 0.43970042 -0.31066418
0.80360579 0.48061141 -0.24141026
0.78471881 0.075513422 -0.18269825
0.77630877 0.12025142 -0.10712147
0.8071208 -0.043642581 -0.38399506
0.7664488 0.34384644 -0.018521309
0.78945076 0.48178044 -0.22521448
0.75017077 0.22869545 0.074785709
0.75525081 0.12369943 -0.080463409
0.73858482 0.22863543 0.072948933
0.74028778 0.25721544 0.057276726
0.75629777 0.36858445 -0.090097427
0.75319082 0.36634141 -0.11730623
0.75181979 0.41108942 -0.10458231
0.74935681 0.49150342 -0.081721306
0.74927682 0.081616402 -0.13738346
0.77981681 -0.088404596 -0.4231534
0.72543579 0.17729944 0.03023386
0.72529382 0.29894245 0.031577587
0.74690682 0.36180443 -0.17234612
0.73524082 0.08402741 -0.11944437
0.74676877 0.018637419 -0.22912931
0.74099481 0.44991243 -0.17418814
0.72128081 0.086422443 -0.10160732
0.75048882 -0.082415521 -0.38424635
0.73456281 0.44599444 -0.2301321
0.73022079 0.48463842 -0.18811417
0.69824982 0.1814664 0.064225674
0.70463878 0.34621942 0.0018706322
0.72931081 0.44540942 -0.23893118
0.68799877 0.25693041 0.049002647
0.69031078 0.2987594 0.026040554
0.69293082 0.34616143 1.6689301e-05
0.71847481 0.44444442 -0.2536521
0.6806168 0.22830343 0.063785553
0.73186481 -0.13879162 -0.44965219
0.6821838 0.25689644 0.04808569
0.70331478 0.53044438 -0.16361332
0.67952281 0.13603842 0.015317917
0.67275178 0.13713741 0.023875713
0.66901779 0.22823143 0.061956882
0.7172578 -0.13564855 -0.43003511
0.6988138 -0.022603571 -0.24193335
0.67536378 0.34607041 -0.0027651787
0.69254881 0.52964944 -0.17803049
0.66474378 0.25679141 0.045331478
0.69667381 0.44249642 -0.28327322
0.6589278 0.25675541 0.044415474
0.66114181 0.29859442 0.021429539
0.6636498 0.34600741 -0.0046181679
0.69119781 0.44200641 -0.29071522
0.68694282 0.48107743 -0.2465291
0.6531108 0.2567184 0.043497562
0.67632079 0.52844846 -0.19976425
0.65264177 0.098149419 -0.013980389
0.64585078 0.14149541 0.057860851
0.64580882 0.22807944 0.058298588
0.68829578 -0.12942952 -0.39116049
0.67070979 -0.017179549 -0.20512342
0.65344679 0.37510145 -0.022496223
0.63774377 0.18409842 0.081535816
0.68110776 -0.12788862 -0.38151646
0.66373378 -0.015835583 -0.19598818
0.6460728 0.34590942 -0.0073981285
0.65753782 0.45364642 -0.12982321
0.67054081 0.47972143 -0.26867723
0.66545081 0.52764344 -0.21432352
0.63250977 0.14365244 0.074708939
0.63196081 0.1840564 0.080627918
0.63420177 0.2280004 0.056471825
0.67394078 -0.12635356 -0.37190008
0.66451979 -0.064954579 -0.2703433
0.64893979 0.03657943 -0.1023984
0.64169979 0.37503743 -0.024355412
0.65966678 -0.12329859 -0.3527565
0.65047479 -0.062116563 -0.25175524
0.62402177 0.25652742 0.038913727
0.6352728 0.039071441 -0.084715366
0.61275977 0.14668941 0.098382473
0.61820179 0.25648743 0.037997723
0.63602179 -0.010505557 -0.15972042
0.62612176 0.41627342 -0.049872398
0.62168276 0.041547418 -0.067135334
0.6297648 0.61057246 -0.15768528
0.61676478 0.3457374 -0.012027264
0.61819679 0.37490642 -0.02807045
0.63809079 0.52560943 -0.25097942
0.60570282 0.10612243 0.045873642
0.60859579 0.29826641 0.013139725
0.61635178 0.45782843 -0.074631214
0.61799282 0.49159542 -0.093206406
0.59936076 0.22775245 0.050991535
0.60073781 0.25636542 0.03524971
0.6081658 0.044005454 -0.049656391
0.60643977 0.3748374 -0.029928207
0.5991708 0.34562945 -0.014804363
0.60451478 0.45776841 -0.076507092
0.60018981 0.49151143 -0.096030235
0.5792768 0.11059445 0.079545498
0.61034876 -0.11277753 -0.28665733
0.58326781 0.25623941 0.032504559
0.5962218 0.53362042 -0.12016344
0.57408679 0.1836074 0.071546555
0.60016179 0.57238245 -0.2389822
0.59115678 0.60847843 -0.20448351
0.5823788 0.49142441 -0.098854065
0.56183881 0.2979424 0.0057816505
0.57571578 -0.10541958 -0.2402873
0.5541358 0.2560184 0.027930737
0.55599177 0.29789943 0.004863739
0.56306577 0.45754844 -0.083067417
0.54824579 0.05486244 0.027766705
0.55531478 0.41587341 -0.061065197
0.54805076 0.0063143969 -0.044730186
0.55121481 0.45748243 -0.084940434
0.55450881 0.53342938 -0.12678242
0.53844178 0.29776943 0.0021066666
0.54172981 0.37443143 -0.040133476
0.5467388 0.49124143 -0.10449743
0.54091281 -0.040107548 -0.1069603
0.52859378 0.058408439 0.053137779
0.53845578 0.57716846 -0.15377235
0.52872878 0.34515643 -0.025897503
0.53168678 0.41572744 -0.064792156
0.53661877 0.53334242 -0.12961721
0.5275538 -0.037441552 -0.089328289
0.51914877 0.25573742 0.02244854
0.53384179 0.61021644 -0.17295408
0.53683376 0.65537238 -0.21275425
0.5275048 0.45734644 -0.08868742
0.51503778 0.012587428 -0.0016393661
0.51817381 0.37427044 -0.043842316
0.52468878 0.53328341 -0.1315093
0.53525376 -0.15530163 -0.27367926
0.50173682 0.1137594 0.098850727
0.50632179 0.22699642 0.03641367
0.50263381 0.06308043 0.086632729
0.5204978 0.57708842 -0.15662432
0.51110083 0.3450284 -0.028668404
0.51395881 0.41561341 -0.067588329
0.51872277 0.53325343 -0.13245344
0.49724782 0.14565742 0.080331802
0.49873883 0.18294042 0.059770584
0.50195682 0.015065432 0.015424728
0.48975581 0.065392435 0.10324192
0.4993428 0.34494042 -0.030515194
0.50049782 0.3741464 -0.04662323
0.48894382 0.017528415 0.03239584
0.48334283 0.0665434 0.11151171
0.49460483 0.37410343 -0.047549248
0.49784881 0.45716742 -0.093369484
0.48302883 0.22678643 0.032774925
0.49453282 -0.088275611 -0.13174248
0.47694582 0.067689419 0.1197567
0.49653882 0.57697743 -0.16042423
0.49781477 0.61006641 -0.17868137
0.5008198 0.68795842 -0.22164822
0.49484682 0.53313041 -0.13623428
0.47552681 0.18271643 0.056153774
0.48752183 0.65580547 -0.20585728
0.46252882 0.14530241 0.074931622
0.46832782 -0.025667548 -0.011241436
0.47855878 0.57689244 -0.16327429
0.48148978 0.65578246 -0.20681715
0.4810518 -0.14325756 -0.20031452
0.4538908 0.067524433 0.11693287
0.4766348 0.68787646 -0.22550344
0.46940982 0.49080342 -0.11671925
0.48324478 -0.22504658 -0.32502317
0.4497928 0.11320442 0.090785503
0.47643179 -0.22342557 -0.31564236
0.46768779 -0.14029855 -0.18224239
0.45058382 0.29705244 -0.011657238
0.44238383 0.067389429 0.11515188
0.44839078 -0.078598559 -0.070152283
0.43757981 0.027213454 0.099330902
0.44888079 0.41516644 -0.077830315
0.45439482 -0.13736063 -0.16427231
0.43123478 0.028405428 0.10759163
0.43087178 0.067251444 0.1133728
0.44050479 0.3444764 -0.03974247
0.45131779 0.65566444 -0.21161652
0.44440877 0.45682243 -0.10179329
0.44777679 -0.13589853 -0.15532732
0.42777878 0.14492643 0.06953764
0.42511481 0.067181408 0.1124835
0.4437108 0.60982442 -0.18726826
0.44638181 0.68777144 -0.2303133
0.43703783 0.41507941 -0.079693317
0.4396258 0.49061942 -0.12141943
0.44936478 -0.21700054 -0.27839327
0.42473382 0.22622544 0.023689747
0.42711979 0.2968424 -0.015324116
0.42971379 0.37360942 -0.057736397
0.44264477 -0.21540862 -0.26914835
0.4345938 -0.13299054 -0.13751507
0.41512382 0.11280745 0.085416794
0.41618878 0.14479643 0.067741871
0.41743183 0.1821174 0.047120571
0.42911279 0.53276539 -0.14662838
0.41596079 -0.07182759 -0.02690649
0.4105078 -0.014247596 0.064880848
0.41400379 0.25478244 0.0060267448
0.41538179 0.29673541 -0.017157078
0.40667683 0.031608403 0.12935972
0.40783781 0.066968441 0.10981655
0.41926283 0.41494644 -0.082483292
0.42063183 0.45665944 -0.10553646
0.43676579 -0.29150862 -0.37709618
0.42147982 -0.13010257 -0.11980534
0.40459383 0.14466441 0.065945625
0.40207779 0.066895425 0.10892773
0.40981781 0.49042642 -0.12611818
0.39555079 0.22592545 0.019151688
0.39645082 0.25460744 0.0032935143
0.3977688 0.29657042 -0.019904137
0.38944381 0.031380415 0.12670565
0.39926183 0.34412444 -0.046195507
0.4090358 0.6554904 -0.21833038
0.40279078 0.45653343 -0.10834122
0.38524479 -0.009282589 0.098103523
0.3918938 0.29651445 -0.020821095
0.3942678 0.37331742 -0.063287258
0.4029898 0.65546542 -0.2192893
0.3968398 0.45649141 -0.10927629
0.3991918 0.53258646 -0.15135336
0.40270782 -0.20596963 -0.21424723
0.38041782 0.11238945 0.080055714
0.38139182 0.14439243 0.062356472
0.38252783 0.1817314 0.041708946
0.38386983 0.22580141 0.017337799
0.3847428 0.25448841 0.0014724731
0.37794781 0.031225443 0.12493753
0.38835782 0.37326741 -0.064213276
0.39088881 0.45644844 -0.11021233
0.39191979 0.49030742 -0.12893724
0.3780278 0.22573841 0.016431808
0.37760782 -0.063852608 0.024184704
0.38014477 0.29640144 -0.022652149
0.39089781 0.65541339 -0.22120619
0.38595182 0.49026641 -0.12987709
0.39627582 -0.28131455 -0.32050228
0.37127483 -0.062538564 0.032616615
0.36647081 -0.0056015849 0.12277985
0.3730318 0.25436741 -0.00034618378
0.36749279 0.06644845 0.10360193
0.37567079 0.34391344 -0.049880505
0.36717379 0.25430644 -0.0012583733
0.37061882 0.37311542 -0.066987514
0.35726082 0.11209744 0.07648468
0.36131483 0.25424445 -0.0021672249
0.36251181 0.2962274 -0.025398254
0.36470282 0.37306345 -0.067913055
0.3680408 0.49014243 -0.13269615
0.37627983 -0.27629763 -0.29257822
0.36992383 -0.19825262 -0.16922712
0.34824282 -0.0030995607 0.13930273
0.3654148 0.60943842 -0.19967651
0.35878682 0.37301141 -0.06883812
0.36111981 0.45622742 -0.11488914
0.36206883 0.49010143 -0.13363314
0.35938382 0.60940641 -0.20063114
0.35206282 0.3436954 -0.053565502
0.35060078 -0.11456555 -0.024185181
0.34176278 0.1812554 0.035402775
0.34486979 0.29604942 -0.028142452
0.33768582 0.030663431 0.11876059
0.33864379 0.066057444 0.099168777
0.33710581 0.22528541 0.010085583
0.33286983 0.065977454 0.09828186
0.34213281 0.41433144 -0.094575405
0.34526879 0.53224641 -0.15985727
0.3291288 0.14374745 0.054290771
0.33010381 0.18111444 0.033601761
0.32739782 -0.053465545 0.090991497
0.33619279 0.41428143 -0.095504284
0.32249582 0.11164242 0.07113266
0.32119483 -0.052186549 0.099239826
0.31954378 -0.0035295486 0.13491249
0.34319478 -0.35461754 -0.37607908
0.32533181 -0.10905856 0.0098557472
0.31669778 0.1115644 0.070241928
0.31955278 0.2250824 0.0073695183
0.32027483 0.2537964 -0.0085353851
0.31465483 0.030327439 0.11523581
0.32921481 0.60924643 -0.20540047
0.32430881 0.41417944 -0.097365379
0.32535881 0.45595044 -0.12050009
0.33653581 -0.35283858 -0.3666172
0.32475883 -0.18766958 -0.10727644
0.30805683 -0.0037055612 0.13315868
0.31440783 0.25373042 -0.0094442368
0.30889481 0.03024143 0.11435461
0.3183648 0.41412842 -0.098293304
0.3202318 0.48979843 -0.14021015
0.32127482 0.53208643 -0.16363716
0.31837481 -0.18617862 -0.098526478
0.31070679 0.34329742 -0.060012341
0.31726682 -0.26155859 -0.21027136
0.30198783 0.22487545 0.0046525002
0.31031179 0.57596946 -0.18988752
0.29349381 0.11124641 0.06667757
0.29613179 0.22480541 0.0037479401
0.29242879 0.065399408 0.092085838
0.30149579 0.45575842 -0.1242404
0.30228281 0.48966342 -0.14302921
0.31007981 -0.34578353 -0.32904911
0.3043468 -0.25834459 -0.19227028
0.29027379 0.22473443 0.0028438568
0.28506982 -0.0040675998 0.12965488
0.29188281 0.29549044 -0.036374092
0.28791881 -0.10093552 0.060209751
0.2834298 0.18052745 0.026402473
0.28598881 0.29542542 -0.037287235
0.28007478 0.029803455 0.1099515
0.2922318 0.5758574 -0.19274044
0.28862578 0.41386545 -0.10294247
0.27677679 0.14305544 0.046235561
0.27269679 -0.044258595 0.1500845
0.28432381 0.48952544 -0.14584827
0.28042179 -0.17733663 -0.046544075
0.26853979 0.029623449 0.10819292
0.26446378 0.11083543 0.062227726
0.2612308 -0.044453561 0.14834261
0.2635088 0.064967453 0.087663651
0.2741428 0.57574242 -0.19558811
0.2692948 0.34287643 -0.066453457
0.27234578 -0.25040656 -0.14771748
0.26329678 -0.095609605 0.093319893
0.25630981 -0.0045346022 0.12527752
0.2588568 0.4135924 -0.10758924
0.25968781 0.45540741 -0.13078547
0.2510778 -0.09297353 0.10973978
0.2506038 0.29502743 -0.042771339
0.24924681 -0.17010552 -0.0038924217
0.2382838 -0.044851601 0.14486456
0.24837281 0.48923942 -0.15148544
0.23328081 -0.0049206018 0.12178087
0.24518381 -0.32857162 -0.23703337
0.2407638 -0.2426036 -0.1037941
0.2342748 0.3718164 -0.088245392
0.23713781 0.53148943 -0.17686939
0.2191318 0.17966241 0.016519547
0.22108281 0.2946834 -0.047339439
0.2250988 0.53139842 -0.1787591
0.21213381 0.1100564 0.054225922
0.21400781 0.2237674 -0.008913517
0.2113778 0.064148426 0.079715729
0.21781981 0.45503941 -0.13733006
0.2074258 0.17949742 0.014723778
0.2081328 0.22368944 -0.0098171234
0.2092668 0.29454142 -0.049164295
0.21002981 0.34223741 -0.075653076
0.21183281 0.45498544 -0.13826513
0.21686381 -0.39855462 -0.31291437
0.2133818 -0.32018656 -0.19201517
0.2032008 -0.084653556 0.16141558
0.20156981 0.17941445 0.013825893
0.2022558 0.2236104 -0.010720253
0.20335481 0.29447043 -0.050078392
0.2104378 -0.39676052 -0.3036685
0.1946678 0.10978544 0.051559925
0.19515081 0.14188242 0.033729553
0.1957138 0.17933041 0.012928486
0.1929338 -0.0056225657 0.11566782
0.1992258 0.41301745 -0.11688328
0.20100281 0.53121442 -0.18254042
0.19174181 -0.084873617 0.1596899
0.18658181 -0.045789599 0.13705254
0.19152981 0.29432642 -0.051903248
0.19386481 0.45482042 -0.14107132
0.19108181 -0.23039061 -0.034790516
0.1830188 0.10960245 0.049783707
0.1808318 -0.045897603 0.13618469
0.1850238 0.2521494 -0.029421329
0.1818738 0.028188407 0.095021725
0.18787381 0.45476544 -0.14200544
0.1802808 -0.085095584 0.15796661
0.1781358 0.17907643 0.01023674
0.1803468 0.34190041 -0.08024931
0.17881981 -0.22738761 -0.017777443
0.1760368 -0.15323657 0.096099854
0.1732298 0.25199342 -0.031236172
0.17076081 0.06347543 0.073541641
0.17533581 0.4127754 -0.12060022
0.1768848 0.53102541 -0.18631506
0.1757658 -0.31031257 -0.13883448
0.16593881 0.1414364 0.029269695
0.1678638 0.29403245 -0.055556297
0.1693608 0.41271442 -0.1215291
0.16988881 0.45459542 -0.14481211
0.1703178 0.48857844 -0.1637001
0.1695548 -0.30868655 -0.13005924
0.1640508 -0.15048963 0.11244869
0.1578158 -0.046335578 0.13271952
0.1628788 0.3710494 -0.099328518
0.1546818 0.1787284 0.0066494942
0.15692081 0.37098241 -0.10025215
0.15740581 0.41259044 -0.12338829
0.1596528 -0.38263661 -0.23068237
0.15448681 -0.22144455 0.015961647
0.14629981 -0.046558559 0.13098764
0.1467468 -0.0064665675 0.10869169
0.1500988 0.29380643 -0.058294296
0.15227181 0.48841742 -0.16652012
0.15101381 -0.30384058 -0.10387611
0.1429448 0.17855144 0.0048556328
0.14133181 0.027466416 0.088886738
0.1449988 0.3708474 -0.10209942
0.1363658 0.10884345 0.042685509
0.13669381 0.1409744 0.024812698
0.13477981 -0.046785593 0.12925673
0.13782081 0.25151342 -0.036677361
0.1402348 0.48830843 -0.16840029
0.1363968 -0.21703857 0.041025639
0.1343458 -0.14370257 0.15293455
0.13084081 0.14088041 0.023920536
0.12940681 -0.0067945719 0.10607862
0.13191479 0.25143141 -0.037584305
0.13261881 -0.29904455 -0.077917099
0.13039681 -0.21557957 0.049333572
0.1249848 0.1407854 0.023029804
0.1242638 0.062667429 0.066495895
0.12651581 -0.29745656 -0.069309235
0.1221668 0.48814243 -0.17121935
0.1247438 -0.47626156 -0.33523417
0.12225781 -0.37229556 -0.17702627
0.1166968 -0.13968354 0.17696857
0.11358181 0.17809844 0.00037384033
0.1139478 0.22236544 -0.024264336
0.1141858 0.25118244 -0.04030323
0.1123338 0.026931405 0.08450985
0.1184238 -0.47438258 -0.32597017
0.1095248 0.41207844 -0.13082123
0.1083078 -0.29272455 -0.043636322
0.10523581 -0.13975555 0.17636156
0.10047781 -0.0073545575 0.10172892
0.1009848 0.062248409 0.062976837
0.1030158 0.34097242 -0.092200279
0.094686806 -0.0074695945 0.10085773
0.097539805 0.41194642 -0.13268042
0.099563807 -0.46878356 -0.29833651
0.094712801 -0.2069276 0.098715782
0.090345807 0.22201341 -0.027873516
0.089110807 0.026491404 0.081012726
0.091538802 -0.36383957 -0.13300514
0.090235807 -0.28803962 -0.018175125
0.082868807 -0.047839582 0.12147474
0.083301805 0.026379406 0.08013773
0.082936801 -0.20408255 0.11499786
0.077927805 0.10783941 0.033824921
0.078099802 0.14000642 0.015905857
0.077681802 0.061818421 0.059459686
0.079172805 0.34067142 -0.095876217
0.079329804 0.37007445 -0.1122551
0.079552807 0.41174543 -0.13546705
0.079361804 -0.36049658 -0.1155715
0.072232805 0.13990641 0.015014648
0.072414801 0.1774404 -0.0058960915
0.071318805 -0.04808259 0.11974764
0.073757805 0.45363742 -0.1597743
0.071127802 -0.087360561 0.14163065
0.067240804 0.3405174 -0.097715378
0.066351801 -0.28186661 0.015450478
0.060492802 0.13970441 0.013235569
0.059760805 -0.048327565 0.11802149
0.059917804 -0.0081695914 0.09564352
0.060188804 0.061489403 0.056822777
0.061713804 0.45351043 -0.16164446
0.059556805 -0.19844657 0.14730167
0.059401803 -0.14080054 0.16955471
0.054117803 -0.0082885623 0.094774723
0.053665806 -0.14093453 0.16870451
0.048199803 -0.04857558 0.11629581
0.043071806 0.22128242 -0.035087109
0.042414803 -0.048700571 0.11543369
0.043360803 0.34020543 -0.10139132
0.043864802 -0.45233256 -0.21684647
0.042318806 -0.088000596 0.13734388
0.036996804 0.13929242 0.0096755028
0.037387803 0.34012645 -0.10230923
0.037525803 0.41126245 -0.1419754
0.036831804 -0.27426463 0.056967735
0.036404803 -0.19288462 0.17926455
0.031118805 0.13918841 0.0087866783
0.031173805 0.1767534 -0.012161255
0.030971805 -0.27275962 0.065202713
0.030786803 -0.088262618 0.13563061
0.025208805 0.10688245 0.025858879
0.025129803 0.025224447 0.071403503
0.025464803 0.36940241 -0.12056446
0.025320804 -0.34573156 -0.038299084
0.025018804 -0.088394582 0.13477373
0.019434804 0.29201543 -0.078361511
0.019304805 0.025104403 0.070531845
0.019457804 0.33988643 -0.1050663
0.019391805 -0.34411758 -0.029831409
0.019222803 -0.14175659 0.1636095
0.013475804 0.13887244 0.0061197281
0.013475804 -0.049337566 0.11112261
0.013475804 0.060582399 0.049797535
0.013475804 0.33980542 -0.10598516
0.013475804 0.36924845 -0.12241125
0.007647804 0.024864435 0.068785667
0.007494804 0.33972341 -0.10690451
0.0077038039 -0.088795602 0.13220453
0.0018908037 -0.049597561 0.1093998
0.0015998036 0.2494964 -0.057514191
0.0014828043 0.3690924 -0.12425852
0.0018848041 -0.26530856 0.10605192
0.0019288035 -0.088930547 0.13134956
0.0011338042 -0.55348462 -0.32468748
-0.0042991955 0.22051644 -0.042297363
-0.0044031963 0.29166341 -0.082009315
-0.0038891956 -0.26383263 0.11415672
-0.0097021963 -0.049860597 0.10767651
-0.0099161956 0.06011343 0.04628849
-0.010518197 0.36893445 -0.12610531
-0.0096251965 -0.089202583 0.12963867
-0.016050195 0.17593443 -0.019318104
-0.016448196 0.33939344 -0.11058044
-0.015876196 -0.33455056 0.020498753
-0.021756195 0.1059894 0.018784523
-0.021417197 -0.0099015832 0.083495617
-0.021703195 -0.33297557 0.028804779
-0.026784196 -0.14289659 0.15682888
-0.033958197 0.22002041 -0.04680109
-0.034070197 0.24892443 -0.062947273
-0.034422196 0.33914042 -0.11333752
-0.032750197 -0.089756548 0.12621975
-0.039394196 0.1056444 0.016132832
-0.040022194 0.2488274 -0.06385231
-0.039035197 0.023874402 0.061811924
-0.045834195 0.2198174 -0.048605442
-0.045051195 0.059389412 0.041026592
-0.044870198 -0.32672256 0.061815739
-0.043923195 -0.25363857 0.17028856
-0.044063196 -0.14333755 0.15428877
-0.047608197 -0.53811055 -0.25191545
-0.050721198 0.023619413 0.060068607
-0.0509132 0.059266448 0.040150642
-0.057903193 -0.42260259 -0.068451405
-0.059637196 -0.53433353 -0.23398018
-0.063377194 0.17507845 -0.026471138
-0.063659199 0.21951044 -0.051306248
-0.064111196 0.29075044 -0.091125488
-0.063757196 -0.4209066 -0.059935093
-0.060876198 -0.24934059 0.19402981
-0.061355196 -0.14378554 0.15175056
-0.070418194 0.33862245 -0.11885118
-0.074949197 0.13720745 -0.0072083473
-0.072138198 -0.24690157 0.2075429
-0.072891198 -0.14408761 0.1500597
-0.081498198 0.21919745 -0.054009438
-0.079385199 -0.051499546 0.09735775
-0.082429193 0.33844543 -0.12068939
-0.077858195 -0.24706656 0.20671272
-0.083515197 -0.52685457 -0.19841051
-0.087448195 0.21909142 -0.054909229
-0.087688193 0.24803144 -0.071093082
-0.0923962 0.10457444 0.0081849098
-0.091022193 -0.051782548 0.095639706
-0.097109199 -0.59850854 -0.29182243
-0.097534195 0.022575438 0.053105831
-0.10073519 0.3676964 -0.13995552
-0.096477196 -0.091341555 0.11682987
-0.1031032 -0.59654254 -0.28276014
-0.1030582 -0.01177156 0.071376801
-0.1037412 0.058130443 0.03226757
-0.1064752 0.33808744 -0.12436628
-0.1017592 -0.14485854 0.14583492
-0.1071532 -0.51947755 -0.16323328
-0.1108102 0.17418545 -0.033621311
-0.11156319 0.2476204 -0.074712276
-0.11249019 0.33799642 -0.12528515
-0.1130262 -0.51764756 -0.15449905
-0.1157852 -0.40589255 0.015654564
-0.1122122 -0.24807757 0.20173693
-0.1127892 -0.19439954 0.17169666
-0.11331819 -0.14517254 0.14414787
-0.12099619 -0.59068257 -0.25572109
-0.12351219 0.24741143 -0.07652235
-0.1209802 0.022036433 0.04962492
-0.1245282 0.33781344 -0.12712431
-0.1214962 -0.40425152 0.023940563
-0.1291492 0.21833843 -0.061213493
-0.1294892 0.24730641 -0.077429295
-0.1271922 -0.40261656 0.032203674
-0.12488319 -0.14548963 0.14245892
-0.1341092 0.13602144 -0.016086102
-0.1318022 -0.052798569 0.089631557
-0.1327132 0.021762431 0.047886848
-0.13132019 -0.092246592 0.1117177
-0.1405132 0.17360842 -0.038088322
-0.1421722 -0.5085966 -0.11119413
-0.14596219 0.1357764 -0.017859459
-0.14646019 0.17349041 -0.038981438
-0.1408692 -0.30105358 0.19825077
-0.14224419 -0.14597052 0.13992977
-0.15301719 0.2178964 -0.064813137
-0.14930519 -0.053244591 0.08705759
-0.15032619 0.02134645 0.045278549
-0.1537312 -0.50501758 -0.094037056
-0.1551432 -0.053394556 0.086200714
-0.1562012 0.021207452 0.044410706
-0.1519102 -0.29812652 0.21390247
-0.1545832 -0.092864573 0.1083107
-0.16098219 -0.053545594 0.085344791
-0.1610872 -0.39291757 0.081326485
-0.15810819 -0.24947459 0.19511652
-0.1596192 -0.14645952 0.13740063
-0.16805419 -0.57534653 -0.18472338
-0.1652322 -0.50146359 -0.076975346
-0.1702622 0.17301542 -0.042555332
-0.17093819 0.21755844 -0.06751442
-0.1713772 0.24655545 -0.083762169
-0.16622619 -0.09317857 0.10660982
-0.1756262 0.13515443 -0.022295475
-0.17266719 -0.053850591 0.083629608
-0.17227919 -0.38972658 0.097528934
-0.1815642 0.13502842 -0.023182392
-0.1791642 -0.013634562 0.060145855
-0.1802942 0.056393445 0.020893574
-0.1778542 -0.38813955 0.10559654
-0.1762152 -0.19625658 0.16250658
-0.1869652 0.10254544 -0.0059285164
-0.18560019 0.020496428 0.040066719
-0.1834162 -0.38655752 0.11364269
-0.1810962 -0.25019461 0.19181061
-0.1988202 0.10227942 -0.0076932907
-0.1926022 -0.25055963 0.1901598
-0.1935502 -0.19678062 0.16000366
-0.2053362 0.13451743 -0.026729107
-0.20682719 0.2168684 -0.072915077
-0.2000262 -0.3818416 0.13765955
-0.2128152 0.2167514 -0.073816299
-0.2133552 0.24577844 -0.090097427
-0.2055362 -0.38028055 0.14562273
-0.21893419 -0.65915054 -0.25826931
-0.21068619 -0.48748058 -0.0096402168
-0.2193602 0.24566543 -0.091003418
-0.2201712 0.28814143 -0.1148324
-0.21572819 0.055553436 0.015650749
-0.21089919 -0.19731253 0.1575036
-0.2231842 0.13412744 -0.029389381
-0.2156332 -0.25129956 0.18686056
-0.2322292 0.28792644 -0.11665535
-0.23634219 -0.65317363 -0.23155117
-0.23119719 -0.055416524 0.075066566
-0.23738618 0.24532241 -0.093718052
-0.22744919 -0.37408453 0.17727089
-0.24211518 -0.65119559 -0.2226963
-0.2292812 -0.14848858 0.12730169
-0.23865519 -0.47892863 0.031713486
-0.23985119 -0.19821554 0.15334082
-0.25362021 -0.64725858 -0.2050581
-0.24420919 -0.47723562 0.0399189
-0.25935221 -0.64529961 -0.19627237
-0.25383121 -0.54768461 -0.055747509
-0.25820118 0.10091543 -0.016506195
-0.25893217 0.1333304 -0.034710407
-0.25557321 -0.015619576 0.048934937
-0.24916019 -0.36796862 0.20859051
-0.26146322 -0.015777588 0.048071861
-0.26746821 0.24474043 -0.098242283
-0.25838417 -0.14936858 0.1230998
-0.26816422 0.018415451 0.027914524
-0.26900822 0.054247439 0.0077886581
-0.26421022 -0.14954752 0.12226057
-0.26547122 -0.095970571 0.092166901
-0.26629519 -0.47051662 0.072523594
-0.2722792 -0.056558549 0.069079876
-0.26755619 -0.25301856 0.17944765
-0.2717852 -0.46885055 0.080621719
-0.27465719 -0.19932753 0.14834881
-0.28796422 0.10020941 -0.020911217
-0.28403318 -0.05689162 0.067371845
-0.29157019 0.24426442 -0.10186434
-0.2827242 -0.46553558 0.09675169
-0.28991318 -0.057059586 0.066516876
-0.29760021 0.24414444 -0.10276842
-0.2927382 0.053649426 0.004295826
-0.2990852 -0.63177353 -0.13546419
-0.30171221 0.17023444 -0.062195301
-0.30470622 -0.62986654 -0.12687016
-0.30168021 -0.057396591 0.064808846
-0.30275422 -0.016901553 0.042042732
-0.2952112 -0.30138355 0.20197248
-0.31867117 0.1319524 -0.043571472
-0.32094222 0.21454841 -0.090019226
-0.3134532 -0.057737529 0.063100815
-0.32174319 0.24365842 -0.10638428
-0.30804521 -0.2544046 0.17369366
-0.32590622 -0.68748456 -0.19150448
-0.3148002 -0.5282616 0.035570621
-0.33172321 0.1695624 -0.066659451
-0.32116818 -0.20085758 0.14170361
-0.33230519 -0.017727554 0.0377388
-0.32227117 -0.36385363 0.2324605
-0.32699019 -0.20105261 0.14087486
-0.32842517 -0.15156561 0.11303377
-0.34262317 0.13138342 -0.04711628
-0.34368521 -0.61669856 -0.067364216
-0.33427417 -0.1517536 0.11219454
-0.33375818 -0.36429554 0.23085785
-0.33702219 -0.25542158 0.16958857
-0.34173518 -0.098258555 0.081147671
-0.3488242 -0.05877763 0.057976723
-0.34282422 -0.25562757 0.16876888
-0.34446919 -0.20164353 0.13838482
-0.35960317 0.098447442 -0.031477451
-0.36061019 0.13095045 -0.049775124
-0.35279119 -0.51626354 0.09231472
-0.36780417 0.16873544 -0.072015285
-0.3619082 -0.018570602 0.033437729
-0.36299217 0.015866399 0.01404953
-0.3529402 -0.30349356 0.19384289
-0.35613322 -0.20204157 0.13672686
-0.36653721 -0.059307516 0.055417538
-0.3786152 0.1305114 -0.05243206
-0.37984717 0.16845441 -0.073801517
-0.3737632 -0.018913567 0.031716824
-0.38166517 -0.66795462 -0.10534239
-0.37969321 -0.019086599 0.030856609
-0.38082922 0.015368402 0.011451721
-0.38202417 -0.60383457 -0.0089673996
-0.38798422 0.051148415 -0.0096640587
-0.37608618 -0.30436462 0.19059563
-0.37767518 -0.25688356 0.16384983
-0.39792919 0.16802943 -0.076479435
-0.40396118 0.16788644 -0.07737112
-0.41356719 -0.77590853 -0.23442316
-0.3911702 -0.20325655 0.13175678
-0.40752918 0.097220421 -0.038520336
-0.40905517 -0.65843159 -0.063126087
-0.39875019 -0.15388054 0.10298681
-0.40794122 -0.060572565 0.049446583
-0.42469519 -0.7717616 -0.21685553
-0.39475417 -0.43245155 0.25904655
-0.41785818 0.0503304 -0.014024258
-0.4302392 -0.76969963 -0.20810938
-0.40677321 -0.25795561 0.15975666
-0.41050118 -0.15427858 0.10131264
-0.41243517 -0.10049063 0.070992947
-0.40048921 -0.43269557 0.25825787
-0.42672521 0.12931341 -0.059520245
-0.42383921 0.050164402 -0.014896393
-0.40862018 -0.36726755 0.22044468
-0.41259819 -0.25817162 0.15893984
-0.40622622 -0.43293959 0.25747061
-0.4341532 0.16716242 -0.08183527
-0.42849219 0.014008403 0.0045247078
-0.42508817 -0.58949155 0.056465626
-0.42424721 -0.10087353 0.069301605
-0.42425519 -0.25860852 0.1573019
-0.44043118 0.013660431 0.0027947426
-0.43606919 -0.10125953 0.067612648
-0.42697322 -0.4930746 0.20276356
-0.4508332 0.12869841 -0.063064098
-0.43409318 -0.30660552 0.18249464
-0.43592221 -0.25904959 0.15566778
-0.44386619 -0.20513862 0.12431049
-0.44580019 -0.15549153 0.096299648
-0.44328618 -0.3686946 0.21565056
-0.46868318 -0.75545555 -0.14753819
-0.45169121 -0.15569657 0.095463753
-0.45381618 -0.10184556 0.065078735
-0.44256818 -0.48824054 0.22592068
-0.46763617 0.095626414 -0.047322273
-0.47412521 -0.75344759 -0.1389761
-0.4628942 -0.63985354 0.019648552
-0.4672702 -0.062444627 0.040925503
-0.46891522 -0.02176255 0.017966747
-0.45927918 -0.25994056 0.15239859
-0.4621312 -0.57724661 0.11261272
-0.4656592 -0.10223955 0.063388824
-0.47321421 -0.062635601 0.040075779
-0.46317422 -0.30776256 0.17844963
-0.48706323 0.12775743 -0.06838131
-0.47321618 -0.20621461 0.1201787
-0.47751021 -0.10263759 0.061699867
-0.46371222 -0.43544358 0.24959993
-0.49310923 0.1275984 -0.069266319
-0.47482121 -0.30823153 0.17683363
-0.49106324 -0.063215554 0.037520885
-0.50114119 -0.74350852 -0.096517086
-0.48935622 -0.6307916 0.060228825
-0.47523522 -0.43595761 0.2480278
-0.48962623 -0.37065357 0.20927382
-0.4923082 -0.30894262 0.17441177
-0.5122422 0.011516452 -0.0075874329
-0.50262022 -0.20731252 0.11605072
-0.50397819 -0.30942053 0.17279768
-0.5103122 -0.62364763 0.092316628
-0.50376123 -0.56359059 0.17555571
-0.52586824 0.047241449 -0.029716492
-0.51439923 -0.20775861 0.11439991
-0.51865721 -0.37190956 0.2052927
-0.55258322 -0.85557061 -0.21180439
-0.52368921 -0.26246852 0.14342594
-0.5284732 -0.15843958 0.084614754
-0.5422622 0.010591447 -0.011912346
-0.55798221 -0.8534506 -0.20311737
-0.54664719 -0.024218559 0.0068016052
-0.54827422 0.010404408 -0.012776375
-0.54997122 0.046523452 -0.033201218
-0.53318924 -0.31063455 0.16876364
-0.53624719 -0.61484855 0.13196468
-0.54285723 -0.10488254 0.052416801
-0.55264324 -0.024412572 0.0059447289
-0.54624623 -0.15909356 0.082114697
-0.53297323 -0.43858558 0.24018383
-0.54717922 -0.26341552 0.14016676
-0.55476719 -0.10530156 0.050729752
-0.53670722 -0.48159856 0.26357889
-0.57034218 0.092764437 -0.06228447
-0.55305624 -0.26365453 0.13935184
-0.55810618 -0.15953356 0.080447674
-0.56864524 -0.065806568 0.02645874
-0.5535692 -0.37345058 0.20052481
-0.56995922 -0.71842653 0.011285782
-0.5640412 -0.15975457 0.079614639
-0.58247221 0.092415452 -0.064045429
-0.55939519 -0.37371057 0.19973087
-0.57265222 -0.10593563 0.048199654
-0.55401224 -0.48243159 0.26125383
-0.55612922 -0.43966657 0.23705387
-0.57342219 -0.2100386 0.10615683
-0.5669952 -0.60447663 0.17888165
-0.57861823 -0.10614854 0.047357559
-0.55978423 -0.48271161 0.26047993
-0.5886662 -0.025594592 0.00079584122
-0.59224522 0.045240402 -0.039301395
-0.57659119 -0.26461953 0.13609648
-0.56485319 -0.54375559 0.2676177
-0.56555921 -0.48299354 0.25970554
-0.59644818 0.0088814497 -0.019694328
-0.57688624 -0.37449652 0.19734955
-0.5800432 -0.31262559 0.16232157
-0.59073222 -0.71092254 0.043724537
-0.58248019 -0.26486355 0.13528252
-0.58779722 -0.16064852 0.076282501
-0.60069424 -0.025994599 -0.00092029572
-0.61130619 -0.83263761 -0.11752224
-0.58837318 -0.26510853 0.13446951
-0.57488322 -0.54052252 0.28269768
-0.57932222 -0.44076353 0.23392773
-0.5970962 -0.21097654 0.10286093
-0.5828982 -0.48384362 0.25738478
-0.5976522 -0.31338853 0.15990877
-0.58868122 -0.48412853 0.25661182
-0.6165852 -0.06746763 0.019655704
-0.60024118 -0.37556058 0.19417667
-0.61446422 -0.10744363 0.042301655
-0.6323002 -0.8245036 -0.083913326
-0.61644518 -0.70167953 0.083812714
-0.60236722 -0.59262556 0.23273373
-0.61755019 -0.16178459 0.072119713
-0.62044823 -0.10766262 0.041458607
-0.6208092 -0.21192759 0.099571705
-0.60737723 -0.5909546 0.24034882
-0.6235072 -0.16201454 0.071287632
-0.6083622 -0.44215959 0.23002291
-0.63460422 -0.068103611 0.017106533
-0.63683522 -0.02721256 -0.006067276
-0.62665123 -0.69802457 0.099702835
-0.60881323 -0.54073459 0.28494692
-0.61458021 -0.54103559 0.28418493
-0.64890122 -0.027624547 -0.0077834129
-0.62948722 -0.37691158 0.19021559
-0.62343222 -0.48586458 0.25197649
-0.63534522 -0.37718552 0.18942356
-0.65828019 -0.81448859 -0.042397499
-0.64187819 -0.6925866 0.12338877
-0.64150518 -0.26735252 0.12715483
-0.63226819 -0.58267862 0.27815056
-0.65639824 -0.10899359 0.036403656
-0.6564492 -0.21338159 0.094634533
-0.63766921 -0.54224962 0.28113985
-0.67070723 -0.069398582 0.01200676
-0.65650022 -0.31599361 0.15187454
-0.64344722 -0.54255563 0.28037882
-0.67673522 -0.069616616 0.011156559
-0.67911524 -0.028668582 -0.012072086
-0.68113619 0.0061004162 -0.031795502
-0.66518319 -0.26837462 0.12390757
-0.68720418 0.0058964491 -0.032661438
-0.66830021 -0.31652659 0.15026951
-0.67430419 -0.21412152 0.092169762
-0.65294921 -0.57833761 0.29880953
-0.6887942 -0.070055544 0.0094575882
-0.67053223 -0.37884754 0.1846776
-0.6587162 -0.57865363 0.29805565
-0.6993472 0.0054854155 -0.034389496
-0.68010724 -0.31706256 0.14866447
-0.67702824 -0.68010062 0.17796469
-0.6862182 -0.21461862 0.090525627
-0.68200719 -0.67834061 0.18568182
-0.70690423 -0.070720613 0.0069088936
-0.70447218 -0.11081356 0.029669762
-0.68414223 -0.44591063 0.2198987
-0.71294624 -0.070944607 0.0060586929
-0.69193423 -0.67483562 0.20106173
-0.70077223 -0.26993459 0.11904192
-0.70717221 -0.16532463 0.059645653
-0.70671219 -0.27019852 0.11822987
-0.68758523 -0.58025163 0.29429293
-0.69583619 -0.44650358 0.21834469
-0.7096712 -0.31842154 0.1446557
-0.71265423 -0.27046353 0.11741781
-0.69336623 -0.58057457 0.29354048
-0.69555622 -0.54536456 0.27354383
-0.69901419 -0.48976058 0.24196577
-0.73108721 -0.07161957 0.0035104752
-0.70674622 -0.66962057 0.22398949
-0.72202522 -0.21613353 0.085596561
-0.72516519 -0.16605657 0.057153702
-0.72454923 -0.27099556 0.11579752
-0.74319321 -0.072072566 0.0018129349
-0.7458092 -0.031034589 -0.021505356
-0.73049921 -0.27126259 0.1149888
-0.71651423 -0.4906866 0.23966074
-0.75188822 -0.03125459 -0.022362232
-0.74318022 -0.16679555 0.054661751
-0.72511423 -0.44800657 0.2144618
-0.75531024 -0.072530568 0.00011491776
-0.7579692 -0.03147459 -0.023220062
-0.73527223 -0.38198954 0.17599392
-0.72230619 -0.58220762 0.28978777
-0.74919021 -0.16704458 0.053830624
-0.75193322 -0.21742052 0.081494808
-0.7304042 -0.5472886 0.26899862
-0.75520521 -0.16729361 0.053000927
-0.7339012 -0.58286959 0.28828573
-0.76479721 -0.11316556 0.021254539
-0.73988223 -0.49193555 0.23658991
-0.77350819 -0.073222578 -0.0024333
-0.77623123 -0.032141566 -0.025792122
-0.7672382 -0.16779453 0.051339626
-0.74573022 -0.49225062 0.23582268
-0.75368422 -0.54859358 0.26597452
-0.77928519 -0.16829854 0.049678802
-0.78294718 -0.11388761 0.018731594
-0.79173023 -0.073921621 -0.0049815178
-0.77071321 -0.38375658 0.1712656
-0.77819723 -0.27343553 0.10850954
-0.78900224 -0.1141296 0.01789093
-0.77662921 -0.3840546 0.17047787
-0.78417021 -0.27371162 0.10770082
-0.78791022 -0.21899563 0.076572895
-0.7653392 -0.54925257 0.26446295
-0.80672222 -0.033267558 -0.030078411
-0.79014623 -0.27398854 0.10689163
-0.79612523 -0.27426654 0.10608292
-0.80340624 -0.16931862 0.046359539
-0.80718321 -0.11486155 0.015367508
-0.78385919 -0.45109063 0.20671272
-0.80210823 -0.27454454 0.10527468
-0.80470622 -0.32293659 0.13185263
-0.80809319 -0.27482456 0.10446548
-0.79260623 -0.49481159 0.22969484
-0.82824624 -0.075342596 -0.010075092
-0.80153322 -0.45203763 0.20439053
-0.82259822 -0.32381159 0.12945652
-0.83754224 -0.11609954 0.011163712
-0.81332719 -0.45267361 0.20284462
-0.83603019 -0.2211476 0.070014477
-0.84572619 -0.17113763 0.040550709
-0.82513422 -0.45331556 0.20129776
-0.83593118 -0.38709253 0.16261292
-0.8440572 -0.2765246 0.099615574
-0.84808624 -0.2216956 0.068376541
-0.85579222 -0.11685163 0.0086417198
-0.8418752 -0.38740259 0.16182661
-0.85247624 -0.32529062 0.12546492
-0.87223524 -0.22280163 0.065099716
-0.86568218 -0.38865155 0.15868568
-0.87043422 -0.32618958 0.12307072
-0.87410319 -0.27796763 0.095577717
-0.8782782 -0.22307962 0.06428194
-0.88818222 -0.17300063 0.034745693
-0.88614219 -0.27855152 0.093961716
-0.90033919 -0.17354161 0.03308773
-0.90421921 -0.27943558 0.091540813
-0.91680723 -0.11941761 0.00023460388
-0.91025221 -0.27973157 0.090731621
-0.91243619 -0.32832354 0.11748981
-0.92232323 -0.28032762 0.089118481
-0.94045323 -0.2812286 0.086698532
-0.94908118 -0.17573959 0.026454926
-0.9465012 -0.28153163 0.085891724
-0.95255321 -0.28183454 0.085086823
-0.97963923 -0.17714363 0.022311687
-0.98146921 -0.22796553 0.050370693
-0.98756427 -0.22826153 0.049552917
