# .PCD v0.7 - Point Cloud Data file format
VERSION 0.7
FIELDS x y z
SIZE 4 4 4
TYPE F F F
COUNT 1 1 1
WIDTH 1
HEIGHT 1024
VIEWPOINT 0 0 0 1 0 0 0
POINTS 1024
DATA ascii
0.39306015 0.61072171 0.047538757
0.38182718 0.49144366 0.040084362
0.38164517 0.5340097 0.043105602
0.37525517 0.65603667 0.052266598
0.36947915 0.65600765 0.051234722
0.37021515 0.45721167 0.038668633
0.36989617 0.53411168 0.044121742
0.36481115 0.34169865 0.030980587
0.36468717 0.37199569 0.033129692
0.36451316 0.41465265 0.036153793
0.36433917 0.45727167 0.039176464
0.36419815 0.49161366 0.041612625
0.35797817 0.57808965 0.048252583
0.35784516 0.61096966 0.050582409
0.35832617 0.49166965 0.042120457
0.35198516 0.65603966 0.050994396
0.34783617 0.17085969 0.020383358
0.34716815 0.34192169 0.032512665
0.36062217 0.67771769 -0.21195841
0.34688416 0.41484869 0.037684441
0.34641716 0.53431368 0.046156406
0.34194717 0.17095464 0.020894527
0.34873316 0.68170667 -0.10439062
0.34055215 0.53436267 0.046666622
0.35296416 0.8144027 -0.18251228
0.33634317 0.096378684 0.016114712
0.33621216 0.13096267 0.018566608
0.33576816 0.24835968 0.026890755
0.33653116 0.046532691 0.012582779
0.33720317 0.68557566 -3.6239624e-05
0.33497816 0.45756868 0.041725636
0.34871915 0.72441864 -0.2161684
0.33000118 0.21809065 0.025250435
0.32988816 0.24844468 0.027401447
0.32972416 0.29255968 0.030530453
0.33078218 0.007840693 0.010344505
0.32866216 0.57830966 0.050792694
0.32854018 0.6111697 0.053121567
0.32942715 0.37241465 0.036193371
0.32926917 0.41504067 0.039216518
0.32474416 0.046749651 0.013608456
0.32366517 0.34221268 0.034556389
0.32240215 0.68778265 0.059061527
0.33492216 0.72541267 -0.18389845
0.31885415 0.046857655 0.014124393
0.31737816 0.45774266 0.043253422
0.31725517 0.49205068 0.045686722
0.31944415 -0.11755031 0.0024704933
0.31310216 0.0081776381 0.011888504
0.31108916 0.57843864 0.052314758
0.31097317 0.61128569 0.054644585
0.31082416 0.68775165 0.057644367
0.30678517 0.13144964 0.021135807
0.30721217 0.0082896948 0.012405396
0.30594817 0.37268567 0.038235664
0.30580115 0.41529065 0.04125452
0.31565115 0.72615665 -0.16015148
0.30553415 0.49215665 0.046702385
0.30144915 -0.029022336 0.010267735
0.29967415 0.49220866 0.047212601
0.29352915 0.57856464 0.053835392
0.29407415 0.41541266 0.042272568
0.30403218 0.72591066 -0.16888332
0.29644516 -0.29377729 -0.0079894066
0.28925815 0.097183645 0.020226479
0.28901315 0.17178166 0.025512695
0.28876016 0.24901766 0.030985355
0.29033917 -0.23233634 -0.0031266212
0.29015616 -0.17668134 0.00081777573
0.28289017 0.24909765 0.031497478
0.28183016 0.57864767 0.054850578
0.28157917 0.65657771 0.060373783
0.28507316 0.68506068 -0.016565323
0.29025915 0.76070565 -0.1307683
0.29778016 0.84835964 -0.29639959
0.28481215 -0.34787935 -0.010806561
0.28463617 -0.29348832 -0.0069513321
0.28406817 -0.11680132 0.0055685043
0.28528816 -0.49602538 -0.021302223
0.27750215 0.097377658 0.021252632
0.27803916 -0.072941363 0.0091834068
0.27587917 0.61151266 0.057682514
0.27663216 0.37301368 0.040784359
0.27573717 0.65660965 0.060878754
0.27625516 0.49241465 0.04924345
0.27612117 0.53488666 0.052253723
0.27937415 -0.49585932 -0.020783424
0.27124816 0.21893865 0.030371666
0.27215117 -0.072825372 0.0096993446
0.27323216 0.68513566 -0.015077591
0.27322116 -0.41878539 -0.014813423
0.27283216 -0.29320329 -0.0059142113
0.27264315 -0.23192936 -0.0015735626
0.27381817 -0.61199039 -0.028501511
0.27361515 -0.54610139 -0.023834229
0.27345917 -0.49569339 -0.020262241
0.26574916 0.097569644 0.022278786
0.26564416 0.13210469 0.024725437
0.26613116 -0.028350353 0.013358593
0.26515517 0.29339164 0.036153793
0.26590016 0.047795653 0.018752575
0.26442316 0.53497767 0.053267479
0.26731417 -0.4186303 -0.014293194
0.26709816 -0.34743434 -0.0092492104
0.26657915 -0.17616636 0.0028858185
0.26770017 -0.54593033 -0.023312569
0.25987515 0.097664654 0.022791386
0.26038116 -0.072595298 0.01072979
0.26013815 0.0091506839 0.0165205
0.25844717 0.57880968 0.056876659
0.25821617 0.65670371 0.062395573
0.26128617 0.68530965 -0.010853291
0.25880516 0.45829767 0.048338413
0.26585415 0.72743964 -0.11984539
0.26140815 -0.41847533 -0.013773441
0.26103517 -0.29292339 -0.0048794746
0.26085317 -0.23166233 -0.00053834915
0.26068816 -0.17604035 0.0034017563
0.26178616 -0.54576129 -0.022790432
0.25365016 0.21918166 0.031905651
0.25436917 -0.028132319 0.0143857
0.25414816 0.047995687 0.019779682
0.25307918 0.41582865 0.045834541
0.25273216 0.53506768 0.054281712
0.25977618 0.81560469 -0.11735153
0.25640815 -0.72940737 -0.035289288
0.25496116 -0.23153132 -2.2411346e-05
0.25606516 -0.61146039 -0.026935577
0.24803317 0.13237566 0.026260376
0.24769917 0.24956465 0.034562588
0.24688715 0.53511167 0.054788589
0.25419617 0.85044068 -0.12719965
0.24906817 -0.23139936 0.00049448013
0.25014815 -0.61128539 -0.026413441
0.24981818 -0.49504238 -0.018179417
0.24216515 0.13246465 0.026772499
0.24250817 0.0094616413 0.018061638
0.24137717 0.4159447 0.046851635
0.24125817 0.45845667 0.049861431
0.24116316 0.49271268 0.052288532
0.24369717 -0.41801828 -0.012215614
0.24498618 -0.88107532 -0.045012474
0.24435216 -0.6531933 -0.028871536
0.24423516 -0.6111123 -0.025891304
0.23663417 0.0095636845 0.018575668
0.23541316 0.45850867 0.05036974
0.24241716 0.76072568 -0.13197136
0.23531917 0.49276167 0.052793503
0.23520416 0.53519964 0.055800438
0.24197417 0.85052866 -0.12043524
0.23922515 -0.94294733 -0.048883438
0.23864317 -0.72884732 -0.033720493
0.23745516 -0.29237336 -0.0028095245
0.23000616 0.29381967 0.039210796
0.22916116 0.61180067 0.061727524
0.23312917 -0.88067132 -0.043962479
0.23241118 -0.61077029 -0.024849415
0.23223618 -0.54493338 -0.020186424
0.22415316 0.29388869 0.039719582
0.22394617 0.37357765 0.045361519
0.22554316 0.68582869 0.0017995834
0.22581516 -0.34643239 -0.0056214333
0.22753917 -1.0103283 -0.052632332
0.22736317 -0.94253236 -0.047831535
0.22650117 -0.61060029 -0.024327278
0.22633016 -0.54477137 -0.019666195
0.21848716 0.21965265 0.034967422
0.21911415 -0.027496338 0.017468452
0.21841016 0.24993968 0.037112713
0.21829917 0.29395866 0.040228367
0.21809717 0.37363768 0.045870781
0.21788116 0.45866367 0.051890373
0.22160417 -1.0101154 -0.052105427
0.21978416 -0.29197139 -0.0012574196
0.21255717 0.2500127 0.037621498
0.21244816 0.29402667 0.040738583
0.21214616 0.41622567 0.049388409
0.21204117 0.45871466 0.052396774
0.21846116 0.81538868 -0.13145065
0.21866316 0.85033464 -0.13722134
0.21497516 -0.72812039 -0.031629562
0.20698716 0.13298565 0.029839516
0.20728317 0.010063648 0.021139622
0.20591116 0.57915771 0.061425686
0.20640616 0.37375766 0.04688549
0.20572416 0.65697563 0.066935539
0.20620216 0.45876467 0.052902699
0.20831317 -0.41713434 -0.0091042519
0.20887916 -0.65215236 -0.025742531
0.20772916 -0.17494231 0.0080404282
0.20150517 -0.027188361 0.019007683
0.20132616 0.048863649 0.024390697
0.20056316 0.37381667 0.047393799
0.20046316 0.41633469 0.050403595
0.20028315 0.49304467 0.055832386
0.20018317 0.53545666 0.058835506
0.20653716 0.85039568 -0.13268518
0.20381117 -1.0094874 -0.050530434
0.20315017 -0.72776431 -0.030586243
0.20198216 -0.23038536 0.0046224594
0.20271917 -0.54413432 -0.017587185
0.19573717 -0.071388304 0.016384602
0.19425017 0.57923269 0.062436581
0.19407216 0.65703368 0.067944527
0.19462216 0.41638869 0.050909519
0.20181017 0.89218664 -0.17162752
0.19788116 -1.0092804 -0.050002575
0.19610016 -0.23026234 0.0051383972
0.19706416 -0.65181535 -0.024699211
0.19583715 -0.11505836 0.013292789
0.19670317 -0.4936443 -0.013504505
0.18949017 0.098752677 0.028931618
0.18932517 0.17320967 0.034202576
0.18960117 0.049049675 0.025414467
0.18842116 0.57926869 0.062940598
0.18878417 0.41644269 0.051417351
0.19476816 0.85032266 -0.13901043
0.19132817 -0.72741336 -0.029542446
0.19115916 -0.6516493 -0.024180412
0.18355916 0.13332069 0.031882763
0.18310416 0.34380269 0.046779633
0.18303816 0.37399065 0.048916817
0.18294716 0.41649568 0.051922798
0.18459417 -0.34548134 -0.0020031929
0.18559617 -0.80874234 -0.034789562
0.18447717 -0.29119331 0.0018386841
0.18516517 -0.60944933 -0.020685196
0.18491416 -0.49334639 -0.012468338
0.17762116 0.17336565 0.035221577
0.18295917 0.81518066 -0.14464045
0.18308616 0.85020667 -0.14889765
0.17871116 -0.34534937 -0.0014872551
0.17846817 -0.2299003 0.0066823959
0.17835216 -0.17436332 0.010612488
0.17912716 -0.54351729 -0.015511513
0.17192316 0.099009693 0.030462742
0.17177117 0.17344368 0.035730362
0.17210317 0.010639668 0.024209499
0.17136216 0.37410468 0.049929619
0.17220417 0.68659067 0.020718575
0.17127617 0.41660166 0.0529356
0.17404316 -0.94074136 -0.043111324
0.17360716 -0.72689837 -0.027979374
0.17259316 -0.22978133 0.0071973801
0.17313015 -0.4930523 -0.011433601
0.16640416 -0.070871294 0.018947601
0.16568217 0.29455668 0.044804573
0.16624317 0.010732651 0.024721622
0.16616616 0.049410641 0.027458668
0.17145716 0.85005164 -0.16195631
0.16825716 -1.0082712 -0.047379494
0.16770016 -0.72672838 -0.027459621
0.16746816 -0.60897428 -0.019127369
0.16015016 0.13364565 0.033923626
0.16007416 0.17359668 0.036747456
0.16045716 -0.026497304 0.022592545
0.15984216 0.29462069 0.045311451
0.16515316 0.81507969 -0.15094519
0.16545117 0.85005367 -0.16198921
0.16625316 0.89207268 -0.19160557
0.16084516 -0.22954637 0.008225441
0.16134916 -0.49276334 -0.010397434
0.15436517 0.099260688 0.03199482
0.15430117 0.13372469 0.034431458
0.15468016 -0.070670307 0.019971371
0.15459816 -0.026402354 0.02310276
0.15452917 0.010917664 0.025743484
0.15347616 0.57948363 0.065966606
0.15916216 0.81507868 -0.15117359
0.15629116 -0.9401713 -0.04154253
0.15567715 -0.60866433 -0.018089294
0.14851516 0.099342644 0.032503605
0.14838216 0.17374665 0.03776741
0.14882016 -0.070571363 0.020483494
0.14824416 0.25078267 0.043216705
0.14816517 0.29474765 0.046326637
0.14867416 0.01100868 0.026254654
0.14802316 0.37432766 0.0519557
0.14781016 0.49344766 0.060382366
0.15378316 0.84989166 -0.17558432
0.14232716 0.29480964 0.046832561
0.14281817 0.011098683 0.026764393
0.14224216 0.34421569 0.050328732
0.14191116 0.53585863 0.063883781
0.14466916 -1.0597394 -0.048980236
0.14446217 -0.9397983 -0.040496349
0.14423317 -0.80750734 -0.031139374
0.14388916 -0.60835832 -0.01705265
0.14377517 -0.54262537 -0.012403488
0.13702716 -0.026119351 0.024636745
0.13601716 0.5795877 0.067478657
0.14218517 0.84966868 -0.19421864
0.13875017 -1.0595434 -0.048456192
0.13855016 -0.93961436 -0.039974213
0.13736516 -0.22908729 0.010281563
0.13727316 -0.17358929 0.014206409
0.13717416 -0.11400038 0.018420696
0.13788816 -0.54248136 -0.011885643
0.13077717 0.22074169 0.042600632
0.13124417 -0.070278347 0.022017479
0.13105117 0.049932659 0.030520439
0.13020116 0.57962167 0.06798172
0.13014816 0.61235964 0.070296764
0.13053016 0.37449068 0.053471565
0.13094117 0.6871717 0.035386562
0.13408816 0.72806668 -0.10332727
0.13283116 -1.0593483 -0.047933578
0.13274716 -1.0071123 -0.044238567
0.13229616 -0.72574037 -0.024339199
0.13217416 -0.65005332 -0.018986225
0.12482516 0.29499364 0.048354626
0.12433515 0.61238968 0.070799351
0.12474815 0.34438568 0.051847458
0.12506217 0.68725365 0.037478447
0.12463615 0.41700667 0.056982517
0.12808716 0.72813565 -0.10114622
0.12592116 -0.41522032 -0.0018706322
0.12581116 -0.34420735 0.0031504631
0.12683417 -1.0069253 -0.043716431
0.12572716 -0.28997439 0.006986618
0.12563317 -0.2288633 0.011307716
0.12628317 -0.64990133 -0.018467426
0.12554716 -0.17337531 0.015232563
0.11953316 -0.0700863 0.023040771
0.11857115 0.57968867 0.0689888
0.11881215 0.41705567 0.057487488
0.11863615 0.53601062 0.065899372
0.12062516 -0.80683237 -0.029057503
0.12015816 -0.49178737 -0.0067791939
0.11343715 0.099823654 0.035558701
0.11333216 0.17418468 0.040817738
0.11361616 -0.025753319 0.02668047
0.11275616 0.57972169 0.069491386
0.11271016 0.61245066 0.071805477
0.11304716 0.37464964 0.054991722
0.11609415 0.72827566 -0.096783638
0.11281816 0.5360477 0.066403389
0.11416816 -0.41496438 -0.00084018707
0.11508215 -1.0587742 -0.0463624
0.11472415 -0.80666739 -0.028537273
0.11374015 -0.11360031 0.020468712
0.11434815 -0.54191536 -0.0098176003
0.10749415 0.17425567 0.041324615
0.10733015 0.29517365 0.049872398
0.10766315 0.050267637 0.032559395
0.10694415 0.57975471 0.069993496
0.10722215 0.37470168 0.055496693
0.10683816 0.65744066 0.075487614
0.10710716 0.45956466 0.061496735
0.11010415 0.72834468 -0.094604492
0.10700316 0.53608465 0.066906452
0.11216816 0.81421769 -0.20206928
0.10916815 -1.0585864 -0.045841217
0.10871515 -0.72510833 -0.022263527
0.10812416 -0.28962833 0.0085268021
0.10788516 -0.11350232 0.020979404
0.10186915 0.011711657 0.030335426
0.10113315 0.57978666 0.070496559
0.10139816 0.37475264 0.056003571
0.10124415 0.49378166 0.064417362
0.10082216 0.81922567 0.087429523
0.10292915 -0.80634135 -0.027498245
0.10272516 -0.6493023 -0.016396523
0.095674157 0.29529166 0.050886631
0.095282152 0.6125387 0.073313713
0.098490156 0.76137167 -0.11044741
0.096462153 -0.34360832 0.0057215691
0.096178152 -0.11330932 0.022001743
0.096644156 -0.49125439 -0.0047163963
0.090034157 0.13455868 0.040026665
0.090273157 -0.069621384 0.025594711
0.090178154 0.011880696 0.031355381
0.089512154 0.57985163 0.071502686
0.089788154 0.34471369 0.054882526
0.089421153 0.65751666 0.076992512
0.092158154 0.72855169 -0.088071346
0.090594158 -0.34349138 0.0062355995
0.091371156 -1.0058303 -0.040584564
0.091292158 -0.93819529 -0.035802364
0.091041155 -0.72464734 -0.020707607
0.084102154 0.22127068 0.046658516
0.084292151 0.050589681 0.034593582
0.083668157 0.61259663 0.074317455
0.083965153 0.34476668 0.055387497
0.083618157 0.65754068 0.077494621
0.087058157 0.7605927 -0.14146757
0.085321158 -0.87611538 -0.0309062
0.085243158 -0.80586129 -0.025941372
0.085153155 -0.7244963 -0.020189285
0.078322157 0.17460066 0.04386282
0.078273155 0.2213347 0.047165394
0.078452155 0.05066967 0.035103798
0.077816151 0.65756565 0.077996731
0.078068152 0.41738665 0.061020374
0.080215156 0.72868764 -0.083721638
0.077987157 0.49393967 0.066430569
0.077943154 0.53626466 0.069422722
0.079424158 -0.8759523 -0.030387402
0.079350151 -0.8057043 -0.025422573
0.078809157 -0.28906935 0.011091709
0.078744158 -0.22800332 0.015407562
0.079142153 -0.60676438 -0.011361599
0.078686155 -0.17255729 0.019327641
0.079073153 -0.54110032 -0.0067205429
0.079020157 -0.49086636 -0.0031714439
0.072565153 0.10035467 0.039117813
0.072689153 -0.025141358 0.030249596
0.072652154 0.012127638 0.032881737
0.072614156 0.050747693 0.035612583
0.072325155 0.68798167 0.056267738
0.072176151 0.49397868 0.066935539
0.075588152 0.89216965 -0.17739964
0.076565154 0.92876166 -0.24739265
0.073459156 -0.80554837 -0.024903297
0.073304154 -0.64858335 -0.013810635
0.066661157 0.17473465 0.044875622
0.066618152 0.22145969 0.048178673
0.066846155 -0.025057316 0.030758381
0.066776156 0.050824642 0.036120415
0.066256158 0.61268163 0.075822353
0.066398151 0.45986268 0.065023422
0.069647156 0.75954568 -0.18317556
0.067693152 0.81713665 -0.033936501
0.069830157 0.84964865 -0.19718266
0.070312157 0.89182764 -0.23400021
0.070734158 0.92874867 -0.26621532
0.067206152 -0.41398233 0.0032744408
0.060831152 0.17480069 0.045383453
0.061042152 -0.069175303 0.028143406
0.060453154 0.61270964 0.07632637
0.060684152 0.34497368 0.057407379
0.060658157 0.37510169 0.059535503
0.060414158 0.65763766 0.079500675
0.060647152 0.68814063 0.060436726
0.062329158 0.72889167 -0.07720232
0.060555153 0.49405566 0.067941666
0.064490154 0.84895569 -0.25413036
0.065348156 0.92870569 -0.3243084
0.061677158 -0.80524129 -0.023866653
0.061449155 -0.54070932 -0.0051755905
0.055163153 -0.024891317 0.031775475
0.055133156 0.012368679 0.034408569
0.059063151 0.84825164 -0.31200552
0.055990152 -1.0569644 -0.041145325
0.055577151 -0.54058129 -0.0046606064
0.049231157 0.10064369 0.041148663
0.049296156 0.012447655 0.034917355
0.049268156 0.051053643 0.037645817
0.049050152 0.34507465 0.058416367
0.051233158 0.76038867 -0.15002155
0.048940152 0.49413067 0.068946362
0.053951152 0.89076769 -0.40953159
0.049785152 -0.64803034 -0.011746407
0.049389154 -0.11256832 0.026086807
0.043377154 0.13511765 0.044086456
0.043298155 0.25190365 0.052335739
0.043434158 0.051128685 0.038152695
0.043053158 0.61279166 0.077830791
0.043023154 0.65770864 0.08100462
0.043186158 0.41765368 0.064045429
0.043134153 0.49416766 0.069450378
0.048313156 0.89040267 -0.47002029
0.043880157 -0.60595733 -0.0082674026
0.043835156 -0.54032832 -0.0036315918
0.037648156 -0.024646342 0.033302784
0.037255153 0.61281866 0.07833147
0.037420154 0.34517366 0.059426785
0.03853716 0.72916168 -0.068525314
0.03825216 -1.0042934 -0.035899639
0.038033158 -0.64776129 -0.010714531
0.037739158 -0.17188734 0.022901535
0.037966155 -0.54020339 -0.003115654
0.031457156 0.61284471 0.078832626
0.03156516 0.41773969 0.065051556
0.031523153 0.49424165 0.070455551
0.033091158 0.81549466 -0.12927151
0.032383159 -1.0562844 -0.039064407
0.032243155 -0.8044973 -0.021277428
0.032069154 -0.48988134 0.00094461441
0.025896156 0.13531768 0.045606613
0.025854157 0.22188169 0.051721573
0.025975155 -0.024487317 0.034319401
0.025793156 0.34527069 0.060434818
0.025757158 0.41778266 0.065555573
0.027230157 0.81521565 -0.1454196
0.026425155 -0.93639928 -0.030087471
0.026394157 -0.87454528 -0.025719643
0.026320158 -0.72305936 -0.015019417
0.026262155 -0.60557038 -0.0067224503
0.026229156 -0.5399583 -0.0020885468
0.020022156 0.25212866 0.054356575
0.019847156 0.65779966 0.083005428
0.019899158 0.53660166 0.074446678
0.021341158 0.81493664 -0.16164064
0.020309156 -0.41306728 0.0073795319
0.020586157 -1.0559533 -0.038023472
0.020255158 -0.28802437 0.016210556
0.020410156 -0.64736634 -0.0091671944
0.014261158 0.10105765 0.044189453
0.014205156 0.25218368 0.054861546
0.014084155 0.58024263 0.078028679
0.014072156 0.61292362 0.080336571
0.014171155 0.34536666 0.061442375
0.014160158 0.37547368 0.063568592
0.014089158 0.6887697 0.077073574
0.014128158 0.46021965 0.069552422
0.014806157 0.7294277 -0.059864521
0.014639156 0.76347864 -0.02798748
0.014522156 -0.60531837 -0.0056934357
0.014480157 -0.48953038 0.0024833679
0.0084121563 0.17536765 0.049939632
0.0084741563 -0.024255335 0.035842419
0.0083881561 0.25223869 0.055366516
0.0083751567 0.29610866 0.058464527
0.0084621571 0.012979686 0.038472652
0.0084501561 0.05156368 0.041197777
0.0083241556 0.46025768 0.070054531
0.0085931569 -0.41285032 0.0084047318
0.0085711572 -0.34196228 0.013409615
0.0087541565 -0.93594033 -0.028534412
0.0087351557 -0.87410134 -0.024167538
0.0026421566 -0.024179339 0.036350727
0.002574157 0.25229269 0.055870533
0.002551157 0.34545964 0.062450409
0.0027201567 -0.34186131 0.013920784
0.0028961562 -1.0554693 -0.036465645
-0.0031798445 -0.068265378 0.03374052
-0.0031888429 -0.024103343 0.036859512
-0.0032998435 0.58032668 0.079532623
-0.0033098441 0.68900263 0.083299637
-0.0031168442 -0.41263634 0.0094275475
-0.0030738432 -0.64685935 -0.007109642
-0.003080843 -0.6049493 -0.0041503906
-0.0090178438 -0.024029315 0.03736639
-0.0090278434 0.051771641 0.042717457
-0.008526844 0.81351566 -0.24390554
-0.0089698434 -0.41253132 0.0099396706
-0.008890844 -1.0551553 -0.035428524
-0.0088978438 -1.0030313 -0.031747341
-0.0089318436 -0.7222603 -0.011926651
-0.0089998432 -0.17117327 0.026978493
-0.0089548435 -0.53924829 0.00099277496
-0.014861844 0.22227669 0.055255413
-0.014883844 0.58038068 0.080533504
-0.014874844 0.7659657 0.070403576
-0.014586844 0.81322765 -0.26059151
-0.014808843 -0.64661235 -0.0060815811
-0.014814843 -0.53913432 0.0015077591
-0.020676844 0.13582164 0.049654484
-0.020676844 0.29635566 0.060985565
-0.020676844 0.34564167 0.064464569
-0.020676844 0.41810668 0.069578648
-0.020676844 0.49455366 0.074974537
-0.020676844 -0.28734928 0.019783497
-0.020676844 -0.17100328 0.02799654
-0.020676844 -0.11155635 0.032192707
-0.020676844 -0.48885828 0.0055594444
-0.026461843 0.65797067 0.087006569
-0.026471844 0.49458668 0.075475693
-0.026793843 0.81264669 -0.29420757
-0.026527844 -0.41222137 0.011473656
-0.026522843 -0.3413673 0.016475677
-0.026559845 -0.93506235 -0.025428295
-0.026519842 -0.28725737 0.020293713
-0.026538843 -0.60447329 -0.0020952225
-0.032313842 0.10157269 0.048238754
-0.032289844 0.29645169 0.061990738
-0.032324843 0.01347667 0.042021751
-0.032265842 0.49461967 0.075977802
-0.032260843 0.53687871 0.078959465
-0.032377843 -0.41212028 0.011984348
-0.032433845 -0.87311739 -0.020549297
-0.032415845 -0.72175437 -0.0098686218
-0.032361843 -0.28716534 0.020803452
-0.032354843 -0.22619635 0.025105476
-0.032392845 -0.53879839 0.0030446053
-0.038162842 -0.06780833 0.036785603
-0.038042843 0.58048666 0.082535744
-0.038072843 0.41822267 0.071083546
-0.038364843 0.73001564 -0.040427208
-0.038213842 -0.34117728 0.017496586
-0.038344845 -1.0543954 -0.032837391
-0.038261846 -0.60424334 -0.0010695457
-0.038170844 -0.11132139 0.033715725
-0.043980844 -0.02359736 0.040408611
-0.043823846 0.61316764 0.0853405
-0.043804843 0.68927568 0.090711594
-0.043861844 0.46058166 0.074573517
-0.044255845 0.73008066 -0.038271427
-0.043842845 0.53693664 0.079961777
-0.044045843 -0.28698534 0.021822453
-0.044016846 -0.17067438 0.030030727
-0.049817845 -0.067662299 0.037801743
-0.049668841 0.41829669 0.072089672
-0.049654841 0.46061566 0.075075626
-0.051563844 0.81146669 -0.36240625
-0.050084844 -0.93450731 -0.02336359
-0.050043844 -0.80259734 -0.014055252
-0.055553846 0.17599666 0.055493355
-0.055643842 -0.067590296 0.03830862
-0.055403844 0.58056271 0.084037781
-0.055479847 0.37598068 0.069602489
-0.055374846 0.65807164 0.089506626
-0.055363841 0.68931067 0.091709614
-0.055447847 0.46064866 0.075575352
-0.055963844 -0.93437237 -0.022846222
-0.055856846 -0.64578837 -0.0024862289
-0.061467841 -0.067519367 0.038814545
-0.061310843 0.29668164 0.064508438
-0.061154842 0.65809071 0.090004444
-0.061258845 0.41837066 0.073092461
-0.061899841 0.73027265 -0.031812191
-0.061272845 0.76597166 0.070744514
-0.064129844 0.81086665 -0.39699841
-0.061892845 -1.0538163 -0.030767441
-0.061698847 -0.60379738 0.00098180771
-0.067191847 0.13628566 0.053693771
-0.067171842 0.17610365 0.056501389
-0.067291841 -0.067449391 0.039321423
-0.067232847 0.052419662 0.047777653
-0.06695684 0.61325866 0.087339401
-0.066934846 0.65810966 0.090503693
-0.067031845 0.46071565 0.076579571
-0.067773841 0.73033667 -0.029660225
-0.067178845 0.76558667 0.055542469
-0.067523845 -0.53815836 0.0061154366
-0.073091842 -0.023257315 0.042940617
-0.07347884 -0.72091728 -0.0062713623
-0.073173843 -0.1702823 0.032569408
-0.078938842 -0.067311347 0.040334702
-0.078911841 -0.023192346 0.043445587
-0.078741841 0.25299269 0.062925816
-0.078888841 0.014001667 0.046069622
-0.078539841 0.5806607 0.086037636
-0.078683846 0.34606367 0.069490433
-0.078665845 0.37613565 0.071611404
-0.078472845 0.68937767 0.0937047
-0.079072841 0.76481068 0.024926662
-0.083213843 0.80995667 -0.44952536
-0.07951384 -1.0013213 -0.025544643
-0.079471841 -0.93384629 -0.020785332
-0.079197846 -0.48782831 0.010674477
-0.084594846 0.17625868 0.058013439
-0.084729843 -0.023127317 0.043950558
-0.084298849 0.61332369 0.088838577
-0.084268846 0.65816665 0.092001438
-0.089636847 0.80964965 -0.46720457
-0.084944844 -0.34045535 0.02157259
-0.084866844 -0.22545439 0.02968359
-0.084788844 -0.1107313 0.037774563
-0.090429842 0.13650268 0.055710793
-0.090547845 -0.023063362 0.044456482
-0.090343848 0.25308466 0.063931465
-0.090077847 0.61334562 0.089338779
-0.090252846 0.37621069 0.07261467
-0.090044849 0.65818465 0.092499733
-0.090221845 0.41854566 0.075601578
-0.096091844 0.80934167 -0.48497248
-0.091122843 -0.80174738 -0.010456562
-0.091006845 -0.64513034 0.00058841705
-0.090890847 -0.48763639 0.011694431
-0.096145846 0.25312966 0.064435482
-0.095857844 0.61336666 0.089837551
-0.096046843 0.37624764 0.073116779
-0.095821843 0.65820265 0.092998505
-0.095979847 0.46087468 0.079084396
-0.10258184 0.80903167 -0.50282955
-0.096924849 -0.72046739 -0.0042204857
-0.096483849 -0.16998428 0.034598351
-0.096436843 -0.11059135 0.038787365
-0.10222085 -0.067044318 0.042358398
-0.10211784 0.052776694 0.050807476
-0.10166284 0.58075464 0.088035583
-0.10176585 0.46090567 0.079584599
-0.10234884 0.73218465 0.031926632
-0.10245585 -0.34020132 0.023098469
-0.10296685 -0.93334335 -0.018725395
-0.10235684 -0.22522336 0.031205654
-0.10268284 -0.60306329 0.0045623779
-0.10262585 -0.53755933 0.0091824532
-0.10788284 0.10232264 0.054801464
-0.10785084 0.13665867 0.057222366
-0.10777184 0.22307664 0.063315392
-0.10803884 -0.066979349 0.042864799
-0.10774384 0.25321764 0.065440655
-0.10765784 0.34625769 0.072000504
-0.10894885 -1.0527322 -0.026637554
-0.10824185 -0.2860623 0.027418613
-0.11361685 0.17650664 0.06053257
-0.11321884 0.5807997 0.089033604
-0.11318684 0.61342865 0.091335773
-0.11330385 0.49504066 0.082988739
-0.11326185 0.53725863 0.085965633
-0.11477584 -1.0005484 -0.022451401
-0.11449984 -0.72014433 -0.002682209
-0.11438484 -0.60286433 0.0055847168
-0.11946084 0.13675964 0.058229446
-0.11967385 -0.066852391 0.043875694
-0.11933885 0.25330365 0.066445351
-0.11954784 0.05294466 0.052321434
-0.11920985 0.37638968 0.075122356
-0.12064984 -1.0004244 -0.021936417
-0.12508784 0.29714465 0.070034504
-0.12500083 0.37642467 0.075622559
-0.12460385 0.73425364 0.10084867
-0.12652484 -1.0003023 -0.021421432
-0.13088085 0.29718369 0.070537567
-0.13073884 0.41877568 0.079105377
-0.13068984 0.46105465 0.082087517
-0.13170885 -0.41056329 0.020651817
-0.13245884 -1.0522273 -0.02457428
-0.13224684 -0.87101632 -0.011803627
-0.13193284 -0.60257429 0.0071177483
-0.13691284 0.10258067 0.057320595
-0.13672784 0.25342965 0.067951679
-0.13667384 0.29722166 0.071039677
-0.13632484 0.58088666 0.091030598
-0.13657585 0.37649268 0.076625347
-0.14022484 0.76081669 -0.13240337
-0.13642985 0.49514967 0.084988594
-0.13783184 -0.64432234 0.0046796799
-0.14262085 0.17673969 0.063046455
-0.14246485 0.29725969 0.071540356
-0.14278084 0.053160667 0.054335594
-0.14205684 0.6135267 0.093828678
-0.14220984 0.49517566 0.085488796
-0.14337884 -0.41040033 0.021668434
-0.14420784 -1.0519853 -0.023546219
-0.14414084 -0.9999463 -0.019879341
-0.14405385 -0.93251938 -0.015126228
-0.14313884 -0.22471637 0.034755707
-0.14299084 -0.11006635 0.042835712
-0.14354284 -0.53691334 0.012752533
-0.14852084 0.10268068 0.058327675
-0.14847484 0.13700169 0.060745716
-0.14835784 0.22338265 0.066833496
-0.14874984 -0.066547334 0.046402454
-0.14868984 -0.022462308 0.049508572
-0.14831685 0.25351065 0.068956375
-0.14819084 0.34651065 0.075509548
-0.14772683 0.68956268 0.099684715
-0.15001284 -0.99983031 -0.019364357
-0.14992183 -0.93240839 -0.014614582
-0.14974284 -0.80064839 -0.0053286552
-0.14963384 -0.71953231 0.00038671494
-0.15456283 -0.066488326 0.046907425
-0.15360084 0.61356366 0.094825745
-0.15494883 -0.33949238 0.027671814
-0.15595584 -1.0517483 -0.022517204
-0.15487184 -0.28546232 0.031477451
-0.15478584 -0.22457927 0.035767555
-0.15522784 -0.53673929 0.013771534
-0.16025484 0.014809668 0.053135395
-0.15925884 0.68959165 0.1006794
-0.16088183 -0.41016239 0.023193359
-0.16077684 -0.33941931 0.028176785
-0.16156083 -0.87047631 -0.0092391968
-0.16060784 -0.22451228 0.036274433
-0.16606084 0.014861643 0.053639412
-0.16519083 0.58098865 0.093524456
-0.16550484 0.37665564 0.07913065
-0.16502383 0.68960464 0.10117769
-0.16577384 0.73320365 0.066807747
-0.17189784 0.75874364 -0.2138505
-0.16671383 -0.41008633 0.023701668
-0.16660483 -0.33934635 0.028684616
-0.16652183 -0.28532237 0.03249073
-0.16707383 -0.6438573 0.0072317123
-0.16634384 -0.16917235 0.040674686
-0.16683184 -0.48649138 0.018318653
-0.17186584 0.014912665 0.054142475
-0.17180485 0.053414643 0.056855679
-0.17090884 0.61361867 0.096320629
-0.17121984 0.41898566 0.0826087
-0.17109784 0.49530166 0.087985516
-0.17348784 -0.99938232 -0.017310619
-0.17234583 -0.28525335 0.032997608
-0.17224884 -0.22438139 0.037285805
-0.17285284 -0.60194129 0.010688782
-0.17780784 -0.066262305 0.048926353
-0.17767283 0.014963686 0.054646492
-0.17667884 0.61363566 0.096818447
-0.17680584 0.53751665 0.09145546
-0.17837784 -0.4099353 0.024716377
-0.17944284 -1.0512943 -0.020463467
-0.17935684 -0.99927431 -0.01679945
-0.17850484 -0.48633236 0.019335747
-0.18354084 -0.022137344 0.05253458
-0.18341084 0.053511679 0.057862759
-0.18285483 0.37674767 0.080630779
-0.18420884 -0.40986139 0.025224686
-0.18408684 -0.33913332 0.03020668
-0.18388884 -0.22425336 0.038298607
-0.18379384 -0.16898829 0.042189598
-0.18912384 0.10300666 0.06184864
-0.18877684 0.29754764 0.075549603
-0.18827184 0.58106667 0.095518589
-0.18813384 0.65846366 0.10097075
-0.18991184 -0.33906537 0.030712605
-0.18981583 -0.28505331 0.034516811
-0.18970683 -0.22419029 0.038804531
-0.19492184 0.10305065 0.062351704
-0.19485883 0.13735765 0.064767361
-0.19464384 0.25381368 0.072968483
-0.19501284 0.053605676 0.058868408
-0.19383983 0.68967164 0.10366344
-0.19586684 -0.40971738 0.026238441
-0.19643684 -0.71878833 0.0044717789
-0.19629784 -0.64342338 0.009780407
-0.19542284 -0.16887039 0.043200493
-0.19610083 -0.5361653 0.017333508
-0.19600783 -0.48610133 0.020858765
-0.20057884 0.17716169 0.068069458
-0.20104283 -0.066048324 0.050942421
-0.19960284 0.68968368 0.10416174
-0.20003784 0.46137366 0.088083744
-0.21092184 0.75618666 -0.31416559
-0.20145984 -0.28492433 0.035529613
-0.20134383 -0.22406834 0.039813519
-0.20214283 -0.64334029 0.010289669
-0.20112585 -0.1094833 0.047882557
-0.20193784 -0.53608829 0.017841816
-0.20651683 0.10313767 0.0633564
-0.20644884 0.13743967 0.06577158
-0.20613384 0.29764664 0.077052593
-0.20661384 0.053696692 0.059873581
-0.20557684 0.58112168 0.097013474
-0.20603783 0.34683269 0.080516815
-0.20752484 -0.40957636 0.027252674
-0.20855184 -0.93137139 -0.0094895363
-0.20693484 -0.1094293 0.048388481
-0.20777383 -0.53601128 0.018350601
-0.21231283 0.10317969 0.063857555
-0.21224284 0.13748068 0.066273689
-0.21256584 -0.021887362 0.055051804
-0.21200684 0.25391769 0.074471474
-0.21134284 0.58113867 0.097511768
-0.21112284 0.68970865 0.10515642
-0.21158583 0.46142167 0.089081764
-0.21320884 -0.3387993 0.032738686
-0.21414384 -0.79959732 0.00029373169
-0.21770184 0.29771066 0.078052521
-0.21710883 0.58115667 0.098009586
-0.21704084 0.61375266 0.10030365
-0.21688184 0.68972063 0.10565567
-0.21735884 0.46144566 0.08958149
-0.23086284 0.75487769 -0.36541033
-0.21903184 -0.33873528 0.03324461
-0.22051884 -1.0505593 -0.016872406
-0.21999384 -0.79950935 0.00080347061
-0.21891885 -0.28473836 0.037045479
-0.21957983 -0.60128933 0.014758587
-0.21855184 -0.10932428 0.049395561
-0.21944284 -0.53586334 0.019365788
-0.22390284 0.10326165 0.064863682
-0.22426584 -0.065846324 0.052956581
-0.22348383 0.29774165 0.07855463
-0.22331384 0.37694764 0.08412981
-0.22322284 0.41922665 0.087105751
-0.22638384 -1.0504603 -0.016360283
-0.22627184 -0.99846131 -0.01269865
-0.22584383 -0.79942435 0.0013136864
-0.22435984 -0.10927337 0.049899578
-0.22969784 0.10330164 0.065364361
-0.22953483 0.17734969 0.070577621
-0.22846983 0.65856171 0.10445738
-0.24432284 0.7539947 -0.39999342
-0.23083183 -0.40930933 0.029279709
-0.23042184 -0.22377831 0.042338371
-0.23532383 0.17738569 0.071078777
-0.23521784 0.22394764 0.074356556
-0.23560384 0.053913653 0.062387466
-0.23486984 0.37700069 0.085128784
-0.23477384 0.41927665 0.088104725
-0.23450384 0.5377177 0.09644556
-0.23649684 -0.33855039 0.034761429
-0.23770283 -0.86923832 -0.0025935173
-0.24049784 0.61322266 0.090090752
-0.25791386 0.75310165 -0.4349103
-0.24027084 0.53773665 0.096944809
-0.24369983 -0.93081838 -0.0064234734
-0.24355584 -0.86915237 -0.0020823479
-0.24191985 -0.16843134 0.047236443
-0.24707784 0.10341865 0.066869736
-0.24737684 -0.021611333 0.05807066
-0.25169384 0.65132666 -0.06871748
-0.24603684 0.53775465 0.097446442
-0.24830584 -0.40911931 0.030798435
-0.24813583 -0.3384313 0.035773754
-0.24971683 -0.99809235 -0.010653496
-0.24923983 -0.79909331 0.0033526421
-0.24904583 -0.7180503 0.0090565681
-0.24876484 -0.60092133 0.017299652
-0.24860884 -0.53551036 0.021902561
-0.25317785 -0.021568358 0.058573723
-0.25857985 0.60419464 -0.096099377
-0.26518485 0.72250265 -0.28524828
-0.25395685 -0.33837336 0.036278725
-0.25557783 -0.9980033 -0.010141373
-0.25541183 -0.93064636 -0.0054016113
-0.25508884 -0.79901332 0.0038614273
-0.25470483 -0.64264733 0.014866352
-0.25353885 -0.16833037 0.04824543
-0.25835884 0.22407669 0.076358795
-0.25878686 0.054074645 0.064396381
-0.27234584 0.67415667 -0.31439161
-0.26155484 0.48845467 -0.012928486
-0.25995284 -0.40899736 0.03181076
-0.26156783 -1.0499003 -0.013290405
-0.26143685 -0.99791628 -0.0096302032
-0.25963885 -0.28433639 0.040581703
-0.26054186 -0.64257735 0.015373707
-0.26014584 -0.4853403 0.026438713
-0.26426286 0.17755765 0.073583603
-0.26488984 -0.065523326 0.056480408
-0.27579385 0.56300968 -0.24090719
-0.27770683 0.59464264 -0.2930584
-0.26382485 0.34710968 0.085520744
-0.26445985 0.37549567 0.068205357
-0.27328783 0.52155864 -0.17256641
-0.26657283 -0.71782738 0.010581493
-0.26500183 -0.1089353 0.053424358
-0.26992485 0.22413868 0.077363491
-0.27047583 0.015681684 0.062692642
-0.29051384 0.63453662 -0.47105122
-0.28303584 0.51560271 -0.2718544
-0.27281183 -0.86874634 0.00046634674
-0.27241284 -0.71775538 0.011090755
-0.27126783 -0.28423029 0.041591644
-0.27096185 -0.16818529 0.049755573
-0.27193084 -0.53524834 0.023931503
-0.27583385 0.17762268 0.074587345
-0.27627283 0.25253868 0.063142776
-0.27616683 0.054188669 0.065900803
-0.29585084 0.5520277 -0.44647741
-0.29797482 0.58451962 -0.5017724
-0.27900985 -0.99766439 -0.008099556
-0.27847183 -0.79870933 0.0058984756
-0.27804983 -0.64237136 0.016896725
-0.27793685 -0.6005823 0.019836426
-0.28229183 -0.065396309 0.057988644
-0.28216985 -0.021362305 0.061086655
-0.28572583 0.24303764 -0.029411316
-0.29841584 0.42977268 -0.35238647
-0.28304583 -0.33809739 0.038804531
-0.28468183 -0.93024033 -0.0028514862
-0.28345183 -0.48509735 0.028463364
-0.29544383 0.23326868 -0.12456846
-0.31111583 0.45515966 -0.51477242
-0.29072484 -0.99750334 -0.0070786476
-0.29036084 -0.86852032 0.0019946098
-0.28821385 -0.1087603 0.055436611
-0.28941783 -0.53506428 0.02545166
-0.29658085 -0.99742538 -0.0065684319
-0.29638582 -0.93008834 -0.0018315315
-0.29577285 -0.71748132 0.013121605
-0.29555485 -0.64217728 0.018417358
-0.29418683 -0.16800338 0.051769733
-0.29510185 -0.48498231 0.029474735
-0.29968885 -0.065276325 0.059496403
-0.31572983 0.21287167 -0.32323742
-0.30045983 0.012541652 0.041087627
-0.29999083 -0.16796035 0.05227375
-0.30092585 -0.48492628 0.029981613
-0.30794585 -0.029899359 0.0025625229
-0.31274983 0.030798674 -0.10972738
-0.30652085 -0.4085533 0.035852432
-0.30690083 -0.53489035 0.026968479
-0.32877284 0.088371694 -0.34002066
-0.32297283 0.017870665 -0.20718765
-0.31394085 -0.92987138 -0.00030422211
-0.31375083 -0.86823732 0.0040287971
-0.31305683 -0.6419943 0.019937515
-0.31231183 -0.11180037 0.036990643
-0.33705983 0.04630065 -0.38757658
-0.33958483 0.075849652 -0.44426155
-0.34256384 0.11072165 -0.51116133
-0.32819983 -0.057418346 -0.18862343
-0.32016385 -1.0490904 -0.008184433
-0.31757683 -0.22304136 0.049903393
-0.31888884 -0.64193636 0.020445347
-0.31875783 -0.60015839 0.023383617
-0.32230583 -0.12644428 -0.056287289
-0.31839684 -0.48476428 0.031497478
-0.34806985 0.03306365 -0.49324322
-0.34147283 -0.041300356 -0.3479476
-0.32397583 -0.40840429 0.03736639
-0.32585484 -0.99705738 -0.0040202141
-0.32521984 -0.79816633 0.0099635124
-0.32357785 -0.28379828 0.046130657
-0.34634584 -0.1224013 -0.31976843
-0.33505782 -0.2449643 -0.075893402
-0.33041683 -0.60004836 0.024394512
-0.33891085 -0.20312935 -0.15912437
-0.33020383 -0.5346753 0.028991699
-0.33004084 -0.48466235 0.032508373
-0.35738984 -0.13800937 -0.42344522
-0.33733884 -0.92960232 0.001730442
-0.35404584 -0.17295533 -0.35253763
-0.36876285 -0.15408033 -0.53020048
-0.34297985 -0.86791533 0.0065693855
-0.35859483 -0.38275129 -0.19270134
-0.34926683 -0.99679035 -0.0019855499
-0.34882385 -0.86785537 0.0070796013
-0.36745682 -0.29683739 -0.37390518
-0.34804583 -0.64166135 0.022976398
-0.35511884 -0.99672729 -0.0014762878
-0.35479185 -0.54017133 0.0050854683
-0.35842785 -0.50622636 -0.067960262
-0.38546485 -0.38098937 -0.48447943
-0.38662884 -0.49366933 -0.38481236
-0.36682183 -0.99660534 -0.00045824051
-0.36610183 -0.79776233 0.013513565
-0.39736283 -0.4008823 -0.59309864
-0.37242484 -0.92924231 0.0047783852
-0.38234383 -0.6484043 -0.18449354
-0.38764885 -0.60424536 -0.28571558
-0.39181885 -0.56953532 -0.36527634
-0.39023283 -0.69903332 -0.21922159
-0.38437283 -0.99643439 0.001065731
-0.38411683 -0.92913336 0.0057926178
-0.41199183 -0.97952932 -0.17473841
-0.42935884 -0.97035033 -0.37131023
-0.44172183 -0.99870735 -0.47649956
