# .PCD v0.7 - Point Cloud Data file format
VERSION 0.7
FIELDS x y z
SIZE 4 4 4
TYPE F F F
COUNT 1 1 1
WIDTH 1
HEIGHT 1024
VIEWPOINT 0 0 0 1 0 0 0
POINTS 1024
DATA ascii
1.0465499 -0.039031327 -0.28560066
1.0198579 -0.063557386 -0.18652344
0.99429983 -0.062104344 -0.17990351
0.99728483 -0.038780332 -0.29073143
0.96162182 -0.021003306 -0.16548252
0.95779181 -0.10741138 -0.18259048
0.96079677 -0.065013289 -0.20496559
0.95696878 -0.02241832 -0.17646456
0.95273483 -0.10851932 -0.19072151
0.94766682 -0.10963035 -0.19886732
0.9506458 -0.067148328 -0.22134352
0.94533283 -0.1518923 -0.18125629
0.92848778 0.01576364 -0.19330931
0.9083758 0.11040068 -0.13223171
0.90231878 0.11046368 -0.13247871
0.9141928 -0.1581763 -0.22581959
0.91188377 -0.11749434 -0.25637674
0.91476882 -0.074718356 -0.27920961
0.90523982 -0.21602929 -0.20378256
0.90959883 -0.07581234 -0.28754473
0.90441883 -0.07690835 -0.29589748
0.90683579 -0.04051733 -0.31530142
0.8914898 -0.27088332 -0.19209671
0.8840698 0.10488665 -0.18172359
0.90158778 0.17935264 -0.3233757
0.90364879 0.20960569 -0.34003639
0.90853381 0.25240564 -0.37953472
0.89360082 -0.16289139 -0.25879049
0.89119381 -0.12205732 -0.28961849
0.89402282 -0.079111338 -0.31266069
0.8812198 -0.27346838 -0.20838833
0.87982881 0.061213672 -0.24740553
0.89001679 0.21069467 -0.33098364
0.88078082 -0.1243583 -0.30634642
0.87804079 -0.16646338 -0.28369951
0.85793978 -0.20921934 -0.16807365
0.84961581 -0.10044837 -0.14949656
0.84875083 -0.054068327 -0.14224529
0.84336179 0.23503166 -0.097047329
0.87480378 0.25458366 -0.36072874
0.85046881 -0.14622033 -0.15664959
0.84004778 0.077581644 -0.12010241
0.83861279 0.15513366 -0.10798454
0.84333378 -0.10009432 -0.14786863
0.83712882 0.23526967 -0.095448494
0.8370558 -0.099742293 -0.14624453
0.8390438 -0.20804632 -0.16316557
0.83789581 -0.14548337 -0.15339041
0.82467782 0.23574269 -0.092256546
0.83275378 -0.20765734 -0.16153049
0.83161479 -0.14511633 -0.15176153
0.8236748 -0.052725315 -0.13576365
0.81845683 0.23597765 -0.09066534
0.85060477 0.25411266 -0.36851358
0.81280577 0.20480764 -0.093989372
0.8455078 0.25318968 -0.37880754
0.82018578 -0.20688331 -0.1582675
0.81906581 -0.14438534 -0.1485095
0.80819279 0.11490369 -0.10646772
0.80745381 0.15644664 -0.099984646
0.80491281 -0.051729321 -0.13091564
0.8042258 -0.012766361 -0.12483454
0.81091881 0.26691365 -0.23852634
0.79798579 -0.012450337 -0.12322474
0.79727978 0.027869642 -0.11693335
0.79015082 0.079884648 -0.10726166
0.78880882 0.15722567 -0.095196724
0.78796482 0.20578265 -0.087616444
0.8048178 0.26692867 -0.23905945
0.79401881 -0.14293635 -0.14201975
0.78393281 0.080168664 -0.10566139
0.78122479 0.23737568 -0.081131458
0.7855168 -0.011819363 -0.12000847
0.78482282 0.028473675 -0.11372232
0.78984481 -0.26316428 -0.15920639
0.7888428 -0.20496738 -0.15013075
0.7777198 0.080451667 -0.10406351
0.7755698 0.20626467 -0.084438324
0.77928978 -0.011504352 -0.11840153
0.76884782 0.23783565 -0.077962399
0.77238482 0.029072642 -0.11051941
0.77937281 -0.38353539 -0.17485046
0.77731979 -0.26236737 -0.15594959
0.76470178 0.11680669 -0.095290661
0.76266378 0.23806465 -0.076379299
0.78041983 0.26698166 -0.24116755
0.76684582 -0.010879338 -0.11519051
0.77213877 -0.32609832 -0.16431665
0.75910079 0.081295669 -0.099274635
0.75850481 0.11707568 -0.093698502
0.75996083 0.029669642 -0.1073184
0.75231278 0.11734366 -0.092108727
0.75162882 0.15876168 -0.085655689
0.75082779 0.20722169 -0.078094482
0.75375581 0.029966652 -0.10572052
0.75962079 -0.32526433 -0.16105652
0.75136781 -0.20270729 -0.14040565
0.75034881 -0.14044333 -0.13070869
0.73926878 0.15926665 -0.082484722
0.7323128 0.20793164 -0.073352337
0.74992281 0.26704168 -0.24375868
0.73516279 0.030851662 -0.10093069
0.73790783 -0.13974035 -0.12748766
0.74382383 0.26705265 -0.24426937
0.72897381 0.031144679 -0.099336624
0.72141081 0.11867064 -0.084170341
0.72476578 -0.093579292 -0.11719751
0.72278982 0.031437635 -0.097743511
0.72839481 -0.32320237 -0.1529274
0.72738379 -0.2592243 -0.14297152
0.72548378 -0.1390413 -0.12427044
0.7230528 -0.37963831 -0.1601553
0.70768279 0.20886767 -0.067043304
0.74659479 0.29992867 -0.45688772
0.70186383 0.23947769 -0.068784714
0.7194258 0.26709366 -0.24629641
0.70425677 0.032309651 -0.092972755
0.74031079 0.29993868 -0.45740366
0.69613081 0.16101366 -0.07142067
0.69539279 0.20933169 -0.063895702
0.69869977 -0.0075073242 -0.097619534
0.7034868 -0.32157433 -0.14644432
0.69114578 0.084325671 -0.081801414
0.6931138 -0.045935333 -0.10204649
0.70722681 0.26711267 -0.24729776
0.69252878 -0.0072063208 -0.096027374
0.69812781 -0.3779403 -0.15365648
0.69543082 -0.19939339 -0.12589836
0.68762881 -0.091598392 -0.1075983
0.70112783 0.26712167 -0.24779558
0.68636179 -0.0069063306 -0.094437599
0.68019682 -0.0066073537 -0.092850685
0.68568879 -0.37709832 -0.15041256
0.68390179 -0.25653732 -0.13167763
0.68212378 -0.1366303 -0.11305046
0.67403781 -0.0063083172 -0.091262341
0.66655278 0.085402668 -0.075480461
0.66619879 0.23952967 -0.071700573
0.68282878 0.26714569 -0.24927473
0.70260483 0.29998964 -0.46045542
0.67326683 -0.37626338 -0.14717674
0.67672879 0.26715368 -0.24976444
0.66449481 -0.19759238 -0.1178813
0.66360182 -0.13561332 -0.10825968
0.65427881 0.085936666 -0.072327614
0.65558177 -0.0054193139 -0.086508751
0.70248377 0.32107168 -0.5969367
0.66005081 -0.31877434 -0.13514566
0.64764577 0.12177265 -0.065232754
0.65063179 -0.089654326 -0.098041534
0.64836478 0.23955166 -0.073131561
0.66452879 0.26716769 -0.25073767
0.6494388 -0.0051253438 -0.084925652
0.65214682 -0.19687939 -0.11468172
0.64202178 0.08646667 -0.069179535
0.68967777 0.32108468 -0.59794474
0.64678681 -0.25427938 -0.12204456
0.63540679 0.12227869 -0.062091351
0.65232879 0.26718068 -0.25170135
0.68327582 0.32109064 -0.59844637
0.63981581 -0.19617033 -0.11148643
0.62929279 0.12253064 -0.06052351
0.63048279 0.035716653 -0.07398653
0.63609481 -0.37378633 -0.1374917
0.63531882 -0.31720233 -0.12871552
0.62262279 0.16392165 -0.052565575
0.6175518 0.087516665 -0.062892437
0.61707479 0.12303168 -0.057387352
0.61877578 -0.0036663413 -0.077027321
0.61316782 -0.041946352 -0.081428528
0.61755979 -0.37256432 -0.13266468
0.61519778 -0.19476736 -0.1051116
0.61437678 -0.13294637 -0.095529556
0.63975781 0.30004966 -0.46538353
0.65125883 0.32111669 -0.60092545
0.5992378 0.088295639 -0.058190346
0.62718678 0.30005765 -0.46634436
0.59905982 -0.3713553 -0.12784958
0.58607382 0.16533566 -0.043199539
0.58891481 0.23960465 -0.077763557
0.59290081 -0.37095535 -0.12624741
0.59064078 -0.19338036 -0.098752499
0.5809598 0.089067638 -0.053497314
0.58316582 -0.086184382 -0.080625534
0.58258981 -0.040455341 -0.07354641
0.59742582 0.26722264 -0.25593948
0.58674681 -0.37055635 -0.12464666
0.58451182 -0.19303739 -0.097166538
0.57487381 0.089322686 -0.051934719
0.57332277 0.21381468 -0.032654762
0.57705581 -0.085874319 -0.079049587
0.57600683 -0.0016623139 -0.06601572
0.5755108 0.038190663 -0.059847355
0.58059579 -0.37015736 -0.12304544
0.57107782 0.23961467 -0.07911253
0.61283481 0.32113665 -0.60383463
0.56178081 0.16626269 -0.036977291
0.56428778 -0.039571345 -0.06883049
0.56830281 -0.36936533 -0.11984873
0.56539279 -0.13034534 -0.082873344
0.55874479 -0.084951282 -0.074324608
0.55819482 -0.039279342 -0.067261696
0.5607208 -0.24917531 -0.099723339
0.55264878 -0.084646344 -0.072752476
0.54449779 0.090588689 -0.044137478
0.54408079 0.12597466 -0.038657665
0.53993583 -0.038406312 -0.062556744
0.54134679 0.23962367 -0.081319332
0.53196782 0.12645465 -0.035552502
0.53094679 0.21531868 -0.02181673
0.53295982 0.040065646 -0.048911572
0.57440883 0.32114667 -0.60667372
0.52945483 0.23962569 -0.082188606
0.5273478 0.0005736351 -0.053495407
0.51940882 0.16785669 -0.026127338
0.5253998 -0.36663234 -0.1086936
0.52341682 -0.18965936 -0.081358433
0.51382184 0.12716764 -0.030900478
0.55519378 0.32114768 -0.60806656
0.51928383 -0.3662473 -0.10710335
0.51796079 -0.24670732 -0.088644505
0.51732582 -0.18932736 -0.07978344
0.51255882 -0.30963039 -0.096833706
0.50174379 0.12763965 -0.027804375
0.5328958 0.30008066 -0.4732995
0.54238379 0.32114667 -0.60898447
0.50706679 -0.3654803 -0.10392857
0.50449479 -0.12718737 -0.067147732
0.49570984 0.12787467 -0.026259422
0.49746084 -0.036404312 -0.05161953
0.51200181 0.26723766 -0.2622056
0.49969083 -0.24566638 -0.083911419
0.49140784 -0.036121309 -0.050061703
0.52957278 0.32114464 -0.60989475
0.48365083 0.12834167 -0.023169518
0.48535582 -0.035840333 -0.048504353
0.48454583 0.042156637 -0.036474705
0.48629382 -0.12625933 -0.062449455
0.48187482 0.23961866 -0.085580349
0.49369183 0.26723266 -0.26349545
0.5077458 0.30007464 -0.47507858
0.48145083 -0.24463534 -0.079189301
0.47160783 0.12880564 -0.020083427
0.47119483 0.16963565 -0.013785362
0.48758984 0.26723069 -0.26392174
0.47247884 0.04267168 -0.033373356
0.50145781 0.30007267 -0.4755187
0.47658384 -0.36358428 -0.096008301
0.46518382 0.16985464 -0.01224947
0.45356682 0.12949568 -0.015461445
0.45559683 -0.079888344 -0.047733307
0.45808184 0.23960769 -0.087227345
0.49113384 0.32113069 -0.61257935
0.45662582 -0.1860683 -0.064092636
0.44789684 0.094505668 -0.019349575
0.44838282 0.043690681 -0.027187347
0.48472783 0.32112765 -0.61302137
0.44274083 0.0043506622 -0.031739712
0.44023582 0.23959565 -0.088441372
0.43672383 0.0046136379 -0.030194759
0.46372783 0.30005264 -0.47811556
0.43901584 -0.24227035 -0.068207741
0.46550483 0.32111567 -0.61433268
0.42833585 0.23958665 -0.089239597
0.41757783 0.13085669 -0.0062456131
0.41721684 0.17158169 2.1457672e-05
0.42087984 -0.24127328 -0.063515663
0.41982985 -0.1229353 -0.045307636
0.41123584 0.17179364 0.0015535355
0.41643682 0.23957568 -0.09003067
0.42654684 0.26719064 -0.26807165
0.41434383 -0.18385029 -0.053171635
0.40701482 -0.032264352 -0.028348446
0.43227783 0.30002767 -0.48022556
0.43987182 0.32109565 -0.61605072
0.39962783 0.13152665 -0.0016493797
0.40453482 0.23956364 -0.090811729
0.40035483 0.045687675 -0.014858723
0.42598882 0.30002266 -0.48064041
0.40378082 -0.35915935 -0.077111721
0.39858484 0.23955768 -0.091199398
0.39436683 0.045934677 -0.013319492
0.41969782 0.30001569 -0.48105335
0.39674684 -0.23995936 -0.057275295
0.39576283 -0.12175632 -0.039103508
0.38767883 0.13196969 0.0014095306
0.39263383 0.23955065 -0.091585636
0.38138184 0.17284667 0.0091862679
0.37739384 -0.076203346 -0.02759552
0.40782684 0.32106268 -0.61815548
0.37823084 -0.18198931 -0.043848515
0.37774682 -0.12088239 -0.034460545
0.37140182 -0.075926304 -0.026053429
0.37222484 -0.1816833 -0.042298317
0.36408684 0.097766638 0.0021286011
0.36447382 0.047151685 -0.0056476593
0.36756384 -0.35701334 -0.067718506
0.35908782 -0.03014034 -0.016028404
0.36022082 -0.18107331 -0.039200306
0.35344383 -0.075101376 -0.0214324
0.35282984 0.0082066655 -0.0086464882
0.35253784 0.047633648 -0.0025854111
0.34543684 0.22131068 0.023105621
0.34746483 -0.074828386 -0.019895554
0.36936483 0.29995465 -0.48429441
0.34822884 -0.18046832 -0.036106586
0.34000984 0.13371164 0.013608456
0.33972085 0.17429066 0.019835472
0.34089783 0.0087056756 -0.0055837631
0.34061784 0.048110664 0.00047159195
0.36307284 0.29994667 -0.48468876
0.33373582 0.22129166 0.022384644
0.33551684 -0.074285388 -0.016821384
0.34715682 0.26709169 -0.27316236
0.35677984 0.29993665 -0.48508453
0.33747384 -0.35525835 -0.059919357
0.33664784 -0.23675239 -0.041741371
0.32954684 -0.074015379 -0.015286446
0.32923883 -0.028841317 -0.0083575249
0.34104884 0.26708269 -0.2735405
0.32870984 0.048585653 0.0035252571
0.35654184 0.32099569 -0.62142372
0.32985184 -0.11859536 -0.022122383
0.32466683 -0.23612332 -0.038647652
0.31648085 0.099560678 0.014318466
0.31618184 0.22125965 0.021318436
0.32120383 0.23944467 -0.096054554
0.31681183 0.049056649 0.0065746307
0.31945783 -0.35422039 -0.055252552
0.31830782 -0.17897236 -0.0283885
0.31032982 0.22124869 0.02096653
0.31345984 -0.35387635 -0.05369854
0.31269884 -0.23549938 -0.035555363
0.30517682 0.010183692 0.0035872459
0.30711383 -0.29784739 -0.04361248
0.30671984 -0.23518932 -0.034011364
0.29229984 0.17589766 0.031951427
0.29277182 0.22121364 0.019926548
0.29352283 -0.027312338 0.00081443787
0.29738483 0.23939866 -0.09747839
0.29442883 -0.17779434 -0.022231579
0.28682983 0.10065764 0.02190733
0.29142982 0.23938668 -0.097830296
0.28810883 -0.11664629 -0.011377335
0.28351384 -0.35217535 -0.045944691
0.27521384 0.22117567 0.01890564
0.27753481 -0.35183835 -0.044393539
0.26907581 0.10130668 0.026451588
0.26935783 0.22116268 0.018567562
0.27994484 0.26696664 -0.27720356
0.26935181 0.050909638 0.018737316
0.27155682 -0.35150337 -0.042848587
0.27090982 -0.23334932 -0.024768353
0.26297781 0.13644165 0.033307552
0.26276183 0.17688066 0.039496422
0.26350483 0.22114867 0.018233299
0.25725582 0.10173565 0.029475689
0.25751883 0.05136466 0.021769524
0.25899881 -0.23274434 -0.02169466
0.25135082 0.10194868 0.030987263
0.26160982 0.26692569 -0.27826166
0.25160682 0.051590681 0.023284435
0.24629882 -0.070329309 0.0061144829
0.24768081 -0.35017335 -0.036669731
0.24709782 -0.23214436 -0.018624306
0.24008483 0.22109169 0.016916275
0.24377683 0.23927766 -0.10056257
0.23978981 0.05204165 0.026312351
0.23781884 0.23926264 -0.1008954
0.23576283 -0.34951532 -0.033585548
0.23550281 -0.29400635 -0.025102615
0.22759983 0.13766068 0.042349339
0.22853982 -0.069563389 0.01067543
0.22833583 -0.024591327 0.017549515
0.23715681 0.26686668 -0.2796464
0.22816381 0.013281643 0.023342609
0.22798583 0.052488685 0.029334545
0.22955582 -0.29369438 -0.023566723
0.22901583 -0.17463934 -0.005376339
0.22242782 -0.024349332 0.019066334
0.23104283 0.26685166 -0.27998734
0.23715582 0.29970068 -0.49219465
0.22385582 -0.34886229 -0.030505657
0.22333682 -0.23095632 -0.012494564
0.22492683 0.26683569 -0.28032541
0.21635982 0.013745666 0.026368618
0.21619281 0.052931666 0.032353401
0.21790582 -0.34853733 -0.028965473
0.21766883 -0.29307234 -0.020495415
0.20978281 0.17860466 0.053020477
0.21080282 0.22101265 0.015316486
0.21398282 0.23919868 -0.10220432
0.21195981 -0.34821332 -0.027428627
0.20407283 0.13845867 0.048360348
0.20494682 0.22099566 0.015003681
0.20490083 -0.068553329 0.016747475
0.21269783 0.26680267 -0.28099871
0.20554683 -0.23007739 -0.0079083443
0.20507783 -0.11288834 0.0099806786
0.20007783 -0.3475703 -0.024356365
0.19986382 -0.29214728 -0.015899658
0.19309783 -0.068054318 0.019778252
0.19393283 -0.29184139 -0.014368534
0.18737182 0.22094268 0.014073372
0.18800583 -0.29153633 -0.01283741
0.18059283 0.13924468 0.054359436
0.18151382 0.22092468 0.013768673
0.18088683 0.054244637 0.041392326
0.18208283 -0.2912333 -0.011309624
0.18186682 -0.22891831 -0.0018043518
0.18167183 -0.17242134 0.0068125725
0.17472982 0.13943964 0.055857658
0.16926682 0.01556766 0.038434505
0.17042181 -0.34598136 -0.016692638
0.16288882 0.18009168 0.064988613
0.15725982 0.10525769 0.055045605
0.15715781 0.14001966 0.060343266
0.15776283 -0.066579342 0.028847694
0.16033381 0.23903668 -0.10502863
0.16376182 0.26665968 -0.28360462
0.16783983 0.29951268 -0.49598169
0.15250783 -0.28973031 -0.0036754608
0.14545882 0.14040267 0.063331604
0.14568482 0.055528641 0.050400257
0.14674883 -0.34473038 -0.010574341
0.14013281 -0.065854311 0.033371449
0.14244282 0.23897666 -0.10593271
0.13982582 0.055739641 0.051898479
0.14892782 0.29945564 -0.49697351
0.14083682 -0.34442031 -0.0090475082
0.13376883 0.14078367 0.066316605
0.13928583 0.26658064 -0.2848587
0.14262283 0.29943568 -0.49730062
0.12800783 0.10625267 0.062521458
0.12792882 0.14097267 0.067806244
0.12839481 -0.065374374 0.036385536
0.13051581 0.23893565 -0.10652542
0.12812082 0.056159675 0.05489254
0.12863183 -0.17000329 0.020457268
0.12200582 0.18135768 0.075415611
0.12290782 0.22072566 0.010827541
0.12235482 0.017336667 0.050447464
0.12300482 -0.28825629 0.0039343834
0.12370683 0.29937369 -0.49826765
0.11698882 -0.2258203 0.014908314
0.11048882 0.10684067 0.066996574
0.11065383 0.017770648 0.053443432
0.11100183 -0.16921532 0.024990559
0.10452582 0.18188965 0.079872608
0.10868082 0.26647365 -0.28638029
0.098704822 0.18206567 0.081355572
0.09909682 -0.064191341 0.043903351
0.099025823 -0.019465327 0.050706387
0.10255882 0.26645166 -0.28667974
0.099654824 -0.41466439 -0.0093955994
0.099451825 -0.28709638 0.010006428
0.099167824 -0.10833037 0.037187576
0.087726824 0.22058964 0.0091633797
0.081345826 0.10780668 0.074438572
0.081304818 0.14245969 0.079704285
0.085858822 0.29924268 -0.50015068
0.07552582 0.10799664 0.075923443
0.075446822 0.18276364 0.087285519
0.075619824 0.019053638 0.062409401
0.075943828 -0.28595436 0.016064644
0.070130825 0.22051764 0.0083584785
0.07012482 -0.34079432 0.0092053413
0.070073828 -0.28567135 0.017577648
0.069908828 -0.10711837 0.044695377
0.063893825 0.10837668 0.078894615
0.064029828 -0.062802315 0.052894592
0.063964821 0.019474685 0.065391541
0.059690826 0.26628768 -0.28871155
0.058138825 0.019683659 0.066881657
0.058262825 -0.16690433 0.038544655
0.052251823 0.14336669 0.087115288
0.052230824 0.18344969 0.093200684
0.052337825 -0.017704308 0.062661648
0.052940823 0.23863465 -0.11017752
0.052478824 -0.28482938 0.022110462
0.046449825 0.14354569 0.08859539
0.046531823 -0.062119365 0.057379246
0.046670824 -0.41184533 0.0043005943
0.046619825 -0.28455138 0.023618698
0.046548821 -0.10616434 0.050687313
0.040692821 -0.01727134 0.065644264
0.040672824 0.059209645 0.077249527
0.034852825 0.14390266 0.091553688
0.034874823 -0.017057359 0.067132473
0.034901824 -0.22205937 0.036029339
0.034886822 -0.10569334 0.053679466
0.029056823 0.18412668 0.099106312
0.029056823 0.020718694 0.074319363
0.029056823 -0.3387543 0.019795418
0.023085823 0.23850465 -0.1114893
0.023191823 -0.41062331 0.010365486
0.017421823 -0.060999334 0.064837456
0.017433822 -0.016418338 0.071597576
0.017328823 -0.41032135 0.01187849
0.017348822 -0.33818233 0.022814274
0.017362822 -0.28317535 0.031152248
0.011688823 0.14460665 0.097459316
0.011607824 -0.060777307 0.066326618
0.011543823 -0.22102237 0.042033672
0.0059038233 0.14478165 0.098935604
0.0055778231 0.22022867 0.0055685043
0.0058188234 -0.015996337 0.074568272
0.00014782324 0.18495768 0.10647058
-0.0015881769 0.26602668 -0.29144239
4.0823594e-05 0.021732688 0.081737518
-0.0056251772 0.18512166 0.10793924
-0.0057551786 0.021932662 0.083219528
-0.0059961751 -0.28209329 0.037163258
-0.011434175 0.14530069 0.1033535
-0.011397175 0.18528467 0.10940933
-0.017297179 0.061146677 0.092056274
-0.017659176 -0.28155935 0.040164471
-0.017471176 -0.10361838 0.067108631
-0.022981178 0.14564365 0.10629749
-0.023128178 0.022529662 0.087659359
-0.023640178 -0.40823829 0.022451401
-0.023554176 -0.33621335 0.033353329
-0.023489177 -0.28129435 0.0416646
-0.028796177 0.11130869 0.10254526
-0.029021177 -0.059252322 0.076729298
-0.028913178 0.022726655 0.089137554
-0.029314175 -0.28102934 0.0431633
-0.029233176 -0.21924531 0.052512646
-0.034567177 0.11148566 0.1040163
-0.036660179 0.23821968 -0.11395836
-0.038378179 0.26585364 -0.29298353
-0.03463918 0.061713636 0.096485615
-0.035321176 -0.40765333 0.025465488
-0.034879178 -0.1029433 0.071569443
-0.044511177 0.26582366 -0.29323339
-0.040676177 -0.10272038 0.073054314
-0.046396174 -0.058611333 0.081176281
-0.046575174 -0.16251934 0.06545639
-0.052693173 -0.33484137 0.040856361
-0.057561174 0.14665467 0.11510754
-0.059028178 0.21990067 0.0030312538
-0.058405176 -0.27972329 0.050643444
-0.063315175 0.14682066 0.11657333
-0.063231178 0.18672669 0.12260532
-0.064215176 -0.27946532 0.052137375
-0.06914518 0.11253268 0.11283255
-0.069527179 -0.057769358 0.087095261
-0.07253018 0.23803365 -0.11534262
-0.07030718 -0.40592837 0.034486294
-0.070146173 -0.33403134 0.045348644
-0.070023179 -0.2792083 0.053629398
-0.069885179 -0.21751928 0.062951565
-0.069625176 -0.10161829 0.080468655
-0.074819177 0.14715064 0.11950445
-0.07665918 0.21980464 0.0023822784
-0.075110175 0.024276674 0.10093927
-0.07613118 -0.40564537 0.03598547
-0.075830176 -0.27895236 0.055123329
-0.080566175 0.14731467 0.12096643
-0.082536176 0.21977168 0.0021705627
-0.08133918 -0.16112733 0.074370384
-0.086733177 -0.012741327 0.098232269
-0.093600176 0.26557368 -0.29515839
-0.08663518 0.02465564 0.10388136
-0.097319178 0.29844868 -0.50824165
-0.092907175 -0.16067135 0.077335358
-0.10017318 0.21967167 0.0015463829
-0.099029176 -0.27793932 0.061085701
-0.10482318 -0.27768838 0.062573433
-0.10937718 0.11372268 0.12308645
-0.10926918 0.14812565 0.12827539
-0.10977518 -0.011960328 0.10412025
-0.11815818 0.26544166 -0.29607344
-0.11005317 -0.10011232 0.090818405
-0.11540618 0.025590658 0.11122656
-0.11658318 -0.33192039 0.057293415
-0.12073318 0.14844465 0.13119555
-0.12115318 0.025774658 0.11269236
-0.12102018 0.064441681 0.11852551
-0.12197817 -0.21537137 0.076318264
-0.13235816 0.23769665 -0.11748266
-0.12689918 0.025958657 0.11415958
-0.12676117 0.064617693 0.11999035
-0.12775618 -0.21513832 0.07779932
-0.13231617 0.11438668 0.12892866
-0.13277817 -0.011193335 0.10999727
-0.13264117 0.026141644 0.11562538
-0.13310316 -0.09927237 0.096717358
-0.13776118 0.18871766 0.14156866
-0.14432919 0.23762566 -0.11788654
-0.13908818 -0.15888238 0.089174271
-0.14377019 0.11471468 0.13184643
-0.14347818 0.18886566 0.14302158
-0.14444119 -0.055127323 0.10625267
-0.15031517 0.23758966 -0.11808443
-0.14949617 0.11487764 0.13330364
-0.16115618 0.26519668 -0.29759455
-0.14969817 0.065313637 0.12583733
-0.15083817 -0.21421337 0.0837183
-0.15899318 0.21931565 -0.00039863586
-0.15574619 -0.010438323 0.11586046
-0.16730016 0.26516068 -0.29780436
-0.15542617 0.065485656 0.1272974
-0.16061619 0.18930769 0.14737844
-0.16487819 0.21927869 -0.00057935715
-0.16115218 0.065656662 0.12875652
-0.16286817 -0.32987928 0.069191456
-0.16263118 -0.27523935 0.077418327
-0.16186318 -0.098241329 0.10407448
-0.16665417 0.11536264 0.13767433
-0.16632318 0.18945366 0.14882946
-0.17959118 0.26508766 -0.29821634
-0.16896316 -0.40127039 0.05989027
-0.17294618 -0.0098813176 0.12025166
-0.18573818 0.26504964 -0.29841948
-0.17277518 0.027400672 0.12586355
-0.17416418 -0.27476239 0.080377579
-0.17867717 -0.0096973181 0.12171364
-0.17850018 0.027577639 0.12732458
-0.17831817 0.066166639 0.13313341
-0.17963919 -0.21308029 0.091100693
-0.18343419 0.18988866 0.1531806
-0.18630317 -0.40048337 0.064351559
-0.18569016 -0.27428937 0.083334446
-0.18913317 0.19003165 0.15462828
-0.19431117 0.21908665 -0.0014634132
-0.19012818 -0.0093313456 0.1246376
-0.18994218 0.02792865 0.13024139
-0.19483018 0.19017464 0.15607643
-0.20019919 0.21904767 -0.0016355515
-0.19607717 -0.05338335 0.11944437
-0.19585016 -0.009149313 0.12609768
-0.19546217 0.066669643 0.13750029
-0.19785118 -0.39996433 0.067321301
-0.19630018 -0.097034335 0.11288071
-0.20091417 0.11631167 0.14639425
-0.20052618 0.19031668 0.15752459
-0.20157218 -0.0089683533 0.12755728
-0.20643216 0.15075368 0.15300035
-0.20621818 0.19045866 0.15897036
-0.20752817 -0.053005338 0.12236929
-0.20838419 -0.21197128 0.098465443
-0.21300617 -0.0086093545 0.13047552
-0.22220218 0.23713064 -0.12030649
-0.21515918 -0.39919436 0.071770668
-0.21412617 -0.2117523 0.099936485
-0.21349019 -0.096442342 0.11727238
-0.21801317 0.11677766 0.1507473
-0.22375917 0.21888667 -0.0022954941
-0.23493418 0.26474166 -0.29997158
-0.21829218 0.067329645 0.14331627
-0.22021219 -0.27289534 0.092188358
-0.21955219 -0.15589929 0.10977125
-0.22560316 -0.21131837 0.10287666
-0.22920117 0.15134466 0.15879154
-0.22896716 0.19101864 0.16475248
-0.24724117 0.26466066 -0.3003397
-0.22969517 0.067655683 0.14622164
-0.23170316 -0.27243936 0.095134258
-0.23637918 -0.095666289 0.12312126
-0.24395916 -0.39793336 0.079172611
-0.24318317 -0.27198732 0.098077297
-0.24246317 -0.15508032 0.11563253
-0.24678218 0.068138659 0.15057135
-0.24781016 -0.095283389 0.12604046
-0.27186018 0.26449567 -0.30104971
-0.25465718 -0.27153933 0.10101748
-0.25865918 -0.0072033405 0.1421175
-0.27017418 0.23679966 -0.12162352
-0.25841618 0.029971659 0.14769554
-0.26352116 0.11798865 0.16232443
-0.26534018 -0.15427637 0.12148142
-0.27463916 0.15249264 0.17034149
-0.29648817 0.26432568 -0.30172968
-0.28859818 0.21841764 -0.0039415359
-0.29417616 0.23662567 -0.12223148
-0.28117317 0.030627668 0.1534934
-0.28368616 -0.32485437 0.10020065
-0.28247616 -0.1536833 0.1258626
-0.28658018 0.069239676 0.16070271
-0.29164517 0.15291268 0.17466354
-0.29183418 0.19139165 0.17080545
-0.29313418 -0.050275326 0.14421654
-0.29281116 -0.006182313 0.15082264
-0.31496817 0.26419568 -0.30221653
-0.29225716 0.069394648 0.16214657
-0.29566616 -0.39573729 0.092450619
-0.29514316 -0.32440031 0.10313749
-0.29429618 -0.20879138 0.12046242
-0.29388916 -0.1532923 0.12877846
-0.29345316 -0.093786359 0.13769627
-0.29793218 0.069548666 0.16359138
-0.30086917 -0.32417536 0.10460424
-0.30451417 -0.049925327 0.14711857
-0.32729316 0.26410669 -0.30253029
-0.30389816 0.031271636 0.15927935
-0.30713516 -0.39526129 0.095393658
-0.30571717 -0.20838439 0.12338352
-0.30986118 -0.0056833625 0.15516663
-0.31142318 -0.20818233 0.12484264
-0.31456017 0.11929768 0.17530155
-0.32399517 0.21814567 -0.0047335625
-0.31553918 -0.0055183172 0.15661335
-0.33019716 0.23635566 -0.12308359
-0.31622615 -0.093058348 0.14350653
-0.32156718 -0.04940635 0.15146542
-0.32092017 0.031746686 0.16361332
-0.32061416 0.07015568 0.1693635
-0.32432017 -0.39455628 0.099802494
-0.32375216 -0.32328439 0.11046934
-0.32587916 0.11958069 0.17817736
-0.32560217 0.15373468 0.18328953
-0.32724717 -0.049235344 0.15291452
-0.34220916 0.23626268 -0.12335062
-0.33206618 0.19106466 0.17001724
-0.33690718 0.15400368 0.18616056
-0.34148917 -0.39386129 0.10420752
-0.34356517 0.19096869 0.16981125
-0.35351115 0.21790969 -0.0053343773
-0.34720716 -0.39363229 0.10567236
-0.34660316 -0.3224113 0.11632156
-0.35292417 -0.39340436 0.10713959
-0.35184216 -0.26789629 0.12590027
-0.35131517 -0.20679438 0.13504028
-0.35384718 0.15440166 0.19046164
-0.36023116 0.071190655 0.17943859
-0.36323917 -0.26748633 0.1288166
-0.36167717 -0.09164536 0.1551013
-0.36622918 0.032979667 0.17514324
-0.36735016 -0.091472387 0.15654659
-0.37108317 0.12068766 0.18966341
-0.37153316 0.071479678 0.18231249
-0.37787917 -0.003755331 0.17248964
-0.40746316 0.26349765 -0.30437851
-0.38082016 -0.32113338 0.12508154
-0.37923917 -0.15047836 0.1505723
-0.38236618 0.12095767 0.19252968
-0.38394916 -0.047569335 0.16736269
-0.38435718 -0.090959311 0.16088247
-0.38847217 0.071908653 0.18661737
-0.39221218 -0.32071531 0.1279974
-0.39859018 -0.39161837 0.11884165
-0.39894116 0.15543568 0.20190859
-0.40577418 0.034019649 0.1852026
-0.40874618 -0.26588929 0.14045429
-0.40759316 -0.14958632 0.15780735
-0.41019717 0.15568668 0.20476437
-0.41141716 0.034164667 0.18663645
-0.41381517 -0.20470738 0.15100336
-0.41326016 -0.14941037 0.1592536
-0.41266418 -0.090120316 0.1680975
-0.41616818 0.12175065 0.20111132
-0.41743317 -0.0026843548 0.18255329
-0.45068717 0.26314765 -0.30523157
-0.41832018 -0.08995533 0.1695385
-0.42144418 0.15593666 0.20761728
-0.43624616 0.21720469 -0.0067424774
-0.42707118 -0.39053929 0.1261363
-0.42515418 -0.20434034 0.15389824
-0.42989817 0.19020265 0.16853762
-0.42917517 -0.046296358 0.17887831
-0.42871717 -0.0023853183 0.18542337
-0.42793217 0.072882652 0.19664431
-0.43435818 -0.0022363067 0.18685865
-0.45647216 0.23531669 -0.12547445
-0.43356317 0.07301867 0.19807529
-0.46249318 0.23526365 -0.12556458
-0.47540316 0.26293969 -0.3056736
-0.44092718 -0.089303374 0.17529726
-0.44428718 0.12239265 0.20824957
-0.44391918 0.15642768 0.21332026
-0.44905517 -0.3186903 0.14253426
-0.44953316 0.15654767 0.21474361
-0.46582717 0.21693665 -0.0071463585
-0.47453716 0.23515666 -0.12574053
-0.45472917 -0.31849432 0.14398527
-0.46040118 -0.31829834 0.14543438
-0.45912817 -0.20326233 0.16256857
-0.45786217 -0.088824391 0.1796093
-0.46113816 0.12276965 0.21252537
-0.46447417 0.18987566 0.16816139
-0.46211618 0.035440683 0.19952345
-0.46168718 0.07368964 0.20521832
-0.48358616 0.21677268 -0.0073633194
-0.50631618 0.26267368 -0.30618048
-0.48950616 0.21671665 -0.0074315071
-0.47428718 -0.045074344 0.19035769
-0.47292414 0.073953688 0.20807171
-0.47822216 -0.38866532 0.13922644
-0.49542817 0.21666068 -0.0074973106
-0.48041919 -0.088196278 0.18535137
-0.48739418 -0.20239031 0.16977739
-0.48605618 -0.088041306 0.18678665
-0.49330518 0.18959266 0.16790533
-0.50727421 0.21654767 -0.0076246262
-0.49117717 -0.044630349 0.19465446
-0.49304214 -0.20221829 0.17121744
-0.53725022 0.26239866 -0.30663538
-0.49583718 0.036257684 0.20808935
-0.50242722 -0.044337332 0.19751549
-0.52877522 0.23465866 -0.12642956
-0.50506717 -0.26271033 0.16505146
-0.50366521 -0.14672136 0.18229437
-0.50804919 -0.044192314 0.19894457
-0.50930017 -0.14656138 0.1837306
-0.51420617 -0.08727932 0.19395065
-0.51719719 0.12398368 0.22674465
-0.51874518 -0.00010234118 0.2083106
-0.51983023 -0.087129354 0.19538164
-0.5283882 0.12421864 0.22958326
-0.54875618 0.21614367 -0.0079975128
-0.5290122 0.075227678 0.22230625
-0.53398317 0.12433565 0.23100042
-0.53354621 0.15828764 0.23604155
-0.56497121 0.23431069 -0.12679434
-0.5805952 0.26200068 -0.30718756
-0.53745621 -0.14577234 0.19089937
-0.54175419 -0.043340325 0.20751238
-0.54070717 0.037305653 0.21948242
-0.54472017 0.15850866 0.23887157
-0.56654721 0.21596467 -0.0081267357
-0.54580718 0.07559669 0.22656727
-0.55186218 -0.38611734 0.15804863
-0.54942918 -0.20055437 0.18558645
-0.54870617 -0.14546335 0.1937623
-0.54793119 -0.086393356 0.20252848
-0.55657721 -0.31513131 0.16999626
-0.55505818 -0.20039332 0.1870203
-0.58911723 0.23407269 -0.12699747
-0.55995017 -0.14515734 0.19662333
-0.55916017 -0.086104393 0.20538235
-0.56835222 0.18882066 0.16748953
-0.59515721 0.23401266 -0.12704229
-0.61158121 0.26170665 -0.30751944
-0.5688172 -0.38555634 0.16237831
-0.56477422 -0.085961342 0.20681047
-0.56869823 0.037935674 0.22658634
-0.5703842 -0.085819364 0.20823669
-0.62398219 0.26158565 -0.30763865
-0.57913917 -0.31442928 0.17575169
-0.57680517 -0.1447053 0.20091152
-0.57599318 -0.085678339 0.20966244
-0.57867521 0.12524265 0.24232769
-0.58660418 -0.042247355 0.2189064
-0.5859912 0.0014796853 0.22538662
-0.58547521 0.03830564 0.23084259
-0.6199612 0.21541166 -0.0083985329
-0.5978002 -0.041982353 0.22175026
-0.64879519 0.26134264 -0.30785036
-0.60167623 -0.31374431 0.18149757
-0.60090619 -0.25981832 0.18948555
-0.60276717 0.0018576384 0.2296443
-0.65500021 0.26128066 -0.30789757
-0.60223722 0.038668692 0.23509455
-0.61215121 -0.25949633 0.19234943
-0.6112712 -0.19883132 0.20133066
-0.61213219 0.12589568 0.25080252
-0.66741419 0.26115566 -0.30798864
-0.61959821 -0.38392937 0.17533731
-0.61720222 0.15988266 0.25722742
-0.61953121 0.0022286773 0.23389769
-0.62339222 -0.25917935 0.19521236
-0.62081319 -0.084576368 0.22105026
-0.62576622 -0.041334331 0.22884941
-0.63086522 -0.38358033 0.17821169
-0.62900919 -0.25902128 0.1966424
-0.66768819 0.23326266 -0.12742233
-0.6337142 -0.19823229 0.20704126
-0.66155219 0.21496165 -0.0084915161
-0.63628221 0.0025936365 0.23814535
-0.6384902 -0.14311635 0.2165966
-0.64492822 -0.19793928 0.2098937
-0.64408821 -0.14297736 0.21801853
-0.67344218 0.21483064 -0.0084996223
-0.6858412 0.23306769 -0.12746954
-0.65244722 0.039718688 0.24782324
-0.68533522 0.21469766 -0.0084986687
-0.71710622 0.26064467 -0.30826664
-0.6574232 0.077891648 0.25485945
-0.65995318 -0.083657384 0.23098946
-0.69128519 0.21463066 -0.0084953308
-0.72332418 0.26057869 -0.30828953
-0.66855419 0.078105688 0.25767946
-0.67389917 -0.25779831 0.20806646
-0.67293519 -0.19722128 0.21701336
-0.6720612 -0.14229536 0.22512627
-0.67853218 -0.19708037 0.21843529
-0.68985319 0.18745166 0.1675806
-0.68159223 -0.040097356 0.24301338
-0.68228817 -0.083150387 0.23665857
-0.68444318 0.12722868 0.2691083
-0.68716818 -0.039977312 0.24442863
-0.69273722 -0.38173532 0.19398355
-0.68944019 0.16115165 0.27550554
-0.73428923 0.23253268 -0.1275053
-0.69554722 0.12742364 0.2719183
-0.7269932 0.21422267 -0.008430481
-0.6975922 0.0038716793 0.25368929
-0.7606402 0.26017964 -0.30839872
-0.7019102 -0.2570653 0.21519041
-0.70000023 -0.14163435 0.23222065
-0.73294717 0.21415365 -0.0084104538
-0.7095812 -0.38125539 0.19827271
-0.7084052 -0.31071329 0.20867825
-0.70750821 -0.25692129 0.21661329
-0.70558321 -0.14150536 0.23363829
-0.70872122 0.004093647 0.2565074
-0.71208721 -0.19625437 0.22696352
-0.71162218 0.16152066 0.28111553
-0.77931219 0.25997567 -0.30842447
-0.71716321 0.16161066 0.28251648
-0.73043418 0.18696165 0.16782045
-0.72059017 -0.039278328 0.25290155
-0.7232632 -0.19598639 0.22980165
-0.72232717 -0.14112139 0.23788834
-0.73623419 0.18689066 0.16786337
-0.73081118 -0.31012237 0.21437836
-0.72988719 -0.25635636 0.22230244
-0.74203521 0.18681866 0.16790867
-0.73033023 0.041234672 0.26755238
-0.73348218 -0.14087033 0.24071932
-0.74783921 0.18674666 0.16795444
-0.78279722 0.23197669 -0.12740755
-0.73991221 0.12817866 0.28313971
-0.81045318 0.25962865 -0.30842733
-0.74143618 0.041439652 0.27036428
-0.7446332 -0.14062333 0.24354935
-0.78061718 0.21358764 -0.0081887245
-0.74916619 -0.081707358 0.25362062
-0.7865802 0.21351469 -0.0081515312
-0.75253522 0.041641653 0.27317429
-0.75879019 -0.30940533 0.22149134
-0.75577819 -0.14037836 0.24637651
-0.7565282 0.12845069 0.28734159
-0.75952321 -0.038497329 0.26276636
-0.80707318 0.23169065 -0.12730742
-0.76564521 -0.37972331 0.21254253
-0.76438117 -0.30926538 0.22291136
-0.76701319 -0.45595837 0.2013216
-0.76508123 -0.038389325 0.26417637
-0.76363218 0.041840672 0.27598238
-0.76997322 -0.30912638 0.22433329
-0.76900321 -0.25540435 0.23224068
-0.76692021 -0.14013839 0.24920368
-0.7684862 0.079908669 0.28297329
-0.77141923 -0.08125329 0.25926161
-0.77251518 0.16248369 0.2965064
-0.7884782 0.18623364 0.16834545
-0.77539319 0.005366683 0.27339554
-0.77472121 0.042037666 0.27878952
-0.77697819 -0.081141353 0.26066971
-0.85409218 0.25912869 -0.30834341
-0.82237619 0.21307468 -0.0078816414
-0.86033022 0.25905567 -0.30832338
-0.79232317 -0.30857933 0.23001242
-0.78909719 0.16273266 0.30069447
-0.80590922 0.18600869 0.16854429
-0.79284817 -0.037859321 0.27120733
-0.79922521 -0.37885535 0.2210803
-0.79690421 -0.25475335 0.23932457
-0.79525721 0.12906367 0.29713154
-0.79757822 0.0057666898 0.27900934
-0.80134422 -0.19421434 0.24961853
-0.80031222 -0.13943732 0.2576685
-0.80625218 -0.4548893 0.21130657
-0.80312121 0.0058646798 0.28041363
-0.80631119 0.12923265 0.29992342
-0.88529623 0.25876164 -0.30822134
-0.80796421 0.042609692 0.28719854
-0.80724019 0.080549657 0.29277229
-0.8159982 -0.37843537 0.22534466
-0.81504118 -0.03744936 0.27682638
-0.81350219 0.042701662 0.28859758
-0.83497721 0.18562669 0.16892052
-0.81974518 0.0061546564 0.28461838
-0.87391722 0.23087567 -0.12685871
-0.81830418 0.080726683 0.29556847
-0.8271752 -0.37816131 0.22818327
-0.82457119 0.042885661 0.29139757
-0.82383323 0.080813646 0.2969656
-0.83034819 -0.25400436 0.24781036
-0.82774723 0.16329366 0.31045771
-0.83834618 -0.3778913 0.23102045
-0.83366323 -0.13876736 0.26612043
-0.83251321 -0.080070376 0.27473545
-0.83983719 -0.45401728 0.21984625
-0.83392918 0.12964469 0.30690145
-0.83326417 0.16337168 0.31184959
-0.83488822 0.080986679 0.29975939
-0.84275621 -0.036954343 0.28384161
-0.92277819 0.25831068 -0.30800772
-0.84116721 0.04315567 0.29559469
-0.86406821 0.18523568 0.16935062
-0.85048622 0.12988365 0.31108236
-0.8719402 -0.39402533 0.15446568
-0.86716419 -0.31811535 0.18933344
-0.86354619 -0.26060736 0.21574926
-0.85775322 0.043418646 0.29978657
-0.89584422 -0.34201729 0.066514492
-0.87986219 -0.09548831 0.18169069
-0.8828482 0.067327678 0.20202541
-0.91059422 -0.35431337 0.0033445358
-0.9056952 -0.06840539 0.080800533
-0.92162818 -0.30691528 -0.032565594
-0.90574622 0.13970965 0.12229824
-0.90290523 0.18158865 0.14238024
-0.91457021 0.0095746517 0.059903622
-0.94096321 -0.37963033 -0.12670946
-0.92997622 0.21167868 -0.0066123009
-0.9356162 -0.087896347 -0.046242714
-0.93230122 -0.039737344 -0.022947311
-0.9295212 0.00063967705 -0.0034165382
-0.95307517 0.22986066 -0.12599754
-0.94476718 -0.0084713101 -0.067987442
-0.94772321 0.15959764 -0.046470642
-0.94415617 0.20986664 -0.021717548
-0.98437816 -0.35696137 -0.30083847
-0.97615618 -0.027233362 -0.20092869
-0.98229724 0.10013866 -0.20067549
-0.97907323 0.14421165 -0.17857456
-0.99907821 -0.12924838 -0.3157053
-0.99540323 -0.079008341 -0.29051065
-0.97290522 0.22852767 -0.13629436
-0.98889321 0.22148567 -0.20350266
