# .PCD v0.7 - Point Cloud Data file format
VERSION 0.7
FIELDS x y z
SIZE 4 4 4
TYPE F F F
COUNT 1 1 1
WIDTH 1
HEIGHT 1024
VIEWPOINT 0 0 0 1 0 0 0
POINTS 1024
DATA ascii
0.58159363 0.63066757 -0.3532815
0.57983965 0.4934366 -0.48617315
0.57017463 0.49597359 -0.44438839
0.56816965 0.44677261 -0.49895859
0.53972465 0.63325459 -0.29426813
0.53840965 0.66701359 -0.27718258
0.54185563 0.50340557 -0.32195759
0.53228062 0.66702056 -0.27748537
0.54548967 0.41323256 -0.4511342
0.53967267 0.4551146 -0.37466335
0.52565664 0.66726959 -0.27120018
0.52351063 0.50821757 -0.24265146
0.50277466 0.59783256 -0.045959473
0.52677464 0.41917461 -0.36891413
0.52122062 0.46051461 -0.29418325
0.49530968 0.59885657 -0.025277138
0.51378965 0.6340546 -0.27692127
0.49030769 0.56496358 -0.038024426
0.50045365 0.66766059 -0.26242733
0.49432069 0.46838358 -0.17686033
0.47773868 0.59877563 -0.028236389
0.48555568 0.47094658 -0.1386323
0.50702864 0.22910357 -0.53186131
0.47267768 0.64398563 -0.040621281
0.48862469 0.66746163 -0.26867437
0.47090268 0.52201158 -0.015233517
0.49774268 0.23320258 -0.48960733
0.49009767 0.2962786 -0.37889051
0.47313967 0.43619359 -0.1332984
0.46831667 0.47598758 -0.063449383
0.46016067 0.59869158 -0.031193256
0.46251467 0.64297259 -0.065730572
0.47554469 0.6679306 -0.25685215
0.48615369 0.18431157 -0.50554657
0.47949067 0.24125856 -0.4065485
0.45374069 0.5658496 -0.023907185
0.45429769 0.59866357 -0.032178402
0.46786869 0.34060156 -0.23384142
0.46952868 0.71514058 -0.25850534
0.45300066 0.52222359 -0.012908459
0.47052467 0.24521559 -0.36574745
0.44788566 0.56581855 -0.024891376
0.46342069 0.30703461 -0.2587862
0.46402767 0.71486759 -0.26792526
0.46395567 0.74930757 -0.26684618
0.44644868 0.48005658 -0.0032672882
0.44202867 0.5657866 -0.025875568
0.47032169 0.095796585 -0.55494738
0.46343467 0.15793961 -0.44845533
0.45908469 0.19719261 -0.38118029
0.43617168 0.56575459 -0.02685833
0.43670669 0.59857661 -0.035137177
0.45125967 0.71512657 -0.26018143
0.45450869 0.16240162 -0.40717316
0.45026669 0.20138657 -0.3406682
0.43258867 0.67515457 -0.063545227
0.42960867 0.5220806 -0.016836166
0.42923766 0.32080859 -0.10490036
0.42308968 0.47989759 -0.0071864128
0.44335067 0.11029959 -0.42891932
0.43293667 0.2096296 -0.26104927
0.42720169 0.26432562 -0.16861057
0.41859066 0.5656566 -0.029811382
0.41718468 0.35986257 -0.0071482658
0.41606167 0.40405059 0.010961533
0.41671768 0.44596159 0.00038671494
0.43436667 0.74892056 -0.28410053
0.43456969 0.11502159 -0.38788223
0.42441869 0.21367961 -0.22191715
0.41882768 0.26801759 -0.13050842
0.41272968 0.56562358 -0.030796528
0.41271168 0.32746458 -0.030504227
0.40958968 0.36222059 0.020531654
0.41140467 0.47981659 -0.0091443062
0.43588269 0.020686567 -0.51307631
0.40805468 0.64370859 -0.051497459
0.41497669 0.71495861 -0.26800919
0.41641268 0.74874359 -0.29217815
0.40306869 0.18810362 -0.16926956
0.39169267 0.33248258 0.025081635
0.39212969 0.36206359 0.017611504
0.39629069 0.6436556 -0.053476334
0.40997067 0.74887961 -0.28719044
0.39128667 0.22942758 -0.069712162
0.38624367 0.28237861 0.017748833
0.39674968 0.6715166 -0.16446018
0.38668367 0.19628459 -0.093497276
0.38323167 0.23325461 -0.032709122
0.39269367 0.046567619 -0.30787849
0.38859168 0.09139061 -0.23451138
0.38393867 0.14222962 -0.15129423
0.37862366 0.20030761 -0.056229591
0.37355968 0.28403556 0.034359455
0.39875367 -0.019661427 -0.4162755
0.37799668 0.5982706 -0.045004368
0.37465867 0.36190259 0.014693737
0.37524968 0.40370858 0.004134655
0.37584168 0.44564658 -0.0064563751
0.39220467 0.74860358 -0.29913044
0.37632069 0.47956359 -0.015023232
0.36999768 0.4456006 -0.0074343681
0.37046969 0.47952059 -0.016003132
0.39095268 -0.11253643 -0.50325632
0.36519468 0.52166259 -0.027640343
0.38239169 -0.10647643 -0.46140146
0.35678169 0.33213961 0.019252777
0.35717967 0.36173761 0.01177454
0.36097267 0.64349055 -0.059416294
0.36471367 0.71921158 -0.1296134
0.37393066 -0.10048735 -0.42003155
0.34975266 0.24100357 0.041297436
0.35135168 0.36168259 0.010801792
0.34551969 0.36162561 0.0098276138
0.34760267 0.5215416 -0.030590534
0.34054267 0.11877161 -0.0080013275
0.35729569 -0.088717461 -0.3387084
0.34271768 0.59807563 -0.0509305
0.34329769 0.64340556 -0.062389374
0.34370369 0.6750896 -0.070397377
0.34891766 0.71791959 -0.17332745
0.34496868 0.7538076 -0.095373154
0.34119669 0.47929859 -0.020905495
0.33139867 0.16623861 0.057251453
0.34519169 -0.033189416 -0.21980715
0.33780268 0.67506456 -0.071392536
0.33438367 0.4033466 -0.0026955605
0.32850468 0.084995568 -0.0029315948
0.32522067 0.12749761 0.064223766
0.32616767 0.21138459 0.044853687
0.34567767 -0.13723338 -0.35405445
0.33150968 0.64334762 -0.064371586
0.35485068 0.80058455 -0.54161024
0.33755067 -0.13116336 -0.31391859
0.32124066 0.28346157 0.025643826
0.32506067 0.5979746 -0.053896427
0.32182768 0.33178157 0.013423443
0.32320568 0.4452146 -0.015262127
0.32913166 0.7527346 -0.13865137
0.31356269 0.12754959 0.064092636
0.31402168 0.16600657 0.054364681
0.31971467 0.64328861 -0.066354275
0.32754868 0.7161696 -0.23247147
0.30738968 0.094400585 0.071500778
0.30777669 0.12746662 0.063133717
0.32157668 -0.11923337 -0.23502541
0.30960166 0.28332961 0.023704529
0.31029567 0.037033617 0.0087146759
0.31328467 0.59790558 -0.055873394
0.31100467 0.4031316 -0.0066003799
0.31149569 0.44511458 -0.017221451
0.31189367 0.47906858 -0.025810242
0.30701768 0.56497955 -0.048540592
0.31309867 0.7516486 -0.18247032
0.32362267 0.8028096 -0.41421938
0.31789768 0.88398761 -0.28814554
0.29747567 0.24037361 0.032602787
0.29883668 0.36116058 0.0020384789
0.29978168 0.4450126 -0.019179344
0.31128567 0.71483558 -0.27748537
0.30016467 0.47897458 -0.027772427
0.31343266 0.84044456 -0.32569456
0.29004467 0.094139576 0.06862545
0.29213369 0.28312659 0.020797729
0.29524669 0.5649026 -0.050513268
0.29266769 0.33147061 0.0085625648
0.29299468 0.36110061 0.0010638237
0.29392168 0.44496158 -0.020158291
0.29476368 0.52116263 -0.039444447
0.29793367 0.80804861 -0.11205435
0.30300668 0.88435358 -0.2282443
0.30769968 -0.24197137 -0.33574438
0.28426167 0.094050586 0.067668438
0.28552666 0.21086258 0.038101673
0.29068467 -0.096170425 -0.082452297
0.28383869 0.0081605911 0.077542782
0.28374669 0.046561599 0.079690456
0.28715268 0.36104059 9.059906e-05
0.28760669 0.40290856 -0.010507584
0.29447767 -0.15398335 -0.17111015
0.27847669 0.09396261 0.066711426
0.27923569 0.16552758 0.048595428
0.28048268 0.28298861 0.018858433
0.28605267 0.80802262 -0.11405659
0.27465469 0.28291857 0.017888546
0.27181467 0.0095475912 0.087105751
0.27515769 0.33127856 0.0056467056
0.27633667 0.44480559 -0.023097515
0.26723868 0.1268726 0.056416512
0.26838869 0.24000561 0.027768612
0.26931667 0.33121359 0.004673481
0.28371468 0.71256959 -0.35381031
0.27494869 0.8849206 -0.13554716
0.28135067 -0.2925514 -0.29495239
0.26064068 0.046182573 0.075871468
0.26536468 0.52094162 -0.044367313
0.26979166 0.80729157 -0.1570425
0.25674668 0.23985457 0.025835514
0.25450268 0.0092486143 0.084247589
0.25792268 0.3607316 -0.0047812462
0.25873968 0.44464558 -0.026039124
0.27188668 0.71214861 -0.3682642
0.26908469 0.74884659 -0.29533243
0.25401267 0.56462359 -0.05742836
0.25475767 0.64294958 -0.077271461
0.25432268 -0.19703639 -0.065666199
0.24993865 -0.11897945 0.051091671
0.24594666 0.33094859 0.00078248978
0.24661167 0.40250456 -0.017348289
0.25255468 0.80691558 -0.17943716
0.25574267 -0.35040843 -0.26637125
0.23794466 0.093322575 0.06000948
0.23685767 -0.026491404 0.090371609
0.23927166 0.23962361 0.022934437
0.23966067 0.28249061 0.012071609
0.24074866 0.40244561 -0.018326283
0.25233567 -0.42059743 -0.34203053
0.24822766 -0.34323239 -0.22726822
0.24374966 -0.25890636 -0.10217047
0.23610467 -0.10947442 0.11140251
0.23108867 -0.026598394 0.089421749
0.23344466 0.2395466 0.021967411
0.23425266 0.33081359 -0.00116539
0.23525766 0.44442758 -0.029960155
0.24448666 0.7488966 -0.29423857
0.24079767 -0.33614039 -0.18861532
0.23268166 -0.17883444 0.04381752
0.23035467 -0.10959041 0.11045742
0.22663866 0.12624961 0.049700737
0.22798567 0.28234357 0.010131836
0.22562467 0.0087366104 0.079487801
0.22902167 0.40232557 -0.020282269
0.23833966 0.74890858 -0.29396534
0.23004267 0.52066559 -0.050282478
0.23441367 0.80694062 -0.17865419
0.22115766 0.1646806 0.038972855
0.21919566 -0.0687024 0.09814167
0.21984567 0.0086326003 0.078534603
0.22280367 0.3603456 -0.010633469
0.23219366 0.74892056 -0.29369354
0.22415166 0.52061856 -0.051267147
0.22836865 0.8069486 -0.17839527
0.21534166 0.16459358 0.038010597
0.21888566 0.5973196 -0.071715355
0.22209466 0.71814656 -0.17106724
0.21012166 0.23922962 0.018097878
0.21515167 0.71902961 -0.14198351
0.21627966 0.80696458 -0.17787457
0.21993166 -0.48454344 -0.29408646
0.20689166 -0.16597342 0.12085676
0.20340966 0.12587959 0.045859814
0.20706266 0.59724158 -0.073699474
0.20766066 0.67444956 -0.093280315
0.20554966 0.4020806 -0.024196148
0.21375866 0.74895656 -0.29287815
0.20646766 0.52047563 -0.054227352
0.20486066 -0.30184746 -0.0016393661
0.20128067 -0.22094035 0.1155386
0.21760966 -0.59000146 -0.41892338
0.20090066 0.56424463 -0.066329479
0.19913967 0.33039761 -0.0070061684
0.20761666 0.74896759 -0.29260635
0.19540066 -0.16622639 0.11897469
0.19036266 -0.069278419 0.093403816
0.19579767 0.67438859 -0.095275402
0.19411466 0.44403258 -0.036829472
0.19436266 0.47806159 -0.045464516
0.18927467 -0.21816838 0.13117981
0.18597266 0.12559658 0.042978764
0.18540066 0.044876575 0.063459873
0.18908167 0.56415761 -0.068309307
0.18931466 0.59712255 -0.076674461
0.18847066 0.47800758 -0.046448231
0.19106066 -0.45328546 -0.13917017
0.18042366 0.16405362 0.032232761
0.18073466 0.20939857 0.020725727
0.17935066 0.0078815818 0.071867466
0.18370967 0.64254856 -0.089205265
0.18392766 0.67432761 -0.097271442
0.18205567 0.4018296 -0.028112411
0.18257867 0.4779526 -0.047431469
0.18607366 0.80700159 -0.17657948
0.18404266 -0.44569039 -0.10151434
0.17434266 0.12540358 0.041056633
0.17725866 0.56406856 -0.070288181
0.17747766 0.59704256 -0.078659534
0.17570366 0.33011061 -0.010903358
0.17777966 0.64251363 -0.090201378
0.17799066 0.67429662 -0.098268509
0.17645966 0.4438566 -0.039775372
0.17696667 0.52023059 -0.059161186
0.17240067 -0.16674244 0.11520958
0.17277266 -0.1107924 0.10100746
0.18116666 -0.54753244 -0.21954536
0.16877267 0.16386962 0.030306816
0.16906466 0.20922458 0.018792629
0.17079066 0.4778426 -0.04940033
0.16678067 -0.33429039 0.10901785
0.16340867 0.23857057 0.010353565
0.16367467 0.28150159 -0.00054740906
0.16542765 0.56397963 -0.072270393
0.16591467 0.64244258 -0.092193127
0.16639566 0.71997857 -0.1118803
0.16489266 0.47778758 -0.050386429
0.16795766 0.80702358 -0.17580557
0.16021766 -0.27563846 0.14090872
0.16057067 -0.21884847 0.12648964
0.16089167 -0.16700542 0.11332655
0.15711567 0.16368258 0.02837944
0.16192167 0.80703056 -0.17554712
0.15448566 -0.27578342 0.13997459
0.15018067 -0.02817142 0.076117516
0.15196466 0.28134161 -0.0024914742
0.15359266 0.56388855 -0.074252129
0.15422866 0.67417061 -0.1022625
0.15849866 0.74905461 -0.29045057
0.15007666 -0.40894842 0.080710411
0.14875266 -0.2759304 0.13904047
0.14415866 -0.070239425 0.085823536
0.14742966 0.51997757 -0.064099312
0.15377066 -0.73974037 -0.35466957
0.14362065 -0.16740537 0.11050463
0.13837767 -0.070362389 0.084875584
0.14001966 0.23822862 0.0064768791
0.14175166 0.56379658 -0.076234341
0.14050665 0.32966757 -0.016752243
0.14216967 0.64229959 -0.096178532
0.14211066 -0.57082641 -0.093371391
0.13378567 0.1633026 0.024524689
0.13438666 0.2810986 -0.0054073334
0.13582766 0.56375062 -0.077226162
0.13599667 0.59675258 -0.085612297
0.13521466 0.4434346 -0.046655178
0.13095367 -0.39183342 0.16557646
0.13128667 -0.32653236 0.14898348
0.12990366 0.5637036 -0.07821846
0.13006467 0.59670961 -0.086605549
0.12876067 0.32951558 -0.018703461
0.13028666 0.64222658 -0.098172188
0.12911066 0.40124059 -0.036931515
0.13174766 0.80706358 -0.17426252
0.12524067 -0.39199746 0.16464949
0.13128166 -0.64931345 -0.14997435
0.12633467 -0.16781342 0.10767984
0.12660766 -0.11181045 0.093447685
0.12692066 -0.48438835 0.077148438
0.12102266 -0.070738435 0.082031727
0.12121866 -0.02876842 0.071363449
0.12138366 0.0067486167 0.062336445
0.12434366 0.64218962 -0.099169254
0.12357567 0.4773896 -0.057284355
0.12083066 -0.11194146 0.092503548
0.12046566 -0.47688043 0.11244965
0.11647467 0.20841557 0.010090828
0.11574366 0.043570578 0.051993847
0.11714366 0.35909557 -0.028213501
0.11854066 0.67397559 -0.10825729
0.11766766 0.47733158 -0.058269501
0.11409866 -0.32700241 0.1461916
0.11432166 -0.27682543 0.13343763
0.11795866 -0.63207245 -0.074905396
0.11572966 -0.53866541 0.0527668
0.11407866 -0.46945345 0.14737463
0.11092766 0.28076661 -0.0092973709
0.10977166 0.0065135956 0.060429573
0.11125766 0.3590216 -0.029191494
0.11258566 0.67394257 -0.10925817
0.11193566 0.51966357 -0.07003355
0.11140366 -0.62359238 -0.037975311
0.10779466 -0.46258044 0.17969084
0.10477066 0.2082296 0.0081558228
0.10618966 0.56351459 -0.082186222
0.10632166 0.59653759 -0.090583324
0.10525366 0.32920659 -0.022607327
0.10663066 0.6739096 -0.11025715
0.10681366 0.71971262 -0.12190533
0.10584566 0.4772146 -0.060242176
0.10621366 -0.67583942 -0.08370924
0.10326666 -0.16836846 0.10391378
0.10295866 -0.52310336 0.12350559
0.09919066 0.28059858 -0.011241436
0.10038266 0.5964936 -0.091579437
0.099644661 0.40089858 -0.041835308
0.099716663 -0.6671164 -0.046700478
0.097707659 -0.11247241 0.088720798
0.09264566 0.090783596 0.036043644
0.093062662 0.20804161 0.0062184334
0.09221866 -0.029382408 0.066608429
0.093492664 0.32904959 -0.024560452
0.093597665 0.35879761 -0.03212738
0.093896665 0.44299459 -0.053542137
0.094168663 0.51950157 -0.073001385
0.093290664 -0.65848947 -0.010095596
0.091923662 -0.11260736 0.087776661
0.08627566 -0.071509421 0.076340675
0.088389665 0.56336963 -0.085166454
0.087608665 0.32897061 -0.025535583
0.087847665 0.40075958 -0.043798447
0.088101663 0.47703558 -0.063203335
0.085203663 -0.39316845 0.15816545
0.085588664 -0.27759743 0.12876654
0.086932659 -0.64995742 0.026114464
0.08588966 -0.59059942 0.10575962
0.084970661 -0.46329045 0.17600441
0.081084661 0.12377757 0.02567482
0.08060766 -0.029634416 0.064704418
0.080718659 0.0059136152 0.055661678
0.080833659 0.042880595 0.046255589
0.082553662 0.59636158 -0.094565392
0.081814662 0.35864657 -0.034083366
0.082794659 0.67377359 -0.11426258
0.083502665 0.80711162 -0.17221832
0.080013663 -0.22086847 0.11335945
0.079117663 -0.50916839 0.18670845
0.07548666 0.20775461 0.0033154488
0.076512665 0.56327158 -0.087152481
0.07583566 0.32881057 -0.027489185
0.076739661 0.64188659 -0.10715628
0.077915661 -0.8645674 -0.21081114
0.07606566 -0.74211538 -0.04772234
0.074398659 -0.16908145 0.099205494
0.07354866 -0.46365142 0.17416048
0.070660666 0.59627163 -0.09655714
0.070139661 0.40054661 -0.046744347
0.067555666 -0.56897438 0.19999886
0.068620659 -0.16922641 0.098263741
0.063181661 -0.030016422 0.061850548
0.064631663 0.56317258 -0.089140415
0.065095663 0.75295758 -0.13744831
0.062841661 -0.16937244 0.097322464
0.057531666 0.042407572 0.042428493
0.058233667 0.35833859 -0.037999153
0.056561667 -0.39403546 0.15353584
0.057370666 -0.71533144 0.060912609
0.056304667 -0.50992143 0.1830368
0.051939666 0.16189557 0.011017799
0.052175667 0.27990359 -0.01902914
0.052741665 0.56307161 -0.091128349
0.052962665 0.6735996 -0.11927032
0.053121667 0.7529096 -0.13946438
0.053368665 0.80713958 -0.17094517
0.050958667 -0.32879841 0.13595581
0.054610666 -1.0306834 -0.32907724
0.053600665 -0.93267238 -0.20041656
0.051172666 -0.22163141 0.1086688
0.050401665 -0.6073724 0.20688152
0.051276665 -0.16966736 0.09543848
0.050595667 -0.5101124 0.18211985
0.046082664 0.16179061 0.010053635
0.046215665 0.23677456 -0.0090413094
0.046291664 0.2798146 -0.020002365
0.047343668 0.80714458 -0.17069244
0.048172668 -1.0196694 -0.28938913
0.045400664 -0.22178638 0.10773087
0.045492668 -0.16981542 0.094495773
0.044887666 -0.51030445 0.18119955
0.040222667 0.16168559 0.0090875626
0.040339667 0.23667961 -0.01001358
0.040406667 0.2797246 -0.020976543
0.041319665 0.80714959 -0.17043829
0.041806664 -1.0087794 -0.25014734
0.039626665 -0.22194242 0.10679245
0.039794665 -0.11385739 0.079264641
0.039248668 -0.46475935 0.16863251
0.034266666 0.089654565 0.026442528
0.034462664 0.23658359 -0.010984421
0.034519665 0.27963459 -0.021950245
0.034153666 0.004917562 0.048027515
0.034782667 0.47647959 -0.072093487
0.035511665 -0.99801445 -0.21134758
0.033355664 -0.68094838 0.20044041
0.033774666 -0.27904344 0.12035942
0.033994667 -0.11399937 0.078318596
0.033526666 -0.46494746 0.16771364
0.028418666 0.089538574 0.025481701
0.028237667 -0.072856426 0.066853523
0.028810667 0.44226459 -0.064382553
0.028159667 -0.78821445 0.084758759
0.028071666 -0.22225738 0.10491562
0.027684666 -0.57037139 0.19360065
0.027750665 -0.51088643 0.17844677
0.022570666 0.08942157 0.024521828
0.022634666 0.16136557 0.0061898232
0.022739666 0.27945358 -0.023900509
0.022808665 0.35786361 -0.043879509
0.023248667 0.8071636 -0.16967916
0.022139667 -0.39510846 0.14797878
0.022237666 -0.77913547 0.11992645
0.022292666 -0.2224164 0.10397768
0.016879667 0.3279826 -0.037265301
0.017110666 0.67338455 -0.12528944
0.016927665 0.39988756 -0.055590153
0.016978666 0.4762876 -0.075060368
0.016584666 -0.11443341 0.075479507
0.016319666 -0.51128042 0.17661047
0.010901666 0.16114861 0.004257679
0.010815666 -0.031202435 0.053283691
0.010953666 0.27926958 -0.025849342
0.011041666 0.47622359 -0.076049328
0.011249666 -1.0615014 -0.19529533
0.010578666 -0.7612654 0.18916273
0.010753666 -0.17072439 0.088844776
0.0049806656 -0.073416412 0.063056469
0.0050056656 0.041301608 0.033813477
0.0051216655 0.56265855 -0.099089146
0.0051286654 0.59575856 -0.1075263
0.0050696656 0.32781059 -0.03922224
0.0050856657 0.39973658 -0.057557583
0.0050946656 0.4419876 -0.068328381
0.0051826658 0.8071776 -0.16892338
0.0049586655 -0.17087936 0.087900639
-0.00084033434 0.16092962 0.0023236275
-0.00084033434 0.59571064 -0.10852623
-0.00084033434 0.64136362 -0.1201663
-0.00084033434 0.5185926 -0.088864326
-0.00084033434 -1.1225435 -0.22469044
-0.00084033434 -0.93589437 0.01265049
-0.00084033434 -0.67710137 0.21597862
-0.00084033434 -0.28004944 0.11475182
-0.00084033434 -0.60925245 0.19868183
-0.0066693346 -0.031611383 0.050424576
-0.0068093343 0.59566259 -0.10952425
-0.0068363342 0.71916157 -0.14101648
-0.0066263345 -0.22322345 0.099284649
-0.012586334 0.16070861 0.00038957596
-0.012660334 0.32755059 -0.042159557
-0.012726334 0.4759616 -0.08000946
-0.012880334 0.8071906 -0.16816616
-0.012665334 -1.0183834 -0.045068264
-0.012181334 -0.75004447 0.23265457
-0.012390334 -0.28039241 0.11288261
-0.018492334 0.20614159 -0.012193203
-0.018333334 -0.031887412 0.048519611
-0.018512335 0.2356956 -0.019732475
-0.018593334 0.3572886 -0.050746441
-0.018621335 0.39942962 -0.061495304
-0.018749334 -1.0889045 -0.11047125
-0.017854335 -0.75028038 0.23175478
-0.024277333 0.088461578 0.016830444
-0.024132334 -0.07413435 0.058307648
-0.024408335 0.23559362 -0.020705223
-0.024201334 0.0036075711 0.038475513
-0.024234334 0.0406636 0.029023647
-0.023845334 -0.39659643 0.14056873
-0.023903335 -0.33107138 0.12385273
-0.023474334 -0.81269944 0.2467165
-0.023530334 -0.75051641 0.2308526
-0.023655334 -0.61011839 0.19503784
-0.024095334 -0.11547244 0.068853855
-0.023741335 -0.51269436 0.17018557
-0.030140335 0.088338614 0.01586771
-0.030177334 0.1216386 0.0073714256
-0.030220333 0.16037261 -0.0025115013
-0.029959334 -0.074280381 0.057359695
-0.030045334 0.0034725666 0.037521839
-0.030087333 0.040533602 0.028065681
-0.030533334 0.4415606 -0.074255466
-0.030940333 0.80720061 -0.16754532
-0.029387334 -0.88716936 0.18848276
-0.036049332 0.12151957 0.0064067841
-0.036682334 0.59541661 -0.11452341
-0.036420334 0.3991946 -0.064450264
-0.036892332 0.75252962 -0.15461636
-0.035511333 -0.28108943 0.10914469
-0.035657335 -0.17198336 0.081302643
-0.041683335 -0.032448411 0.044707775
-0.042101335 0.23528659 -0.02362442
-0.042168334 0.27841759 -0.034631252
-0.041739333 0.0032005906 0.035609722
-0.042611334 0.56222761 -0.1070652
-0.042733334 0.64106655 -0.1271863
-0.041115332 -0.39717042 0.13778973
-0.041217335 -0.33161843 0.12106085
-0.040676333 -0.67869246 0.20963764
-0.040841334 -0.57289541 0.18263674
-0.040934335 -0.51331639 0.16743183
-0.047740333 0.087965608 0.012980461
-0.048782334 0.67297161 -0.13634634
-0.046875335 -0.39736438 0.13686371
-0.046655335 -0.95717037 0.16835546
-0.047183335 -0.22439039 0.092711449
-0.046494335 -0.6110034 0.19139576
-0.046562333 -0.57311344 0.18172359
-0.053611334 0.087840617 0.012018681
-0.053756334 0.15991557 -0.0063824654
-0.054151334 0.35677856 -0.056640148
-0.054235335 0.3989566 -0.067408562
-0.052865334 -1.0248893 0.10701752
-0.052210335 -0.61122739 0.19048357
-0.053089336 -0.17246938 0.078473568
-0.052405335 -0.51373637 0.16559553
-0.059644334 0.15980059 -0.0073504448
-0.059377335 0.039875567 0.023271561
-0.060614333 0.59521461 -0.11852551
-0.060271334 0.44119459 -0.079199314
-0.060442332 0.5179826 -0.098805428
-0.058401335 -0.39775443 0.13501072
-0.058903333 -0.17263341 0.077531815
-0.059028335 -0.1163944 0.063171864
-0.058245335 -0.46810639 0.1529727
-0.064958341 -0.075171351 0.051656723
-0.066601336 0.59516358 -0.11952639
-0.066120341 0.3987956 -0.069380283
-0.064327337 -0.33236241 0.1173358
-0.062867336 -0.92818344 0.26948547
-0.063012339 -0.86897242 0.25436449
-0.063146338 -0.81445146 0.24044275
-0.063476339 -0.67962837 0.20601368
-0.064856336 -0.11655045 0.062224865
-0.063882336 -0.51416147 0.16376066
-0.071232341 0.087459564 0.0091304779
-0.070797339 -0.07532239 0.050707817
-0.070910335 -0.033166409 0.039940834
-0.071005337 0.0025075674 0.030828476
-0.071872339 0.32665157 -0.051961422
-0.072712339 0.64084661 -0.1322093
-0.072065338 0.39871359 -0.070367336
-0.072178334 0.44104558 -0.081178188
-0.072921336 0.71881557 -0.15212345
-0.073011339 0.75236857 -0.16069317
-0.072270341 0.4752816 -0.089923382
-0.070109338 -0.33255041 0.11640358
-0.069122337 -0.9944154 0.21061659
-0.06918034 -0.67986536 0.20510864
-0.078715339 0.64080262 -0.13321447
-0.078941338 0.7187826 -0.15313435
-0.07919734 0.80705357 -0.17567253
-0.074496336 -0.81496346 0.2386508
-0.074887335 -0.68010437 0.20420074
-0.082990341 0.087202609 0.0072045326
-0.083585337 0.27772558 -0.041471481
-0.082841337 0.039335608 0.019434452
-0.084094338 0.4408946 -0.083159447
-0.08496134 0.71874958 -0.15414524
-0.084334336 0.51772958 -0.1027894
-0.081679337 -0.33292937 0.11454058
-0.080925338 -0.57444346 0.17624187
-0.082353339 -0.11702538 0.059381485
-0.081111334 -0.51480639 0.1610055
-0.090570338 0.59495658 -0.1235342
-0.089671336 0.32637256 -0.054905415
-0.090054341 0.44081858 -0.084148407
-0.086857341 -0.51502335 0.16008759
-0.09475334 0.086942613 0.0052776337
-0.094872341 0.1202966 -0.0032463074
-0.094172336 -0.075936437 0.04690361
-0.09445034 0.001940608 0.027001858
-0.09458334 0.039061606 0.017514706
-0.095865339 0.39838558 -0.074313164
-0.093020335 -0.39894938 0.12945175
-0.091126338 -0.92955244 0.26504755
-0.091532335 -0.81574237 0.23596382
-0.093434341 -0.28289545 0.099793434
-0.10063834 0.086812615 0.0043144226
-0.10002033 -0.076091409 0.045952797
-0.10018034 -0.033904433 0.035169601
-0.10243934 0.5616616 -0.11705637
-0.10273834 0.6406216 -0.1372385
-0.10227134 0.51753658 -0.10577822
-0.096610337 -0.97532141 0.27578878
-0.097007334 -0.87057042 0.24901342
-0.097984336 -0.61306238 0.18319654
-0.10666034 0.12004459 -0.0051774979
-0.10618434 0.0016525984 0.02508688
-0.10843334 0.56160361 -0.11805725
-0.10875034 0.64057559 -0.13824558
-0.10794733 0.44058859 -0.08712244
-0.10244334 -0.93011045 0.26327372
-0.10290034 -0.81626844 0.23417044
-0.10547934 -0.17397439 0.069982529
-0.10410734 -0.51568246 0.1573348
-0.11255534 0.11991757 -0.0061454773
-0.11272034 0.15873158 -0.016069412
-0.11172334 -0.076404452 0.04404974
-0.11190234 -0.034204423 0.033260822
-0.11322234 0.27721661 -0.046361446
-0.11205333 0.0015075803 0.024130821
-0.11456834 0.59474558 -0.12754631
-0.11355634 0.35589159 -0.066477299
-0.11489834 0.67253363 -0.14743137
-0.11406033 0.47478458 -0.096874237
-0.10835434 -0.87111437 0.24723053
-0.10915734 -0.68155944 0.19876766
-0.10944634 -0.61353242 0.1813755
-0.11154734 -0.11783242 0.054642677
-0.11005434 -0.47000337 0.14467955
-0.11830433 0.086415589 0.0014238358
-0.11862634 0.15861058 -0.017037392
-0.12003734 0.4747116 -0.097869396
-0.11561434 -0.51612639 0.1554985
-0.12419634 0.086282611 0.00045967102
-0.12343234 -0.076720357 0.042147636
-0.12379733 0.0012155771 0.022214413
-0.12397134 0.038364589 0.012713432
-0.12694333 0.67245162 -0.14944649
-0.12191634 -0.39997339 0.12481785
-0.12222434 -0.33428836 0.10801888
-0.12059434 -0.68205345 0.19695759
-0.13044634 0.15836459 -0.018977165
-0.13141534 0.35561657 -0.069431305
-0.13199934 0.4745656 -0.099858284
-0.12509434 -0.93124139 0.25972557
-0.12538633 -0.87193942 0.24455643
-0.12665133 -0.61424744 0.1786437
-0.13514934 -0.077039361 0.040243626
-0.13536634 -0.034813404 0.029441833
-0.13674434 0.23356462 -0.039217472
-0.13555034 0.00091958046 0.020298481
-0.13798234 0.47449258 -0.1008544
-0.13052733 -0.97705746 0.27048588
-0.13437934 -0.22703838 0.078616619
-0.14251634 0.20380557 -0.032607555
-0.14123634 -0.034967422 0.028486729
-0.14461033 0.59447563 -0.13256359
-0.14396733 0.47441858 -0.10184956
-0.13927734 -0.40060043 0.1220355
-0.13776433 -0.68280542 0.19423962
-0.13990034 -0.28440845 0.092308521
-0.14687334 -0.077361465 0.038339615
-0.15043834 0.56118858 -0.12506723
-0.14928934 0.35533857 -0.072388172
-0.15019234 0.51700664 -0.11376047
-0.14506733 -0.40081036 0.12110949
-0.14349134 -0.68305838 0.19333458
-0.14571634 -0.28460145 0.091371536
-0.14632733 -0.17519236 0.063374519
-0.15387934 0.11901057 -0.012913227
-0.15410534 0.15786761 -0.022858143
-0.15454234 0.23322558 -0.042145252
-0.15319034 0.00047159195 0.017424583
-0.15507734 0.32531357 -0.065714359
-0.15525134 0.35524458 -0.073375225
-0.15619034 0.51693857 -0.1147604
-0.15085934 -0.40102243 0.12018156
-0.14879733 -0.75605047 0.21104479
-0.15186633 -0.22759247 0.07579565
-0.15044934 -0.47153938 0.13822985
-0.16048034 0.23311162 -0.043122292
-0.16074134 0.27637458 -0.054196358
-0.16147234 0.39744657 -0.085189342
-0.15344834 -0.93268836 0.25529051
-0.15735534 -0.28499138 0.089499474
-0.15595134 -0.51771843 0.14907074
-0.16594733 0.15761459 -0.024801254
-0.16623333 0.20333159 -0.036504269
-0.16669033 0.27626759 -0.055177212
-0.16718334 0.35505462 -0.075349331
-0.16353534 -0.22796535 0.073914528
-0.16134633 -0.57770944 0.16345167
-0.16386133 -0.17572737 0.060539722
-0.16421434 -0.11933541 0.046104431
-0.17264034 0.27615857 -0.056158543
-0.17419934 0.51673359 -0.11775637
-0.16480134 -0.93327641 0.25351763
-0.16971034 -0.17590737 0.059595585
-0.17779633 0.1573596 -0.026743412
-0.17621633 -0.078180432 0.033577442
-0.17404634 -0.40188038 0.11647367
-0.17087834 -0.87420142 0.23742676
-0.18209234 -0.078347445 0.032625675
-0.18424834 0.23265058 -0.047031403
-0.18538734 0.39709157 -0.089150429
-0.18568234 0.43955058 -0.10002518
-0.17904134 -0.51865137 0.14539766
-0.18796834 -0.078514457 0.031671524
-0.18852733 -0.00044441223 0.01167345
-0.19106834 0.3546716 -0.079296589
-0.18227133 -0.87478137 0.23564482
-0.18481734 -0.5188874 0.14447975
-0.19529834 0.11807162 -0.019690514
-0.19592334 0.2027266 -0.041379452
-0.19792333 0.4737376 -0.11080837
-0.19194233 -0.33673036 0.096831799
-0.19093534 -0.47312737 0.13177681
-0.20151934 0.15684259 -0.030629158
-0.20209333 0.23229861 -0.049965382
-0.20279434 0.32450658 -0.073591232
-0.20366734 0.43930259 -0.10300541
-0.19726335 -0.40275538 0.1127634
-0.19408534 -0.82066441 0.21984673
-0.19814834 -0.28638339 0.08294487
-0.19941133 -0.12037539 0.040406704
-0.19672634 -0.47335839 0.13085461
-0.20933434 0.3967306 -0.093114376
-0.19979934 -0.82095039 0.21895266
-0.20398334 -0.2865864 0.082008839
-0.20169033 -0.57942641 0.15705585
-0.20251934 -0.47359145 0.12993383
-0.21308033 0.11765957 -0.022598267
-0.21242334 0.036167562 -0.0017094612
-0.20941433 -0.33736241 0.094033718
-0.20660734 -0.68592238 0.1833744
-0.21873334 0.084056616 -0.014987469
-0.21738034 -0.079361439 0.026904583
-0.21773034 -0.037041426 0.016055584
-0.21995834 0.23194158 -0.052899361
-0.21566133 -0.28699541 0.080133438
-0.21656834 -0.17737842 0.052033424
-0.22465834 0.083911598 -0.015954494
-0.22494334 0.11738157 -0.024537563
-0.22628534 0.27516258 -0.064991474
-0.22393334 -0.0013874173 0.0059156418
-0.22051133 -0.40364635 0.10905266
-0.21648934 -0.87655139 0.23029947
-0.23016533 0.03570962 -0.004597187
-0.22322235 -0.75961137 0.19934559
-0.22385834 -0.68673038 0.18065786
-0.22830234 -0.17775536 0.050141811
-0.22879533 -0.12126446 0.035655499
-0.22530934 -0.52057242 0.13805056
-0.23681633 0.11710161 -0.026476383
-0.22896133 -0.75989437 0.1984458
-0.24353334 0.20172858 -0.049190521
-0.23857334 -0.33843637 0.089367867
-0.23307833 -0.93692636 0.24288273
-0.23362434 -0.87745535 0.22762871
-0.23731934 -0.47500837 0.12439871
-0.24838033 0.083325565 -0.019824505
-0.24684234 -0.080228448 0.022135735
-0.24724033 -0.037873387 0.011269569
-0.25018132 0.2747066 -0.068923473
-0.24044234 -0.76046443 0.19664669
-0.24542634 -0.23068345 0.060735703
-0.24591933 -0.17832637 0.047303677
-0.24645033 -0.12180841 0.032803535
-0.24269234 -0.5213114 0.13529348
-0.24312633 -0.47524846 0.12347651
-0.25615934 0.27459157 -0.069905281
-0.25349331 -0.0021933913 0.0011124611
-0.25179532 -0.17851937 0.046356678
-0.25609133 -0.33909237 0.086567879
-0.25018832 -0.93787038 0.24022579
-0.25715631 -0.23108542 0.058851719
-0.26497132 -0.038382411 0.0083966255
-0.25589731 -0.93818843 0.23933887
-0.25649732 -0.87868047 0.22406578
-0.27125531 -0.0026854277 -0.0017704964
-0.26418233 -0.6886574 0.17431784
-0.27001932 -0.12254441 0.028997421
-0.27807933 0.082577586 -0.024665356
-0.27635431 -0.081115365 0.017362595
-0.26794532 -0.87930036 0.22228575
-0.27416334 -0.28909445 0.070759773
-0.28438634 0.11595458 -0.034241199
-0.28529933 0.20082462 -0.056035519
-0.27303132 -0.93914938 0.23668146
-0.27645633 -0.62088835 0.15496063
-0.27800733 -0.47671139 0.11794186
-0.29034331 0.11580759 -0.035214424
-0.28817531 -0.08147645 0.015451431
-0.29160231 0.23046458 -0.064653397
-0.27874732 -0.93947339 0.23579454
-0.28709632 -0.17969036 0.040676594
-0.28332332 -0.52307546 0.12886047
-0.29630134 0.11566061 -0.036186218
-0.29408833 -0.08165741 0.014496803
-0.28513232 -0.88024247 0.21961355
-0.28574732 -0.82540345 0.20552874
-0.29298633 -0.17988944 0.039727688
-0.28913534 -0.5233314 0.12794161
-0.30323231 0.20042861 -0.058965206
-0.30089933 -0.0035204291 -0.0065793991
-0.30132633 0.033811569 -0.016169548
-0.30592033 -0.082022429 0.01258564
-0.30683431 -0.0036904216 -0.0075411797
-0.29659933 -0.88087642 0.21783257
-0.29723933 -0.82601941 0.20373964
-0.29797032 -0.76339245 0.18764877
-0.30349132 -0.29018044 0.066068649
-0.30130333 -0.47770846 0.11424971
-0.31277034 -0.003860414 -0.008503437
-0.30797431 -0.40713739 0.095126629
-0.30373332 -0.76369238 0.18674946
-0.31004632 -0.23294342 0.050365448
-0.32062832 0.15410757 -0.050102234
-0.31167734 -0.58437836 0.13968658
-0.31725731 -0.12405646 0.021381855
-0.31240532 -0.52436936 0.12426472
-0.31296432 -0.47821343 0.11240387
-0.32511431 0.033156574 -0.020031452
-0.31701532 -0.62281442 0.14858246
-0.31879732 -0.47846842 0.11147881
-0.33106631 0.032990575 -0.020999432
-0.31956032 -0.88216341 0.21427059
-0.32908732 -0.12444246 0.019476414
-0.32463232 -0.47872341 0.1105566
-0.33222231 -0.34204042 0.074422836
-0.33360833 -0.23379338 0.046589851
-0.32862133 -0.62337637 0.14675951
-0.33500531 -0.12463737 0.018522739
-0.34297931 0.032657564 -0.022930145
-0.33353731 -0.69210446 0.16344881
-0.33875531 -0.2915144 0.060434818
-0.33950531 -0.23400843 0.045646667
-0.34092733 -0.12483239 0.017570496
-0.34796533 -0.040846407 -0.0050354004
-0.34540233 -0.23422337 0.044701576
-0.34215131 -0.47949636 0.10778666
-0.35390931 -0.04102838 -0.0059962273
-0.35439432 -0.0050714016 -0.015246391
-0.34984231 -0.34274435 0.071617603
-0.34656233 -0.58603036 0.13419962
-0.35571933 -0.34298146 0.070682526
-0.35720432 -0.23465741 0.042812824
-0.35238332 -0.58631039 0.13328362
-0.36630633 -0.0054243803 -0.01717329
-0.36159831 -0.3432194 0.069746494
-0.36384031 -0.18233836 0.028348446
-0.35904431 -0.52649844 0.11690664
-0.37115532 -0.084089398 0.0020618439
-0.37175733 -0.041578412 -0.0088791847
-0.35981932 -0.88446736 0.20803976
-0.36349332 -0.62508941 0.14128971
-0.36976033 -0.1825484 0.027401447
-0.37056431 -0.12582242 0.012801647
-0.37771031 -0.041763425 -0.0098395348
-0.37241334 -0.40984738 0.084902763
-0.36727232 -0.76707935 0.17684984
-0.37828434 -0.41010046 0.0839715
-0.37134033 -0.88513839 0.20625877
-0.37306133 -0.76739538 0.17594862
-0.37999433 -0.29311538 0.05385685
-0.38083631 -0.23553741 0.039034843
-0.37569132 -0.58744037 0.12962484
-0.38243431 -0.12622344 0.010893822
-0.37724632 -0.48107243 0.10224247
-0.37792033 -0.83048844 0.19121265
-0.37885234 -0.76771343 0.17504883
-0.38286933 -0.88581538 0.20447874
-0.38826433 -0.52786636 0.11230659
-0.40089631 -0.085061431 -0.0027275085
-0.39591134 -0.41086435 0.081180573
-0.39319631 -0.58830047 0.12687969
-0.40025732 -0.12683237 0.0080294609
-0.39482433 -0.48187542 0.099470615
-0.39623833 -0.76867247 0.1723485
-0.39737532 -0.69542444 0.15348053
-0.40360832 -0.29405236 0.050095558
-0.39844033 -0.62684739 0.13581753
-0.40620232 -0.12703741 0.0070738792
-0.40068734 -0.48214436 0.098546505
-0.40871632 -0.34515846 0.062259674
-0.40018031 -0.88684142 0.2018075
-0.40319231 -0.69573343 0.15257549
-0.41125432 -0.18404245 0.020751476
-0.40595531 -0.88718545 0.20091867
-0.41242132 -0.48268843 0.096695423
-0.42051831 -0.34565341 0.060385704
-0.41364431 -0.76964343 0.16964769
-0.41754133 -0.52926338 0.10770369
-0.42065531 -0.69666946 0.14985561
-0.42241332 -0.58975744 0.12230158
-0.42416432 -0.48323643 0.094846725
-0.43501633 -0.18491542 0.016949654
-0.43003932 -0.48351145 0.093921661
-0.42907533 -0.88857841 0.1973567
-0.43513331 -0.53011537 0.10494041
-0.43591532 -0.48378742 0.092996597
-0.43580434 -0.83384538 0.18226242
-0.43996933 -0.59064639 0.11955357
-0.44582734 -0.59094536 0.11863661
-0.45597833 -0.34716237 0.054765701
-0.44851533 -0.77162242 0.16424656
-0.45101231 -0.62956536 0.12760544
-0.45433432 -0.7719574 0.16334581
-0.46280432 -0.29646242 0.040682793
-0.46661931 -0.41401947 0.070007801
-0.46015632 -0.77229345 0.16244555
-0.46873632 -0.29670846 0.039739609
-0.46449932 -0.53155947 0.10033464
-0.46533531 -0.48518836 0.088369846
-0.47374132 -0.34793043 0.051951408
-0.46483132 -0.83557642 0.17778778
-0.47467232 -0.29695547 0.038797855
-0.46927932 -0.59215236 0.11497259
-0.47843832 -0.41456044 0.068142414
-0.47966632 -0.34818935 0.05101347
-0.47064331 -0.83592641 0.1768918
-0.47180733 -0.77296937 0.16064358
-0.47316632 -0.69954741 0.14169455
-0.48060933 -0.29720438 0.037855625
-0.47712132 -0.4857564 0.086517811
-0.48101732 -0.59276235 0.11314154
-0.48301631 -0.48604143 0.085592747
-0.49152333 -0.34870839 0.049136639
-0.48616332 -0.63143444 0.12212753
-0.49656433 -0.70085943 0.13806581
-0.50071836 -0.48690546 0.08281374
-0.49973732 -0.83769846 0.17241573
-0.50452536 -0.59399939 0.10947371
-0.50571138 -0.53362942 0.093880653
-0.50681537 -0.77502942 0.15523863
-0.51253033 -0.48748744 0.080961704
-0.51552033 -0.63302541 0.11756182
-0.51629233 -0.5946244 0.10763979
-0.51750636 -0.53423142 0.09203577
-0.51722234 -0.83877945 0.16972876
-0.51999933 -0.70219243 0.13443661
-0.52435136 -0.77607739 0.15253544
-0.52586436 -0.70252943 0.13352871
-0.52888936 -0.83950639 0.16793871
-0.53173137 -0.70286739 0.13262081
-0.53521937 -0.53514338 0.089268684
-0.53904933 -0.63432038 0.11390543
-0.54347235 -0.70354736 0.13080549
-0.54575437 -0.59620941 0.10305262
-0.54703933 -0.53575742 0.087421417
-0.55295438 -0.53606546 0.086499691
-0.55395335 -0.48955846 0.074473858
-0.55225533 -0.84097743 0.16435575
-0.55672133 -0.6353054 0.11116266
-0.55887038 -0.5363754 0.085575581
-0.56110436 -0.70457637 0.12808084
-0.56346136 -0.59717536 0.10029984
-0.56395137 -0.84172142 0.16256475
-0.56851435 -0.63596845 0.10933352
-0.57070935 -0.53699839 0.083729744
-0.58031934 -0.63663638 0.10750341
-0.58119035 -0.5981524 0.09754467
-0.58464634 -0.70596743 0.12444782
-0.58737534 -0.84322643 0.15897942
-0.59213233 -0.63730943 0.10567474
-0.59302133 -0.59880936 0.095708847
-0.59804237 -0.63764739 0.10475969
-0.60059237 -0.78076243 0.14081573
