# .PCD v0.7 - Point Cloud Data file format
VERSION 0.7
FIELDS x y z
SIZE 4 4 4
TYPE F F F
COUNT 1 1 1
WIDTH 1
HEIGHT 1024
VIEWPOINT 0 0 0 1 0 0 0
POINTS 1024
DATA ascii
1.0435877 -0.078629494 -0.083714485
1.0570416 -0.059370518 -0.26358366
1.0365386 -0.14870059 -0.25059366
1.0210476 -0.19941258 -0.1837368
1.0298246 -0.14799857 -0.24699259
1.0012187 -0.077866554 -0.084549427
1.0259726 -0.058824539 -0.26409149
1.0153856 -0.19986856 -0.18730545
0.99516964 -0.077758551 -0.084654808
1.0197617 -0.058716536 -0.26418543
1.0135527 -0.058608532 -0.26427555
0.99344265 -0.25207353 -0.16156054
1.0224806 -0.041524529 -0.42337561
0.9592886 -0.10093355 0.047095299
1.0161306 -0.041417539 -0.42344046
0.95480168 -0.10252953 0.03619957
1.0097816 -0.041310549 -0.42350245
0.94266057 -0.058475494 0.038040638
0.94618762 -0.10622156 0.011246204
0.93976164 -0.061882496 0.014742374
0.93425858 -0.011459529 0.056823254
0.93637466 -0.1608125 0.040641308
0.91595161 0.026607454 0.060968399
0.91516662 -0.022967517 -0.026535511
0.90357268 0.065889478 0.065241337
0.91214967 -0.026290536 -0.050269604
0.91603565 -0.082925558 -0.12975264
0.90450668 -0.17289948 -0.037191391
0.91112161 -0.12127757 -0.090298653
0.88971865 0.061998487 0.033846378
0.88449466 -0.27783859 0.028040409
0.87867165 -0.27788448 0.027077198
0.87009263 0.11385244 0.048878193
0.8980546 -0.090400577 -0.18218374
0.88866258 0.0044204593 -0.10456848
0.88071263 -0.2284925 -0.038876534
0.87624061 -0.23058558 -0.051573753
0.86380768 0.10817349 0.0022983551
0.88048363 3.9458275e-05 -0.13754845
0.87122762 -0.079285502 -0.11074066
0.86911559 -0.031610548 -0.092889786
0.85549366 -0.33215749 0.022197247
0.87315559 -0.18700552 -0.12702274
0.83160865 0.15187746 0.074642181
0.82571757 0.15195948 0.074659348
0.83446062 0.23011649 -0.0014867783
0.82677257 0.06713444 0.065472603
0.83254564 -0.33297753 0.015188217
0.81933057 0.19228244 0.079033375
0.82237065 -0.054147482 0.05234623
0.81344461 0.19236046 0.079051495
0.81646168 -0.054044485 0.052365303
0.81591463 -0.0093505383 0.0572052
0.81545365 0.028309464 0.061285496
0.81656063 0.23036546 -0.0011696815
0.80955362 0.028402448 0.061301231
0.81182158 -0.15825856 0.041087627
0.81108963 -0.098018527 0.047611237
0.80257964 0.11756247 0.070966244
0.80885458 -0.40308452 0.014585495
0.8059026 -0.1581465 0.041108608
0.78991461 0.19266349 0.079116344
0.83905458 0.26988548 -0.36957645
0.79139662 0.067669451 0.065579414
0.79697657 -0.40281451 0.014631271
0.79473865 -0.21405053 0.035069466
0.78450763 0.15252149 0.074778557
0.78403461 0.19273746 0.079132557
0.78550565 0.067756474 0.065596581
0.79019368 -0.33070958 0.022442341
0.78290057 -0.21382153 0.035110474
0.7731446 0.11797148 0.071052551
0.82017958 0.27012849 -0.36906147
0.77698362 -0.21370959 0.035131454
0.77563763 -0.097397566 0.047727585
0.76922762 -0.053251505 0.05251646
0.79024363 0.24643445 -0.14577246
0.77323365 -0.40228558 0.014721394
0.7724086 -0.33033657 0.022508621
0.76098466 0.15282845 0.074842453
0.76887262 0.23101747 -0.00021076202
0.78415668 0.24651444 -0.14562368
0.8076036 0.27028948 -0.36870766
0.76451564 -0.15738857 0.041247368
0.75465357 0.19310045 0.079213619
0.75743163 -0.053060532 0.052553177
0.75606358 0.068179488 0.065683365
0.75860858 -0.15728354 0.041266441
0.75103462 -0.0083215237 0.057407379
0.79503059 0.27044946 -0.36834049
0.75017667 0.068262458 0.065700531
0.75543857 -0.40190053 0.014788628
0.75332761 -0.21326649 0.035211563
0.75202668 -0.096999526 0.047802448
0.74335361 0.15305245 0.074891567
0.76589966 0.24675447 -0.14516354
0.78874767 0.27052844 -0.36815357
0.74279058 -0.32973456 0.022614479
0.74089062 -0.15697455 0.041323185
0.73336458 -0.0080565214 0.057459354
0.75373566 0.24691248 -0.14484549
0.72573268 0.15327048 0.074939251
0.72529757 0.19344848 0.07929039
0.76990163 0.27076447 -0.36757851
0.72908366 -0.15677249 0.041362286
0.72023261 0.11866647 0.071199417
0.71986067 0.15334147 0.074955463
0.72206664 -0.052508593 0.052662373
0.72503364 -0.32938552 0.022676468
0.72444558 -0.27451849 0.028618336
0.71435964 0.11873949 0.071216583
0.71399057 0.15341246 0.074971199
0.7573446 0.27092147 -0.36718273
0.71488965 0.068743467 0.065802574
0.71911657 -0.32927155 0.022697449
0.71787763 -0.21263051 0.035328388
0.71728265 -0.15657449 0.041400433
0.70848668 0.11881346 0.071232319
0.70769966 0.19365048 0.079337597
0.70942259 0.029881477 0.061601639
0.71320057 -0.32915759 0.02271843
0.70225358 0.15355146 0.075002193
0.70393467 -0.007630527 0.057546616
0.70354259 0.029961467 0.061618328
0.70548558 -0.15638053 0.041436195
0.69262564 -0.052070498 0.052750587
0.69216859 -0.0074655414 0.057581425
0.72597158 0.27130646 -0.36614752
0.6859076 0.030198455 0.061667442
0.68551266 0.06912446 0.065882206
0.69027567 -0.40057158 0.01502037
0.68779659 -0.15609455 0.041492462
0.68718767 -0.095974565 0.048003197
0.69904566 0.24761045 -0.1432848
0.68190265 -0.15600157 0.041510582
0.68129861 -0.095886588 0.048021317
0.67963862 0.23218948 0.0020265579
0.69297361 0.24768645 -0.1430974
0.67376757 0.069271445 0.065916538
0.66828167 0.030428469 0.06171751
0.66789758 0.069344461 0.06593132
0.67011666 -0.15581656 0.041547298
0.66952467 -0.095712543 0.048056602
0.66081059 0.19416147 0.079457283
0.66775858 0.23234147 0.0023684502
0.66321063 -0.051652551 0.052835464
0.66661167 -0.4001205 0.015101433
0.66537559 -0.27346957 0.028813362
0.66363966 -0.095626593 0.048073292
0.67476761 0.24791348 -0.14252472
0.66000366 -0.32818449 0.02289629
0.65833557 -0.15563655 0.041583538
0.6883626 0.27175945 -0.36482668
0.65066564 0.030652463 0.061765194
0.65298367 -0.21155059 0.035535336
0.65187263 -0.095457554 0.048108578
0.6820966 0.27183348 -0.36459446
0.64479363 0.030725479 0.06178236
0.64067066 -0.1553725 0.041636467
0.66957259 0.27198148 -0.36412954
0.6326946 0.069766462 0.066025257
0.63478458 -0.15528548 0.041654587
0.63422668 -0.095210552 0.048159599
0.63214266 0.23278844 0.0034532547
0.62166262 -0.0065375566 0.057779312
0.6252346 -0.39937258 0.015239239
0.61868167 -0.32748353 0.023030281
0.60879958 0.11995745 0.071493626
0.61032164 -0.050949574 0.052984238
0.62626064 0.24850446 -0.1408844
0.61342168 -0.39916849 0.015278339
0.6117456 -0.21092153 0.035661221
0.6068846 -0.32729352 0.023065567
0.59678864 0.15469545 0.07527256
0.59857965 -0.050801516 0.053017616
0.61414564 0.24864948 -0.14044952
0.5975256 0.070163488 0.066117287
0.62576962 0.27249044 -0.36241865
0.5920006 0.031350493 0.06192255
0.5930866 -0.094662547 0.048276424
0.58919358 -0.32701349 0.023121357
0.58470762 0.23336846 0.0050392151
0.58027864 0.031481445 0.061953545
0.57473159 -0.0059805512 0.05790329
0.60701466 0.27270448 -0.36164761
0.57800364 -0.39858258 0.015390396
0.57596958 -0.15447056 0.041823387
0.56782758 0.12037349 0.071596622
0.56886864 -0.0059145093 0.057918549
0.57151067 -0.32674456 0.023174286
0.56693566 0.23358047 0.0056753159
0.59451568 0.27284545 -0.3611207
0.56620264 -0.39839554 0.015426636
0.56517267 -0.27190852 0.029121399
0.56421566 -0.1543175 0.041855335
0.56372666 -0.094295502 0.048356533
0.55552864 0.19517148 0.079712391
0.56101465 0.23365146 0.0058932304
0.55684364 0.031734467 0.062013626
0.55879062 -0.21017849 0.035814285
0.55383658 -0.32648349 0.023227215
0.55198961 -0.094154477 0.048388481
0.55967367 0.24928749 -0.13836575
0.57577765 0.27305448 -0.36031246
0.54851061 -0.39812255 0.015480518
0.54794765 -0.32639849 0.023244381
0.53800762 0.19532144 0.079753399
0.54025364 -0.094016552 0.048419476
0.53312361 0.070826471 0.066278458
0.52663463 0.15534544 0.075439453
0.52785265 -0.0054705143 0.058024406
0.52756864 0.03203547 0.062086582
0.53082359 -0.39786053 0.015532494
0.5210526 0.12080944 0.071707249
0.52049464 0.19546545 0.0797925
0.52232963 -0.049918532 0.053218365
0.52199662 -0.005410552 0.058038235
0.52171659 0.032093465 0.062099457
0.5214256 0.070938468 0.066307545
0.51764965 -0.20965254 0.035928249
0.51222265 -0.27119458 0.029272556
0.50327462 0.15554148 0.075493336
0.50475061 -0.049734592 0.053263187
0.5063436 -0.27112055 0.029287338
0.49768263 0.12101245 0.071761608
0.49831164 0.03231746 0.0621562
0.49803564 0.071153462 0.066362381
0.50085366 -0.32575548 0.02338028
0.50046462 -0.27104652 0.029304504
0.49963063 -0.15354049 0.042029381
0.49272561 -0.0051205158 0.058110237
0.50528264 0.24990147 -0.1360774
0.49246264 0.032371461 0.062169552
0.49547163 -0.39736259 0.015637398
0.49497062 -0.32567954 0.023396492
0.48548463 0.19573843 0.079868317
0.48717964 -0.049556494 0.053305626
0.48687163 -0.0050645471 0.058124542
0.48634464 0.071256459 0.066389561
0.48076561 0.032478452 0.062198639
0.48162264 -0.09337759 0.048568249
0.47491863 0.032530487 0.062212467
0.47780463 -0.39712858 0.015686512
0.47616664 -0.15328348 0.042089462
0.46799064 0.19586647 0.079908371
0.49468562 0.27393246 -0.35654974
0.47144362 -0.32538652 0.023460388
0.46322662 0.03263247 0.062239647
0.46556363 -0.32531559 0.023476601
0.45893562 -0.20897758 0.036083221
0.45345864 -0.27049351 0.029429436
0.45306763 -0.20891452 0.03609848
0.45271364 -0.15304053 0.04214859
0.45233363 -0.093088508 0.048640251
0.44867861 0.23493147 0.01049757
0.44569263 0.032780468 0.062279224
0.44837463 -0.39675951 0.015766621
0.44277564 0.23499644 0.010765553
0.43984962 0.03282845 0.062292576
0.44133562 -0.20879257 0.036125183
0.43325964 0.15607148 0.0756464
0.45731762 0.27432144 -0.35467052
0.43400562 0.032875478 0.062306404
0.43377063 0.07168746 0.066508293
0.43617162 -0.32497656 0.023554325
0.43072262 -0.39655054 0.015813351
0.43029663 -0.32491159 0.02356863
0.42997062 -0.27023959 0.029488564
0.42209461 0.071775436 0.066535473
0.41823062 -0.27011859 0.029517174
0.41110662 -0.048868537 0.053486347
0.43242863 0.27457446 -0.35336876
0.41236162 -0.27005959 0.029532433
0.41201264 -0.20850348 0.03619957
0.40430564 0.12171847 0.071967602
0.40411264 0.15626645 0.075708389
0.40500963 -0.0043615103 0.05831337
0.40719661 -0.39628649 0.015874386
0.40649164 -0.27000153 0.029547215
0.39916661 -0.0043165088 0.058327198
0.41998863 0.27470046 -0.35270166
0.40131661 -0.39622355 0.015888214
0.39245963 0.15633947 0.075731277
0.39558262 0.23550248 0.012994289
0.41377062 0.27476245 -0.35236454
0.38771862 -0.04868257 0.053539276
0.38728562 0.033227444 0.062409401
0.38795161 -0.092524529 0.048791409
0.38379264 0.23562646 0.013576508
0.39071661 0.25112247 -0.13058376
0.40133664 0.27488548 -0.35168362
0.38124463 0.072062492 0.066622257
0.38270262 -0.20823658 0.036267281
0.37515661 0.12190545 0.072028637
0.37498063 0.15644544 0.075768471
0.37789962 0.23568743 0.013872623
0.37580064 -0.0041455626 0.058377266
0.37684262 -0.20818555 0.036282539
0.37098363 -0.20813549 0.036296368
0.36333162 0.15651244 0.075791359
0.36611661 0.23580945 0.014470577
0.36433962 -0.048509479 0.053589344
0.37265962 0.25130546 -0.12963581
0.36393663 0.033385456 0.062457561
0.36604762 -0.39586651 0.015976429
0.36569563 -0.32426453 0.023727417
0.36022562 0.23587048 0.014773369
0.36664262 0.25136644 -0.12931252
0.35982662 -0.32421148 0.023741245
0.35956264 -0.26957059 0.029659271
0.35168263 0.15657747 0.075815201
0.37027162 0.27518845 -0.34993649
0.35429463 -0.39575553 0.016005516
0.35369763 -0.26952052 0.029672623
0.34701362 -0.092217565 0.048880577
0.34003761 0.15663946 0.075837612
0.35164562 0.27536744 -0.34886074
0.33667064 -0.39559758 0.016047478
0.33635262 -0.32401049 0.023795605
0.33558863 -0.15203452 0.042419434
0.32839364 0.15669948 0.075859547
0.32821962 0.19670349 0.080191612
0.33656764 0.25166446 -0.12766647
0.32892862 0.033601463 0.062529564
0.32875964 0.07238245 0.066729546
0.33923164 0.27548546 -0.34812975
0.32309562 0.033635437 0.062541485
0.32492164 -0.39549756 0.016074181
0.32412264 -0.20777059 0.036399364
0.32363063 -0.092060566 0.048930645
0.31689563 0.12223148 0.072143555
0.31726363 0.033668458 0.062552452
0.31710261 0.072445452 0.066752434
0.29991263 -0.0036725402 0.058533192
0.30651665 0.25195646 -0.12595749
0.31441563 0.27571648 -0.34663868
0.30115363 -0.32373857 0.023873329
0.30025464 -0.091915488 0.048978329
0.29360265 0.12234348 0.072187424
0.29332063 0.19686049 0.080257416
0.29508263 -0.26907754 0.029801369
0.28778064 0.12236947 0.072198391
0.28968865 -0.39522254 0.016152382
0.28922361 -0.26903856 0.029812336
0.28899664 -0.20753455 0.036475182
0.28857064 -0.091847539 0.049002647
0.29581565 0.27588749 -0.34549379
0.28227764 0.033850491 0.062621593
0.28213763 0.072620451 0.066820621
0.28314462 -0.20749855 0.036485195
0.28961563 0.27594447 -0.34510756
0.27644664 0.033877492 0.062631607
0.27196962 0.23674446 0.019609451
0.27124864 -0.15162754 0.042552471
0.27104461 -0.091752529 0.049035549
0.26424861 0.19697446 0.080309391
0.26578963 -0.26889157 0.02986145
0.26558661 -0.20739555 0.036521435
0.26540163 -0.15159559 0.042564392
0.25867563 0.12249148 0.072252274
0.25907964 -0.0034695268 0.058612347
0.26448363 0.25235248 -0.12346172
0.25313163 0.033982456 0.062675476
0.25446963 -0.39498556 0.016226292
0.25424662 -0.32343149 0.023972511
0.25407565 -0.26882458 0.029884338
0.25388461 -0.20733154 0.036545277
0.25352365 -0.091664553 0.049069405
0.24846663 0.23696649 0.020995617
0.25248063 0.25246245 -0.12272739
0.24859962 -0.39495051 0.016237259
0.24768163 -0.091637492 0.049080372
0.24111363 0.15706944 0.076020241
0.24259363 0.23702145 0.021347523
0.24158463 -0.0033935308 0.058644295
0.25244564 0.27627647 -0.34273672
0.24273163 -0.39491558 0.016251564
0.24252163 -0.3233645 0.023995399
0.24184263 -0.091610551 0.049092293
0.23529862 0.15708947 0.076030254
0.23518462 0.19707346 0.080360413
0.23575363 -0.0033705235 0.058654308
0.24048363 0.25257248 -0.12198162
0.23666063 -0.32333255 0.024006367
0.23650563 -0.26872957 0.029920578
0.22948262 0.15710849 0.076041222
0.23004462 -0.047758579 0.053856373
0.24006262 0.27638549 -0.34192753
0.23099563 -0.39484954 0.016273499
0.23079963 -0.32330155 0.024017334
0.23032862 -0.1514225 0.042631626
0.22409062 -0.0033245087 0.058677197
0.22512662 -0.39481759 0.016285419
0.22448263 -0.15139651 0.04264164
0.21774963 0.19712645 0.080391407
0.22768262 0.27649248 -0.34110737
0.21925962 -0.39478648 0.016296387
0.22149463 0.27654648 -0.34069443
0.21308362 -0.26861751 0.029963493
0.20736963 0.23734546 0.023514271
0.21050262 0.25284046 -0.12007666
0.21530762 0.27659947 -0.34027863
0.20695162 -0.15132451 0.042673588
0.20048663 0.12268847 0.072353363
0.20450963 0.25289345 -0.11968851
0.20137462 -0.26856649 0.029986382
0.20123462 -0.20708656 0.036644459
0.19503863 -0.047629595 0.053919315
0.19526362 -0.15128052 0.042695522
0.19513363 -0.091425538 0.049177647
0.18869662 0.19720244 0.080439568
0.18911363 -0.0032065511 0.058737278
0.18992762 -0.39464951 0.016351223
0.18953763 -0.20704257 0.03666544
0.18303463 0.12273449 0.072383404
0.18653363 0.25305045 -0.11850643
0.18321063 0.034226477 0.0627985
0.18391962 -0.32309055 0.024105549
0.18345962 -0.091386557 0.049197197
0.17707762 0.19722944 0.080457211
0.17731263 0.072995484 0.067005634
0.17795762 -0.26847649 0.030028343
0.17784163 -0.20700157 0.036685467
0.17773663 -0.15122151 0.042725563
0.17140064 0.12276244 0.072402477
0.17220163 -0.32304752 0.02412653
0.16566962 0.073023438 0.067023277
0.16257763 0.25325549 -0.11689854
0.16020863 -0.15116954 0.042755604
0.15421063 -0.047515512 0.053988457
0.15414363 -0.0031155348 0.058796406
0.15408662 0.034297466 0.06284523
0.15473562 -0.39452052 0.016414642
0.14872862 0.23786145 0.02732563
0.14826262 0.034309447 0.062855244
0.14300463 -0.39448559 0.016434193
0.14275663 -0.20690155 0.036744595
0.14268263 -0.15112555 0.042784214
0.14260364 -0.091278553 0.049264431
0.13863462 0.25345647 -0.11524868
0.13065062 0.15733945 0.076202393
0.13088363 -0.047467589 0.05402422
0.12877962 0.27731246 -0.33419466
0.12496763 0.034351468 0.062893391
0.12515962 -0.15108955 0.042812347
0.11948162 -0.32290351 0.024214268
0.11321463 0.15736145 0.076229572
0.11318062 0.19733244 0.080556393
0.11470562 0.25365245 -0.11356163
0.11347663 -0.15106952 0.042830467
0.11025862 0.27745748 -0.33282852
0.10782063 -0.39440548 0.016492367
0.10274662 0.25374949 -0.11270046
0.10408762 0.27750546 -0.33236837
0.10167363 0.034381449 0.0629282
0.10175662 -0.091210485 0.049328327
0.095800623 0.12288046 0.072518349
0.095780626 0.15737844 0.076255322
0.095850624 0.034387469 0.062936306
0.096093625 -0.39438856 0.016509533
0.095921621 -0.09120357 0.049337387
0.089967623 0.15738249 0.076263428
0.091746628 0.27760047 -0.33143854
0.090025626 0.034392476 0.062944412
0.090194628 -0.32285857 0.024260521
0.090113625 -0.15104055 0.042865276
0.084234625 -0.047407508 0.054095268
0.078391626 -0.0030085444 0.058911324
0.079410627 0.27769446 -0.33050156
0.078501627 -0.39436853 0.016535282
0.078448623 -0.20680153 0.036844254
0.072610624 0.23849046 0.032650471
0.066719629 0.19736344 0.080625534
0.066752627 -0.15102458 0.042899609
0.060910627 0.19736445 0.08063221
0.060910627 -0.047396541 0.054129601
0.060910627 0.034406483 0.062987328
0.060910627 -0.20679355 0.036869526
0.055103626 0.19736546 0.08064127
0.055062626 0.23862845 0.033938408
0.055065624 -0.20679259 0.036877632
0.055070624 -0.15102148 0.042915344
0.049282625 0.12289846 0.072585583
0.049215626 0.23867446 0.03437233
0.048966624 0.25416946 -0.10871458
0.049220625 -0.20679259 0.036885262
0.049242627 -0.091180563 0.049404621
0.043489628 0.19736445 0.080657482
0.043454625 0.073153436 0.06720829
0.037665628 0.15739447 0.076336384
0.037022628 0.25425947 -0.10780048
0.031873625 0.19736147 0.080672264
0.031814627 0.073149443 0.067223549
0.031708628 -0.15102649 0.042947292
0.026023626 0.12289244 0.072617531
0.025927626 -0.047403574 0.054176331
0.025084626 0.25434846 -0.1068778
0.023935627 0.27810347 -0.32615852
0.019989625 0.23889846 0.03658247
0.020096626 -0.047406554 0.05418539
0.014395624 0.12288547 0.072633266
0.014421627 0.15738344 0.076367378
0.014451627 0.19735348 0.080695629
0.014004625 -0.3943795 0.016624451
0.014233626 -0.091197491 0.049450397
0.0085796267 0.12288046 0.072640419
0.0083026253 0.23898548 0.037483215
0.0084346272 -0.047416568 0.054199219
0.008503627 0.034388483 0.063058376
0.0028346255 0.19734448 0.080710411
0.002603624 -0.047423482 0.054206371
0.0026806258 0.034382463 0.063064575
0.0023946241 -0.26828957 0.030291557
0.0025056265 -0.15105152 0.042986393
-0.0031803772 -0.0030335188 0.059021473
-0.0033343732 -0.15105951 0.042993546
-0.003272377 -0.091216564 0.049473286
-0.0087803751 0.19733346 0.080725193
-0.013009377 0.27836347 -0.32315254
-0.0089213774 0.073116481 0.067276478
-0.0093703717 -0.32289052 0.024395466
-0.0093083754 -0.26830757 0.030305386
-0.014835373 -0.0030485392 0.059035301
-0.019165374 0.27840644 -0.3226428
-0.014742374 0.073109448 0.0672822
-0.015017375 -0.15107751 0.043008327
-0.014943376 -0.091233492 0.049488544
-0.020450376 0.15734845 0.076412201
-0.020779371 -0.091242552 0.049494267
-0.026261374 0.15734047 0.076419353
-0.026489377 -0.003067553 0.05905056
-0.026942372 -0.32292652 0.024414539
-0.026699372 -0.15109849 0.043020248
-0.026614375 -0.091253519 0.049501419
-0.032125376 0.12283146 0.072690487
-0.032259375 0.034333467 0.063108444
-0.038408376 0.23932445 0.041186333
-0.038143374 -0.0030885339 0.059063435
-0.040527374 0.25481945 -0.10162258
-0.043775372 0.27857345 -0.32057858
-0.038772374 -0.39448249 0.01668644
-0.038657375 -0.32295549 0.024427414
-0.038381375 -0.15112352 0.043034554
-0.038285375 -0.091276526 0.049514294
-0.044224374 -0.15113652 0.043042183
-0.049662374 0.073050439 0.067324638
-0.050165378 -0.20692849 0.037007332
-0.055389374 0.12278944 0.07271862
-0.055324376 0.15729147 0.076454639
-0.055711374 -0.047527552 0.054276466
-0.061303377 0.073025465 0.067338467
-0.062089376 -0.32302451 0.024452209
-0.067126378 0.073011458 0.067345619
-0.073209375 -0.047573566 0.05429554
-0.076278374 0.25506145 -0.098628521
-0.073031381 0.034244478 0.063154221
-0.073689371 -0.26847351 0.030375481
-0.084471375 0.12272245 0.072751522
-0.085076377 0.23964548 0.045048237
-0.085694373 -0.39464557 0.016733646
-0.085119382 -0.15125656 0.043084621
-0.090707377 -0.047626495 0.054313183
-0.099106371 0.27893245 -0.31579256
-0.090506375 0.034195483 0.063173294
-0.09041138 0.072950482 0.067369461
-0.09673737 0.23972344 0.046039581
-0.096234381 0.072933435 0.067377567
-0.097105369 -0.26856256 0.030397415
-0.10192437 0.12267447 0.072770596
-0.10172738 0.19716144 0.080835342
-0.11139438 0.27900845 -0.31470346
-0.10205637 0.072916448 0.067382336
-0.10310437 -0.32318449 0.02449131
-0.11200237 0.25529349 -0.095547676
-0.11753638 0.27904648 -0.31415367
-0.11346237 0.15714747 0.076519489
-0.11422038 0.23983747 0.047542572
-0.12367737 0.27908444 -0.31360245
-0.11482437 -0.32323849 0.024502277
-0.11937937 0.12262046 0.072787285
-0.11927837 0.15713048 0.076525211
-0.12981938 0.27912146 -0.31304979
-0.11952537 0.072859466 0.067400455
-0.12509337 0.15711147 0.07653141
-0.12619537 -0.20720959 0.037082195
-0.12584537 -0.091555595 0.04960537
-0.13140938 -0.0033665299 0.05916357
-0.13129237 0.034056485 0.063215256
-0.13117138 0.072817445 0.067412376
-0.13240737 -0.32332754 0.024517536
-0.13187137 -0.15144455 0.04312849
-0.13683538 0.12256145 0.072806358
-0.13699538 0.072795451 0.067418575
-0.13809237 -0.26875556 0.030434608
-0.14265437 0.12254047 0.072812557
-0.14254038 0.15705246 0.07654953
-0.14240737 0.19703948 0.080879211
-0.14890337 -0.0034395456 0.059179306
-0.14920437 -0.0916605 0.04962635
-0.15417437 0.15701044 0.076560497
-0.15544838 -0.20735753 0.037106514
-0.15984738 0.19697744 0.080896378
-0.16081737 0.24012947 0.051662445
-0.16554138 0.25562346 -0.090759754
-0.16611837 0.072677493 0.067446232
-0.16737838 -0.26892149 0.030457497
-0.17175737 0.12242448 0.07283926
-0.17240237 -0.047968507 0.05439043
-0.17194538 0.072651446 0.067450523
-0.17828037 0.24023443 0.053247452
-0.17823938 -0.047998548 0.054395199
-0.17806737 -0.0035765171 0.059205532
-0.17930737 -0.32360959 0.024551392
-0.17840937 -0.091810584 0.049650192
-0.18340038 0.12237346 0.072849274
-0.18310438 0.19688845 0.080918312
-0.18407637 -0.048029542 0.054400444
-0.18517138 -0.32364857 0.024555206
-0.18495438 -0.26903248 0.030469418
-0.18891938 0.19686449 0.080924511
-0.18973437 -0.003636539 0.059215546
-0.18958136 0.033797443 0.063268185
-0.19103536 -0.32368958 0.024559498
-0.19009238 -0.091875553 0.049660206
-0.19473436 0.19683945 0.080928326
-0.19573537 0.24033749 0.054855347
-0.19525138 0.072540462 0.067470551
-0.19641638 -0.20760357 0.037136555
-0.20159337 -0.048126578 0.054412365
-0.20714536 0.25586444 -0.086895466
-0.21308538 0.25589746 -0.086335659
-0.21251437 0.12223548 0.0728755
-0.21327236 -0.048196554 0.054421425
-0.21373236 -0.15190649 0.043192387
-0.21900237 0.24046946 0.057033539
-0.22496438 0.25596344 -0.085204601
-0.22011536 -0.26927948 0.030490398
-0.22416437 0.12217647 0.072885513
-0.24023238 0.27974749 -0.30265951
-0.22457439 0.033607483 0.063295364
-0.22623137 -0.32395458 0.024578571
-0.23154837 -0.2078495 0.037159443
-0.23100138 -0.092130542 0.049688339
-0.23642138 -0.0039055347 0.059250355
-0.23740536 -0.20789349 0.037162304
-0.23713636 -0.15206957 0.043206215
-0.23684737 -0.092170477 0.049692631
-0.24247739 -0.048382521 0.054441452
-0.25861138 0.27984244 -0.30085278
-0.24326238 -0.20793855 0.037165642
-0.24746537 0.12204945 0.072904587
-0.24709138 0.19659245 0.080975533
-0.26473638 0.27987349 -0.30024481
-0.24771437 0.072252452 0.067512512
-0.24942738 -0.26951253 0.03050518
-0.25291237 0.19656247 0.080980301
-0.27086237 0.27990448 -0.29963541
-0.25354737 0.072217464 0.067516327
-0.25438738 -0.092294574 0.049703598
-0.25912037 0.12198144 0.072913647
-0.25969538 0.24069148 0.060939312
-0.27698538 0.27993548 -0.29902172
-0.27193037 -0.092425585 0.049713612
-0.27641636 0.15641648 0.076665401
-0.28432238 0.25627548 -0.0794034
-0.27709138 0.033274472 0.063332558
-0.27905336 -0.3244195 0.02460146
-0.27875337 -0.26976955 0.030518532
-0.28396437 -0.15243649 0.043231487
-0.28363037 -0.092517495 0.049719334
-0.28784037 0.19636846 0.081007481
-0.28923136 -0.048720479 0.054470539
-0.30759439 0.28008449 -0.29592371
-0.29079637 -0.32453454 0.024604321
-0.29454938 0.24087048 0.06438446
-0.30092436 -0.048812509 0.054474354
-0.30186036 -0.20843852 0.037191391
-0.30531237 0.19626248 0.081019402
-0.31397638 0.25642145 -0.07641077
-0.32595238 0.28017145 -0.29403353
-0.30628437 0.033064485 0.063350201
-0.30809137 -0.27004957 0.030529499
-0.31158838 0.12164646 0.072949409
-0.33818737 0.28022748 -0.29276371
-0.31945038 -0.20860648 0.037198544
-0.31873837 -0.092811584 0.0497365
-0.32404038 -0.0045395494 0.05930233
-0.32459238 -0.09286356 0.049738407
-0.32886738 0.15607846 0.076700211
-0.33016738 -0.049057484 0.054490566
-0.32940239 0.071694493 0.067565441
-0.33549237 0.032836437 0.063365459
-0.33630139 -0.092969537 0.049742222
-0.34026939 0.19603646 0.081043243
-0.34098837 0.24109346 0.069115639
-0.36265036 0.28033644 -0.29019165
-0.34215638 -0.093024492 0.049744606
-0.34742737 -0.0047365427 0.059313297
-0.34954938 -0.32516551 0.024618626
-0.37487736 0.28038949 -0.28889179
-0.35505939 -0.27054858 0.030540466
-0.35775736 0.19591546 0.081054211
-0.35912436 -0.0048395395 0.059318542
-0.36130738 -0.32530355 0.024618626
-0.36093536 -0.2706145 0.03054142
-0.36419436 0.24119848 0.071539402
-0.36528137 -0.049376488 0.054503441
-0.36497337 -0.0048925281 0.059321404
-0.36471438 0.032590449 0.063379288
-0.36680937 -0.27068257 0.03054142
-0.36969838 0.15578043 0.076725483
-0.36941737 0.19583148 0.08106041
-0.37056136 0.032539487 0.063382626
-0.37268436 -0.27075052 0.030542374
-0.37579238 0.24124944 0.072767258
-0.37698936 -0.049489498 0.054507256
-0.37772638 -0.15333652 0.043263435
-0.38252437 -0.0050555468 0.059327602
-0.38483039 -0.32559252 0.024621487
-0.38443637 -0.27089155 0.030542374
-0.38399339 -0.20929253 0.037213326
-0.41154537 0.28054148 -0.28492975
-0.39329937 0.12102044 0.072994232
-0.39304337 0.15559745 0.076738358
-0.39888138 0.15554947 0.076740265
-0.40041637 -0.049724579 0.054514408
-0.40876639 0.25684047 -0.066419601
-0.40207139 -0.27110755 0.030544281
-0.40074438 -0.093612552 0.049762249
-0.40441638 0.19556648 0.08108139
-0.40478039 0.24137247 0.07587862
-0.40627438 -0.049784541 0.054516315
-0.41468537 0.25686449 -0.065774441
-0.40836439 -0.32589757 0.024620533
-0.41120836 0.071002483 0.067603588
-0.41425139 -0.32597554 0.024620533
-0.41383237 -0.27125752 0.030544281
-0.41247138 -0.093740582 0.049765587
-0.41637239 0.24141943 0.077140331
-0.42652339 0.25691146 -0.064475536
-0.42013738 -0.32605553 0.024619579
-0.41971236 -0.27133358 0.030544281
-0.41833436 -0.093805552 0.049765587
-0.42350438 -0.0054605603 0.059340477
-0.46715638 0.30927849 -0.54227257
-0.42559436 -0.27141154 0.030543327
-0.42419937 -0.093871593 0.049766541
-0.42776439 0.19537848 0.081093311
-0.42796037 0.24146545 0.078412533
-0.43375438 0.24148744 0.079052448
-0.43521836 -0.0055835247 0.059343338
-0.46039936 0.28072846 -0.27951145
-0.43779936 -0.3263005 0.024616241
-0.43686336 -0.20993459 0.037216187
-0.43641338 -0.15401053 0.043270588
-0.44005039 0.12060547 0.073014259
-0.4395484 0.24150944 0.079694271
-0.44228736 -0.15408349 0.043271542
-0.45610639 0.25702447 -0.061187744
-0.45174536 0.12049544 0.073017597
-0.45316836 -0.050298572 0.054525375
-0.4524844 0.031745493 0.063408375
-0.49881139 0.30938846 -0.53865576
-0.45547035 -0.32655454 0.02461338
-0.46136138 -0.32664156 0.024612427
-0.46038035 -0.21024454 0.037215233
-0.4599084 -0.15430558 0.043272495
-0.46315035 0.15498644 0.076768398
-0.49091735 0.28083646 -0.27604342
-0.46420136 0.031620443 0.063412189
-0.51146936 0.30943048 -0.53719044
-0.46929535 0.12032545 0.073023319
-0.47314736 -0.32681859 0.024609566
-0.47514537 0.12026745 0.073025227
-0.48567435 0.25712949 -0.057837486
-0.47558036 0.070362449 0.067622185
-0.47904137 -0.32690859 0.024607182
-0.48069236 0.15481949 0.076774597
-0.48177937 0.031427443 0.063414574
-0.48143736 0.07030046 0.067624569
-0.48493639 -0.32699955 0.024605274
-0.48288938 -0.094574571 0.049772263
-0.4861854 0.19486547 0.081119537
-0.48797438 -0.0061725378 0.059352398
-0.48764035 0.031361461 0.063416481
-0.48876235 -0.094649553 0.049771309
-0.49270537 0.12008947 0.073030472
-0.52141833 0.28093749 -0.27251673
-0.54310334 0.30953145 -0.5334897
-0.50011337 -0.050862551 0.05452919
-0.49970838 -0.0063115358 0.059352398
-0.54942739 0.30955046 -0.5327425
-0.50212836 -0.27250254 0.030531406
-0.50372839 0.19469947 0.081125259
-0.53361332 0.28097647 -0.27108955
-0.55575132 0.30956948 -0.53199244
-0.50957632 0.19464344 0.081126213
-0.50914037 0.24160749 0.086213589
-0.5397104 0.28099549 -0.27037048
-0.5110954 0.031091452 0.063418388
-0.51542842 0.19458646 0.081129551
-0.51773143 -0.051086545 0.05452919
-0.52198637 0.11977947 0.073037624
-0.52245939 0.069845438 0.067631245
-0.52948141 -0.051240563 0.05452919
-0.55800033 0.28105044 -0.26820135
-0.53160238 -0.27296555 0.030521393
-0.53047633 -0.15527153 0.043264389
-0.52990139 -0.095196486 0.049769402
-0.5325284 0.24139148 0.086221218
-0.53492641 -0.0067475438 0.059354305
-0.56409538 0.28106749 -0.26747561
-0.53956532 0.11958647 0.073041439
-0.54005241 0.069640458 0.067633629
-0.54224932 -0.1554445 0.043262482
-0.54166341 -0.095360518 0.049767494
-0.54422832 0.24127948 0.086226463
-0.55658543 0.25735545 -0.049546719
-0.54592037 0.069570482 0.067633629
-0.54869032 -0.21153557 0.03719759
-0.55254841 -0.0069755316 0.059354305
-0.55680633 0.15403146 0.076794624
-0.56110036 -0.27345252 0.030509472
-0.56048036 -0.21172249 0.037194252
-0.56430042 -0.0071305633 0.059354305
-0.59456336 0.28115249 -0.26380062
-0.56391943 0.030441463 0.063421249
-0.56580842 -0.15580249 0.043256283
-0.56519842 -0.095697522 0.049764633
-0.62528336 0.30976146 -0.52358055
-0.57290637 -0.27365458 0.030504227
-0.57227433 -0.21191454 0.03718853
-0.63160038 0.30977744 -0.5228014
-0.57817233 -0.21201158 0.037187576
-0.5775944 -0.15598559 0.043253422
-0.58061838 0.11911148 0.073046207
-0.58569932 0.19385749 0.081147194
-0.59198833 0.15363246 0.076800346
-0.59417236 -0.052142501 0.054521561
-0.60381532 0.25748348 -0.043822765
-0.59876335 0.06891048 0.06763649
-0.60959339 0.15342444 0.076802254
-0.60864234 0.24062449 0.086243629
-0.61485541 -0.32925248 0.024541378
-0.61425734 -0.27439153 0.030481339
-0.61358333 -0.21261358 0.03717041
-0.61546338 0.15335345 0.076803207
-0.6177274 -0.052493572 0.054514408
-0.6274184 0.25754148 -0.040899754
-0.62172043 0.11860448 0.073048592
-0.62312436 -0.0079555511 0.059345245
-0.65546143 0.28130144 -0.25626659
-0.68212235 0.30989349 -0.51648045
-0.62951136 -0.052674532 0.054511547
-0.62815535 0.068519473 0.067633629
-0.63199532 -0.2747215 0.030469418
-0.63000333 -0.096694589 0.04974556
-0.63347232 0.11845344 0.073048592
-0.63308036 0.15313745 0.076803207
-0.63403642 0.06843847 0.067632198
-0.63590133 -0.096789479 0.049743176
-0.63895535 0.15306449 0.076802254
-0.64445043 -0.32983351 0.024519444
-0.64382541 -0.27494657 0.030462265
-0.64248443 -0.15705955 0.043226242
-0.64179933 -0.096885562 0.049741268
-0.64382935 0.24023849 0.086249352
-0.65691233 0.25760746 -0.037192822
-0.70736933 0.30994546 -0.51326036
-0.65309143 -0.053045511 0.054503441
-0.68589032 0.28136545 -0.25240755
-0.71368134 0.30995744 -0.51245165
-0.65566134 -0.27517557 0.030453205
-0.65360141 -0.097081542 0.049735546
-0.65699041 0.11814344 0.073046207
-0.69197536 0.28137743 -0.2516284
-0.66158032 -0.27529156 0.030450344
-0.66246438 0.15276545 0.076803207
-0.66199136 0.19296944 0.081157207
-0.66391933 0.029051483 0.063409328
-0.66814637 -0.33031654 0.024499416
-0.66750038 -0.27540851 0.030444622
-0.66677332 -0.21357858 0.037139416
-0.68049836 0.25765449 -0.034182549
-0.73260939 0.30999249 -0.51000357
-0.67342138 -0.27552652 0.030440331
-0.67318332 0.23990244 0.086254597
-0.67860639 -0.21380353 0.037130356
-0.67721534 -0.097481489 0.049726486
-0.67962337 0.19275045 0.081157207
-0.67905641 0.23983347 0.086254597
-0.68259132 -0.053526521 0.054493427
-0.68205237 -0.0088555217 0.05932951
-0.68384743 -0.15779853 0.043203354
-0.68641341 0.11774248 0.073043346
-0.68599141 0.15245646 0.076802254
-0.72238934 0.28143346 -0.24769545
-0.6874944 0.028694451 0.063402176
-0.68702137 0.067684472 0.067624569
-0.69119334 -0.27588654 0.030426502
-0.75784242 0.31003547 -0.50670576
-0.69711936 -0.27600753 0.030421257
-0.69636238 -0.21414757 0.037118435
-0.69567442 -0.15801752 0.043196201
-0.69668341 0.23962247 0.086256504
-0.70997143 0.25770849 -0.03036356
-0.70676041 -0.09800148 0.04970932
-0.70997238 0.11740845 0.073039532
-0.70903337 0.19237345 0.081157207
-0.71212041 -0.054028511 0.054478645
-0.72175741 0.25772744 -0.028819561
-0.71059942 0.06733048 0.067619324
-0.71342635 -0.15835249 0.043183327
-0.71267235 -0.098107576 0.049706459
-0.71586442 0.11732346 0.073040485
-0.71542633 0.15205544 0.076799393
-0.75279343 0.28148347 -0.24370146
-0.72080433 0.19221747 0.0811553
-0.75887132 0.28149247 -0.2428956
-0.78937137 0.31008345 -0.50252962
-0.72746634 -0.33159554 0.02444458
-0.72676742 -0.27663159 0.030394554
-0.7259804 -0.21473849 0.0370965
-0.72608936 0.23926044 0.086258411
-0.73943341 0.25775445 -0.026483536
-0.76495242 0.28150046 -0.24208641
-0.72879636 0.028040469 0.063389301
-0.73270237 -0.27675951 0.030388355
-0.73190939 -0.21486056 0.037091255
-0.73310232 0.15180749 0.076796532
-0.74532437 0.25776345 -0.025700569
-0.73419738 0.066965461 0.067611217
-0.73785937 0.23911148 0.086258411
-0.74167836 -0.054549575 0.054463387
-0.77710736 0.28151745 -0.24046183
-0.7445724 -0.27701855 0.030376434
-0.74600339 0.066779435 0.067607403
-0.81458735 0.31011647 -0.49914455
-0.75122941 -0.33213556 0.024418354
-0.74969733 -0.21522951 0.037074566
-0.75078738 0.15155345 0.076794624
-0.76299334 0.25778747 -0.023335457
-0.78926134 0.28153348 -0.23882675
-0.75644732 -0.27728057 0.030364513
-0.76238835 -0.27741349 0.030358315
-0.76001632 -0.098989487 0.049676418
-0.76204634 0.19165546 0.081152439
-0.76141536 0.23880649 0.086257458
-0.76475036 -0.010244548 0.059291363
-0.76832843 -0.27754653 0.030353546
-0.77066541 -0.010349512 0.059290409
-0.77015734 0.027350485 0.063371181
-0.77384043 0.19148946 0.081150532
-0.77607036 0.027248442 0.06336832
-0.8460964 0.31015146 -0.4948616
-0.78096139 -0.33283448 0.024382591
-0.7786094 -0.15964949 0.043133259
-0.78903937 -0.055425525 0.054434299
-0.78842342 -0.010669529 0.059279442
-0.82571542 0.28157347 -0.23386574
-0.79286432 -0.33312154 0.024367332
-0.78964734 -0.099567533 0.049655437
-0.83178937 0.28157848 -0.23302937
-0.86499739 0.31016946 -0.49226046
-0.79557741 -0.09968555 0.049650192
-0.81009436 0.25783849 -0.016918659
-0.79974043 0.026835442 0.063357353
-0.80313635 -0.21638751 0.037024498
-0.80440533 0.11596948 0.073014259
-0.80391634 0.15075845 0.076781273
-0.81598032 0.25784343 -0.016106606
-0.80511034 0.065803468 0.067584515
-0.81449032 0.23808849 0.086252213
-0.81868243 -0.055999517 0.054412365
-0.8277514 0.25785345 -0.014472485
-0.82287037 0.065497458 0.067574501
-0.82860243 -0.33400559 0.02432251
-0.82756436 0.15038747 0.076774597
-0.82698143 0.19071245 0.081140518
-0.82990241 -0.011441529 0.059252262
-0.83951938 0.25786245 -0.01282835
-0.86822438 0.28160745 -0.22796249
-0.83220637 0.23783845 0.086249352
-0.83648443 -0.056352496 0.05439949
-0.84064138 0.065184474 0.067566395
-0.84568536 -0.27937353 0.03026247
-0.84656739 0.065078437 0.06756258
-0.85245633 -0.33461654 0.024289608
-0.84993541 0.23758346 0.086247444
-0.85495532 -0.10091352 0.049598217
-0.85767436 0.11508447 0.072991371
-0.85957134 -0.012016535 0.059232235
-0.86356938 -0.27981949 0.030238628
-0.86360133 0.11498249 0.072990417
-0.86551142 -0.012133539 0.059227467
-0.8703624 -0.33508456 0.024263382
-0.86953437 -0.27996957 0.030230522
-0.86839139 0.19007349 0.081127644
-0.87633443 -0.33524358 0.024254322
-0.91678333 0.28163046 -0.22107077
-0.87966633 -0.16186655 0.043032646
-0.88402033 -0.057332516 0.054358482
-0.88333333 -0.012490511 0.059213638
-0.88215637 0.064429462 0.067540646
-0.88648641 -0.21834052 0.036927223
-0.8899684 -0.05745852 0.054354191
-0.88927734 -0.012610555 0.059208393
-0.89833939 0.25788748 -0.0044636726
-0.88869536 0.025178492 0.063301563
-0.8880924 0.064318478 0.067537308
-0.89425635 -0.33572459 0.024226189
-0.89244938 -0.21848655 0.036919594
-0.89158142 -0.16214454 0.043018341
-0.90422034 0.25788945 -0.0036125183
-0.89754343 -0.16228449 0.043012619
-0.90117133 -0.012854517 0.05919838
-0.90394139 0.18950248 0.081115246
-0.90652633 0.024826467 0.063286304
-0.90987134 0.18940449 0.081111431
-0.90912437 0.23669648 0.086233616
-0.91185439 0.063868463 0.067521572
-0.91580439 0.18930745 0.081109524
-0.91505241 0.23660445 0.086230278
-0.9222964 -0.21923351 0.036879539
