# .PCD v0.7 - Point Cloud Data file format
VERSION 0.7
FIELDS x y z
SIZE 4 4 4
TYPE F F F
COUNT 1 1 1
WIDTH 1
HEIGHT 1024
VIEWPOINT 0 0 0 1 0 0 0
POINTS 1024
DATA ascii
1.065434 -0.15229899 -0.26847172
1.0473429 -0.19975799 -0.18280077
1.0507669 -0.14943999 -0.25205564
1.0196259 -0.25186497 -0.15895462
1.023435 -0.19992894 -0.18712473
1.013508 -0.251697 -0.15880156
1.023255 -0.14565498 -0.23137331
0.98480797 -0.063840926 0.010604382
1.010844 -0.31856793 -0.18452644
0.99701691 -0.19694895 -0.1724453
0.991328 -0.19734699 -0.17562151
0.96446896 -0.074245989 -0.062051296
0.97833192 -0.19607192 -0.16952753
0.95406997 -0.11266893 -0.027730465
0.95550096 -0.032849967 -0.085926533
0.94598389 0.0088820457 -0.05824852
0.96090794 -0.31592292 -0.17638445
0.93633389 0.051879048 -0.029109478
0.95378697 -0.25198597 -0.16824055
0.92916298 -0.17045695 -0.019452572
0.93749297 -0.12143594 -0.086328506
0.92141092 0.10504204 -0.0049567223
0.924999 -0.17275196 -0.03397131
0.91769898 0.10284704 -0.023133755
0.93527496 -0.089206994 -0.1662817
0.92909992 -0.12587899 -0.11598969
0.92739594 -0.0035719275 -0.15156651
0.91662192 -0.17737192 -0.063177586
0.90509796 0.13834107 -0.017476559
0.92677593 -0.093567908 -0.19661331
0.9139179 0.037636042 -0.14043045
0.89317489 -0.27665395 0.032236576
0.89755797 0.13410103 -0.054058552
0.9101119 0.03521508 -0.15933752
0.90129697 -0.084115922 -0.13618135
0.87835193 0.22854203 0.0076212883
0.88967192 -0.18103689 -0.088746548
0.88921297 -0.12029797 -0.084836483
0.87511492 0.13900805 -0.015431404
0.87259793 0.25878608 0.0061573982
0.87574899 0.053922057 -0.020866394
0.86601591 0.14237505 0.011829376
0.866503 0.22868806 0.0076212883
0.86487496 -0.059966981 0.02169466
0.86578894 -0.2188279 0.013796329
0.86058199 0.22876108 0.0076236725
0.8592099 -0.016170919 0.019564629
0.85466099 0.22883308 0.0076255798
0.854828 0.25899404 0.0061602592
0.85350597 0.020810068 0.017765522
0.85281897 -0.10276693 0.023791313
0.84890699 0.25906307 0.0061616898
0.83643699 0.14277506 0.011834621
0.83577693 0.02108407 0.017767429
0.83478796 -0.1610679 0.026648521
0.8351059 -0.10245699 0.023791313
0.82943594 -0.059369981 0.02169466
0.82827389 -0.27530199 0.032222271
0.82443094 0.10873204 0.013503551
0.82461393 0.14293003 0.011836529
0.82353389 -0.059273899 0.021695614
0.82376695 -0.01560396 0.019566536
0.81852293 0.10881203 0.013505459
0.81826198 0.059602082 0.015903473
0.81196094 -0.015420973 0.01956749
0.8105979 -0.27495199 0.03221941
0.811198 -0.16064399 0.026646614
0.80688596 0.14315903 0.011840343
0.80606091 -0.01533097 0.01956749
0.80560899 -0.1019569 0.023790359
0.80080295 0.10904908 0.01350832
0.80097997 0.14323407 0.011842251
0.8003509 0.021612048 0.017771244
0.79854596 -0.32772189 0.034801483
0.79551589 0.22952205 0.0076394081
0.79403889 -0.058800995 0.021696568
0.79426193 -0.015152931 0.01956749
0.794451 0.021698058 0.017771244
0.78814292 -0.058708966 0.021697521
0.78836489 -0.015063941 0.019568443
0.78309298 0.10927904 0.013511658
0.78346491 0.18312007 0.0099105835
0.7828449 0.060096085 0.015909672
0.7817359 -0.16013294 0.02664566
0.78203094 -0.1015709 0.023790359
0.777192 0.10935503 0.013512611
0.7769469 0.060176075 0.015911579
0.77188897 0.22978204 0.0076465607
0.76939297 -0.27417094 0.032214642
0.76968896 -0.21435696 0.02930069
0.76478398 -0.01471895 0.019571304
0.766132 0.25996506 0.0061855316
0.76515293 0.060334027 0.015912533
0.76325095 -0.32703191 0.034797668
0.75889099 -0.014634967 0.019571304
0.75925601 0.060412049 0.015913486
0.75762892 -0.273956 0.032215595
0.75791991 -0.21415192 0.029299259
0.75846899 -0.10119897 0.023792267
0.75376296 0.14381105 0.011852264
0.74770296 0.10972303 0.01351738
0.74842095 0.26014507 0.0061912537
0.74746799 0.060565054 0.015915394
0.74615598 -0.21395189 0.029299259
0.74641597 -0.15954894 0.026646614
0.74101293 -0.058000982 0.021700382
0.74122 -0.014385939 0.019575596
0.73626089 0.18365508 0.0099244118
0.73661995 0.26026207 0.0061945915
0.734115 -0.27353793 0.032213688
0.73465097 -0.15936095 0.026646614
0.73017991 0.14408505 0.01185751
0.72923994 -0.057830989 0.021703243
0.72823691 -0.27343589 0.032213688
0.724684 0.23027605 0.0076594353
0.72288895 -0.15917593 0.026648521
0.723158 -0.10066396 0.023795605
0.71767199 -0.014064968 0.019578457
0.718014 0.060937047 0.015921593
0.71676195 -0.21346599 0.029298306
0.7170099 -0.15908498 0.026648521
0.71178794 -0.013985932 0.019579411
0.71113193 -0.15899497 0.026647568
0.70645893 0.11021107 0.013529301
0.7067889 0.18397003 0.009932518
0.70713198 0.26054603 0.0062055588
0.70606792 0.022894084 0.017785549
0.70450497 -0.32596093 0.034794331
0.701105 0.23051006 0.0076684952
0.70035291 0.061153054 0.015924454
0.6991359 -0.21318394 0.029299259
0.69300091 -0.27284199 0.032213688
0.68879795 0.11041003 0.013534546
0.68911898 0.18415207 0.0099372864
0.683231 0.18421203 0.0099406242
0.68103492 -0.32555991 0.034793377
0.682006 -0.10007697 0.023801327
0.67631292 -0.057106912 0.021709442
0.67766893 0.26081604 0.0062146187
0.67516792 -0.325463 0.034792423
0.67564893 -0.2128219 0.029301643
0.67043698 -0.057030976 0.021711349
0.66576493 0.23084307 0.0076804161
0.6591779 0.061631083 0.015935421
0.65380096 0.18450004 0.0099506378
0.65281296 -0.056805909 0.021714687
0.65263796 -0.099681914 0.023805618
0.64810598 0.23100305 0.0076885223
0.6471169 -0.013171971 0.019591331
0.64652991 -0.15805894 0.026656628
0.64106894 -0.056659997 0.021717548
0.64139092 0.023670077 0.017800331
0.63999391 -0.32489592 0.034793377
0.64044499 -0.21230596 0.029305458
0.64066291 -0.15797895 0.026656628
0.63633895 0.23110604 0.0076932907
0.63537097 -0.013033926 0.019595623
0.63645792 0.26117206 0.006231308
0.635517 0.02373606 0.017802238
0.63566792 0.061889052 0.01594162
0.63479698 -0.15789992 0.026657581
0.62932897 -0.056516945 0.021719456
0.62964392 0.023802042 0.017804623
0.62979293 0.061952055 0.015944481
0.62915993 -0.099379957 0.023809433
0.62410796 0.11109203 0.013554573
0.62391794 0.062014043 0.015945435
0.62241793 -0.32462591 0.034794331
0.62262297 -0.27175599 0.032217503
0.62285399 -0.21205896 0.029306412
0.61823297 0.11115003 0.013555527
0.6185149 0.18482703 0.0099635124
0.61758995 -0.056375921 0.021721363
0.61699295 -0.21197897 0.029309273
0.61235797 0.11120707 0.01355648
0.61263692 0.18488008 0.0099654198
0.61281395 0.23130608 0.0077013969
0.61172199 -0.056307971 0.02172327
0.6063 0.062196076 0.015951633
0.60484993 -0.32436496 0.034796238
0.60504794 -0.27150589 0.032220364
0.60527194 -0.2118209 0.029310703
0.60060894 0.11132008 0.013562679
0.59998798 -0.056171954 0.021726608
0.60028589 0.024119079 0.017811298
0.59500694 0.18503308 0.0099725723
0.59412289 -0.056104958 0.021728516
0.59455693 0.062315047 0.015955448
0.58913291 0.18508303 0.0099744797
0.58825898 -0.056039989 0.021729469
0.58854997 0.024240077 0.017816544
0.58299494 0.11148506 0.013568401
0.58342493 0.23154503 0.0077142715
0.58162498 -0.27118498 0.032223701
0.57724595 0.14562303 0.011907578
0.57754993 0.23159105 0.0077185631
0.57695198 0.062487066 0.015960693
0.57577097 -0.2711069 0.032225609
0.57598293 -0.21144193 0.029315472
0.57167399 0.23163605 0.0077204704
0.57177794 0.26168007 0.006257534
0.57012594 -0.21136791 0.029316425
0.57051897 -0.09868294 0.023822308
0.56550294 0.14572406 0.011912346
0.56508493 0.024476051 0.017823696
0.56388295 -0.32378894 0.034802437
0.56406498 -0.27095395 0.032226562
0.56465995 -0.098616898 0.023824692
0.55951798 0.11169606 0.013577461
0.55894697 -0.055721939 0.021739483
0.56002891 0.26176608 0.0062646866
0.55860198 -0.15694791 0.026672363
0.55405498 0.23176908 0.0077285767
0.55308694 -0.055660903 0.021740437
0.54708594 -0.098425925 0.023830414
0.54085791 -0.21101493 0.029324532
0.54122794 -0.098363936 0.023832321
0.53589392 0.062865078 0.015976429
0.53481394 -0.27058798 0.032231331
0.53518295 -0.15668398 0.026679516
0.52932996 -0.15661997 0.026681423
0.52470291 0.23198009 0.0077414513
0.52295196 -0.32326096 0.034810543
0.51883292 0.23202008 0.0077443123
0.51892591 0.26204807 0.0062842369
0.51780593 -0.098122895 0.023839474
0.50673592 0.11213207 0.013598442
0.50636095 -0.011704922 0.019636631
0.50087494 0.11217707 0.013600349
0.50097692 0.14623606 0.011940479
0.50061494 0.025064051 0.017848492
0.49973494 -0.27017897 0.032241344
0.49991295 -0.210558 0.029336452
0.49511495 0.14627904 0.01194334
0.49465096 -0.011601925 0.019640446
0.49475893 0.025114059 0.017850399
0.49406594 -0.21049696 0.029336452
0.49439695 -0.097894967 0.023846626
0.48925194 0.14632106 0.011945248
0.48789296 -0.32284695 0.034818649
0.48363593 0.23225206 0.0077624321
0.48294094 -0.011501968 0.01964426
0.48304594 0.025210083 0.017855644
0.48252794 -0.15613896 0.026695251
0.47708794 -0.011452973 0.019646645
0.47729793 0.063348055 0.016000271
0.47621295 -0.32271594 0.03482151
0.47668093 -0.15608197 0.026698589
0.47157794 0.11239403 0.013614655
0.47167194 0.14644408 0.011954308
0.47199294 0.26234007 0.0063066483
0.47083494 -0.1560269 0.026700497
0.47099593 -0.097679913 0.023855686
0.46604595 0.23236006 0.0077705383
0.46526295 -0.054834902 0.021772385
0.46548095 0.025349081 0.01786232
0.46514595 -0.097627938 0.023858547
0.45986193 0.11247706 0.013620377
0.45995295 0.14652306 0.011959553
0.45941293 -0.054785907 0.021774292
0.46026394 0.26240706 0.006313324
0.45869493 -0.32252795 0.034826279
0.45899594 -0.21014494 0.029348373
0.45400596 0.11251706 0.013622284
0.45356396 -0.054737985 0.021775246
0.45367894 -0.011263967 0.019657612
0.45285696 -0.32246691 0.034829617
0.45329696 -0.15586489 0.026706696
0.44823894 0.14659905 0.011966705
0.44771594 -0.054689944 0.021779537
0.44782895 -0.011217952 0.019660473
0.44853896 0.26247305 0.0063204765
0.44731194 -0.21003395 0.029352665
0.44760495 -0.0974769 0.023864269
0.44175795 -0.097428977 0.023867607
0.43547896 -0.26951593 0.032260418
0.43576494 -0.155711 0.026713371
0.43591094 -0.097380936 0.023869514
0.43088093 0.23256207 0.0077905655
0.43017194 -0.054552972 0.021787643
0.42951095 -0.3222329 0.034835339
0.42473096 0.11270803 0.013638496
0.42481396 0.14674503 0.011977673
0.42380396 -0.26940793 0.032266617
0.42394894 -0.20982498 0.029360294
0.42407995 -0.15561289 0.026718616
0.41887796 0.11274505 0.013640404
0.41847995 -0.054464996 0.021792412
0.41923594 0.26262707 0.006336689
0.41302395 0.11278003 0.013642311
0.41337496 0.26265705 0.0063405037
0.41212994 -0.2693029 0.032270432
0.41239595 -0.155518 0.026723385
0.40725094 0.14684808 0.011987686
0.40629396 -0.269252 0.032271385
0.40104195 -0.010880947 0.019682407
0.40033993 -0.32196194 0.034846306
0.40059295 -0.20962793 0.029371262
0.39554495 0.14691406 0.011993408
0.39563194 0.18640906 0.010068417
0.39573494 0.23274404 0.007809639
0.39509994 -0.054297984 0.021802425
0.38925594 -0.054257929 0.021805286
0.38408595 0.26279604 0.0063576698
0.38284194 -0.3218109 0.034854412
0.37798893 0.14700705 0.012003422
0.37816796 0.23282808 0.0078196526
0.37822995 0.26282203 0.0063605309
0.37773594 0.025952041 0.017905235
0.37735796 -0.15525299 0.026740551
0.37747994 -0.096945941 0.023896694
0.37221894 0.18652707 0.010081291
0.37172696 -0.054142892 0.021814346
0.37163994 -0.09690696 0.023899555
0.36628795 0.14706707 0.012010574
0.36636695 0.18655503 0.010084629
0.36588496 -0.054106891 0.021817684
0.36604595 0.02602005 0.017911434
0.36612195 0.064079046 0.016056538
0.36545596 -0.26892096 0.032290459
0.36568296 -0.15517098 0.026744366
0.36043593 0.14709604 0.012013435
0.36066294 0.26289803 0.0063705444
0.35973793 -0.20931894 0.029389381
0.35452196 0.11310303 0.01367569
0.35480896 0.26292205 0.0063743591
0.35400796 -0.1550929 0.026750565
0.34873796 0.14715105 0.012020588
0.34836096 -0.054000914 0.021826267
0.34844294 -0.01055795 0.019709587
0.34895495 0.26294506 0.0063762665
0.34785995 -0.32153493 0.03486824
0.34288895 0.14717805 0.012024403
0.34260094 -0.010525942 0.019712448
0.33719397 0.23300403 0.0078444481
0.33629793 -0.26871198 0.032303333
0.33113194 0.11321408 0.013689518
0.33119196 0.14723104 0.012031555
0.33084095 -0.05390197 0.021836281
0.33091694 -0.010463953 0.019718647
0.33037394 -0.32141 0.0348773
0.32534397 0.14725608 0.012033463
0.32454595 -0.32136995 0.034880638
0.32463595 -0.26863497 0.032309532
0.31956294 0.18675804 0.010113239
0.31968895 0.26305604 0.0063972473
0.31880695 -0.26859695 0.032312393
0.30780196 0.14732707 0.012045383
0.30786395 0.18680304 0.010121346
0.30732694 -0.15481299 0.026774406
0.30190396 0.11333907 0.013707638
0.30201694 0.18682504 0.010124683
0.30164796 -0.053752959 0.021853447
0.30213395 0.26311606 0.0064072609
0.30182895 0.06439203 0.016094685
0.30158293 -0.096499979 0.023936272
0.29587597 -0.010293961 0.019739628
0.29549095 -0.26845795 0.032324314
0.29557994 -0.2089209 0.029422283
0.29014495 0.064440072 0.01610136
0.28966296 -0.26842493 0.032328606
0.28376195 -0.32111889 0.034901619
0.28391993 -0.20885998 0.029428482
0.27862695 0.18690503 0.010139465
0.27829993 -0.053646982 0.021866322
0.27800694 -0.26836294 0.032334328
0.27816194 -0.15466493 0.026791573
0.27824193 -0.096388996 0.023950577
0.27246395 -0.053621948 0.021871567
0.26688495 0.14747405 0.012072563
0.26677895 0.064528048 0.016115665
0.26628694 -0.32102591 0.034910679
0.26635396 -0.26830393 0.03234148
0.26657397 -0.096338928 0.023957253
0.26079294 -0.053574979 0.021876335
0.26084596 -0.010150969 0.019761562
0.26066795 -0.1545859 0.02680254
0.25509694 0.064568043 0.016122341
0.25463694 -0.32096893 0.034917355
0.25477093 -0.20872194 0.029445648
0.25483596 -0.15456194 0.026804447
0.24939695 0.18699306 0.010160446
0.24347095 0.11354107 0.013745308
0.24328594 -0.053510964 0.021888256
0.24337494 0.026569068 0.01798439
0.24341695 0.064606071 0.016131401
0.23766595 0.14756006 0.01209259
0.23740694 -0.09622699 0.023975372
0.23145895 -0.208628 0.02946043
0.22601795 0.18705308 0.010175705
0.22609195 0.26332104 0.0064582825
0.22024494 0.26333308 0.006462574
0.22005895 0.064672053 0.016147614
0.21974795 -0.26810592 0.03236866
0.21426395 0.11361808 0.013765335
0.21411495 -0.053417981 0.021908283
0.21418595 0.026654065 0.018004417
0.21422094 0.064687073 0.016150475
0.20852596 0.23338503 0.0079312325
0.20809895 -0.26806599 0.032375336
0.20824495 -0.096133888 0.023996353
0.20260894 0.14764404 0.012115479
0.20248196 -0.0099699497 0.019800663
0.20236495 -0.15437895 0.026839256
0.19644895 -0.26802891 0.032384396
0.19090194 0.11366904 0.013783455
0.19092596 0.14766705 0.012124538
0.19058794 -0.32072192 0.034957409
0.19074994 -0.096087992 0.02400732
0.18508494 0.14767706 0.012128353
0.18514395 0.23342603 0.0079474449
0.18500295 0.026722074 0.018026352
0.18484294 -0.20848197 0.029491425
0.18487994 -0.15433198 0.026851654
0.17926896 0.18714505 0.01020956
0.17919095 0.064763069 0.01617527
0.17908895 -0.096060932 0.02401638
0.17338094 0.11370003 0.013794422
0.17318895 -0.20845395 0.029499531
0.16756094 0.14770508 0.012142658
0.16749394 0.026754081 0.018038273
0.16733095 -0.26795393 0.032404423
0.16163994 -0.0098869205 0.01982832
0.16167796 0.06479305 0.016189575
0.15591994 0.23346508 0.0079703331
0.15593395 0.26343304 0.006509304
0.15571295 -0.20841891 0.029511452
0.15573794 -0.1542719 0.026872635
0.15002495 0.11373204 0.013812542
0.15003894 0.14772809 0.012154579
0.14997195 -0.0098689198 0.019837379
0.15008795 0.26343906 0.0065145493
0.14998795 0.026780069 0.018050671
0.14419694 0.14773405 0.012159348
0.14416495 0.064815044 0.01620245
0.14403795 -0.26790994 0.032421589
0.13821495 -0.267901 0.032425404
0.13246995 -0.0098489523 0.019851685
0.13248095 0.026800036 0.018064499
0.12669794 0.23349106 0.0079922676
0.12663594 -0.0098429322 0.019855499
0.12655695 -0.32058996 0.035004616
0.12656994 -0.26788694 0.032434464
0.12085894 0.26346105 0.0065374374
0.12081695 0.064837039 0.016219616
0.12073494 -0.320584 0.03500843
0.12075894 -0.20837194 0.029538631
0.11497395 0.026814044 0.018077374
0.10915495 0.14775908 0.012187481
0.10915995 0.18721408 0.010262489
0.10916594 0.23350006 0.0080075264
0.11079495 0.24780208 -0.61440849
0.10330494 0.02681905 0.018087387
0.10328895 -0.15421599 0.026913643
0.097479947 0.26346904 0.0065555573
0.097464949 -0.095961988 0.024077415
0.091632947 0.18721807 0.010277271
0.091632947 -0.15421289 0.026922703
0.091632947 -0.095960915 0.024083614
0.085812949 -0.32056695 0.035036564
0.079949945 0.18721807 0.010287285
0.078881949 0.24900407 -0.6018734
0.074102946 0.23350304 0.0080356598
0.074133947 -0.0098279715 0.019897461
0.074144945 -0.095962942 0.024096489
0.068305947 -0.053238928 0.022018433
0.068351947 -0.32057196 0.035050392
0.062423944 0.18721408 0.010302544
0.062483944 -0.095966995 0.024106503
0.056591947 0.14775604 0.012229443
0.056654945 -0.095970929 0.024112701
0.044872947 0.26345706 0.0065984726
0.040731944 0.25045907 -0.58652067
0.044952944 0.026805043 0.018135548
0.045014944 -0.15423399 0.026961327
0.034387946 0.25070304 -0.58392763
0.039206944 -0.20838493 0.029604435
0.033315945 -0.053266943 0.022048473
0.027405947 0.11373806 0.013913631
0.027428947 0.064815044 0.01629734
0.021549948 0.14772707 0.012259483
0.021673948 -0.096008956 0.024143696
0.015707947 0.14772004 0.012266636
0.015659943 0.23346508 0.0080852509
0.015752949 0.064800084 0.016307354
0.015966944 -0.32063693 0.035097599
0.010078944 -0.20843095 0.029631615
0.0039709434 0.23345006 0.0080952644
0.0041539446 -0.053310931 0.022073269
0.0041819438 -0.096038997 0.024158478
-0.0017910525 0.11369807 0.013937473
-0.001678057 -0.053320944 0.022080421
-0.0017070547 -0.0099079609 0.019964695
-0.0015320554 -0.26796895 0.032543659
-0.0076560527 0.14768606 0.012285233
-0.0077390522 0.26340306 0.006644249
-0.0073170513 -0.32069093 0.035117626
-0.007398054 -0.20846897 0.02964735
-0.013472058 0.11367804 0.013948441
-0.013528056 0.18713403 0.010368347
-0.013564058 0.23342508 0.0081114769
-0.013378054 -0.0099309683 0.019975662
-0.013587058 0.26339406 0.0066504478
-0.013435051 0.064751029 0.01633358
-0.013140053 -0.3207069 0.035122395
-0.019312054 0.11366707 0.013953686
-0.025078051 0.026695073 0.01819849
-0.024782054 -0.32074195 0.035134315
-0.024827056 -0.2680319 0.032565594
-0.031058051 0.18710208 0.010383606
-0.030843057 -0.05338794 0.022107601
-0.030604057 -0.32075995 0.035139561
-0.036834061 0.11363006 0.013970375
-0.036427051 -0.32077998 0.035145283
-0.042675048 0.11361605 0.01397562
-0.042511061 -0.053419888 0.022119522
-0.04282105 0.26334405 0.0066776276
-0.042627051 0.064685047 0.016360283
-0.042412058 -0.15441591 0.027041435
-0.048550054 0.14760303 0.01232338
-0.048637047 0.23336005 0.008143425
-0.048345059 -0.053436935 0.022125244
-0.048465058 0.064670026 0.016366482
-0.048072055 -0.32082194 0.035157681
-0.054434061 0.18705106 0.01040554
-0.054483056 0.23334706 0.0081486702
-0.054178059 -0.053454936 0.022130489
-0.054225057 -0.010035932 0.020012379
-0.054264054 0.02662003 0.01822567
-0.054013059 -0.20860893 0.02969265
-0.060330048 0.23333406 0.0081534386
-0.059901059 -0.15447491 0.027058601
-0.059965059 -0.09620899 0.024219513
-0.066040054 0.11355507 0.013998508
-0.06612505 0.18702304 0.010416508
-0.066178054 0.23332006 0.0081605911
-0.065898061 -0.010071933 0.0200243
-0.065670058 -0.20865291 0.029704571
-0.071823061 0.064603031 0.01638937
-0.07136406 -0.3209179 0.035181522
-0.071427047 -0.26820093 0.032610416
-0.077908054 0.26326507 0.0067095757
-0.091497049 0.25565708 -0.5301137
-0.077465057 -0.096271932 0.024236679
-0.083408058 -0.010131955 0.020041466
-0.083503053 0.064566076 0.016400337
-0.083298057 -0.09629494 0.024241447
-0.08956705 0.23325908 0.0081825256
-0.089189053 -0.05357796 0.022163391
-0.10398206 0.25616008 -0.5245285
-0.088984057 -0.2087509 0.029727459
-0.095252052 0.11346507 0.014027596
-0.11021705 0.25641203 -0.5217247
-0.094660059 -0.32102996 0.035206318
-0.10126306 0.23322505 0.0081934929
-0.10092105 -0.010198951 0.020059586
-0.10097305 0.026463032 0.018271446
-0.10630906 -0.321091 0.035217285
-0.10638605 -0.26836699 0.03264761
-0.10647206 -0.20883399 0.029746532
-0.11289105 0.18688405 0.01046133
-0.11265205 0.026417077 0.018283367
-0.11270805 0.064460039 0.016429424
-0.11246905 -0.096418917 0.024271488
-0.11873905 0.18686408 0.010467529
-0.12470606 0.26313204 0.0067534447
-0.12386906 -0.268462 0.032667637
-0.13031505 0.11333603 0.014061451
-0.13050905 0.23313206 0.0082206726
-0.13023606 0.06438905 0.016447544
-0.12961206 -0.32122594 0.035244465
-0.12988105 -0.15478593 0.027131557
-0.13616006 0.11331207 0.014066696
-0.13628206 0.18680006 0.010484695
-0.13543805 -0.32126194 0.035250664
-0.14172205 -0.053813994 0.022219658
-0.14179605 -0.010378957 0.020102501
-0.14126605 -0.3212989 0.035256386
-0.14756006 -0.053843915 0.022224426
-0.16611207 0.25869805 -0.49606943
-0.14728905 -0.20905799 0.029791355
-0.15382905 0.18673205 0.010502338
-0.15391105 0.23304707 0.0082445145
-0.15339905 -0.05387491 0.022231579
-0.15354206 0.026234031 0.018325329
-0.15301505 -0.26863891 0.032700539
-0.15321806 -0.15491599 0.027156353
-0.15960604 0.14722705 0.012433529
-0.15967804 0.18670803 0.010507584
-0.15923804 -0.053905904 0.022237301
-0.15874806 -0.32141489 0.035276413
-0.15905306 -0.15494996 0.027163506
-0.16539004 0.11318403 0.01409626
-0.16507706 -0.053938925 0.0222435
-0.16467506 -0.26871699 0.03271246
-0.16488805 -0.15498596 0.027170658
-0.16499704 -0.096693933 0.024327278
-0.19082606 0.25972307 -0.48443556
-0.17050704 -0.26875693 0.032720566
-0.17072505 -0.15502197 0.027175426
-0.17708504 0.11312807 0.014109612
-0.17722905 0.18663204 0.010525703
-0.19699106 0.25998008 -0.48150349
-0.18308005 0.18660605 0.010530472
-0.20315206 0.26023704 -0.47856665
-0.18283504 0.064138055 0.01650238
-0.18216905 -0.2688399 0.03273344
-0.18852806 -0.010628939 0.020151615
-0.18908706 0.26289403 0.0068182945
-0.18823305 -0.15513593 0.027196407
-0.21545905 0.26075304 -0.47266245
-0.19372407 -0.321675 0.035317421
-0.19395906 -0.2093659 0.02984333
-0.19419307 -0.096873939 0.024359703
-0.20079905 0.26284403 0.0068292618
-0.19990906 -0.15521699 0.027209282
-0.20606107 -0.010734916 0.020171642
-0.20614004 0.025947034 0.018383503
-0.21225405 0.14697307 0.012488365
-0.21180907 -0.054223955 0.022295475
-0.21207005 0.063976049 0.016534328
-0.21133307 -0.26906294 0.032767296
-0.21171406 -0.096991003 0.024380684
-0.24000904 0.26178807 -0.46074677
-0.21783304 0.025876045 0.018396378
-0.21791807 0.063941061 0.016541481
-0.21742406 -0.155343 0.027229309
-0.22395906 0.14690906 0.012500286
-0.22415707 0.23274004 0.0083174706
-0.22359705 -0.010847926 0.020191669
-0.24613604 0.26204807 -0.45774746
-0.22326505 -0.15538698 0.027236462
-0.22973207 0.11284608 0.014166355
-0.22952905 0.025802076 0.018408298
-0.23558405 0.11281103 0.014173508
-0.23587006 0.23268205 0.0083293915
-0.23594105 0.26268208 0.0068674088
-0.23454705 -0.32202095 0.035367489
-0.23467305 -0.26925796 0.032796383
-0.23494405 -0.15547699 0.02725029
-0.23508304 -0.097158968 0.02440834
-0.24103007 -0.054427922 0.02232933
-0.24122506 0.025725067 0.018423557
-0.24078506 -0.15552396 0.027257442
-0.24716905 0.063758075 0.016574383
-0.24634704 -0.26936096 0.032811642
-0.24649405 -0.20978099 0.029907703
-0.24662805 -0.15557092 0.027263641
-0.25322905 0.14674103 0.012533665
-0.25205106 -0.32218391 0.035390377
-0.25218305 -0.26941496 0.032817364
-0.25899705 0.11266607 0.014198303
-0.25908405 0.14670503 0.012539387
-0.25930306 0.23255807 0.0083546638
-0.25857005 -0.054558933 0.022350311
-0.25868106 -0.011091948 0.020231247
-0.26485106 0.11262906 0.014204502
-0.26493904 0.14666903 0.012547493
-0.26462504 0.025563061 0.018449306
-0.26385805 -0.26952296 0.032833576
-0.28251106 0.14655703 0.012565613
-0.28261805 0.18607008 0.010639668
-0.28208107 -0.011268973 0.02025938
-0.28137606 -0.26969296 0.032855511
-0.28860605 0.23239005 0.0083866119
-0.28781104 -0.054791987 0.022385597
-0.28803307 0.025389075 0.018476486
-0.28813905 0.063474059 0.01662159
-0.28721607 -0.26975197 0.032863617
-0.28738105 -0.21015197 0.029959679
-0.31923106 0.26518905 -0.42107868
-0.29998806 0.11238903 0.014246464
-0.30041605 0.26233506 0.0069365501
-0.30570605 0.063342035 0.01664257
-0.30458805 -0.32272393 0.035460472
-0.31170705 0.11230403 0.014259338
-0.31214705 0.26226503 0.0069494247
-0.31042805 -0.32278997 0.035467625
-0.31730604 0.025156081 0.018512249
-0.31642607 -0.27005798 0.032902241
-0.32342607 0.11221606 0.014273643
-0.32305107 -0.011607945 0.020310402
-0.32211006 -0.32292193 0.03548336
-0.32227007 -0.27012199 0.032910347
-0.32261404 -0.15626198 0.027359486
-0.32974806 0.26215607 0.0069694519
-0.36152205 0.26704007 -0.3991456
-0.33431405 -0.15638 0.027375698
-0.34138906 0.23205507 0.0084476471
-0.34148306 0.26208204 0.0069832802
-0.33999306 -0.21069294 0.03002739
-0.34016407 -0.15644091 0.027383327
-0.37355605 0.26757205 -0.39280558
-0.34671605 0.06301105 0.016690254
-0.35149807 -0.27045697 0.032949448
-0.35805205 -0.055430949 0.022474289
-0.35819507 -0.011926949 0.020353317
-0.35831505 0.024801075 0.018563271
-0.35844004 0.06291008 0.016704559
-0.35734704 -0.27052599 0.032958508
-0.36430305 0.062858045 0.016713619
-0.36301905 -0.32341689 0.035542488
-0.36319506 -0.27059692 0.032966614
-0.37057805 0.18545806 0.010742664
-0.36991405 -0.012038946 0.020368576
-0.36886504 -0.32349199 0.035549641
-0.36904305 -0.27066797 0.032975674
-0.37660506 0.23180705 0.0084862709
-0.37562606 -0.055607975 0.022497654
-0.37589905 0.024638057 0.018585682
-0.37602904 0.062754035 0.016727448
-0.37471205 -0.32356697 0.035558701
-0.37489206 -0.27074093 0.032983303
-0.38206404 0.11174005 0.014345646
-0.38189507 0.062700033 0.016736507
-0.38749906 -0.012212932 0.020391464
-0.38762707 0.02452606 0.01859951
-0.38659504 -0.27088898 0.032999516
-0.38680306 -0.21123296 0.030092239
-0.39392006 0.14571804 0.01269865
-0.39433005 0.26171803 0.0070443153
-0.42147806 0.26971108 -0.36711168
-0.39244604 -0.27096397 0.033009529
-0.39922404 -0.012331963 0.020407677
-0.39810905 -0.32387894 0.035592556
-0.39870605 -0.15709394 0.027462482
-0.40553707 0.11153203 0.014374256
-0.40535906 0.062480032 0.016765594
-0.40456405 -0.15716392 0.027470589
-0.41184905 0.23153907 0.0085296631
-0.43935904 0.27051806 -0.35734177
-0.41042408 -0.15723497 0.027479649
-0.41063806 -0.098823965 0.024632454
-0.41740605 0.14551306 0.012727261
-0.44530806 0.27078706 -0.35407162
-0.41566506 -0.32412297 0.035618305
-0.41586104 -0.27127391 0.033043385
-0.42171606 -0.2713539 0.033051491
-0.42194006 -0.21167594 0.030142307
-0.42214307 -0.15737897 0.027496338
-0.42236206 -0.098960936 0.024648666
-0.42838803 -0.056179941 0.022568703
-0.42855307 -0.012643933 0.020445347
-0.45718804 0.27132708 -0.34750271
-0.42869303 0.024111032 0.018653393
-0.43518105 0.18492508 0.010821342
-0.43547407 0.26140505 0.0070924759
-0.46312204 0.27159804 -0.34420347
-0.43456408 0.024049044 0.018661499
-0.44105807 0.18487304 0.010827541
-0.44123808 0.23130006 0.0085644722
-0.44029108 -0.012773931 0.020462513
-0.44135508 0.26135808 0.0070996284
-0.43995604 -0.099171937 0.024673462
-0.44559303 -0.15767699 0.02753067
-0.44582203 -0.099243939 0.024681568
-0.45265803 0.14518708 0.012771606
-0.45281503 0.18476707 0.010842323
-0.45185807 -0.056454957 0.022600651
-0.45311806 0.26126307 0.0071134567
-0.45772704 -0.056524932 0.02260828
-0.45790204 -0.012973964 0.020486355
-0.48679504 0.27268207 -0.33094168
-0.45804903 0.023793042 0.018693447
-0.45820203 0.061944067 0.01683569
-0.46441606 0.14507306 0.012786388
-0.46476403 0.23110008 0.0085935593
-0.46251306 -0.324817 0.035690308
-0.46318904 -0.15790993 0.027555466
-0.47029504 0.14501607 0.012794495
-0.47045705 0.18460506 0.010865688
-0.46883306 -0.21231598 0.030211449
-0.47617605 0.14495707 0.012802601
-0.48191407 0.11078405 0.014472485
-0.48222205 0.18449306 0.01088047
-0.48155007 0.023527026 0.018726349
-0.48170903 0.061688066 0.016866684
-0.48009303 -0.32509297 0.035718441
-0.48103508 -0.099691927 0.02473259
-0.48779604 0.11072206 0.014481544
-0.48708907 -0.056888998 0.022651672
-0.48742804 0.023458064 0.018734455
-0.48758903 0.061622083 0.016874313
-0.48690805 -0.099768937 0.02474165
-0.49204406 -0.27238494 0.033159256
-0.49253103 -0.158315 0.027598381
-0.49791005 -0.27247697 0.033168316
-0.50576401 0.18426305 0.010910511
-0.53387308 0.27486503 -0.30403852
-0.5113281 0.11046708 0.014511585
-0.51147711 0.14459503 0.012849331
-0.51185608 0.23067206 0.0086536407
-0.51059103 -0.057193935 0.022685528
-0.510782 -0.013614953 0.020560265
-0.51094401 0.023177028 0.018766403
-0.51736605 0.14453208 0.012856483
-0.51774704 0.23061603 0.0086603165
-0.51647007 -0.057272971 0.022693634
-0.51666403 -0.013688922 0.020568371
-0.51551509 -0.2727589 0.033196449
-0.529531 0.23050207 0.0086755753
-0.52966702 0.26059407 0.007209301
-0.52859211 0.022959054 0.018792629
-0.52701509 -0.32587188 0.035794258
-0.5272541 -0.27295095 0.033216476
-0.52777004 -0.15882796 0.027652264
-0.53542411 0.23044503 0.0086836815
-0.534109 -0.057511985 0.022719383
-0.53430808 -0.013917923 0.020595551
-0.53556108 0.26053804 0.0072164536
-0.53391302 -0.10041791 0.024810314
-0.54076505 0.11013407 0.014552593
-0.54681408 0.14421004 0.012896538
-0.54721403 0.23032808 0.0086984634
-0.54607809 -0.014074922 0.020610332
-0.552315 0.060855031 0.016964436
-0.55784905 -0.014233947 0.020629406
-0.55716205 -0.15927893 0.027699471
-0.56409502 0.060707033 0.016980648
-0.56249702 -0.27355093 0.033273697
-0.57080507 0.23008806 0.0087294579
-0.56837606 -0.27365392 0.033283234
-0.56866407 -0.21386498 0.030368328
-0.57612002 0.10971403 0.014602661
-0.57530308 -0.058096945 0.022782326
-0.57685208 0.26013708 0.0072693825
-0.58201504 0.10964108 0.014610291
-0.582183 0.14380205 0.012946606
-0.58237803 0.18345106 0.011012554
-0.58260608 0.22996408 0.0087456703
-0.58791208 0.10956806 0.01461935
-0.5882771 0.18338406 0.011021614
-0.58850801 0.22990108 0.0087532997
-0.58729708 -0.014644921 0.020673275
-0.59381104 0.10949504 0.014627457
-0.59441209 0.22983807 0.0087604523
-0.59297311 -0.058359921 0.022808552
-0.59319103 -0.014729917 0.020681381
-0.59219408 -0.21426696 0.030408382
-0.59275901 -0.10130197 0.024902344
-0.60008204 0.18324906 0.011036396
-0.62692904 0.27928108 -0.2487607
-0.59864807 -0.10139495 0.02491045
-0.60561001 0.10934508 0.014644623
-0.60396504 -0.21447295 0.03042841
-0.60453904 -0.10148889 0.024920464
-0.61151111 0.10927004 0.014652252
-0.61212707 0.22964507 0.0087852478
-0.61065006 -0.05862993 0.022836685
-0.61087406 -0.014987946 0.020709515
-0.611063 0.02185607 0.018912315
-0.61741209 0.10919303 0.014661312
-0.61803401 0.22958004 0.0087924004
-0.61543 -0.2745139 0.033364296
-0.61632311 -0.10167795 0.024939537
-0.62394404 0.22951406 0.0088014603
-0.62410104 0.25964606 0.007332325
-0.6228621 0.021687031 0.018930435
-0.62306106 0.059924066 0.017067432
-0.62104201 -0.3276189 0.035956383
-0.62191308 -0.160348 0.027803421
-0.62940109 0.14322406 0.013012409
-0.62833905 -0.0589059 0.022864342
-0.62856805 -0.015252948 0.020736694
-0.65570402 0.28067404 -0.23109531
-0.62896311 0.05984205 0.017076492
-0.62780607 -0.16044992 0.027813435
-0.6328131 -0.32785493 0.035977364
-0.63341105 -0.21500498 0.030478477
-0.64142704 0.18275803 0.01109457
-0.64036906 -0.015432954 0.020755291
-0.66717207 0.28123307 -0.22397947
-0.64056611 0.021428049 0.018958569
-0.64712501 0.14299703 0.013037682
-0.64459002 -0.3280949 0.035999298
-0.645491 -0.16076189 0.027843475
-0.65217507 -0.01561594 0.020773411
-0.6523751 0.021252036 0.018976688
-0.65048003 -0.32821697 0.036010265
-0.65170503 -0.10226697 0.024997234
-0.65894604 0.14284307 0.013054371
-0.65916407 0.18253803 0.011119366
-0.6580801 -0.015708923 0.020782471
-0.68433011 0.28207403 -0.21324635
-0.66467011 0.10856009 0.014730453
-0.66398501 -0.015801966 0.020792484
-0.69003808 0.28235507 -0.20965672
-0.66439903 0.059335053 0.017129421
-0.6635071 -0.10246998 0.025016308
-0.67030907 0.05924803 0.017138481
-0.70143509 0.28291708 -0.20245075
-0.67405009 -0.32871193 0.036054611
-0.68260407 0.14252704 0.013090611
-0.68170905 -0.016086936 0.020821571
-0.70712507 0.28319806 -0.19883871
-0.68191707 0.020799041 0.019022465
-0.67994606 -0.32883888 0.036064625
-0.68122005 -0.10277992 0.025046349
-0.6864841 -0.21601897 0.030570507
-0.69493306 0.22867906 0.0089006424
-0.69353008 -0.016279936 0.020840645
-0.69374204 0.020613074 0.019041538
-0.692698 -0.161632 0.027924538
-0.70535803 -0.016476929 0.020859241
-0.73548305 0.28460908 -0.1806674
-0.71010208 -0.21649295 0.030612469
-0.71835911 0.18176806 0.011205673
-0.74113607 0.28489107 -0.1770134
-0.72456205 0.22830808 0.0089426041
-0.72310603 -0.016777933 0.020888329
-0.72997606 0.14186406 0.013161659
-0.73049307 0.22823203 0.0089502335
-0.72947609 0.058341026 0.017231464
-0.72715306 -0.3298859 0.036153316
-0.7278291 -0.21685797 0.03064537
-0.72815502 -0.16231996 0.02798748
-0.75806105 0.28574103 -0.16600561
-0.73442209 -0.10375494 0.025137424
-0.74207103 0.18144304 0.011241436
-0.74253809 0.25827008 0.0074954033
-0.76368999 0.28602505 -0.16232157
-0.74828804 0.22800004 0.0089774132
-0.7693131 0.28630906 -0.15863132
-0.74724805 0.058055043 0.017260551
-0.74519908 -0.27719194 0.03360033
-0.7539351 0.18127704 0.011258602
-0.75422204 0.22792208 0.0089855194
-0.75111103 -0.2773239 0.033611298
-0.75962305 0.14142907 0.013205528
-0.75987005 0.18119305 0.011268616
-0.75836706 -0.061148942 0.023079395
-0.75886703 0.019537032 0.019146442
-0.75669611 -0.33057195 0.036211491
-0.75702608 -0.27745789 0.033622265
-0.765342 0.10707504 0.014885426
-0.766096 0.22776407 0.0090026855
-0.76365602 -0.16303891 0.028050423
-0.76402211 -0.104325 0.025188446
-0.77174008 0.18102407 0.011285305
-0.77072406 0.019332051 0.01916647
-0.76957607 -0.16316193 0.02806139
-0.77720904 0.10688806 0.014904499
-0.777426 0.14116007 0.013233662
-0.77767801 0.18093807 0.011294365
-0.79733801 0.28773105 -0.1400795
-0.77549911 -0.16328591 0.028072357
-0.78361809 0.18085206 0.011302471
-0.78410804 0.25773704 0.0075554848
-0.80292606 0.28801703 -0.13634872
-0.789083 0.10669804 0.014923573
-0.7898581 0.22744006 0.0090374947
-0.79005206 0.25765908 0.0075654984
-0.80850601 0.28830206 -0.13260937
-0.79393303 -0.061826885 0.023141384
-0.79421604 -0.018047929 0.021008492
-0.81408 0.28858805 -0.12886333
-0.79253507 -0.27827889 0.033691406
-0.793275 -0.16366297 0.028105259
-0.8011831 0.14079404 0.013270378
-0.80174601 0.22727603 0.0090565681
-0.79986501 -0.061941922 0.023151398
-0.80194211 0.25750107 0.0075826645
-0.81964803 0.28887403 -0.12511349
-0.80064011 0.057161033 0.017347336
-0.80712605 0.14070004 0.013280392
-0.80738604 0.18050003 0.011340618
-0.80657804 0.057058036 0.017357349
-0.81307101 0.14060605 0.013289452
-0.81202304 -0.018381953 0.021038532
-0.81384003 0.25734103 0.0075993538
-0.81226707 0.018591046 0.019237518
-0.81106305 -0.16404694 0.028139591
-0.81145108 -0.10527998 0.025273323
-0.81959009 0.22702408 0.0090823174
-0.8179611 -0.018494964 0.0210495
-0.83631611 0.28973305 -0.11381865
-0.81623411 -0.27884597 0.033739567
-0.82473302 0.10611308 0.01498127
-0.82496309 0.14041704 0.013308525
-0.82554007 0.22693908 0.0090913773
-0.82360911 -0.062412918 0.023194313
-0.82574201 0.25717807 0.0076174736
-0.82216203 -0.27898997 0.033751488
-0.82256305 -0.21894199 0.030824661
-0.83068001 0.10601306 0.014989376
-0.82984209 -0.018722951 0.02107048
-0.84739602 0.29030603 -0.10625553
-0.83034801 0.056640029 0.017397404
-0.82849503 -0.21907991 0.030836582
-0.82886302 -0.1644389 0.028172493
-0.83402407 -0.27928096 0.033774376
-0.84257901 0.10581106 0.015010357
-0.84281206 0.14012706 0.013337612
-0.842242 0.056426048 0.017417431
-0.84876406 0.14003003 0.013347626
-0.85499203 0.17976904 0.011415482
-0.85331905 -0.063019931 0.023248672
-0.86948407 0.29145706 -0.091047764
-0.85387611 0.017815053 0.019308567
-0.854141 0.056210041 0.017437458
-0.85145903 -0.33293694 0.036403656
-0.85261607 -0.16497499 0.028217316
-0.86094904 0.17967504 0.011425495
-0.8614831 0.25667804 0.0076713562
-0.86663103 0.13973308 0.013376236
-0.88049209 0.29203308 -0.083405495
-0.86333001 -0.33325094 0.036429405
-0.86412108 -0.21992797 0.030906677
-0.87234807 0.10529506 0.015058517
-0.87286901 0.17948508 0.011443615
-0.87319708 0.22623807 0.0091633797
-0.87116301 -0.063392937 0.023280621
-0.87147105 -0.019545972 0.02114439
-0.88598502 0.29232103 -0.079575539
-0.86926711 -0.33340889 0.03644228
-0.877424 -0.01966697 0.021154404
-0.87768507 0.017355084 0.019349575
-0.88512504 0.22605705 0.0091824532
-0.88534105 0.25633305 0.0077075958
-0.89075911 0.17919505 0.011471272
-0.89529109 -0.020032942 0.021187305
-0.895558 0.017002046 0.019382477
-0.894665 -0.1070779 0.025429249
-0.90061903 -0.10721296 0.025441647
