# .PCD v0.7 - Point Cloud Data file format
VERSION 0.7
FIELDS x y z
SIZE 4 4 4
TYPE F F F
COUNT 1 1 1
WIDTH 1
HEIGHT 1024
VIEWPOINT 0 0 0 1 0 0 0
POINTS 1024
DATA ascii
0.53944987 -0.88845712 -0.76689243
0.53346688 -0.75285417 -0.68444347
0.53071588 -0.69048113 -0.64651823
0.53240389 -0.88665515 -0.75971365
0.53009087 -0.83352512 -0.72743559
0.52537489 -0.88485819 -0.75255156
0.50601685 -0.59203213 -0.56888437
0.51262885 -0.74793512 -0.66344357
0.49291286 -0.44045609 -0.4711175
0.48885986 -0.50368816 -0.5035882
0.48619688 -0.43917209 -0.46452236
0.50219089 -0.82661611 -0.69913626
0.49740088 -0.8777222 -0.72405863
0.48504186 -0.74144214 -0.63565445
0.46073386 -0.29918116 -0.36256361
0.45802188 -0.23068911 -0.32118559
0.45666486 -0.36243314 -0.3950305
0.47451687 -0.81978613 -0.67108059
0.47333986 -0.9664641 -0.75358343
0.45005587 -0.36124414 -0.38858128
0.46965387 -0.87066919 -0.69580936
0.46638086 -0.96460313 -0.74644661
0.44102585 -0.29582018 -0.34343719
0.42666686 -0.085511148 -0.21112633
0.42026088 -0.084616125 -0.2050252
0.41033486 0.013713837 -0.14035654
0.41231388 -0.040890157 -0.17318344
0.42375287 -0.35652119 -0.36292124
0.43729788 -0.73025817 -0.58759022
0.40400887 0.014505863 -0.13438463
0.40266788 0.05208087 -0.11181021
0.40896586 -0.12440312 -0.21781921
0.40748188 -0.082835138 -0.19285154
0.41974688 -0.42652911 -0.39929247
0.41720685 -0.35534912 -0.35653639
0.43528587 -0.86196619 -0.66084051
0.42834085 -0.66735309 -0.54394627
0.39769486 0.01529485 -0.1284194
0.40257087 -0.12347317 -0.21170425
0.41541287 -0.48903614 -0.43110561
0.43179587 -0.95537513 -0.71098852
0.40604487 -0.22236019 -0.27105331
0.38860387 0.09677285 -0.07407856
0.41173086 -0.57205015 -0.47516537
0.41703787 -0.72553211 -0.56720638
0.38382986 0.054329872 -0.094080448
0.38065386 0.14764887 -0.038163185
0.37797385 0.22641885 0.0090417862
0.37612885 0.098181844 -0.062383652
0.38511086 -0.17015809 -0.22304344
0.38064286 -0.036681175 -0.1431284
0.37008086 0.27884883 0.045793533
0.39847088 -0.56926018 -0.4619956
0.39565387 -0.48511809 -0.41161728
0.38902187 -0.28699213 -0.29299545
0.38675585 -0.21928412 -0.25245619
0.40359688 -0.72240418 -0.55368757
0.36148387 0.35476786 0.096538544
0.39689785 -0.72084814 -0.54695129
0.39488986 -0.6598621 -0.51046658
0.37237087 -0.16822213 -0.21081638
0.35542485 0.35522383 0.1020875
0.38526386 -0.56648618 -0.44888449
0.39021087 -0.7192952 -0.54022741
0.36313587 -0.07667613 -0.15061522
0.35077286 0.31178784 0.081407547
0.34937587 0.35567784 0.10762453
0.37399486 -0.41789013 -0.35441828
0.38609585 -0.79812509 -0.58152628
0.35382786 0.020759881 -0.086998463
0.34975687 0.15090483 -0.0093274117
0.35813788 -0.11704016 -0.16923761
0.34730488 0.22929585 0.037456512
0.35684785 -0.075806141 -0.14463043
0.34333786 0.35613084 0.11315346
0.34088787 0.43446586 0.15991068
0.36530188 -0.34608716 -0.30593443
0.38100886 -0.84830111 -0.60566044
0.34120286 0.22986788 0.043111801
0.35056987 -0.074938118 -0.13865137
0.35886687 -0.34494418 -0.2996645
0.35484987 -0.21421415 -0.22170734
0.34027287 0.05950886 -0.053093433
0.33747485 0.15219486 0.0021333694
0.34703088 -0.16438216 -0.1864996
0.33650887 0.18420386 0.021205425
0.33355686 0.28199387 0.079473495
0.33519787 0.023070872 -0.069414616
0.34072587 -0.16342813 -0.18045044
0.32903486 0.23100483 0.054385662
0.32528585 0.35748386 0.12968969
0.34812388 -0.41302818 -0.32905531
0.35697287 -0.7115981 -0.50681734
0.35517788 -0.6510132 -0.47074652
0.33180988 -0.072349131 -0.1207943
0.32056186 0.31424588 0.10919046
0.31577685 0.47870886 0.20702934
0.34351987 -0.47483212 -0.36023235
0.32283387 0.024600863 -0.057744503
0.31913587 0.15411687 0.019243717
0.32674888 -0.11251915 -0.13925123
0.31690887 0.23213685 0.065620422
0.32557786 -0.071490169 -0.11486435
0.31544086 0.28354883 0.096180439
0.31330386 0.35837984 0.14066267
0.31107786 0.43635485 0.18701172
0.33526087 -0.41061717 -0.31644964
0.34376687 -0.7085492 -0.49354839
0.31666985 0.025362849 -0.051927567
0.32187787 -0.1605832 -0.1623702
0.31215286 0.18664086 0.043863773
0.30855086 0.31521988 0.12023354
0.30395287 0.47938186 0.21773863
0.33060986 -0.47229618 -0.34751463
0.34348586 -0.9320001 -0.6205554
0.32511786 -0.27623218 -0.23105955
0.33718488 -0.70703214 -0.48693657
0.30832785 0.10579687 0.0011644363
0.30482686 0.23326188 0.076809406
0.29922786 0.43710387 0.19778776
0.32417285 -0.47103316 -0.34117365
0.32244787 -0.40822119 -0.30389643
0.33061385 -0.70551819 -0.48033524
0.32895687 -0.64519614 -0.4445343
0.30437487 0.026879847 -0.040326595
0.30337888 0.063869834 -0.018391609
0.30937287 -0.15870017 -0.15037727
0.30805686 -0.10983616 -0.12140036
0.29880285 0.23382187 0.082391739
0.29396686 0.52016884 0.1888895
0.29331887 0.43747684 0.20316076
0.33284986 -1.0305572 -0.66739559
0.32243386 -0.64375216 -0.43801641
0.29400086 0.18845183 0.060747623
0.29965988 -0.026006162 -0.066327572
0.29061687 0.31667185 0.13672256
0.28833085 0.40330085 0.18805265
0.31352687 -0.55150312 -0.37770319
0.32342887 -0.92672914 -0.60003853
0.30968288 -0.40583712 -0.29139137
0.31751186 -0.7025041 -0.46717739
0.29006886 0.10783386 0.018269539
0.29564986 -0.10806012 -0.10955429
0.28796986 0.18905288 0.066355705
0.29459485 -0.067233145 -0.085382462
0.29350787 -0.025200129 -0.060495377
0.28546086 0.28611183 0.12382174
0.30942386 -0.64087611 -0.4250164
0.28508088 0.066023827 -0.0011854172
0.28275487 0.15791386 0.053177357
0.28843185 -0.066389143 -0.079519272
0.28736886 -0.024397135 -0.054677486
0.27949688 0.28661984 0.12932062
0.30064386 -0.54882914 -0.3649292
0.28449586 -0.15496415 -0.12652636
0.28228086 -0.065547168 -0.07366848
0.28124088 -0.023596168 -0.048868656
0.27084687 0.52076787 0.19914436
0.30600485 -1.0231221 -0.63971758
0.29795086 -0.69801515 -0.44753838
0.27071387 0.15916687 0.064405441
0.26994586 0.19084388 0.083116531
0.26883686 0.23660183 0.11014271
0.27512488 -0.022797167 -0.043073654
0.26759988 0.28763288 0.14028454
0.26392287 0.43932685 0.22988462
0.29932788 -1.0212762 -0.63283634
0.29145586 -0.69652718 -0.44101858
0.26470786 0.15978986 0.070005417
0.27097386 -0.10453612 -0.085997581
0.27000988 -0.063870132 -0.061997414
0.25931588 0.52106583 0.20426369
0.26093286 0.31906486 0.16400862
0.25990587 0.36235183 0.1895566
0.25888786 0.40530086 0.21490479
0.25830588 0.48019886 0.22941256
0.27326888 -0.20135516 -0.14313936
0.28497088 -0.69504315 -0.43450928
0.25871387 0.16041183 0.075594425
0.26483285 -0.10366112 -0.080136299
0.25798187 0.19203085 0.094241619
0.26389188 -0.063034117 -0.056179523
0.25355786 0.52121389 0.20681953
0.25642985 0.54944289 0.13374138
0.27167088 -0.39876515 -0.2541666
0.27005985 -0.32926816 -0.2131834
0.25563186 0.032867849 0.0056505203
0.24703586 0.48022684 0.22942781
0.26239288 -0.26576513 -0.17032146
0.27204287 -0.69208819 -0.4215374
0.24877787 0.07028085 0.032942772
0.24784386 0.11252487 0.057815552
0.25168785 -0.061371148 -0.044573307
0.24324687 0.32048583 0.18026161
0.24134587 0.40648887 0.23089981
0.24058786 0.44078887 0.25109577
0.26228786 -0.54089409 -0.32691526
0.25909486 -0.39643317 -0.24185658
0.24276586 0.070982873 0.038592815
0.23631586 0.52165687 0.21447849
0.23898886 0.54985386 0.14157867
0.23644187 0.36408788 0.21103573
0.23576687 0.48025286 0.2294445
0.25593686 -0.5395841 -0.32062244
0.26395386 -0.9111852 -0.53924751
0.25132886 -0.32598716 -0.1949563
0.24855687 -0.19749016 -0.11935854
0.24037787 -0.10018617 -0.056800365
0.22969986 0.40727484 0.2415185
0.24786887 -0.45615417 -0.26606321
0.25740787 -0.90948218 -0.53256035
0.24510686 -0.32489914 -0.18890333
0.25546286 -0.81707209 -0.4782362
0.24379787 -0.26268011 -0.15232658
0.22738586 0.55012584 0.1467967
0.22565186 0.32189488 0.19642973
0.22389287 0.40766686 0.24681234
0.22478987 0.073079884 0.055484772
0.22918187 -0.14670616 -0.073516369
0.22741087 -0.058070123 -0.021492481
0.24636787 -1.0066991 -0.57828331
0.24435687 -0.90609115 -0.51923227
0.23407987 -0.39180917 -0.21737719
0.24251387 -0.81388217 -0.46511126
0.23874687 -0.62534517 -0.35445023
0.21881887 0.073774874 0.061093807
0.22309087 -0.14580113 -0.067682266
0.22215387 -0.097604156 -0.039415359
0.21339287 0.52224183 0.22466946
0.21082486 0.48464486 0.30206537
0.21354787 0.038002849 0.04532671
0.20968586 0.24205083 0.16490269
0.20767286 0.52238685 0.22721338
0.20872886 0.29261786 0.19453573
0.22163987 -0.38951617 -0.2052083
0.22033487 -0.32057911 -0.16481066
0.20690787 0.075159848 0.072285652
0.20613587 0.11712784 0.096859455
0.20195986 0.52253187 0.2297554
0.20423886 0.55066586 0.15721273
0.20076087 0.40922284 0.26789951
0.21181987 -0.19177109 -0.084019184
0.20488286 -0.14310116 -0.050244331
0.19625087 0.52267683 0.23229647
0.21180886 -0.53051919 -0.27692366
0.21840286 -0.89936715 -0.49273729
0.21585986 -0.75714117 -0.40952063
0.20573586 -0.19082612 -0.078167439
0.21340486 -0.61981612 -0.32917166
0.19214086 0.24365783 0.18113947
0.19073486 0.32468086 0.22850847
0.19573186 0.59063983 0.060136795
0.18999186 0.36750385 0.25354576
0.18793687 0.48592687 0.32278442
0.21520087 -1.0853372 -0.59585047
0.20187487 -0.31736916 -0.14686155
0.20080286 -0.25558215 -0.11073732
0.19966286 -0.1898852 -0.072329521
0.18841787 0.11907387 0.11344147
0.18759887 0.16774684 0.14187574
0.18707287 0.19901687 0.16014338
0.19131687 -0.053186119 0.0128088
0.18484786 0.52296484 0.2373724
0.18546386 0.29457486 0.21596766
0.18494986 0.32514083 0.23382235
0.19930586 -0.52796119 -0.26454735
0.19360086 -0.18894619 -0.066499233
0.17915186 0.52310884 0.23990965
0.17654887 0.48656285 0.3330946
0.20069286 -0.99421614 -0.53128719
0.19548386 -0.67470211 -0.34477663
0.17665486 0.12036288 0.12444639
0.18075687 -0.13953418 -0.027143478
0.17871687 -0.010302126 0.048233509
0.18556386 -0.4441281 -0.20480537
0.19559586 -1.0797431 -0.5755434
0.18351386 -0.31418616 -0.12901354
0.17197986 0.043040872 0.084496498
0.17004886 0.16954488 0.15822458
0.16888587 0.24577987 0.2026577
0.17233686 0.59111285 0.070863724
0.16642886 0.41132787 0.29646158
0.16720687 0.44197986 0.2667675
0.17939687 -0.44294316 -0.19874334
0.17547686 -0.18614417 -0.049077511
0.18199186 -0.61298913 -0.29785156
0.16746387 -0.049974144 0.035468578
0.16392286 0.55159986 0.17537737
0.15972486 0.48707587 0.34122658
0.18258986 -1.0760412 -0.56207657
0.17849387 -0.79819816 -0.40027046
0.16945787 -0.18521613 -0.043291569
0.16209486 -0.089146137 0.017848492
0.16094087 -0.008018136 0.065058708
0.17610386 -1.0741982 -0.55536366
0.17345187 -0.8877812 -0.44688463
0.15258886 0.17132783 0.17448854
0.15614687 -0.088313162 0.023517609
0.15503687 -0.007261157 0.070646763
0.15074886 0.52382183 0.25256681
0.15244587 0.55186385 0.18055344
0.15655787 0.61980587 0.0060954094
0.14986086 0.37043387 0.29025936
0.14971386 0.41135985 0.29649258
0.16707987 -0.88614517 -0.4403863
0.14845186 0.045877874 0.10665846
0.15083787 -0.13512915 0.0014925003
0.14578786 0.24787986 0.22402239
0.14902186 0.59158087 0.081533432
0.15067187 0.61991084 0.0088233948
0.14722386 0.66948688 0.1607585
0.14481686 0.44201887 0.26681376
0.15232186 -0.24763316 -0.063872337
0.15146187 -0.18244416 -0.025998592
0.15784086 -0.66622609 -0.30707836
0.14099987 0.17250884 0.18528175
0.13940486 0.29842788 0.2583847
0.14974587 -0.51787013 -0.21552038
0.15562487 -0.98197812 -0.48496056
0.14708586 -0.3078981 -0.093621254
0.14548486 -0.18152517 -0.020255566
0.13674887 0.047285855 0.11768055
0.13580686 0.12482083 0.16265965
0.13429886 0.24892187 0.23464966
0.13526987 0.55225682 0.18830681
0.13280687 0.37167385 0.30585861
0.14538486 -0.66343218 -0.29460859
0.13199587 -0.045220137 0.069149494
0.12763387 0.32967484 0.28645849
0.14386287 -1.0650601 -0.52200365
0.12368887 0.17426783 0.20140076
0.12656286 -0.08418113 0.051706791
0.12284686 0.24995786 0.24524069
0.12384087 0.55251789 0.19346666
0.12229186 0.29985183 0.27413845
0.12420487 0.62604582 0.17450857
0.12186187 0.41140586 0.2965498
0.12481287 0.70102185 0.14284754
0.12067387 0.48815385 0.3583827
0.13044886 -0.43358415 -0.15066862
0.13745086 -1.0632491 -0.51537228
0.13539086 -0.87803119 -0.40809441
0.12977186 -0.37271518 -0.11541319
0.13438387 -0.7874791 -0.35564566
0.12833686 -0.24372309 -0.040700436
0.11926886 0.049381852 0.13413954
0.11888786 0.08531183 0.15493345
0.11713587 0.25047386 0.25052261
0.11682086 0.52466583 0.26770544
0.11813387 0.55264783 0.19606256
0.11660687 0.30032384 0.27937269
0.11874387 0.59498686 0.16277838
0.11629187 0.41141486 0.29656267
0.11683586 0.44206086 0.2668767
0.13186887 -1.1384351 -0.55331564
0.13013586 -0.97509319 -0.45877934
0.12301487 -0.30376214 -0.070244312
0.11219686 0.17543286 0.21209955
0.11188486 0.20633888 0.22997379
0.11118287 0.52480483 0.27022457
0.11286087 0.59546185 0.17409849
0.10955787 0.48845786 0.36327171
0.12544087 -1.1365492 -0.54662657
0.12138586 -0.73482913 -0.3143115
0.11575387 -0.17696816 0.0083045959
0.10855386 -0.042092144 0.091402531
0.10554687 0.52494484 0.27274179
0.10756487 0.70123786 0.15108871
0.10564387 0.44207585 0.26690245
0.11902287 -1.1346693 -0.53995228
0.11746187 -0.9716801 -0.4457674
0.10117786 0.12857687 0.1950388
0.10307886 -0.08091414 0.074075699
0.10271887 -0.041316152 0.096939564
0.10104086 0.55303484 0.20377159
0.099607863 0.30173284 0.29502058
0.10112887 0.62693584 0.19819546
0.10090686 0.67106885 0.2123127
0.10182586 0.70130885 0.15382957
0.098458864 0.48876086 0.36815548
0.10507187 -0.30069011 -0.052825451
0.10943287 -0.78144711 -0.33042145
0.10393386 -0.17516309 0.019655704
0.093702868 0.33233786 0.3176074
0.093473867 0.37383685 0.33304358
0.10020987 -0.42783815 -0.12098932
0.10483587 -0.96828514 -0.4328084
0.099690869 -0.36726612 -0.086041451
0.090333864 0.052839875 0.16137743
0.088721864 0.25303388 0.27679157
0.088444866 0.41145086 0.29662752
0.089523867 0.67128783 0.21940374
0.088859864 0.44209585 0.26694441
0.087378867 0.48906285 0.37303448
0.094193868 -0.42669815 -0.11508656
0.093163863 -0.29865617 -0.041268349
0.092674866 -0.23793811 -0.0062632561
0.083635867 0.17831886 0.23868656
0.085927866 -0.12564713 0.063578606
0.085273869 -0.03899914 0.11349344
0.083991863 0.55341983 0.21148539
0.083264865 0.44210187 0.26696062
0.088792868 -0.50556618 -0.1552844
0.092903867 -1.0507071 -0.46932745
0.092256866 -0.96491116 -0.41990328
0.086767867 -0.23698312 -0.00056028366
0.086280867 -0.17247313 0.036603451
0.089452863 -0.59307009 -0.20569324
0.078315869 0.55354786 0.21405745
0.081294864 -0.29663318 -0.029751301
0.084315866 -0.72616118 -0.27700138
0.074256867 -0.12395215 0.074735641
0.072646864 0.55367482 0.2166276
0.070788868 0.48951286 0.38034773
0.076209866 -0.42329818 -0.097444534
0.080280863 -1.0471692 -0.45628834
0.079721868 -0.96155411 -0.40704536
0.075815864 -0.36296016 -0.062738419
0.078176863 -0.72473115 -0.27082634
0.067146868 0.091211855 0.20347738
0.066611864 0.18003285 0.25452757
0.066160865 0.25505787 0.29764843
0.067672864 0.0038538575 0.15327072
0.066236869 0.52590984 0.29033375
0.066480868 0.44211784 0.26700544
0.070716865 -0.50193912 -0.13743353
0.074446864 -1.1216581 -0.4936142
0.073987864 -1.0454071 -0.44978952
0.069468863 -0.2946201 -0.018277645
0.061219867 0.13288283 0.23238564
0.060956866 0.18060088 0.25978947
0.062150866 -0.035938144 0.13543177
0.059007864 0.53510386 0.46286678
0.061321866 0.55392885 0.22175837
0.060105868 0.33495986 0.34843969
0.061397865 0.59714484 0.2138586
0.061280865 0.62797987 0.22600174
0.059298865 0.49263686 0.43247271
0.064712867 -0.50073713 -0.13150644
0.068125866 -1.1198201 -0.48704863
0.067234866 -0.9582172 -0.39423847
0.065932862 -0.72188109 -0.25851059
0.056394868 -0.035178125 0.1408906
0.054538865 0.33539283 0.35354853
0.055034865 0.41148487 0.2967205
0.055579867 0.67174888 0.23430061
0.053939864 0.49202085 0.42212152
0.060520865 -0.85901719 -0.33188152
0.057381865 -0.23224515 0.02780056
0.059444867 -0.64430219 -0.20866442
0.059155867 -0.58661216 -0.17555857
0.050464865 0.0060248375 0.16953373
0.050394867 0.70194584 0.17842245
0.051387865 0.75156689 0.052009583
0.052377865 -0.41880614 -0.074074268
0.053950865 -0.76811916 -0.27437925
0.053729866 -0.7190482 -0.24624062
0.053386867 -0.64296311 -0.20261145
0.044399865 0.093788862 0.2248106
0.044045866 0.18229687 0.27552462
0.043746866 0.25706083 0.31836271
0.043549865 0.30634987 0.34660578
0.038594864 0.13530785 0.25352573
0.038166866 0.25755787 0.32351875
0.038717866 0.62825584 0.23329067
0.038107865 0.37389386 0.33319378
0.040314864 -0.35658914 -0.028108597
0.039869867 -0.22943312 0.044694424
0.039645866 -0.16540414 0.081354618
0.033189867 0.059617877 0.21513939
0.032961864 0.13590986 0.25878668
0.032595865 0.25805384 0.32866573
0.032093868 0.53307486 0.42458248
0.033092868 0.62827384 0.23374462
0.032571867 0.37389785 0.33321047
0.033999868 0.75171584 0.060481548
0.036769867 -1.0503561 -0.46853447
0.034052867 -0.22850114 0.050303459
0.027141865 0.21447986 0.30861378
0.026563866 0.56455088 0.44116259
0.026909865 0.30771184 0.36191177
0.027662866 0.70222384 0.18929672
0.026689867 0.45174485 0.41225672
0.026822865 0.48962185 0.38182735
0.028710866 -0.41436416 -0.050876617
0.030998867 -1.1441922 -0.57522964
0.030159866 -0.95524913 -0.38299131
0.028561866 -0.35448712 -0.016646385
0.028394867 -0.28766209 0.02155447
0.029124865 -0.5802421 -0.14570427
0.021499867 0.37390384 0.33324575
0.021155866 0.42110485 0.43152666
0.022447865 -0.2266441 0.061496735
0.016117865 0.13770783 0.2745204
0.016046867 0.18509287 0.30156755
0.015806867 0.53141385 0.39334059
0.016224867 0.62827587 0.23373556
0.015853865 0.48923585 0.37533855
0.018425865 -1.1530082 -0.60707521
0.017617866 -0.8507641 -0.29859352
0.017385866 -0.71064109 -0.20971346
0.010444865 0.21606988 0.32410145
0.010648865 0.011020839 0.20714855
0.010351865 0.30906284 0.37713957
0.010365865 0.33673388 0.3692894
0.010619865 0.62789989 0.22354078
0.011556865 -0.85437912 -0.31329441
0.010819865 -0.16106313 0.10899973
0.011233865 -0.57646114 -0.1279254
0.0050188652 -0.028427124 0.18960047
0.0049988655 0.01172787 0.21248579
0.0052078655 -0.40996915 -0.027849197
0.0056608655 -1.0711982 -0.54633427
0.0055708652 -0.9708721 -0.44361258
0.0051788655 -0.35032016 0.006146431
0.0053568655 -0.70786911 -0.19763041
-0.00064413465 0.098861873 0.26703548
-0.00064413465 0.21712285 0.33438349
-0.00064413465 -0.027686119 0.19496775
-0.00064413465 0.37391284 0.33331776
-0.00064413465 0.70256788 0.20284843
-0.00064413465 -0.28277212 0.049697399
-0.00064413465 -0.75956112 -0.2381916
-0.00064413465 -0.15934211 0.11999035
-0.0063371346 -0.11234313 0.15172863
-0.0061521344 0.26149088 0.36446047
-0.0061471346 0.33673882 0.36934566
-0.0062771346 0.62778282 0.22034836
-0.0064001344 0.75205785 0.080203533
-0.0069741346 -1.0796771 -0.57794619
-0.0063921344 -0.22204417 0.089301586
-0.0065661347 -0.57271212 -0.11024761
-0.011694135 0.21817088 0.34463263
-0.011897135 0.62808686 0.22860146
-0.011573135 0.41987386 0.41421556
-0.012315135 -0.40670413 -0.010687351
-0.017322134 0.14126086 0.30574656
-0.017207135 0.21869284 0.34974146
-0.017141134 0.26246083 0.37460947
-0.017510135 0.014533877 0.23374081
-0.017155133 0.33674085 0.36938477
-0.017505134 0.67179489 0.23562241
-0.018047133 -0.34619719 0.028777599
-0.017948134 -0.27987009 0.066462517
-0.017765135 -0.15677911 0.13640261
-0.022771135 0.18894684 0.33766174
-0.022711134 0.21921283 0.35484552
-0.023115134 0.015231848 0.2390337
-0.022421135 0.38203084 0.43797541
-0.025356134 -0.87643415 -0.40286541
-0.023580134 -0.21931416 0.10586643
-0.028280133 0.18949187 0.34278345
-0.028097134 0.26342684 0.38472843
-0.028809134 -0.024015129 0.22165442
-0.028282134 0.55977684 0.34245348
-0.028146135 0.60379982 0.37353754
-0.028839134 0.70286685 0.21473551
-0.029438134 -0.2779482 0.077590466
-0.029133134 -0.15508109 0.14729643
-0.034529135 -0.06203413 0.20499754
-0.033691134 0.22024983 0.36502457
-0.033668134 0.33674085 0.3694458
-0.035109133 0.75229883 0.094208717
-0.037871134 -0.88392514 -0.43324757
-0.035363134 -0.34313315 0.045642376
-0.037004136 -0.7239061 -0.2675786
-0.036185134 -0.57295209 -0.11129332
-0.039696135 0.068165839 0.2836585
-0.039575133 0.10321385 0.30351257
-0.039435133 0.14359784 0.32638836
-0.039017133 0.26438683 0.39481163
-0.039017133 0.31061286 0.39477253
-0.040035132 0.67156786 0.22817039
-0.040133134 0.70279789 0.21207857
-0.040681135 -0.2166062 0.12234354
-0.045100134 0.10382885 0.30868673
-0.045750134 -0.060515165 0.21566153
-0.044636134 0.22128087 0.37517071
-0.044155136 0.34299785 0.44407082
-0.045769133 0.62750089 0.21286058
-0.045748133 0.67119682 0.21593475
-0.047525134 -0.48206812 -0.038662434
-0.046858136 -0.34110516 0.056837559
-0.046598133 -0.2750842 0.094207764
-0.050618134 0.10444283 0.3138566
-0.050439134 0.14475787 0.33665657
-0.051176134 -0.021112144 0.24284077
-0.049982134 0.31060988 0.39481544
-0.056848135 -0.89529914 -0.4793334
-0.055994134 -0.79072911 -0.3705492
-0.056298133 0.070097864 0.2992568
-0.056548133 0.019374847 0.27058935
-0.054992136 0.34339684 0.44891071
-0.057147134 0.62709385 0.20194578
-0.055735134 0.44852486 0.36376476
-0.056005135 0.48668286 0.33285952
-0.059486136 -0.48757619 -0.066004276
-0.058316134 -0.33908612 0.067995548
-0.061625134 0.10566485 0.32416439
-0.061153132 0.19273084 0.37333441
-0.062513135 -0.058251143 0.23159075
-0.060754135 0.26629287 0.4148798
-0.061882135 0.52628481 0.29731655
-0.061616134 0.60177284 0.32505369
-0.061573133 0.48648286 0.32956982
-0.068583131 -0.79783612 -0.40067244
-0.068011135 -0.74080414 -0.34114933
-0.06301114 -0.15004319 0.17975044
-0.067135133 -0.65335613 -0.24988556
-0.067321137 0.07137686 0.30961037
-0.067115135 0.10627383 0.32930374
-0.066877134 0.14648587 0.35199738
-0.067620136 0.02074188 0.28103542
-0.067740135 0.55623782 0.26955557
-0.065929137 0.34285587 0.44256735
-0.068436131 0.67080587 0.20315361
-0.074292131 -0.74423116 -0.35605526
-0.072614133 -0.59092909 -0.19580364
-0.072597131 0.10688084 0.3344388
-0.072713137 0.63160288 0.32426357
-0.077611133 -0.49593312 -0.10745049
-0.079195134 -0.056004167 0.24743843
-0.078641132 0.60042185 0.29278374
-0.077631131 0.41708386 0.37552071
-0.083702132 -0.49874312 -0.12138033
-0.082567133 -0.41019017 -0.028510571
-0.086936131 -0.75113612 -0.38607121
-0.083238132 0.14819986 0.36726046
-0.085076131 -0.10116017 0.22685766
-0.084454134 -0.016816139 0.27434874
-0.084162131 0.022778869 0.29664373
-0.085697137 0.67008388 0.17941761
-0.083497137 0.44742584 0.34744453
-0.083904132 0.48567885 0.31637764
-0.090554133 0.74734783 -0.19161654
-0.088308133 0.19539183 0.39856482
-0.088072136 0.22535288 0.41542053
-0.087786131 0.26828086 0.43595552
-0.089067131 0.44720384 0.34417057
-0.089501135 0.48547587 0.31307268
-0.092599131 -0.27568418 0.091225624
-0.096178137 -0.099595129 0.23744774
-0.095475137 -0.015399158 0.28477955
-0.099691138 -0.35145313 0.00066280365
-0.097520135 -0.21264011 0.14695072
-0.10171613 -0.098816156 0.24273252
-0.10122614 0.52501386 0.27395535
-0.098877132 0.34121686 0.42346764
-0.10109214 0.63004589 0.28244257
-0.099834137 0.41613585 0.36252356
-0.10832114 -0.51011819 -0.17770052
-0.10451014 -0.28027612 0.064912796
-0.11351413 -0.82325619 -0.50823641
-0.10228113 -0.14589709 0.2067585
-0.10530414 0.11049086 0.36505556
-0.10412713 0.26826388 0.43603277
-0.10727813 0.55507284 0.24599171
-0.10489114 0.37823784 0.3899188
-0.11091714 0.66546082 0.026526451
-0.11219814 0.69613987 -0.050678253
-0.11454014 -0.51299411 -0.19192839
-0.12401913 -1.053688 -0.76359844
-0.11628514 -0.61254412 -0.29718256
-0.11033314 0.15102786 0.39253473
-0.11155614 0.026137829 0.32247877
-0.11043514 0.37797984 0.38669062
-0.11802113 0.69620788 -0.047884464
-0.11651514 -0.28490919 0.038385391
-0.12660414 -0.83067816 -0.53959227
-0.12386814 -0.68269414 -0.38287449
-0.11572614 0.15158886 0.39756346
-0.11525013 0.19801784 0.4235878
-0.11494313 0.22785485 0.44031239
-0.11450014 0.27097183 0.4644866
-0.11843614 0.62882787 0.24973249
-0.11700613 0.44608885 0.32775354
-0.11757913 0.48445785 0.29649067
-0.12705614 -0.51878709 -0.22057247
-0.13529314 -0.94247812 -0.67000055
-0.12399613 -0.36143118 -0.053656578
-0.13030714 -0.68603116 -0.39797544
-0.12154213 0.11227483 0.38025379
-0.12296713 -0.012539148 0.30599356
-0.12425914 0.62841785 0.23875046
-0.12154213 0.37746185 0.38022375
-0.12965514 0.69634384 -0.042301655
-0.13151214 -0.43136317 -0.13900232
-0.12861913 -0.2895841 0.011636734
-0.12727113 -0.22347111 0.081881523
-0.12596813 0.19905883 0.43354034
-0.12563413 0.22884685 0.45021343
-0.12877513 -0.014248133 0.29370451
-0.12950914 0.52409285 0.25716877
-0.12606114 0.31353086 0.42892265
-0.12885313 0.48404685 0.28983355
-0.14877914 -0.95061511 -0.70280838
-0.13553713 -0.057643175 0.23694181
-0.13085213 0.27056587 0.46056461
-0.13518314 0.52390784 0.25380039
-0.13203214 0.33955383 0.40425873
-0.14126913 0.69647884 -0.036725521
-0.14603013 -0.5275802 -0.26400423
-0.14400214 -0.4367792 -0.16721344
-0.13820514 0.079054832 0.37228251
-0.13721713 0.15381986 0.41760445
-0.13665213 0.20009488 0.44346046
-0.14143313 -0.05946213 0.22438145
-0.14045914 -0.017690122 0.26898336
-0.13946414 0.025022864 0.3145895
-0.14140514 0.55405784 0.22565651
-0.14215514 0.59615386 0.19128275
-0.13891713 0.41445386 0.33965635
-0.14706914 0.69654584 -0.033941269
-0.14695914 -0.29667515 -0.028902531
-0.14308414 0.11456686 0.39985037
-0.14735213 -0.061289132 0.21177053
-0.14160514 0.23032486 0.46500254
-0.14711413 0.55388689 0.22225666
-0.15286513 0.69661283 -0.031157494
-0.15312314 -0.29906112 -0.042527199
-0.15150313 -0.23231012 0.028862476
-0.16127314 -0.63488311 -0.40169144
-0.14884713 0.11312288 0.38791656
-0.15457113 -0.11362213 0.14500952
-0.15329613 -0.063125134 0.19910669
-0.15364313 0.59585685 0.18440151
-0.14941013 0.37615785 0.3640027
-0.15073113 0.44473186 0.30794334
-0.15147313 0.48321885 0.27648067
-0.16293713 -0.44499916 -0.20998621
-0.17611913 -0.9671331 -0.76933765
-0.16953713 -0.70639712 -0.49001741
-0.15351413 0.15423185 0.42160654
-0.15261814 0.20163888 0.45829058
-0.15221314 0.23130488 0.47483253
-0.15794514 0.52316082 0.24029446
-0.15425314 0.33843184 0.39139175
-0.15637313 0.44450384 0.30463171
-0.16930114 -0.4477641 -0.22436523
-0.18303214 -0.97131413 -0.78616238
-0.15927613 0.15286887 0.40975857
-0.16410613 -0.024666131 0.2189374
-0.16293314 0.018431842 0.2652626
-0.16428113 0.55337286 0.21203136
-0.16059913 0.37563187 0.35749149
-0.18696813 -0.86498612 -0.68426657
-0.18533914 -0.80508512 -0.61988258
-0.16626513 0.10875386 0.3518424
-0.16506013 0.15149885 0.39786339
-0.18211113 -0.4533332 -0.25331163
-0.17613414 -0.24131209 -0.025044441
-0.18953913 -0.71680218 -0.53696728
-0.17039613 0.31117785 0.40334082
-0.17735213 0.62495983 0.14626455
-0.17265314 0.41298985 0.31992769
-0.17586714 0.70246482 0.2011385
-0.19125614 -0.54858512 -0.36757946
-0.20396213 -0.9839862 -0.83712244
-0.18654713 -0.38719016 -0.19352722
-0.19626713 -0.7203061 -0.55276537
-0.17799114 0.10580987 0.3275547
-0.17669614 0.14874083 0.37392855
-0.18208814 -0.029979169 0.18087339
-0.18247214 0.59510785 0.16713858
-0.19064613 -0.3136062 -0.12550545
-0.20763813 -0.87676615 -0.7338376
-0.18860213 -0.24587518 -0.052340508
-0.20093614 -0.65463513 -0.49388838
-0.18099913 0.19700086 0.41561079
-0.18945514 -0.074307144 0.12205267
-0.18216214 0.33701384 0.37523556
-0.18394613 0.41249686 0.31332541
-0.19265014 -0.17679614 0.011157513
-0.19556713 -0.076200128 0.10902643
-0.19424213 0.66923684 0.15366936
-0.21105814 -0.55780214 -0.41294861
-0.20582613 -0.39515311 -0.23666334
-0.21962014 -0.82396311 -0.70142221
-0.19887114 -0.1789301 -0.0023155212
-0.19431113 0.37403786 0.33788157
-0.19603813 0.44289187 0.2813468
-0.21771714 -0.5609042 -0.42820644
-0.20511813 -0.18107516 -0.015846252
-0.20171814 0.09984386 0.27839661
-0.20023814 0.14315283 0.32549477
-0.19829713 0.30968285 0.38725138
-0.19898114 0.33615583 0.36550474
-0.20642014 0.62428385 0.12879276
-0.19995214 0.37376985 0.33460236
-0.20093213 0.41175386 0.3033967
-0.20635113 0.66854185 0.13099146
-0.20272914 0.48132685 0.24624062
-0.23355213 -0.8316471 -0.73457336
-0.21586913 -0.13362014 0.013315678
-0.21146113 0.59434986 0.1497817
-0.21225214 0.62414783 0.12528753
-0.20660713 0.41150486 0.30008078
-0.22263913 -0.32603818 -0.19628334
-0.23726313 -0.74168319 -0.64904737
-0.21033013 0.19051284 0.35575342
-0.22026113 -0.083858132 0.056380749
-0.21727814 0.59419686 0.14630079
-0.23446113 -0.47614318 -0.37165642
-0.21626413 0.18919784 0.34364271
-0.21511014 0.30877787 0.37756157
-0.21690813 0.37296185 0.3247447
-0.23562613 -0.33109218 -0.22502327
-0.22728214 0.055576861 0.18663263
-0.23276113 -0.08773917 0.029725552
-0.22149013 0.33500087 0.35248375
-0.25145313 -0.5766421 -0.50553751
-0.26416212 -0.90905517 -0.86947441
-0.26179913 -0.84724718 -0.8018055
-0.22820413 0.18655187 0.31926966
-0.23351814 0.55127788 0.17080736
-0.26894113 -0.85119611 -0.81881046
-0.23278113 0.33441883 0.34595442
-0.23601013 0.44125286 0.25789356
-0.25846514 -0.41694611 -0.35449219
-0.25251913 -0.26932818 -0.19232845
-0.24023713 0.18388283 0.29470634
-0.25386712 -0.14606017 -0.06836462
-0.24990213 -0.050079167 0.037252426
-0.26517314 -0.41972917 -0.36951447
-0.26193514 -0.34134513 -0.28325844
-0.27938312 -0.76370519 -0.74802923
-0.25000113 0.52010083 0.18570757
-0.24529314 0.37160286 0.30824661
-0.24650313 0.40974486 0.2767725
-0.24871713 0.47960985 0.2191205
-0.26858214 -0.34393817 -0.29797745
-0.26562715 -0.27415115 -0.22105026
-0.28348714 -0.69591016 -0.68595123
-0.26674613 -0.15028316 -0.096057415
-0.26062214 -0.00912714 0.059802532
-0.26056212 0.66638386 0.061324596
-0.26045614 0.69893187 0.064015388
-0.25323614 0.44054186 0.24779081
-0.30056813 -0.9299112 -0.95689726
-0.26073414 0.12875086 0.20098972
-0.27322513 -0.15241009 -0.1099906
-0.25701815 0.21241587 0.29352856
-0.25494114 0.25915986 0.34522867
-0.26893014 -0.055736125 -0.0030646324
-0.25543815 0.33324784 0.33285666
-0.26670313 0.69863188 0.052375793
-0.26436815 0.75249088 0.11051464
-0.28547412 -0.4281581 -0.41498327
-0.28196514 -0.34916312 -0.32761049
-0.26310414 0.21112686 0.2811656
-0.26744613 0.51951289 0.17536974
-0.31250313 -0.87531716 -0.92256165
-0.28550214 -0.28147012 -0.26460838
-0.27519313 0.081303835 0.12610674
-0.26811513 0.37050384 0.29498768
-0.27674913 0.75210989 0.088994503
-0.28873813 -0.20987111 -0.19705439
-0.31537813 -0.78256911 -0.83266544
-0.27935815 0.12430388 0.16264677
-0.29282713 -0.15884811 -0.1521492
-0.29029614 -0.10564715 -0.093003273
-0.27249715 0.33236188 0.32299662
-0.27383813 0.37022686 0.29166269
-0.31409514 -0.60595518 -0.64922523
-0.30948213 -0.5089702 -0.54140139
-0.28968912 0.039037883 0.056470394
-0.28561515 0.12280887 0.14976454
-0.29941612 -0.16101414 -0.16632223
-0.28151113 0.20722485 0.24377537
-0.29467013 -0.063400149 -0.057612419
-0.28094813 0.40821186 0.25665855
-0.29026014 0.66580588 0.043382645
-0.28348213 0.47829986 0.19862843
-0.30337712 -0.10972816 -0.12091541
-0.28769413 0.20591187 0.23121262
-0.29193312 0.54948485 0.13604879
-0.28529912 0.36967286 0.28500748
-0.28786013 0.43910384 0.22748852
-0.32836312 -0.61264712 -0.68196821
-0.32351813 -0.51512915 -0.57317734
-0.33375412 -0.72114712 -0.80301142
-0.30770013 -0.06728512 -0.085233212
-0.29665214 0.51852489 0.15806246
-0.30054912 0.62206388 0.07224369
-0.30338913 0.69751489 0.0097036362
-0.32281512 -0.36513716 -0.41808844
-0.34106815 -0.72482616 -0.82005024
-0.30185112 0.17017788 0.16888952
-0.31656712 -0.11384714 -0.14906549
-0.31189513 -0.023667157 -0.048113346
-0.30251312 0.51832587 0.15459156
-0.30816013 0.66545582 0.032570362
-0.34276214 -0.61940616 -0.71501827
-0.30815113 0.16877383 0.15602255
-0.32084215 -0.071206152 -0.11309147
-0.30105412 0.33087087 0.30649853
-0.31126115 0.59170085 0.090062618
-0.31243813 0.62178087 0.065102577
-0.30404013 0.40717787 0.2431798
-0.31299815 0.78535086 0.05323267
-0.31972614 0.070021868 0.033757687
-0.31447414 0.16736388 0.14310646
-0.33278513 -0.1719982 -0.23811531
-0.31268013 0.20060486 0.18044853
-0.32498214 -0.027386129 -0.075666428
-0.31425613 0.51792681 0.14763641
-0.31263214 0.47719386 0.18145466
-0.32099915 0.75066388 0.0072536469
-0.34801212 -0.45419115 -0.55511856
-0.31898913 0.19926387 0.16762877
-0.33156613 -0.029258132 -0.089529514
-0.32013714 0.51772583 0.14415169
-0.32313013 0.59138286 0.082962513
-0.32435414 0.62149584 0.057946682
-0.34633315 -0.17646414 -0.26727152
-0.34328812 -0.12220216 -0.20610332
-0.32532415 0.19791585 0.15475559
-0.32730213 0.54838789 0.11501169
-0.33032215 0.62135285 0.054363728
-0.33920714 0.065074861 -0.0066523552
-0.32894012 0.24456185 0.19603157
-0.33192214 0.51732385 0.1371727
-0.33629814 0.62120986 0.050774574
-0.32561815 0.36770985 0.26159859
-0.36475813 -0.38158113 -0.51103449
-0.34002712 0.16165787 0.090902805
-0.34228012 0.62106586 0.04718256
-0.33140412 0.36742684 0.2582407
-0.33305213 0.40587085 0.2262516
-0.33607215 0.47629887 0.16764641
-0.37185812 -0.38436812 -0.52677059
-0.35232913 0.061739862 -0.033873558
-0.34648114 0.16021585 0.077718735
-0.35818315 -0.036835134 -0.14557934
-0.34373114 0.5169189 0.13017941
-0.34508014 0.54783386 0.10443974
-0.33655015 0.32742888 0.26720476
-0.34826913 0.62092185 0.043586731
-0.35017613 0.66462886 0.0071988106
-0.38385814 -0.46915609 -0.63548565
-0.35101914 0.54764783 0.1009078
-0.34470314 0.40534386 0.21945667
-0.35620713 0.66450983 0.0035567284
-0.38615215 -0.38998419 -0.55845928
-0.37710914 -0.24047309 -0.38873529
-0.37453014 -0.087260127 -0.22694063
-0.34912312 0.32527584 0.24219036
-0.38884413 -0.31967813 -0.49124432
-0.37222013 0.056679845 -0.075145245
-0.36933213 0.10274488 -0.022666454
-0.36292014 0.54727483 0.093832493
-0.35461313 0.36628684 0.24477434
-0.39598113 -0.32232517 -0.50690556
-0.38148212 0.014585853 -0.13511038
-0.36179814 0.32310385 0.21697235
-0.38561913 0.053266883 -0.10294819
-0.36817312 0.32201087 0.20428658
-0.37832212 0.62019587 0.025545597
-0.36957413 0.43566784 0.17961454
-0.38576615 0.15142286 -0.002559185
-0.37932715 0.51569384 0.10910368
-0.37672013 0.28840286 0.15431881
-0.37208915 0.36542583 0.23463774
-0.41245613 -0.25275916 -0.46545029
-0.41213414 -0.14378911 -0.35312033
-0.38680312 0.54652387 0.079636574
-0.38318813 0.28722686 0.14138079
-0.38100013 0.31981087 0.17876244
-0.37981713 0.40374786 0.19897842
-0.40871814 0.007303834 -0.19198227
-0.42626813 -0.14823216 -0.38331556
-0.39157712 0.40320987 0.19212341
-0.39316314 0.43466485 0.16580153
-0.41631514 0.091437876 -0.11948538
-0.41250613 0.14542484 -0.057213306
-0.43338114 -0.15046912 -0.39851141
-0.40659812 0.22916484 0.039375782
-0.40479013 0.5459559 0.068945408
-0.40275314 0.28366888 0.10224152
-0.42945212 0.0017518401 -0.23528528
-0.42650715 0.042836845 -0.18781137
-0.41678914 0.17839783 -0.031169415
-0.41079915 0.54576588 0.065374374
-0.40697113 0.31534988 0.12707949
-0.40499914 0.43415985 0.15887356
-0.43642512 -0.00011616945 -0.24984932
-0.42999715 0.088138878 -0.14768744
-0.41517612 0.51445085 0.08788681
-0.40926713 0.40239987 0.18181276
-0.41092813 0.43390584 0.15540266
-0.44037214 0.039293826 -0.21659565
-0.43688112 0.086478829 -0.16187763
-0.42284113 0.54538381 0.058218479
-0.41672313 0.35898083 0.1541338
-0.44734913 0.037509859 -0.23108149
-0.43121913 0.58844286 0.018340588
-0.42280513 0.43339685 0.14845181
-0.44391415 0.17258787 -0.086330414
-0.42875412 0.43314186 0.14497042
-0.44689313 0.22114587 -0.041939259
-0.45371014 0.21978784 -0.055696487
-0.43951514 0.40036985 0.15523338
-0.47175112 0.078055859 -0.23376322
-0.46055314 0.21842384 -0.069509506
-0.46742514 0.21705288 -0.083382607
-0.45732114 0.51297784 0.062953472
-0.46337014 0.51276588 0.059376717
-0.46974614 0.27145386 -0.031803608
-0.45939514 0.39749986 0.11622858
-0.46093813 0.47145885 0.094157696
-0.46607813 0.39653486 0.10311651
-0.48822013 0.21290183 -0.12535858
-0.47278714 0.39556485 0.089952469
-0.47903115 0.47074786 0.083517551
-0.49733913 0.26640886 -0.087029457
-0.48507613 0.47050884 0.07996273
-0.50431114 0.26513284 -0.10098362
-0.49716613 0.34624487 -0.0048456192
-0.50592315 0.51126385 0.034212589
-0.51097012 0.34405285 -0.032133579
-0.51541215 0.46930885 0.06212759
-0.53088111 0.42399487 0.013729572
-0.53370315 0.46858186 0.051377773
-0.5403071 0.46797484 0.041731358
