# .PCD v0.7 - Point Cloud Data file format
VERSION 0.7
FIELDS x y z
SIZE 4 4 4
TYPE F F F
COUNT 1 1 1
WIDTH 1
HEIGHT 1024
VIEWPOINT 0 0 0 1 0 0 0
POINTS 1024
DATA ascii
0.44782215 -0.87646097 -0.1670928
0.43557814 -0.87557095 -0.16443872
0.41183114 -0.94736999 -0.1707058
0.40847215 -0.59797698 -0.11577463
0.40797013 -0.54583091 -0.1075778
0.40115914 -0.4660719 -0.093794823
0.40501913 -0.87337595 -0.1578207
0.40421313 -0.78837901 -0.14445972
0.39812115 -0.78796595 -0.14314365
0.39634013 -0.59724694 -0.11316967
0.38907114 -0.46540993 -0.091210842
0.39281514 -0.87250799 -0.15517664
0.38788214 -0.33616 -0.070898533
0.39090714 -0.66509992 -0.12258768
0.38303214 -0.46507996 -0.08991766
0.38797215 -1.0104311 -0.17559385
0.38129115 -0.27296895 -0.059734821
0.38523513 -0.7083649 -0.12813854
0.38422215 -0.59652191 -0.11056662
0.37916514 -0.707977 -0.12683058
0.37770313 -0.54407996 -0.10108757
0.36982715 -0.33527201 -0.067054749
0.36927515 -0.2724089 -0.057181835
0.36844513 -0.870794 -0.14990473
0.36381513 -0.33497792 -0.065772533
0.36606613 -0.5954439 -0.10667086
0.35518014 -0.025843978 -0.016004562
0.36353514 -1.008584 -0.17028666
0.35678715 -0.21489197 -0.045687675
0.34991413 -0.10894197 -0.027826786
0.34921715 -0.025626957 -0.01474762
0.34888715 0.013799012 -0.0085577965
0.35226715 -0.39022392 -0.071976662
0.35556915 -0.785119 -0.13395882
0.35491115 -0.70643693 -0.12160873
0.35397714 -0.59473294 -0.10407686
0.34357116 -0.06348896 -0.019467831
0.34849715 -0.66247696 -0.11346769
0.34750915 -0.54236192 -0.094617844
0.33729914 -0.025194943 -0.012234688
0.33698013 0.014212012 -0.0060505867
0.34083715 -0.46280998 -0.080896854
0.33979413 -0.33381301 -0.060657501
0.33928615 -0.27102691 -0.050805569
0.34189814 -0.59402591 -0.10148573
0.34147716 -0.54202193 -0.093325615
0.33200616 -0.10823494 -0.024038792
0.33970913 -1.07761 -0.17610884
0.33863214 -0.94202501 -0.15483856
0.33379614 -0.333525 -0.059379578
0.33236015 -0.152839 -0.031035423
0.32469013 0.065160036 0.004383564
0.32373014 0.18819404 0.023682117
0.32314315 0.26334304 0.035471439
0.33361015 -1.077142 -0.17478275
0.33305714 -1.006315 -0.16367245
0.33255115 -0.94159001 -0.15352154
0.32639113 -0.15259498 -0.029770851
0.32279813 -0.46185595 -0.077043533
0.32526213 -0.78313202 -0.12742376
0.31225014 0.14109004 0.018726349
0.31412214 -0.10753697 -0.020255566
0.31623814 -0.38841695 -0.064294815
0.31445813 -0.15210897 -0.027243614
0.31777614 -0.59262997 -0.096312523
0.30726114 0.01523304 0.00021219254
0.31078413 -0.46122593 -0.074476719
0.31480315 -1.0049739 -0.15971375
0.30983114 -0.3323819 -0.054279804
0.31257713 -0.7037999 -0.11250257
0.31175214 -0.5922839 -0.095021725
0.30132616 0.01543504 0.0014634132
0.30339214 -0.26940197 -0.043178558
0.29244515 0.42993203 0.06763649
0.29826215 -0.38752896 -0.060464859
0.30315316 -1.0748301 -0.16816664
0.30019814 -0.65956491 -0.10309362
0.28804114 0.21977204 0.035914421
0.28973815 -0.023497939 -0.0021996498
0.28550115 0.58364904 0.092929363
0.28603715 0.50698304 0.080914497
0.29657716 -1.003649 -0.15576553
0.29612616 -0.93901795 -0.14563847
0.29188713 -0.33153695 -0.050461769
0.29447713 -0.70269102 -0.10861158
0.29062915 -0.1511479 -0.022199631
0.28295115 0.10145801 0.018592358
0.28353515 0.01603502 0.005212307
0.27965215 0.58372003 0.09414053
0.28149515 0.31422704 0.051921368
0.28070316 0.43014303 0.070081234
0.28046715 0.46452004 0.075465202
0.29006416 -0.938595 -0.14432859
0.28509313 -0.21180397 -0.030477524
0.27624413 0.22007704 0.038386345
0.27402714 0.550982 0.090210438
0.27561215 0.31435806 0.053152561
0.27540913 0.34477103 0.057913303
0.27350515 0.62882006 0.10240555
0.28491315 -1.0734639 -0.1642065
0.28443915 -1.002774 -0.15313578
0.27112815 0.10181606 0.021077156
0.26953316 0.34489506 0.059140205
0.27747115 -0.86459297 -0.13025284
0.27611613 -0.65814191 -0.097925663
0.27318314 -0.21130294 -0.027953625
0.26496115 0.14245802 0.028652191
0.26212415 0.58393204 0.097770214
0.26385513 0.31461805 0.055606365
0.26261616 0.50733304 0.085778236
0.26799914 -0.33042496 -0.045381546
0.26759714 -0.26781493 -0.035579681
0.27038115 -0.70123297 -0.10343552
0.26933315 -0.53804499 -0.077886581
0.25931415 0.10217106 0.02355957
0.25797814 0.31474805 0.056836128
0.25751814 0.38789403 0.068285465
0.25703415 0.46490705 0.080340385
0.26485613 -0.7792719 -0.11441565
0.26163915 -0.26755399 -0.034314632
0.25341216 0.10234702 0.024799347
0.25316313 0.14279306 0.03112936
0.25468916 -0.10526592 -0.0076928139
0.25393716 0.017020047 0.011445522
0.25065213 0.55129206 0.095060349
0.25045013 0.58407104 0.10019112
0.25017315 0.62906003 0.10723257
0.25686115 -0.4584499 -0.062967777
0.26063114 -1.0716679 -0.15893984
0.25834915 -0.70051295 -0.10085154
0.24751315 0.10252303 0.02603817
0.24876013 -0.10504395 -0.0064415932
0.24653515 0.26519907 0.051493168
0.24802515 0.017215014 0.012689114
0.24605313 0.34538502 0.064040184
0.24579614 0.38811904 0.070727348
0.25044516 -0.385212 -0.050280571
0.25280914 -0.7785179 -0.11182356
0.25011015 -0.32960302 -0.041579723
0.25166914 -0.58889991 -0.082152843
0.24137813 0.14312601 0.033601284
0.24110013 0.19042802 0.041002274
0.24283513 -0.10482198 -0.0051884651
0.24678916 -0.77814299 -0.11052752
0.24632913 -0.69979793 -0.098271847
0.24607414 -0.65639502 -0.091481686
0.23521814 0.19058204 0.042234421
0.23504314 0.22112703 0.047012329
0.23643614 -0.021651983 0.009036541
0.23432915 0.34562707 0.066487312
0.23334214 0.65969306 0.093411446
0.23364314 0.46528804 0.085204124
0.23893614 -0.45754594 -0.059145451
0.23819914 -0.32906002 -0.039048672
0.24032316 -0.69944292 -0.096981525
0.23751514 -0.20982498 -0.020396709
0.23002315 0.068148017 0.02429533
0.23098914 -0.10438198 -0.0026865005
0.22916615 0.22127402 0.048243523
0.23030515 0.017795026 0.016420364
0.22731714 0.55159605 0.099902153
0.22799215 0.43107405 0.081053257
0.22780015 0.46538305 0.086419582
0.23255615 -0.38436097 -0.046473503
0.23639414 -1.0698988 -0.15368366
0.23189515 -0.26626498 -0.028004646
0.23407514 -0.65570599 -0.088909626
0.23157814 -0.20958096 -0.019138813
0.22149014 0.55167103 0.10111046
0.22277914 0.31551403 0.064184189
0.22238114 0.38856405 0.0756073
0.22214815 0.43117505 0.082270145
0.22196114 0.46547705 0.087633133
0.22874515 -0.7770279 -0.10664845
0.21805215 0.10339105 0.032226562
0.21891615 -0.058945954 0.0068473816
0.21676114 0.34598607 0.070151329
0.21605214 0.65962505 0.090967178
0.21653314 0.38867402 0.076826572
0.21612415 0.46557003 0.08884716
0.22064514 -0.38379997 -0.043938637
0.21171315 0.19119602 0.047158241
0.20967415 0.58455104 0.10864258
0.21091014 0.34610504 0.071372509
0.20944114 0.62947202 0.11566353
0.21046814 0.43137604 0.084701538
0.21029015 0.46566305 0.09005928
0.21007015 0.50810206 0.096693516
0.21673015 -0.77629191 -0.10406542
0.21632414 -0.69803602 -0.091833591
0.20608114 0.14410806 0.041007519
0.20385714 0.58461905 0.10984945
0.20451914 0.65957904 0.08934021
0.21115114 -0.86027294 -0.11595774
0.21011114 -0.6543439 -0.083774567
0.20020714 0.14426905 0.042237282
0.19982514 0.22200304 0.054383278
0.20101614 -0.02045697 0.016499519
0.19936414 0.31601506 0.069071293
0.19842014 0.50826907 0.099113464
0.20549615 -0.93284792 -0.12606287
0.20193914 -0.208381 -0.012863636
0.19512214 -0.02026093 0.01774025
0.19296515 0.43167505 0.08834219
0.19835214 -0.69699591 -0.087980747
0.18865414 0.10424101 0.038397312
0.18904914 0.019120038 0.025102139
0.18657814 0.55211705 0.10835218
0.18713614 0.43177405 0.089555264
0.19130714 0.70011806 -0.050976753
0.18697715 0.46603203 0.094907284
0.19124815 -0.45519 -0.048981667
0.19091015 -0.3824169 -0.037615776
0.19408314 -1.066874 -0.14452362
0.19345814 -0.93205398 -0.12346554
0.19216615 -0.65333694 -0.079931736
0.18982014 -0.147232 -0.00088167191
0.19161314 -0.5339449 -0.061282635
0.18293914 0.069572031 0.034189224
0.18260114 0.14475006 0.045929432
0.18238914 0.19194907 0.053301334
0.18371414 -0.1026569 0.0072932243
0.18182914 0.31638503 0.072733402
0.18115614 0.46612304 0.096115112
0.18529914 -0.45490092 -0.047715664
0.18497114 -0.38214391 -0.036352634
0.18673614 -0.77447802 -0.097621441
0.18565315 -0.53363901 -0.060011864
0.17691214 0.10457605 0.04086256
0.17673615 0.14490801 0.047159195
0.17761914 -0.057514966 0.015553474
0.17745414 -0.019676983 0.021461487
0.17481714 0.584952 0.11586523
0.17861815 0.70105708 -0.020211697
0.18137614 0.73164606 -0.11895561
0.18032914 0.78684503 -0.081474781
0.18038614 0.82159603 -0.083530426
0.17935114 -0.45461291 -0.046448708
0.18201715 -1.066025 -0.14191246
0.18142915 -0.93126494 -0.12087154
0.17800814 -0.14678901 0.0016145706
0.17119214 0.069921017 0.03665638
0.17104514 0.10474306 0.042093277
0.17067514 0.19224507 0.055752277
0.17191914 -0.1022349 0.0097813606
0.16966215 0.43206903 0.093190193
0.17500214 0.73202503 -0.10414982
0.17542015 -0.93087393 -0.11957645
0.17286514 -0.32615191 -0.025173664
0.17260215 -0.26376396 -0.015434742
0.17236315 -0.207205 -0.0066046715
0.17373915 -0.5330289 -0.057468414
0.16431515 0.31675005 0.076387405
0.16929914 0.73178101 -0.11393642
0.16353014 0.508762 0.10635757
0.16808215 0.78709203 -0.067473412
0.16668615 -0.26351994 -0.01418066
0.16778715 -0.53272694 -0.056199551
0.15931915 0.10507405 0.04455328
0.16013615 -0.101816 0.012267113
0.15885314 0.22299904 0.062956333
0.15742214 0.58514804 0.11946821
0.15724514 0.62998503 0.12646627
0.15980314 0.70244801 0.025415421
0.16329214 0.73182404 -0.11241579
0.16123915 -0.38106197 -0.031309605
0.16394015 -1.064765 -0.13800287
0.15407515 -0.056714952 0.020513535
0.15283914 0.26735604 0.071076393
0.15175214 0.55255204 0.11557436
0.15162714 0.58521307 0.12067032
0.15265015 0.31699204 0.078822136
0.15191814 0.50892401 0.10876751
0.15597114 0.78727806 -0.057052612
0.15583314 0.82199502 -0.051416874
0.15764914 -0.99399894 -0.12572479
0.14700514 0.26748604 0.072296143
0.14791314 0.020408034 0.033753395
0.14583614 0.58527803 0.12186813
0.14639814 0.43245503 0.098030567
0.14895414 -0.262793 -0.010425568
0.15013315 -0.58345193 -0.060447693
0.14186914 0.070780039 0.042814255
0.14174615 0.10556602 0.048240185
0.14247814 -0.10119396 0.015991211
0.14231914 -0.056319952 0.022990227
0.14117214 0.26761603 0.073514462
0.14099714 0.31723106 0.081253529
0.14073914 0.39006501 0.092612267
0.14058815 0.43255103 0.099238396
0.14395215 0.78742206 -0.048986435
0.14398614 0.82200903 -0.050479412
0.14485215 -0.77200097 -0.088632584
0.14326914 -0.32487291 -0.018894672
0.14304914 -0.26255196 -0.0091748238
0.14284915 -0.20605296 -0.00036144257
0.13575615 0.14600104 0.055747509
0.13559614 0.19312102 0.06309557
0.13478114 0.43264604 0.10044718
0.13466515 0.46684003 0.10577917
0.13799915 0.78745902 -0.047009468
0.13779014 0.82217002 -0.037470818
0.13987115 -1.0631099 -0.13280058
0.13941315 -0.92855793 -0.1118207
0.13695414 -0.20582491 0.00088453293
0.13071814 -0.100784 0.018471241
0.13032115 0.020948052 0.03744936
0.12872614 0.50924408 0.11358213
0.13192114 0.82215303 -0.038919449
0.13318314 -0.85541195 -0.099184513
0.13124514 -0.26207393 -0.0066757202
0.12430315 0.071287036 0.04650116
0.12484114 -0.10057992 0.019710541
0.12470114 -0.055733979 0.02670145
0.12367114 0.65923804 0.077975273
0.12664014 0.73291802 -0.06991148
0.12306514 0.46701503 0.10818815
0.12604214 0.78758204 -0.040139675
0.12634814 -0.58222395 -0.055370808
0.11896715 -0.10037798 0.02094841
0.11883314 -0.055539966 0.027936459
0.11786515 0.26812905 0.078381538
0.11771615 0.31770307 0.086109161
0.11788814 0.65921205 0.077167511
0.11737114 0.43293005 0.10406637
0.11726914 0.46710303 0.10939312
0.11714314 0.50940108 0.11598635
0.12416914 0.86234206 -0.24993944
0.12001914 -0.4517979 -0.033822536
0.12200715 -1.1161978 -0.13737345
0.12184514 -1.061887 -0.12890863
0.12163414 -0.99162799 -0.11795759
0.12074015 -0.69263595 -0.071358681
0.11928114 -0.20514792 0.0046205521
0.11910014 -0.14462692 0.014052391
0.11250614 0.10637105 0.054371357
0.11204414 0.26825607 0.079597473
0.11190214 0.31782001 0.087322235
0.11135514 0.50947905 0.11718655
0.11339514 -0.204925 0.005862236
0.11447114 -0.58161801 -0.052835464
0.10722714 -0.099973977 0.023423195
0.10710514 -0.055155933 0.030405521
0.10524114 0.63047904 0.13722754
0.10860414 0.73329204 -0.055465698
0.11132214 0.86257803 -0.21116161
0.10766614 -0.26113099 -0.0016846657
0.10082614 0.10668904 0.056820393
0.10060015 0.19397503 0.070417404
0.10135914 -0.099773943 0.024659157
0.10114614 -0.017228961 0.037518501
0.099588141 0.58578604 0.13145018
0.099277146 0.70625103 0.15021849
0.10247114 0.78755105 -0.042360783
0.10288814 -0.69166297 -0.067539692
0.094702139 0.22450602 0.076368332
0.095293142 -0.017046988 0.038748264
0.093709141 0.63058603 0.1396122
0.094191141 0.43330204 0.1088872
0.093523145 0.70628905 0.15140533
0.096406139 0.78773004 -0.03207159
0.096477143 0.82218903 -0.036631584
0.09861514 0.86281204 -0.17273951
0.097846143 -1.0602798 -0.1237278
0.097674146 -0.99008197 -0.11279583
0.096041143 -0.322882 -0.0088825226
0.096837141 -0.64817494 -0.059545517
0.095751144 -0.20425898 0.0095915794
0.09667214 -0.58071893 -0.049040794
0.089237146 0.072282016 0.053860188
0.088955142 0.19425404 0.072852135
0.088125139 0.553321 0.12876415
0.088668145 0.31828302 0.092166424
0.087949142 0.63063407 0.14067221
0.090641141 0.73366904 -0.040799618
0.08822614 0.50978905 0.12198639
0.091852143 -1.0598829 -0.12243557
0.091374144 -0.85290295 -0.090205669
0.091180146 -0.76892191 -0.077129841
0.09100014 -0.69102198 -0.064998627
0.083401144 0.072445035 0.055084229
0.082355142 0.55338907 0.12996149
0.082542144 0.46761805 0.11660719
0.085569143 -0.92519301 -0.10023546
0.085060142 -0.69070297 -0.063727856
0.077257141 0.22490406 0.080014229
0.077167146 0.26900601 0.086879253
0.076587141 0.55345702 0.13115644
0.076483145 0.63057506 0.13908529
0.078704141 0.78776103 -0.030530453
0.078632146 -0.44989794 -0.025024414
0.079873145 -1.059093 -0.11985064
0.071734145 0.072769046 0.057531357
0.071975142 -0.054020941 0.037799358
0.071903139 -0.01632297 0.043666363
0.070747145 0.63054502 0.13829327
0.071573146 0.65900004 0.070694447
0.07067214 0.70608902 0.14445257
0.070902146 0.51001805 0.12558031
0.072484143 -0.32191199 -0.0038924217
0.072259143 -0.20338601 0.014553547
0.065843143 0.10762507 0.064154148
0.066207141 -0.098589957 0.032065392
0.066128142 -0.053833961 0.039028168
0.065558143 0.26925105 0.089303493
0.066062145 -0.016144931 0.044894218
0.065993145 0.022871017 0.050964355
0.06675414 0.73430103 -0.016087532
0.067022145 0.78760505 -0.039728642
0.066895142 0.82229203 -0.028559685
0.067997143 -1.1125178 -0.12570572
0.06777814 -0.98818499 -0.10635853
0.066392146 -0.20316893 0.015793324
0.06696514 -0.52777201 -0.03471756
0.060078144 0.07309103 0.059975147
0.059956141 0.14794606 0.071622372
0.059830144 0.22529805 0.083656311
0.060159139 0.023042023 0.052190304
0.059242144 0.58621705 0.13980532
0.059677146 0.31884903 0.098210335
0.059274144 0.63048404 0.13670921
0.059490144 0.43384805 0.11610031
0.059514143 0.70516801 0.11380434
0.060714141 0.73468906 -0.00082063675
0.060619146 -0.25929195 0.008266449
0.060527146 -0.20295495 0.017029285
0.060429141 -0.14255494 0.026427269
0.053886145 0.31896102 0.09941721
0.054185145 0.65891802 0.068273544
0.055147141 0.78774107 -0.031942844
0.055135146 0.82226801 -0.030724525
0.055837139 -0.9874379 -0.10378981
0.055633143 -0.85081202 -0.082537651
0.048265144 0.19521403 0.081361294
0.048663143 -0.098008931 0.035759449
0.048498143 0.023380041 0.054638386
0.048097141 0.31907302 0.10062456
0.047941145 0.43402705 0.11850214
0.049256142 0.82225102 -0.032155514
0.049783144 -0.92302197 -0.092546463
0.042566143 0.10823506 0.069029331
0.042717144 -0.015436947 0.049799442
0.042670142 0.023548067 0.055861473
0.042272143 0.34934503 0.10652018
0.042053144 0.63039207 0.13433647
0.042585142 0.65886205 0.066659451
0.043634143 -0.766285 -0.066950798
0.043487143 -0.64542395 -0.048157692
0.043404143 -0.57809192 -0.037688732
0.036491144 0.34945005 0.10772324
0.036362141 0.46828404 0.12619925
0.037218142 -0.32048899 0.0035734177
0.037090141 -0.20210296 0.021978378
0.030975144 0.073883057 0.066077232
0.031137142 -0.097436965 0.039448261
0.031059142 -0.015088975 0.052248478
0.031022143 0.023882031 0.058306217
0.030713145 0.34955406 0.10892725
0.031159144 0.70282507 0.035891533
0.030923143 0.73659801 0.074519157
0.030600142 0.46836603 0.12739515
0.031612143 0.82217902 -0.038203716
0.031981144 -0.98596495 -0.098660469
0.031851143 -0.84944898 -0.077440739
0.031657144 -0.6448279 -0.045634747
0.031237144 -0.20189291 0.023213387
0.031179141 -0.14155394 0.032591343
0.031593144 -0.57752198 -0.035172462
0.031544141 -0.52610892 -0.027182579
0.025300141 -0.097248018 0.040677547
0.025264144 -0.052552938 0.047624588
0.025037143 0.22606903 0.090923309
0.025233142 -0.01491493 0.053472519
0.024744142 0.58657503 0.14694834
0.024961144 0.31951302 0.10544634
0.025735144 0.82212806 -0.042358875
0.025585141 -0.44753891 -0.013760567
0.025971144 -0.921606 -0.087433815
0.025844142 -0.76532 -0.063146591
0.025781143 -0.68759292 -0.051066875
0.025691144 -0.57723898 -0.033918858
0.019324142 0.10883504 0.073897362
0.019265141 0.19588202 0.087423325
0.019434143 -0.052372932 0.048849583
0.019182142 0.31962204 0.10665035
0.019161142 0.34976107 0.11133242
0.019873142 0.78740102 -0.051879883
0.019902144 0.86350703 -0.058452606
0.019701142 -0.44728297 -0.01251173
0.020150144 -1.1093678 -0.11538649
0.019974142 -0.848777 -0.074896812
0.019573141 -0.25773495 0.016940117
0.019864142 -0.68728894 -0.049804688
0.013632142 -0.096871912 0.043132305
0.013456143 0.22632205 0.093341351
0.013566141 0.024377048 0.06196928
0.013406142 0.31973106 0.10785341
0.013327141 0.630234 0.1303854
0.013343141 0.43455404 0.12569046
0.013823141 0.70139003 -0.01176548
0.013302143 0.51076007 0.13752937
0.013938141 0.78752404 -0.044765472
0.013963141 0.86354804 -0.051706791
0.013782143 -0.37470502 -2.9563904e-05
0.013892141 -0.57667691 -0.031405449
0.0078011425 -0.096684992 0.044359207
0.0076701427 0.22644806 0.094550133
0.0076521421 0.27044702 0.10138321
0.007632141 0.31983906 0.10905647
0.0080651427 0.86352003 -0.056412697
0.0079141418 -0.37446398 0.0012145042
0.0081911413 -1.0545011 -0.10441256
0.0080731427 -0.76436692 -0.059346676
0.007892142 -0.31933194 0.0097775459
0.001927142 0.074657023 0.072166443
0.0018941415 0.19627607 0.091052532
0.0019611418 -0.051838934 0.052522182
0.0018731421 0.27056402 0.10258913
0.0018521417 0.35006803 0.11493635
0.0018401416 0.39243907 0.12151527
0.0021201419 0.70057803 -0.038717747
0.0022141421 -0.98415893 -0.092264652
0.0020331424 -0.31910402 0.011016369
0.0021211421 -0.64335996 -0.039339542
-0.0038858582 0.14950705 0.084980488
-0.0038588583 -0.051662982 0.053744316
-0.0038638581 -0.014059961 0.059583187
-0.0038698581 0.024866045 0.065626144
-0.0039458582 0.58686703 0.1528883
-0.0038148579 -0.37398797 0.0036973953
-0.0037408583 -0.91987199 -0.081059456
-0.0037728581 -0.68608993 -0.044761658
-0.0038388581 -0.20065099 0.030611515
-0.0037948582 -0.52449101 -0.019669533
-0.0096788583 0.19653505 0.093470573
-0.0096788583 0.58692408 0.15407515
-0.0096788583 -0.84712201 -0.068546772
-0.0096788583 -0.5755679 -0.026390553
-0.015471858 0.10971504 0.08118248
-0.015460858 0.19666404 0.094678402
-0.015499858 -0.095946968 0.04926157
-0.015488857 -0.013723969 0.062023163
-0.015411858 0.55450201 0.15022039
-0.015432858 0.630072 0.12644053
-0.015433858 0.39271903 0.1251092
-0.015578859 0.70050305 -0.041204453
-0.015598858 0.78718907 -0.064205647
-0.015537858 -0.3735159 0.0061793327
-0.015620857 -0.98309594 -0.08843565
-0.015601858 -0.84679598 -0.067279816
-0.015590858 -0.76311797 -0.054292679
-0.015513858 -0.20024401 0.033073425
-0.015564858 -0.57529396 -0.025138855
-0.021134857 0.58703804 0.15644646
-0.021552857 0.78686702 -0.082838535
-0.021467857 -0.64220899 -0.034314632
-0.027037859 0.15005606 0.089821339
-0.02710386 -0.013389945 0.064460278
-0.026872858 0.55462706 0.15259218
-0.027496859 0.82160002 -0.085796833
-0.027249858 -0.37304801 0.0086584091
-0.027497858 -0.98239499 -0.085885525
-0.027441859 -0.84614795 -0.064746857
-0.02717986 -0.19984096 0.035532475
-0.032909859 -0.013224959 0.06567955
-0.03288886 0.025665045 0.071713448
-0.032705858 0.62997204 0.12407732
-0.032689858 0.39299405 0.12869644
-0.033291858 0.70042706 -0.043691635
-0.032501858 0.73932606 0.18242645
-0.03355686 0.86313707 -0.11965656
-0.033104859 -0.37281495 0.0098962784
-0.033360858 -0.84582597 -0.063480854
-0.033249859 -0.64164191 -0.031805515
-0.032977857 -0.13942701 0.04610157
-0.038767859 -0.095221937 0.054154396
-0.038327858 0.55475205 0.15496635
-0.038465858 0.62993801 0.12328959
-0.038761858 0.65845102 0.055384159
-0.038202859 0.73935503 0.18360233
-0.038385857 0.46931705 0.14171553
-0.03952786 0.78622401 -0.11996269
-0.038875859 -0.25559598 0.029280186
-0.039165858 -0.68432993 -0.037216663
-0.03905686 -0.5229159 -0.012181759
-0.044379856 0.15046006 0.093446255
-0.044341858 0.19729906 0.10071039
-0.044578858 -0.095042944 0.055375576
-0.045246858 -0.917512 -0.072167873
-0.044663858 -0.19924396 0.039217472
-0.049772859 0.55487502 0.15733528
-0.049885858 0.43548405 0.13882637
-0.051015858 0.70034903 -0.046176434
-0.049853858 0.46947005 0.14409447
-0.049553856 0.79163706 0.19320154
-0.050904859 -0.64080101 -0.028047562
-0.050841857 -0.57367593 -0.017640591
-0.055972856 0.11071002 0.089657307
-0.055929858 0.15072703 0.095861435
-0.056194857 -0.094687939 0.057817459
-0.055798858 0.27170104 0.11461449
-0.055538855 0.51160705 0.15180445
-0.056572858 -0.44405597 0.0036592484
-0.056494858 -0.37189692 0.014844418
-0.056785855 -0.64052302 -0.026797771
-0.056242857 -0.13868099 0.050997257
-0.061751857 0.11084902 0.090865135
-0.061645858 0.19767302 0.10432434
-0.062001858 -0.094510972 0.059037209
-0.061947856 -0.049941957 0.065944195
-0.061521858 0.62980103 0.12014341
-0.061407857 0.39344501 0.13466644
-0.061263856 0.511675 0.15299034
-0.062338859 -0.37166995 0.016080379
-0.062914856 -0.84423894 -0.057162762
-0.062812857 -0.76068801 -0.044213772
-0.062717862 -0.68318492 -0.032201767
-0.062665857 -0.64024693 -0.025545597
-0.067409858 0.19779605 0.10552645
-0.067368858 0.22802705 0.11021137
-0.067693859 -0.01224798 0.072977543
-0.066917859 0.73880005 0.16182232
-0.067508861 0.78992206 0.094110489
-0.067269862 0.82412302 0.12154913
-0.06827686 -0.44357699 0.0061373711
-0.068915859 -0.916197 -0.067100525
-0.06794586 -0.198461 0.044121265
-0.068382859 -0.5216369 -0.0059585571
-0.073483855 -0.012087941 0.074192524
-0.072748855 0.73851705 0.15068054
-0.072766855 0.46977305 0.14884853
-0.072704859 0.51181102 0.15536213
-0.074719854 -0.843615 -0.054639816
-0.074416853 -0.63969797 -0.023046494
-0.079006858 0.15125304 0.10068321
-0.078827858 0.62969708 0.1177845
-0.080587856 0.70021701 -0.050314426
-0.078599855 0.73823404 0.13949919
-0.078421853 0.51187801 0.15654755
-0.079664856 -0.25415701 0.037882328
-0.079475857 -0.13794798 0.055884361
-0.084689856 0.19816303 0.10913324
-0.085124858 -0.049275935 0.070809364
-0.084271856 0.43597203 0.14596558
-0.085689858 -0.37077302 0.021017551
-0.086758859 -0.97898799 -0.073182583
-0.086646855 -0.915227 -0.063307762
-0.086236857 -0.68206102 -0.027195454
-0.086160854 -0.63915402 -0.020549774
-0.090609856 0.11153704 0.09690237
-0.09053386 0.15151203 0.10309219
-0.090211861 0.32159907 0.12943029
-0.091967858 0.82246602 -0.014212608
-0.092672855 -0.97865695 -0.071917534
-0.092414856 -0.84268993 -0.050861835
-0.092256859 -0.75921494 -0.037935734
-0.092029855 -0.63888496 -0.019302845
-0.091194861 -0.19769198 0.049017429
-0.096198857 0.19840401 0.11153555
-0.096048854 0.27246606 0.12300253
-0.098300859 0.82204103 -0.049031734
-0.098583855 -0.9783259 -0.070651531
-0.097240858 -0.31538194 0.031988144
-0.10221285 0.077299058 0.093970299
-0.10192486 0.62955403 0.11464548
-0.10152886 0.39405805 0.14300346
-0.10143686 0.43621004 0.1495285
-0.10476086 -1.1016309 -0.088523865
-0.10464486 -1.047729 -0.080179691
-0.10306185 -0.31517202 0.03321743
-0.10292786 -0.25335592 0.042786121
-0.10385286 -0.68123192 -0.02344656
-0.10350486 -0.52014297 0.0014872551
-0.10789986 0.11194205 0.10051632
-0.10826886 -0.048622966 0.075665474
-0.10688186 0.55547303 0.16916037
-0.10815986 0.73679703 0.083015442
-0.10900585 -0.36989397 0.025943279
-0.11008986 -0.84177798 -0.047088623
-0.10989786 -0.758349 -0.03417778
-0.10946786 -0.57107991 -0.0051937103
-0.11374485 0.077579021 0.096383572
-0.11415885 -0.092960954 0.06999445
-0.11287285 0.43636703 0.1519022
-0.11238686 0.70723802 0.18285418
-0.11770486 0.82073903 -0.15568972
-0.11469886 -0.31475598 0.035672188
-0.11532085 -0.5708279 -0.0039515495
-0.11950686 0.077717066 0.097588539
-0.11941886 0.11220807 0.10292435
-0.11900586 0.27289104 0.1277833
-0.11819786 0.58796704 0.17653036
-0.12039286 0.65800506 0.04415226
-0.12371486 0.86291105 -0.15615988
-0.12252986 -1.1005878 -0.084711552
-0.12051286 -0.31454998 0.036899567
-0.12506586 0.15227401 0.11030436
-0.12452686 0.35219103 0.1412282
-0.12429886 0.43652305 0.15427446
-0.12418686 0.70656306 0.16067839
-0.12614186 0.73592204 0.048659325
-0.12647486 -0.36924499 0.029633522
-0.12830286 -1.046381 -0.075110435
-0.12632586 -0.31434399 0.038125515
-0.12701686 -0.57032591 -0.0014715195
-0.13138287 -0.047982931 0.080515385
-0.12957986 0.58807105 0.17888546
-0.13033286 0.32228303 0.13777924
-0.13000886 0.43660003 0.1554594
-0.13567986 0.78561705 -0.15396643
-0.13772886 0.81939507 -0.26576281
-0.13666485 0.89942902 -0.20770788
-0.13401386 -0.97637898 -0.063070774
-0.13213687 -0.3141399 0.03935051
-0.13317387 -0.67987794 -0.017213821
-0.13286287 -0.570077 -0.00023174286
-0.13668086 0.11260307 0.10653257
-0.13536486 0.55576104 0.17505741
-0.13792485 0.65790504 0.041751385
-0.13561785 0.47057503 0.16188431
-0.14011985 -1.045716 -0.07257843
-0.13950986 -0.84028894 -0.040813446
-0.13776386 -0.25218493 0.050124168
-0.14243086 0.11273402 0.10773325
-0.14216186 0.19934702 0.12112331
-0.14306685 -0.092128932 0.076061249
-0.14095585 0.58817405 0.18123722
-0.14131986 0.47064605 0.16306829
-0.14817686 0.78518903 -0.17850256
-0.15004785 0.89938205 -0.27170277
-0.14392486 -0.36860591 0.033317566
-0.14475586 -0.63651592 -0.008102417
-0.14320286 -0.13600594 0.06927824
-0.14454886 -0.569583 0.0022463799
-0.14829086 0.078401029 0.10360718
-0.14869785 -0.047510982 0.0841465
-0.14819086 0.62926006 0.10837841
-0.14726585 0.39473301 0.15250444
-0.15041286 0.73474002 0.0022954941
-0.14701986 0.47071704 0.16424942
-0.15149686 -0.91179198 -0.049450874
-0.15126286 -0.8397029 -0.038307667
-0.15038785 -0.5693379 0.0034823418
-0.15022185 -0.51821798 0.011386395
-0.15379086 0.15289205 0.11630154
-0.15243186 0.55593002 0.17858934
-0.15297486 0.39481503 0.15368938
-0.15865485 -1.1072519 -0.10664177
-0.15536286 -0.3133319 0.04424715
-0.15659486 -0.67881995 -0.012237549
-0.16023186 -0.047200978 0.086561203
-0.15925986 0.22983903 0.12937117
-0.15977186 0.62918401 0.10681438
-0.15868086 0.39489704 0.15487432
-0.15853386 0.43698004 0.16137743
-0.16574886 -1.121994 -0.15654373
-0.16437386 -1.0525739 -0.095966816
-0.16229485 -0.63574892 -0.004380703
-0.16075186 -0.195476 0.063651562
-0.16526785 0.15313506 0.11869717
-0.16498886 0.22994804 0.13056421
-0.16482885 0.27371705 0.13732529
-0.16586086 -0.0096299648 0.093551159
-0.16556686 0.62914604 0.10603237
-0.16423486 0.43705505 0.16256046
-0.16742685 -0.43968791 0.027110577
-0.16716486 -0.36777002 0.038221359
-0.17149986 -1.0668991 -0.14572668
-0.16696486 -0.31293398 0.046692371
-0.16829486 -0.67829794 -0.0097537041
-0.16653685 -0.19529694 0.064867496
-0.17128386 0.07893604 0.10841322
-0.17071386 0.23005605 0.13175726
-0.17054786 0.27381802 0.13851643
-0.17161785 -0.0094819665 0.094757557
-0.17036286 0.32294303 0.14610529
-0.16907686 0.66367304 0.19874048
-0.16993186 0.43712905 0.16374159
-0.17981386 0.78410304 -0.24061584
-0.17689286 0.11350101 0.11493254
-0.17769286 -0.09115696 0.083325386
-0.17643686 0.23016304 0.13295031
-0.17626585 0.27391803 0.13970613
-0.17503586 0.58847702 0.18828535
-0.17579186 0.39514107 0.15842819
-0.18955486 0.81792504 -0.38530874
-0.18061286 -0.838265 -0.032053471
-0.17831686 -0.25086099 0.058661461
-0.17998585 -0.677782 -0.007270813
-0.17981885 -0.63499492 -0.00066375732
-0.17809886 -0.19494194 0.067297459
-0.18276885 0.079199016 0.11081457
-0.18198086 0.27401805 0.14089727
-0.18070985 0.58852708 0.18945837
-0.18178286 0.32312703 0.14847946
-0.18746385 0.73293006 -0.068468571
-0.19262986 0.78366303 -0.26577473
-0.19137385 -1.0196109 -0.21778584
-0.18945685 -0.93754095 -0.14458561
-0.18582886 -0.67752594 -0.0060296059
-0.18517886 -0.5168249 0.018782139
-0.18836586 0.11375207 0.11732817
-0.18640986 0.66332102 0.18964148
-0.19458686 -0.859119 -0.11254883
-0.19149186 -0.63449794 0.0018134117
-0.18940386 -0.13465995 0.078978539
-0.19121286 -0.56765598 0.012131214
-0.19392785 0.15373105 0.12467718
-0.19372685 0.20036304 0.13187551
-0.19478986 -0.046287954 0.093804359
-0.19462886 -0.0089009404 0.09957552
-0.19455786 0.62895304 0.10212612
-0.19288586 0.39538103 0.16197729
-0.19672886 0.70240402 0.024399281
-0.20554186 0.78321904 -0.29111958
-0.19648185 -0.43860692 0.033247471
-0.19617185 -0.36674792 0.044340134
-0.20639586 -1.0485179 -0.32169867
-0.19566986 -0.25030893 0.062311172
-0.19732486 -0.63425201 0.00304842
-0.19944686 0.20047307 0.13306713
-0.20054285 -0.046138942 0.095008373
-0.20037685 -0.0087579489 0.10077715
-0.19772086 0.58867502 0.19297838
-0.20942385 -0.88520795 -0.21329641
-0.20414886 -0.68331891 -0.030177593
-0.20093486 -0.134332 0.081397533
-0.20571786 0.07971704 0.11561012
-0.20556086 0.11412305 0.12091827
-0.20537786 0.15396506 0.12706518
-0.20649686 -0.090370953 0.089364529
-0.20629385 -0.045989931 0.096212387
-0.20502685 0.23069203 0.13890457
-0.21260686 0.73170006 -0.11648083
-0.22187486 -1.0783119 -0.42877388
-0.21956886 -0.99312693 -0.35107279
-0.21411586 -0.79168397 -0.16732264
-0.21128885 0.11424607 0.12211418
-0.21225186 -0.090215981 0.090572357
-0.21168485 0.030211031 0.10914946
-0.20920385 0.55647707 0.19033813
-0.20996186 0.39561707 0.16552258
-0.20940785 0.51334 0.1836834
-0.22738285 -1.007556 -0.40465546
-0.22470686 -0.91208798 -0.31707668
-0.21745385 -0.65332395 -0.079693794
-0.21245886 -0.13400692 0.083815575
-0.21516086 -0.5714789 -0.0046124458
-0.21425785 -0.51569694 0.024933338
-0.21682286 0.15419704 0.12945318
-0.21623985 0.27460605 0.14802551
-0.21761085 -0.0083329678 0.10438347
-0.21742386 0.030346036 0.11035156
-0.21565285 0.39569503 0.16670418
-0.22315885 0.030480027 0.11154938
-0.22154886 0.35368001 0.16139221
-0.22786285 0.70061207 -0.034067631
-0.23170185 0.73076504 -0.15294075
-0.22513285 -0.36575192 0.050443172
-0.24045886 -0.93979794 -0.42404366
-0.22818886 -0.53043097 -0.044165611
-0.22889286 0.030613065 0.11274719
-0.22620286 0.55663502 0.19385433
-0.22739285 0.32384604 0.15796137
-0.22723986 0.35376406 0.16257429
-0.22680986 0.43785304 0.17554045
-0.24484986 0.78186506 -0.36827469
-0.23280385 -0.44653195 -0.0051345825
-0.25155687 -1.0522048 -0.57043982
-0.24851486 -0.95397395 -0.47875547
-0.24508186 -0.843077 -0.37524986
-0.23003885 -0.19339198 0.078208447
-0.23572485 -0.54087001 -0.093184471
-0.23418386 0.11472905 0.12689352
-0.23525685 -0.089604974 0.095392227
-0.23334385 0.27489305 0.15158319
-0.23462486 0.030746043 0.11394644
-0.23194985 0.58860105 0.19253159
-0.23292886 0.35384703 0.16375446
-0.23248786 0.43792304 0.17671728
-0.24047086 0.69988602 -0.057740688
-0.23231086 0.47173005 0.18192959
-0.23209086 0.51357704 0.18838024
-0.25986686 -1.0675581 -0.62743473
-0.25669685 -0.96837097 -0.53431654
-0.23969086 0.15465301 0.13422251
-0.24076585 -0.045114934 0.10343122
-0.23904286 0.27498806 0.15277052
-0.24056485 -0.0077759624 0.10918617
-0.25814986 0.78140604 -0.3943758
-0.24296185 -0.31445891 0.040549278
-0.25324985 -0.62644094 -0.25405979
-0.24562286 0.11496705 0.12927818
-0.24473886 0.27508205 0.15395451
-0.24629886 -0.0076379776 0.11038542
-0.24341185 0.58850908 0.19102335
-0.24430385 0.35401201 0.16611814
-0.24407186 0.39607906 0.17260122
-0.24383986 0.43806204 0.17907143
-0.25316986 0.69915402 -0.0815835
-0.27344787 -0.99785501 -0.64808369
-0.25084987 0.20143706 0.14377737
-0.24884185 0.55684203 0.19853735
-0.25369886 0.65868402 0.066094398
-0.26399085 0.72918004 -0.21458149
-0.24932186 0.47192404 0.18545437
-0.25560486 -0.258995 0.014119148
-0.26699987 -0.58420497 -0.29663372
-0.26593485 -0.34112495 -0.1049428
-0.26412886 -0.089468956 0.097345352
-0.26040685 0.51386607 0.19424248
-0.27965486 -0.50739092 -0.30680466
-0.27631587 -0.41751796 -0.2198925
-0.28334987 -0.60687 -0.4030056
-0.26795486 0.20174801 0.1473403
-0.26580486 0.55699503 0.20204735
-0.26652285 0.43833604 0.18377352
-0.26631886 0.47211403 0.18897533
-0.28181985 -0.35956794 -0.20554686
-0.29771286 -0.77532393 -0.61004686
-0.27639785 -0.21773094 -0.06755352
-0.27370486 -0.14728898 0.00097942352
-0.29428586 -0.68569297 -0.52283955
-0.29171586 -0.61846894 -0.45743179
-0.27439785 0.081207037 0.12995434
-0.27393985 0.15531904 0.14136219
-0.27365187 0.20185006 0.14852524
-0.27951086 -0.103746 0.0026655197
-0.27346587 0.23190504 0.15315437
-0.27270886 0.35441601 0.17201614
-0.27445987 0.629933 0.12841129
-0.27218884 0.43840405 0.18494844
-0.27198085 0.47217703 0.19014835
-0.28696385 -0.29333597 -0.18291044
-0.27857286 0.32461804 0.16859531
-0.27838486 0.35449606 0.17319536
-0.29687387 0.72756404 -0.27734566
-0.28720886 0.077307045 0.099202156
-0.29533887 -0.11844093 -0.094764709
-0.28456685 0.27572703 0.16223717
-0.29138085 -0.023134947 -0.00032567978
-0.28275186 0.557145 0.20555115
-0.28358087 0.58817905 0.18575811
-0.29150486 0.65607005 -0.0032906532
-0.31330985 -0.55113894 -0.52354288
-0.30943987 -0.45795697 -0.43120146
-0.29335687 0.11014402 0.090834141
-0.29073587 0.20215505 0.15208817
-0.29025185 0.27581704 0.16342115
-0.29932985 -0.029851973 -0.048748493
-0.30488786 0.69616604 -0.17866278
-0.28895786 0.47236204 0.1936655
-0.31172785 -0.32046694 -0.33851576
-0.29593286 0.27590704 0.16460323
-0.29560387 0.32486707 0.1721344
-0.29948685 0.62800908 0.083192348
-0.31145784 0.69578606 -0.19099283
-0.32023287 -0.32978898 -0.39196682
-0.31094587 0.05934906 -0.043788433
-0.30480585 0.19589704 0.094069481
-0.31557387 -0.043582976 -0.1477108
-0.31353185 0.0018360615 -0.10185242
-0.29968485 0.55729204 0.20905256
-0.30026585 0.47248504 0.19600725
-0.29997987 0.51425803 0.20243359
-0.32886887 -0.33925396 -0.44623661
-0.32236785 -0.19468099 -0.3002677
-0.31725687 0.092875063 -0.052517414
-0.31119084 0.22437102 0.081079483
-0.31715885 0.65429205 -0.050358772
-0.33435985 -0.27781492 -0.42915773
-0.31139687 0.588907 0.20205832
-0.31210685 0.39695704 0.18672132
-0.34315085 -0.286933 -0.48400688
-0.33377886 0.080932021 -0.15163565
-0.34572685 -0.16524893 -0.40497351
-0.31691685 0.51442105 0.20594215
-0.34838486 -0.22003299 -0.46134949
-0.32224086 0.55748504 0.21372128
-0.32871187 0.34640902 0.078989506
-0.35076785 0.72490805 -0.3801918
-0.34839785 0.11560404 -0.20473671
-0.34563285 0.16984206 -0.1481967
-0.36072084 -0.12609595 -0.4566927
-0.33852684 0.30923104 -0.0028924942
-0.35761887 0.72457004 -0.39326143
-0.33031186 0.47034705 0.16505814
-0.35949185 0.062340021 -0.30589056
-0.35233787 0.19930804 -0.16217661
-0.33640486 0.58671504 0.15786839
-0.34974685 0.65203106 -0.11013651
-0.36093587 0.19406903 -0.21301079
-0.37640387 -0.09503293 -0.51834679
-0.35523987 0.30053103 -0.10056973
-0.35633686 0.65157306 -0.12222147
-0.36489984 0.69268805 -0.29126883
-0.34903985 0.58560503 0.13554335
-0.36191785 0.33006305 -0.11435747
-0.37169185 0.69229406 -0.30400944
-0.38877785 0.00041604042 -0.51274061
-0.38366985 0.091477036 -0.41528368
-0.37850785 0.69189805 -0.31679678
-0.36055887 0.50352502 0.025707245
-0.38957986 0.14177907 -0.40899754
-0.38750684 0.17787403 -0.37010956
-0.36628786 0.54749304 0.02812624
-0.37650287 0.36956102 -0.16358185
-0.36897886 0.50062704 -0.022366524
-0.39663586 0.17230904 -0.42408085
-0.37474686 0.54491401 -0.019914627
-0.38528186 0.36558503 -0.21443367
-0.39221784 0.69110107 -0.34251261
-0.39911386 0.69070005 -0.35544682
-0.39203885 0.53964007 -0.11812353
-0.40626585 0.30822206 -0.37258673
-0.38991386 0.62103504 -0.080108643
-0.40025887 0.40593106 -0.26514769
-0.39862686 0.57271504 -0.12870789
-0.39654785 0.62052107 -0.092083454
-0.41297886 0.68989402 -0.38145256
-0.40991387 0.64784503 -0.22046471
-0.42818984 0.52861005 -0.32343864
-0.44448584 0.56006002 -0.38813782
-0.45749286 0.64123905 -0.3968935
