# .PCD v0.7 - Point Cloud Data file format
VERSION 0.7
FIELDS x y z
SIZE 4 4 4
TYPE F F F
COUNT 1 1 1
WIDTH 1
HEIGHT 1024
VIEWPOINT 0 0 0 1 0 0 0
POINTS 1024
DATA ascii
0.63579923 0.42795861 0.10242558
0.61914223 0.3848846 0.092512608
0.60713124 0.38522762 0.095497608
0.60206324 0.35440558 0.086764812
0.61572421 0.66176558 -0.063348293
0.59982622 0.42890757 0.11134768
0.59388721 0.47131759 0.11234283
0.60432625 0.61527562 -0.070128441
0.59005624 0.35476357 0.089754581
0.58554125 0.30406958 0.074477673
0.58113021 0.47225359 0.12439585
0.57207221 0.35529757 0.094236851
0.58152223 0.66390061 -0.01487112
0.56752121 0.30464858 0.078976631
0.56608522 0.35547459 0.095728874
0.55923724 0.38657659 0.10740852
0.5495342 0.30522257 0.083472729
0.5563252 0.69655859 0.0017447472
0.54861224 0.50450957 0.094569683
0.5456202 0.2287876 0.059738636
0.55281425 0.61752963 -0.027763367
0.54133523 0.38707358 0.11185884
0.53278023 0.26048058 0.073045731
0.54377121 0.5822596 -0.063560486
0.5302372 0.35652357 0.10465574
0.53842723 0.6966536 0.0028676987
0.52887625 0.18092561 0.048301697
0.52120024 0.4740566 0.14475965
0.52326822 0.50624156 0.11877394
0.52080023 0.26088357 0.076044559
0.52887422 0.58428758 -0.026549339
0.5287202 0.61777556 -0.0245924
0.5183152 0.35686958 0.10762358
0.51527721 0.47419459 0.14622259
0.51696324 0.50667155 0.12479687
0.51046121 0.4312036 0.13349962
0.52156925 0.74205256 -0.0092344284
0.5106712 0.50710058 0.13080883
0.50439024 0.5075286 0.13680887
0.51071823 0.54468459 0.054570675
0.50045824 0.3573826 0.1120677
0.4975262 0.47460359 0.15060663
0.50442022 0.6181736 -0.018209457
0.50617522 0.77457458 -0.041545391
0.48416018 0.59514159 0.17439079
0.4970912 0.6648156 0.00038766861
0.49774119 0.69635659 -0.008354187
0.48676321 0.43179756 0.13936949
0.4856202 0.50880456 0.15474653
0.4887332 0.10514861 0.03345871
0.48569921 0.23088461 0.074771881
0.48494619 0.26207858 0.085020542
0.47980818 0.47500858 0.15498161
0.49355018 0.77483457 -0.032146454
0.48087919 0.18270862 0.06037569
0.4779062 0.30746257 0.10135651
0.4853642 0.6966446 -0.0014262199
0.48605418 0.74208158 -0.010943413
0.47671419 0.10563558 0.036494732
0.47587019 0.14149159 0.048270702
0.4700422 0.3890146 0.12956572
0.4727872 0.54704159 0.091272831
0.46706519 0.26266658 0.089493752
0.46483919 0.35839456 0.12092781
0.4564282 0.74968863 0.23972273
0.4756622 0.7748726 -0.0319314
0.46590018 0.054293573 0.022512913
0.46847719 0.66428959 -0.014336109
0.4602432 0.5478186 0.10341358
0.4467172 0.74895757 0.21477652
0.44921619 0.26324856 0.093958855
0.44502521 0.18401659 0.069387913
0.44395921 0.23231262 0.085232735
0.43733218 0.26363361 0.096931934
0.4321402 0.74779356 0.17510176
0.43195221 0.51058358 0.17793274
0.43232819 0.62335956 0.084204674
0.42868221 0.39011157 0.13982773
0.4307352 0.015399575 0.018382549
0.42343819 0.3595506 0.13121986
0.42023018 0.51082563 0.18081856
0.42554718 -0.023451388 0.0070858002
0.4221122 0.58934057 0.060944557
0.4239192 0.62089562 0.032615662
0.41753519 0.35971361 0.13268757
0.41437319 0.51094556 0.18226147
0.4160932 0.14377058 0.063327789
0.4158572 0.58968759 0.06707859
0.41417319 0.77814662 0.093850613
0.41352719 -0.022905409 0.010140896
0.4067682 0.30961561 0.1190958
0.40961519 0.5900346 0.073204517
0.40574318 0.36003757 0.13561773
0.40111318 0.67380059 0.21025181
0.40489519 0.10848659 0.054621696
0.40417919 0.14421761 0.066326618
0.40086219 0.30979156 0.12056684
0.39985219 0.36019862 0.13707972
0.39682418 0.51130259 0.1865797
0.39823818 0.55164456 0.16346264
0.39584818 0.26496059 0.1072979
0.39995319 0.057061613 0.039205551
0.3921032 0.55202258 0.16940784
0.40251321 0.82972562 -0.0032725334
0.39227718 0.14466059 0.069321632
0.39397618 0.057308614 0.040718555
0.38580918 0.47710159 0.17817974
0.38514018 0.51153958 0.18945694
0.39682519 0.82966357 -0.0072255135
0.38701519 0.10918158 0.059129715
0.3863312 0.14488161 0.070816517
0.38852018 0.62103963 0.033421516
0.38219619 0.36067861 0.14146566
0.37996319 0.47722858 0.1796217
0.38735819 0.74420959 0.053279877
0.38900921 0.77645057 0.025065899
0.38203719 0.057799578 0.043737888
0.3839162 0.77610761 0.011143684
0.38527921 -0.11396837 -0.012485504
0.3736842 0.18655258 0.08729887
0.37279019 0.23468357 0.10304976
0.37044218 0.3609966 0.14438391
0.36664319 0.67392862 0.21128893
0.37156418 0.7015596 0.12463093
0.3690742 0.43464959 0.16848564
0.36763918 0.51189059 0.19376373
0.38043419 -0.17669046 -0.031567097
0.36322218 0.43478662 0.16993284
0.36159819 0.55389357 0.1989727
0.37628919 0.82870758 -0.063784122
0.3732492 -0.11338246 -0.0094132423
0.3573752 0.4349246 0.17137766
0.3711032 0.82846558 -0.07806921
0.35372519 0.31117362 0.13230658
0.34941921 0.67399061 0.21181583
0.3610642 0.74255359 -0.0031971931
0.34947819 0.55463457 0.21072292
0.35134619 0.11055058 0.068117619
0.34863019 0.26643962 0.11908865
0.3443462 0.5123536 0.1994915
0.3623082 0.86274159 -0.13760519
0.34274319 0.26662159 0.12055779
0.34629521 0.059250593 0.052768707
0.34058818 0.3923766 0.16166687
0.3378042 0.55491555 0.21479988
0.35132021 -0.23402643 -0.043101311
0.35031119 -0.17514741 -0.023855209
0.3368572 0.26680261 0.12202549
0.34102619 0.019246578 0.041117668
0.33525521 0.36193562 0.1531167
0.33220318 0.67405057 0.21234655
0.33329618 0.47822958 0.19112587
0.33271819 0.5125826 0.20235252
0.34323621 -0.11193442 -0.0017552376
0.33148819 0.23602158 0.11337662
0.32954219 0.59445459 0.15180683
0.33273819 0.6238566 0.088711739
0.34937018 0.90448362 -0.23961926
0.32975519 -0.019189417 0.031410694
0.32509819 0.26716357 0.12495947
0.32355219 0.36224461 0.1560216
0.32110319 0.51281059 0.20520878
0.3204132 0.55522358 0.21906471
0.34298319 0.90451759 -0.23431015
0.33125418 -0.11136246 0.0012998581
0.3217102 0.1116696 0.075579643
0.3245362 -0.065253377 0.017792702
0.33022219 0.77341461 -0.098471165
0.3153002 0.5129236 0.20663691
0.31264719 0.3123526 0.14252949
0.30932918 0.14768159 0.090169907
0.30370221 0.51314861 0.20948792
0.31517619 -0.23210835 -0.033824444
0.3059372 -0.018160403 0.03745079
0.2977922 0.67416459 0.21342564
0.31219921 0.77345258 -0.097836494
0.3101472 -0.29681742 -0.053507328
0.30732819 -0.11023045 0.0073976517
0.29575318 0.26805359 0.13227749
0.3018142 0.7427026 -0.0011911392
0.2910392 0.18938261 0.10801172
0.2947202 -0.063909411 0.025369644
0.28807119 0.39368057 0.17466974
0.28571519 0.55582958 0.22757387
0.29809418 -0.29615235 -0.050404072
0.28447619 0.23751158 0.12512064
0.2812382 0.59710062 0.19926453
0.28395319 0.62630463 0.13709784
0.28268421 0.36330861 0.16615582
0.2805962 0.67421961 0.21397066
0.2899732 0.74273062 -0.0007853508
0.29418218 0.77348858 -0.097198486
0.30128521 0.82538557 -0.2598772
0.29289719 -0.35374844 -0.067750454
0.29114619 -0.23085237 -0.027661324
0.28106719 0.061834574 0.069230556
0.27790719 0.6266076 0.14309692
0.27524018 0.4794426 0.20542669
0.28405419 0.74274457 -0.0005812645
0.27476218 0.5137046 0.21660089
0.2741712 0.5560286 0.23040485
0.27445519 0.11341858 0.087466717
0.27686718 -0.063114405 0.029904842
0.27276319 0.70185661 0.12782383
0.28217718 0.7735126 -0.09677124
0.26753819 0.19016558 0.11389589
0.2709232 -0.062851429 0.031413555
0.27030519 -0.016644418 0.046476841
0.2658492 0.6272096 0.15505981
0.28284919 0.82541156 -0.25918627
0.2626712 0.11384857 0.090428829
0.25983518 0.62750959 0.16102886
0.2611542 0.70188856 0.12820959
0.26977119 -0.42852247 -0.086343288
0.26877418 -0.35237241 -0.061526299
0.25580519 0.19055259 0.11683273
0.2538352 0.62780958 0.1669836
0.25319418 0.3945266 0.18329763
0.26043019 -0.1706754 -0.0008764267
0.24994418 0.19074559 0.11829853
0.2531082 -0.062068462 0.035933495
0.25253019 -0.015898407 0.0509758
0.24589521 0.51425159 0.22369289
0.2551972 -0.2290014 -0.01845026
0.25446421 -0.17038643 0.00064563751
0.24502119 0.11448658 0.094861507
0.2435012 0.23878062 0.13534784
0.2471762 -0.061808467 0.037439823
0.24312419 0.26961762 0.14539194
0.2425772 0.31430662 0.15994787
0.24613819 0.023133576 0.065105915
0.24564821 0.063200593 0.078157902
0.2415932 0.3948046 0.18616772
0.24054919 0.4801496 0.21396685
0.25071719 -0.35135341 -0.056872368
0.23872019 0.15015358 0.10788488
0.23590019 0.62870258 0.1847868
0.2447042 -0.3510164 -0.055321217
0.24324019 -0.22839344 -0.015389442
0.23285419 0.15035456 0.1093545
0.2318192 0.23913658 0.13826084
0.22994219 0.62899858 0.19069862
0.2290082 0.48038158 0.21680689
0.23673019 0.7428506 0.0010647774
0.2401782 0.77359158 -0.095266342
0.22939819 -0.061036468 0.041948795
0.2279782 0.063873589 0.0826087
0.2237262 0.43794757 0.20437574
0.22324219 0.4804976 0.21822453
0.23418219 0.7736026 -0.095050335
0.2228532 0.51468062 0.22935152
0.2223742 0.55690759 0.24309683
0.2201512 0.23949158 0.1411705
0.2234782 -0.06078136 0.043448925
0.21806319 0.6295886 0.20249271
0.2184242 0.39535457 0.19189548
0.22490719 0.74287558 0.0014796257
0.2239842 -0.10639346 0.028606892
0.2284402 -0.50860143 -0.10229349
0.2143212 0.23966759 0.14262486
0.21188019 0.67442262 0.2162056
0.2189972 0.74288762 0.0016875267
0.2113512 0.51489359 0.23217773
0.22068319 -0.34967935 -0.049134254
0.2193612 -0.22719038 -0.0092792511
0.2187292 -0.16867042 0.0097608566
0.2223942 -0.50822544 -0.10072231
0.20849319 0.23984259 0.14407873
0.21116219 -0.014189422 0.06143856
0.20816919 0.27063257 0.15409374
0.2059612 0.48084158 0.22247791
0.21619619 0.77363461 -0.094398499
0.21548219 -0.42531145 -0.072302341
0.21407719 -0.29163039 -0.028814316
0.2121252 -0.10586035 0.031617641
0.20393719 0.11595058 0.10517788
0.2031572 0.19226158 0.12999773
0.20446019 0.064758599 0.088528633
0.20043619 0.67445362 0.21658659
0.20020619 0.4809556 0.22389269
0.19985719 0.51510459 0.2349987
0.2108652 -0.56184244 -0.11526632
0.19732219 0.1924476 0.1314559
0.1968482 0.24019158 0.14698172
0.19937119 -0.013708413 0.0644207
0.19609919 0.31556261 0.17148972
0.19858919 0.064977586 0.090005875
0.1932662 0.60073161 0.26421785
0.2012682 0.74292362 0.0023155212
0.20090219 -0.16782641 0.014304638
0.2042722 -0.50710738 -0.096019268
0.1914912 0.19263357 0.13291168
0.1934792 -0.013469398 0.065908909
0.19310619 0.0252226 0.078487873
0.1875522 0.60081559 0.2656126
0.1883772 0.51531458 0.23781681
0.18797019 0.55747759 0.25152493
0.2030382 0.82551157 -0.25616932
0.19436319 -0.1050694 0.036128521
0.1863752 0.1165666 0.10958481
0.1856612 0.19281858 0.13436985
0.18521519 0.2405386 0.14988089
0.1840422 0.36578357 0.19058847
0.1829612 0.4812946 0.22813272
0.18958019 -0.22571146 -0.0016674995
0.1922082 -0.5063684 -0.092890263
0.18212119 -0.059018373 0.053926468
0.18099019 0.065630615 0.094432831
0.1782642 0.3659246 0.19201851
0.1775562 0.67451358 0.21735382
0.1847422 -0.3477124 -0.039889336
0.1758212 -0.012758434 0.07036972
0.17513019 0.065846562 0.095907688
0.17249119 0.36606461 0.19344664
0.1708052 0.55775762 0.25572777
0.18463819 0.82553357 -0.25546646
0.1787632 -0.34738839 -0.038352489
0.1771742 -0.16671538 0.020348549
0.1692732 0.066061616 0.097380638
0.1664622 0.39656258 0.20473671
0.1661212 0.67454261 0.21773863
0.1683832 0.70211858 0.13136292
0.17174719 -0.22483742 0.0028877258
0.1623722 0.1935516 0.14018583
0.1619802 0.24122357 0.15566778
0.1644422 -0.058277369 0.058401585
0.1590212 0.60122859 0.27258158
0.15931819 0.63249362 0.26084471
0.1607022 0.3966946 0.20615768
0.16040419 0.67455661 0.21793461
0.1658092 -0.22454739 0.0044035912
0.1559342 0.27211356 0.16708755
0.15558119 0.31663162 0.18154049
0.15756619 0.066489577 0.10032272
0.15332219 0.6013096 0.27397394
0.1535012 0.6327796 0.26662493
0.1549442 0.39682561 0.20757866
0.1567972 0.70214462 0.13176584
0.16227619 0.77372259 -0.092424393
0.1608422 -0.34642446 -0.033747196
0.1517172 0.066702604 0.10179377
0.1494232 0.3666206 0.19915152
0.15649919 -0.55841637 -0.10113621
0.14549519 0.11797661 0.1198349
0.1452352 0.15328658 0.13129473
0.14678819 -0.057544351 0.062867641
0.14644919 -0.011591434 0.077782631
0.1440302 0.31693161 0.1844058
0.14343919 0.39708662 0.21041965
0.14312619 0.4396686 0.22424078
0.14801219 -0.22368646 0.0089445114
0.15099919 -0.62924743 -0.12268209
0.14758219 -0.16535044 0.027879715
0.15047419 -0.55804241 -0.099572182
0.1396672 0.11817461 0.1212945
0.13879119 0.2418986 0.1614418
0.13624419 0.60155261 0.27814388
0.13754119 0.67461157 0.21871662
0.1373902 0.43978858 0.22565365
0.1449562 -0.62885642 -0.12110853
0.1338412 0.11837262 0.12275362
0.13034619 0.63391858 0.2896409
0.13182719 0.67462564 0.21891356
0.13085119 0.55839956 0.26550674
0.14173019 0.82557958 -0.25382137
0.13576619 -0.16481137 0.030883789
0.12701219 0.27291459 0.17427349
0.12466119 0.63400859 0.29139471
0.13560119 0.8255856 -0.25358629
0.12986019 -0.16454339 0.032385826
0.13241519 -0.55692935 -0.094885349
0.1320622 -0.5027554 -0.077315331
0.1232892 -0.056579351 0.068808556
0.12123619 0.2730726 0.17570972
0.1225152 0.067754567 0.10912848
0.11898819 0.63408059 0.29277849
0.12065019 0.36730361 0.20626783
0.1194592 0.55858058 0.26829481
0.12472419 -0.28703737 -0.0059242249
0.1161702 0.15422761 0.13856173
0.11668319 0.067962587 0.11059284
0.1133192 0.63415259 0.29415989
0.11472319 0.3977316 0.21750879
0.1142192 0.48261359 0.2450285
0.11958219 -0.41985941 -0.047567368
0.12081419 -0.62730646 -0.1148243
0.11155719 -0.056103468 0.071773529
0.1076512 0.63422459 0.29554081
0.10897519 0.6746766 0.21970749
0.10850819 0.48272058 0.24643183
0.1083162 0.51673758 0.25745869
0.1080782 0.55875957 0.27107954
0.1131852 -0.34390736 -0.021517277
0.1128602 -0.28644443 -0.00289011
0.1150452 -0.67255247 -0.12804747
0.10456319 0.15459961 0.1414628
0.10392419 0.27354461 0.18000984
0.10368519 0.31796557 0.1944046
0.10279919 0.4828276 0.24783373
0.1084082 0.77380157 -0.090419292
0.098943196 0.1195426 0.13149261
0.099405192 0.028768599 0.10208178
0.097525194 0.39811158 0.22175169
0.097551197 0.67470157 0.22010756
0.10091519 0.74310261 0.0059437752
0.1029712 -0.67176545 -0.12489939
0.097336195 -0.75393844 -0.15007448
0.087333195 0.11992657 0.13439894
0.086775191 0.24337959 0.17438173
0.087564193 0.068990588 0.11790276
0.086074196 0.39836258 0.22457647
0.089767195 -0.41822243 -0.039894104
0.089166194 -0.28527236 0.0031657219
0.081211194 0.19603157 0.16043186
0.080691196 0.31854361 0.2001009
0.080481194 0.36823857 0.21619272
0.080172196 0.44095862 0.23973989
0.075593196 0.15551561 0.14869881
0.075432196 0.1962046 0.16187191
0.074948192 0.3186866 0.20152378
0.077334195 -0.28469336 0.0061855316
0.078859195 -0.67021036 -0.1186223
0.070579194 -0.054463387 0.082120895
0.071634196 -0.34176743 -0.01087141
0.070746191 -0.099774361 0.067455769
0.072411194 -0.55331445 -0.079343319
0.064144194 0.12068659 0.14019966
0.063887194 0.19654661 0.16474771
0.064737193 -0.054232359 0.083595753
0.063472196 0.31897157 0.20436478
0.064451195 0.030043602 0.11086559
0.067101195 -0.75189936 -0.14217138
0.066667192 -0.62390637 -0.10075331
0.066427194 -0.5529604 -0.077794075
0.058354195 0.12087458 0.14164782
0.057876196 0.27477556 0.19143963
0.058415201 0.7023356 0.13527584
0.056991197 0.55954862 0.28357983
0.0606662 -0.62353647 -0.09919548
0.052218199 0.24433959 0.18296957
0.053060196 -0.053773403 0.086540699
0.052332196 0.6726386 0.16998291
0.0526332 0.70234561 0.13548565
0.053748198 0.7431736 0.0076937675
0.054586198 0.77386957 -0.088388443
0.055280197 -0.84033036 -0.1678853
0.055028196 -0.75109541 -0.13902044
0.053363197 -0.16115344 0.051806927
0.046127196 0.59893459 0.2276535
0.048144199 -0.41598439 -0.029199123
0.0494182 -0.91741741 -0.19136429
0.048785198 -0.66830039 -0.11079931
0.048489198 -0.55190647 -0.073156357
0.048352197 -0.4979254 -0.055699348
0.0409972 0.12143362 0.14598656
0.040826198 0.19722259 0.17049074
0.0407192 0.2446546 0.18582869
0.041288197 -0.0075674057 0.10427666
0.041112199 0.070593596 0.12954664
0.040745199 0.62878263 0.18217659
0.041960198 0.74318957 0.0081367493
0.042630199 0.77388358 -0.087931156
0.043166198 -0.83948743 -0.16470909
0.041765198 -0.21872246 0.03600359
0.035472199 -0.0073524117 0.10573959
0.034826197 0.3196736 0.21145487
0.037267197 -0.9165374 -0.18816853
0.036546197 -0.55121136 -0.070070267
0.036439199 -0.49725735 -0.052629471
0.029312197 0.19755661 0.17335749
0.029105198 0.31981158 0.21286964
0.028970197 0.39959061 0.23865366
0.030678198 0.77389657 -0.0874753
0.031066198 -0.83865047 -0.16154051
0.030698199 -0.62170637 -0.091426373
0.023385197 0.31995058 0.21428585
0.023315199 0.36953062 0.23030567
0.023153197 0.48428059 0.26739073
0.024700198 0.77390361 -0.087246418
0.024421196 -0.41473341 -0.023112297
0.024712197 -0.62134445 -0.089873314
0.024536196 -0.49659443 -0.049563408
0.017892197 0.12216961 0.15175962
0.017753199 0.24527657 0.19152975
0.017719198 0.27582157 0.20139885
0.017889198 0.59494555 0.15259075
0.017579198 0.39983058 0.2414608
0.018256199 0.69910657 0.047542572
0.017499197 0.48406959 0.26440477
0.018410198 0.74304461 0.0032296181
0.017745197 0.5541876 0.19369459
0.019062199 -0.91523039 -0.18338442
0.018974196 -0.83782041 -0.15837526
0.018874198 -0.74872041 -0.12959146
0.018650196 -0.55017936 -0.065450191
0.012231196 -0.006500423 0.11158276
0.013175198 0.82569259 -0.24880743
0.012999197 -0.91479945 -0.18179226
0.0063551972 0.12253261 0.15463972
0.0062161973 0.36990857 0.23452473
0.0061991969 0.40006757 0.24426365
0.0065431967 0.66752559 0.046883583
0.0061751967 0.44241357 0.25794363
0.0066751968 0.74208361 -0.028674126
0.0062711975 0.51321757 0.20326185
0.0069401972 -0.91436839 -0.18020248
0.0068001971 -0.66568935 -0.099897385
0.0067041973 -0.4956094 -0.044973373
0.00058119697 0.15781456 0.16741276
0.00060519716 0.071955562 0.13969183
0.00072719716 0.69736058 0.00020265579
0.00080219703 0.77392858 -0.086326122
0.00094419718 0.82570058 -0.24832439
0.00090219732 -0.98247445 -0.20073938
0.00083619729 -0.74755442 -0.12489319
0.00070519699 -0.28103936 0.025725842
0.00067019695 -0.15890646 0.06515789
-0.0051728026 0.072147608 0.14113951
-0.0051728026 0.69677258 -0.015730381
-0.0051728026 0.5112316 0.17322063
-0.0051728026 -0.21662736 0.047925472
-0.0051728026 -0.15866137 0.066635609
-0.010888803 0.27655059 0.20848751
-0.011004803 0.59085655 0.075790882
-0.010861803 0.37028158 0.23873663
-0.011137802 0.74062258 -0.077101231
-0.010932803 0.5102306 0.15809774
-0.011263803 -1.0568154 -0.22182131
-0.011045802 -0.28049338 0.028716564
-0.011140803 -0.61920536 -0.080593109
-0.016645804 0.19886661 0.18479156
-0.016786803 -0.051098406 0.10413885
-0.016863802 0.59002662 0.060217857
-0.016532803 0.40053856 0.24986982
-0.016718803 0.50922561 0.14290762
-0.022951804 0.66422558 -0.032404423
-0.023033801 0.69499159 -0.063968182
-0.023153804 0.7396366 -0.10976934
-0.023514803 0.82571757 -0.24735308
-0.023317803 -0.91224444 -0.17226744
-0.023177803 -0.74602139 -0.11864424
-0.022729803 -0.21585941 0.052379608
-0.022964802 -0.49399436 -0.037343502
-0.028392803 -0.050665438 0.10705948
-0.028023802 0.27698159 0.21273184
-0.028253801 0.072904587 0.14691257
-0.028260801 0.47555059 0.14485884
-0.028374802 0.50719959 0.11230993
-0.029175803 -0.74564135 -0.11708546
-0.028650802 -0.27968335 0.03319788
-0.028951801 -0.54748642 -0.053176403
-0.033839803 0.1993466 0.18906593
-0.033772804 0.24663961 0.20431662
-0.034190804 -0.050449431 0.10851955
-0.033629801 0.37013662 0.23715782
-0.035085801 0.69378859 -0.096513271
-0.034098804 0.4744626 0.12960672
-0.034420803 0.54594558 0.055909634
-0.034699801 -0.41169238 -0.0079650879
-0.035402805 -0.9114064 -0.16910028
-0.035293803 -0.83416736 -0.14419413
-0.034989804 -0.61780846 -0.074427128
-0.034814801 -0.49335742 -0.03429842
-0.039633803 0.1590026 0.17743063
-0.0399868 -0.050235391 0.10997581
-0.039909802 -0.0046314001 0.12467861
-0.039359801 0.3214336 0.22979879
-0.039845802 0.033689618 0.13703251
-0.039753802 0.43438661 0.15457582
-0.039964803 0.47336859 0.11428547
-0.040136803 0.50515461 0.081433773
-0.041870803 0.82567358 -0.24983549
-0.040596802 -0.41139543 -0.0064573288
-0.041682802 -1.0545394 -0.21379948
-0.040373802 -0.27914941 0.036178589
-0.041020803 -0.66279638 -0.087505341
-0.040167801 -0.1572144 0.075487614
-0.040734801 -0.4930414 -0.032778263
-0.045368802 0.15916961 0.17885971
-0.045537803 0.073465586 0.15123463
-0.046776801 0.61748064 -0.051560402
-0.047054801 0.66152459 -0.097196102
-0.046311803 0.54406357 0.024506569
-0.046491802 -0.41109943 -0.0049481392
-0.046343803 -0.33597243 0.019266605
-0.047609802 -0.97897446 -0.18798637
-0.045869801 -0.095122457 0.096895695
-0.050735801 0.32169658 0.23261356
-0.051015802 0.36617661 0.19247484
-0.0517768 0.4711656 0.083429813
-0.053133801 -0.74414039 -0.1108613
-0.051942803 -0.21459937 0.059784889
-0.052688804 -0.54617345 -0.047065258
-0.052567802 -0.4924134 -0.029741287
-0.0566108 0.24722958 0.20997763
-0.057149801 0.034271598 0.14136648
-0.059281804 0.66015363 -0.13005829
-0.059906803 0.73661661 -0.20968008
-0.060178801 0.7699306 -0.24436951
-0.058795802 -0.61643445 -0.068281174
-0.062313803 0.24737561 0.21138954
-0.065437801 0.65946257 -0.1466074
-0.063993804 0.5010016 0.018812656
-0.065347806 -0.83219635 -0.13635731
-0.065098807 -0.74339938 -0.10775423
-0.064740807 -0.61609435 -0.066746235
-0.063274801 -0.094456434 0.10128069
-0.064391807 -0.49178946 -0.026707172
-0.068549804 0.074201584 0.15698671
-0.070856802 0.58236659 -0.083278179
-0.068643808 0.3621586 0.14717293
-0.068918809 0.38949358 0.11856747
-0.072395809 0.73558962 -0.24363041
-0.069440804 -0.21385646 0.064217567
-0.070298806 -0.4914794 -0.025191307
-0.073871806 0.20044458 0.1990118
-0.074558802 -0.0034244061 0.13336992
-0.074086808 0.3164866 0.1784277
-0.077839807 0.65807056 -0.17994213
-0.075303808 0.4272036 0.062274933
-0.079054803 0.76862359 -0.29593039
-0.075267807 -0.21361041 0.065693855
-0.076774806 -0.6606884 -0.078258514
-0.076622806 -0.61541843 -0.06368351
-0.076384805 -0.54488242 -0.040970325
-0.076203808 -0.49117136 -0.023677349
-0.079857804 0.12516558 0.17614651
-0.080326803 -0.0032263994 0.13481379
-0.079537809 0.2760796 0.2042985
-0.080042809 0.074564576 0.15985775
-0.083880804 -0.97642541 -0.17847347
-0.083025806 -0.74229944 -0.10310411
-0.082726806 -0.66034245 -0.076720238
-0.082560807 -0.61508238 -0.062150478
-0.080882803 -0.15557146 0.085773468
-0.085288808 0.20075262 0.20184565
-0.085102804 0.24795359 0.21704483
-0.085784808 0.074745595 0.16129065
-0.089787804 0.61190659 -0.1664114
-0.086872809 0.38558859 0.072235584
-0.090771809 0.68822062 -0.24688244
-0.090439804 -1.1091564 -0.21974611
-0.089916803 -0.97600639 -0.17689228
-0.087167807 -0.27705646 0.048063755
-0.091310807 0.1255036 0.1789999
-0.091163807 0.16048157 0.19025469
-0.091004804 0.24638259 0.2024107
-0.096051805 0.61109459 -0.18313313
-0.094454803 0.4956916 -0.061135292
-0.095948808 -0.97558939 -0.17531347
-0.094962806 -0.74157345 -0.1000104
-0.093005806 -0.27679944 0.049545765
-0.094427809 -0.61441541 -0.059093475
-0.092492804 -0.15511143 0.088702679
-0.094130807 -0.54392743 -0.036411285
-0.096876808 0.16064161 0.19167566
-0.1018668 0.57795858 -0.16568422
-0.1034798 0.6869486 -0.28119707
-0.10015281 0.46212658 -0.042920113
-0.10336681 -0.0024414062 0.14058781
-0.10331681 0.2698766 0.14398956
-0.10393581 0.30915558 0.10225868
-0.1081588 0.57706261 -0.18240547
-0.10569981 0.42105156 -0.016634464
-0.1053028 -0.40820742 0.010075569
-0.10800681 -0.97476137 -0.17215633
-0.10649981 -0.65897238 -0.070584297
-0.10409281 -0.15465438 0.091629505
-0.10379881 -0.092936397 0.11148071
-0.10847481 0.1260066 0.18327284
-0.10998981 0.30766761 0.086809635
-0.11448281 0.57616258 -0.19920921
-0.1163158 0.68566263 -0.3158555
-0.1111718 -0.40792441 0.011573792
-0.1132998 -0.82912838 -0.12387848
-0.11185381 -0.54298544 -0.031860352
-0.11158281 -0.48934746 -0.014610291
-0.1141718 0.19888657 0.18586159
-0.1148978 0.23989958 0.14206457
-0.1148748 -0.0020543933 0.14346981
-0.12141281 0.60780156 -0.25084829
-0.12221481 0.65308356 -0.29920816
-0.1180618 0.41854662 -0.048723221
-0.11663681 -0.33271837 0.037157536
-0.1153568 -0.092510462 0.11438751
-0.11775681 -0.54267442 -0.030347347
-0.1206238 -0.0018613935 0.14491081
-0.12040981 0.036342621 0.1571908
-0.1278308 0.60696858 -0.26798344
-0.12649581 -1.0484164 -0.19150209
-0.12430481 -0.65796041 -0.065991402
-0.12405181 -0.61277342 -0.051465511
-0.12335581 -0.48875046 -0.01159811
-0.12561581 0.12650257 0.18754148
-0.1283198 0.30315858 0.040040493
-0.1259138 0.075988591 0.17130566
-0.1325338 -1.0479934 -0.18992043
-0.12760681 -0.2114464 0.078931808
-0.12726681 -0.15375245 0.097471714
-0.1368258 0.41474259 -0.097429276
-0.13415581 -0.33193135 0.041609764
-0.13721481 -0.82763338 -0.11766624
-0.13380481 -0.27503335 0.059890747
-0.13305581 -0.15352941 0.098931789
-0.13923781 0.23328662 0.080598831
-0.14656581 0.57159162 -0.2844553
-0.1472768 0.60444057 -0.31990051
-0.1446048 -1.0471514 -0.18675518
-0.14318681 -0.82726336 -0.11611509
-0.1413428 -0.54144239 -0.024296284
-0.14099781 -0.48786342 -0.0070853233
-0.15209381 0.52727461 -0.25481224
-0.14967281 -0.90379238 -0.13926411
-0.14915581 -0.82689643 -0.11456728
-0.1516518 -0.33115447 0.046051502
-0.15566181 -0.90340841 -0.13770628
-0.1539298 -0.65630341 -0.058358192
-0.15516281 0.12169361 0.14960766
-0.16512081 0.52520061 -0.28920412
-0.16164781 -0.90302646 -0.13614845
-0.16206381 0.14972961 0.10172272
-0.16051981 0.03761059 0.16720963
-0.1663828 -0.73734939 -0.081535339
-0.16576381 -0.65565038 -0.055311203
-0.1721148 0.29236859 -0.071691513
-0.16624081 0.03778857 0.16863871
-0.1663108 0.075142562 0.16577148
-0.17301081 -0.82544041 -0.10838223
-0.17363881 0.11591357 0.10372591
-0.17976581 0.33674461 -0.13832235
-0.18374281 0.4800826 -0.29543829
-0.1807518 -1.0446724 -0.1772933
-0.1795918 -0.9018904 -0.13148212
-0.1782508 -0.73666644 -0.078471184
-0.17396981 -0.20959342 0.090638638
-0.17300181 -0.090434432 0.12886953
-0.1779958 1.6570091e-05 0.1592617
-0.1870418 0.36374056 -0.18620348
-0.1867678 -1.0442654 -0.17572117
-0.18492381 -0.82472241 -0.10529613
-0.1792708 -0.15178144 0.11056757
-0.18930981 0.21965861 -0.04583025
-0.1935638 0.36231458 -0.20302725
-0.1947758 0.40297157 -0.24782753
-0.1890108 -0.60928345 -0.034774303
-0.19440381 0.17578757 -0.015425205
-0.19780581 0.28602856 -0.13722706
-0.19002581 0.033932567 0.14128685
-0.2001158 0.36088157 -0.21992731
-0.20264681 0.44290757 -0.31055307
-0.19530581 -0.65404439 -0.047715187
-0.19490181 -0.60897446 -0.03326416
-0.1937938 -0.48527443 0.0064005852
-0.19867881 0.10807157 0.041549683
-0.2021278 0.2161656 -0.078188419
-0.20430581 0.28442359 -0.15380526
-0.20800281 0.40028059 -0.28215122
-0.2041118 -0.96839142 -0.14707327
-0.19709681 -0.2086904 0.096469879
-0.20078981 -0.60866737 -0.031753063
-0.19656481 -0.15114141 0.11491871
-0.2050118 0.10608661 0.025824547
-0.20144981 -0.0019984245 0.14586449
-0.21083781 0.28281057 -0.17046547
-0.2047278 -0.40356946 0.035392761
-0.2108078 -1.0426564 -0.16944218
-0.20945081 -0.9000324 -0.12373018
-0.2087208 -0.82330537 -0.099137306
-0.20788081 -0.73498642 -0.070830345
-0.20287281 -0.20846844 0.097924709
-0.2071048 -0.65341139 -0.04468441
-0.21601281 0.24038261 -0.1417594
-0.20990181 0.060779572 0.058256626
-0.21055581 -0.40330744 0.036874771
-0.2130008 -0.65309739 -0.043169498
-0.20808281 -0.1507194 0.11781454
-0.22009781 0.16837162 -0.079872131
-0.22158881 0.21085662 -0.12731647
-0.2213788 -0.89930046 -0.12063551
-0.2206068 -0.82260644 -0.096064091
-0.22419581 0.1000706 -0.021801472
-0.21891481 -0.045980394 0.14171362
-0.2306278 0.27791959 -0.22094011
-0.2214158 0.023187578 0.064274788
-0.2348558 0.3948136 -0.3518281
-0.2222048 -0.40278745 0.039832592
-0.22654481 -0.82225943 -0.094528198
-0.21959281 -0.15030146 0.12070656
-0.22359681 -0.53730047 -0.0032525063
-0.2230438 -0.4838804 0.013858795
-0.23065081 0.098045588 -0.037826061
-0.2347188 0.2072736 -0.16045952
-0.2252008 -0.048297405 0.12645769
-0.22802581 -0.40252936 0.041312695
-0.2301998 -0.60715139 -0.024218082
-0.22888681 -0.48360538 0.015347481
-0.23969381 0.16271061 -0.12901831
-0.2329528 -0.013164401 0.068965912
-0.2424048 0.23345357 -0.20865631
-0.24578281 0.3215856 -0.3078742
-0.23171981 -0.20736837 0.10519171
-0.2365648 -0.65185535 -0.037123203
-0.23530981 -0.53673041 -0.00026226044
-0.2448688 0.12472558 -0.10483551
-0.23934381 -0.015432417 0.053365707
-0.2490858 0.23169762 -0.22558928
-0.24193181 0.050207615 -0.020723343
-0.24434781 -0.82122838 -0.089931488
-0.2433618 -0.73302138 -0.061695099
-0.2546578 0.20182657 -0.21078539
-0.24842781 0.048061609 -0.036740303
-0.25278679 -1.0399114 -0.15849829
-0.24833381 -0.65124345 -0.034105301
-0.2580708 0.12072957 -0.13775921
-0.25128779 -0.40150738 0.047213554
-0.25516981 -0.73237836 -0.058659077
-0.2586948 -0.022301435 0.0061397552
-0.2693198 0.22637862 -0.2768712
-0.2638638 -0.96463835 -0.1315465
-0.25955281 -0.60567045 -0.016708374
-0.28003782 0.31370258 -0.3958354
-0.27074081 -1.0387625 -0.15382528
-0.25980681 -0.1488694 0.13080883
-0.2817038 0.19443262 -0.27904129
-0.27473181 0.03936559 -0.1015892
-0.2677758 -0.32623339 0.075462818
-0.27397379 -0.81954145 -0.082289219
-0.26626581 -0.20608139 0.1138835
-0.28342882 0.081463575 -0.16883135
-0.27832481 -0.029275417 -0.041762352
-0.2735588 -0.32599938 0.076922894
-0.27876079 -0.73111045 -0.052597523
-0.2777158 -0.64973736 -0.026581287
-0.2877008 -0.96318638 -0.12536716
-0.28138679 -0.10668838 0.028484821
-0.28207681 -0.53450143 0.01166153
-0.29694581 0.077211618 -0.20237732
-0.2897248 -0.072117448 -0.030079365
-0.29156882 -0.033983409 -0.074076176
-0.2947948 0.032726586 -0.15104628
-0.29365382 -0.96282744 -0.12382507
-0.2927458 -0.89505136 -0.10216427
-0.2905418 -0.73048544 -0.049572468
-0.28350881 -0.20545137 0.11822271
-0.28791282 -0.53422844 0.013148785
-0.28719881 -0.48092639 0.030181885
-0.30530882 0.10641658 -0.25555229
-0.29634881 -0.074566364 -0.046144485
-0.31070879 0.21548557 -0.38175631
-0.2945098 -0.11171937 -0.003162384
-0.31059882 0.072913587 -0.23625708
-0.3121908 0.10432959 -0.27271128
-0.3030028 -0.07702744 -0.06228447
-0.29666981 -0.32507443 0.082759857
-0.30968881 -0.07950139 -0.078500271
-0.30244282 -0.32484543 0.084215641
-0.30640382 -0.60337245 -0.0047402382
-0.3046518 -0.48014736 0.034614563
-0.32438481 0.068571568 -0.27046728
-0.31852481 -1.0357774 -0.14141321
-0.31176582 -0.16959345 0.0074176788
-0.31442779 -0.11936045 -0.051189423
-0.33304182 0.098000586 -0.3246932
-0.33505079 0.1350956 -0.36809921
-0.31398082 -0.32439137 0.087127686
-0.32448781 -1.0354124 -0.13986826
-0.32338881 -0.96105945 -0.11613035
-0.32125881 -0.81692541 -0.070115089
-0.31627479 -0.4796344 0.037565708
-0.33831081 0.064183593 -0.30501938
-0.31974882 -0.32416642 0.088581562
-0.32461381 -0.64740241 -0.01458931
-0.32786882 -0.12452042 -0.083595276
-0.32288679 -0.53261936 0.022045612
-0.34532481 0.061971605 -0.3224225
-0.33305982 -0.81628644 -0.067082405
-0.3278918 -0.47912645 0.040512562
-0.35421079 0.091570616 -0.37746429
-0.3358438 -0.22667146 -0.0019264221
-0.33561781 -0.6019814 0.0027065277
-0.34143782 -0.12973344 -0.11630917
-0.3504968 -0.094611406 -0.17745352
-0.3527838 -0.055779457 -0.22340918
-0.3567878 0.0121786 -0.30383635
-0.3482728 -0.13235939 -0.13278627
-0.3574158 -0.097176433 -0.19423151
-0.35197881 -0.8916924 -0.086889267
-0.34932479 -0.72745037 -0.034508228
-0.34801382 -0.64626837 -0.0086183548
-0.3461608 -0.53157341 0.027960777
-0.37094581 0.0074785948 -0.33872032
-0.3590008 -0.95899439 -0.10693026
-0.3551918 -0.72715545 -0.033007145
-0.35297382 -0.28553641 0.010015488
-0.3620438 -0.13765335 -0.16598034
-0.38093081 0.050737619 -0.41075516
-0.35971081 -0.28849041 -0.0058522224
-0.3689788 -0.14032042 -0.18269825
-0.38816079 0.048454583 -0.42868948
-0.38087282 -0.065798402 -0.29191542
-0.39016181 -0.034823418 -0.3494873
-0.3704108 -0.33860445 0.015194893
-0.3742938 -0.81410241 -0.056498528
-0.39735481 -0.037304401 -0.3671174
-0.37718782 -0.34168637 -0.00065422058
-0.38659179 -0.19973838 -0.17154646
-0.40696681 -0.0044894218 -0.4274683
-0.3874158 -0.88975739 -0.077774525
-0.40952879 -0.076030374 -0.36179209
-0.4118478 -0.042306423 -0.4026351
-0.3919358 -0.81318939 -0.05197525
-0.39034879 -0.72541547 -0.024022102
-0.40063182 -0.2054044 -0.20511532
-0.4043968 -0.25547838 -0.16467619
-0.3938908 -0.59930038 0.017534733
-0.4063648 -0.95633841 -0.094725132
-0.40510681 -0.88881135 -0.073229313
-0.40779081 -0.30959237 -0.11908245
-0.4184998 -0.1593864 -0.30204439
-0.43140382 -0.083848357 -0.41512728
-0.4338668 -0.049910426 -0.45659113
-0.42195481 -0.21401536 -0.25609207
-0.40420482 -0.52904844 0.04268074
-0.4387688 -0.086482406 -0.43308353
-0.41818681 -0.95569038 -0.091685295
-0.41689181 -0.88818944 -0.070206165
-0.41543081 -0.81199443 -0.04596138
-0.42183182 -0.3157624 -0.15214348
-0.42278081 -0.88788044 -0.068694115
-0.4212988 -0.81169939 -0.044459343
-0.41801581 -0.64300239 0.0092077255
-0.43257481 -0.36691046 -0.13016319
-0.4396528 -0.37013745 -0.14670944
-0.42876279 -0.59775841 0.026386738
-0.44676381 -0.37337935 -0.16332912
-0.4354738 -0.6422174 0.013643742
-0.4729338 -0.14009142 -0.47422409
-0.44770581 -0.9541024 -0.084099293
-0.44631881 -0.88666236 -0.062662125
-0.4447538 -0.81053638 -0.038463116
-0.44036981 -0.5972544 0.029329777
-0.44878781 -0.72263241 -0.0091233253
-0.47726682 -0.18205643 -0.44363117
-0.45949879 -0.95347941 -0.081073284
-0.47639981 -0.28581643 -0.33553648
-0.45197082 -0.59675646 0.032270908
-0.4847818 -0.18495941 -0.46173334
-0.4587248 -0.64119041 0.019546509
-0.45781481 -0.59666443 0.03306675
-0.48787782 -0.24068046 -0.41366339
-0.47254682 -0.5099144 -0.096547127
-0.4901748 -0.39319539 -0.2647891
-0.4987148 -0.29523337 -0.38847351
-0.47622982 -0.5531584 -0.062831402
-0.5062288 -0.29840636 -0.40629721
-0.48334479 -0.55681539 -0.079045296
-0.50905478 -0.35416043 -0.35743809
-0.5137828 -0.30159736 -0.42421532
-0.51815879 -0.25294936 -0.48601913
-0.50699675 -0.46220136 -0.24165916
-0.49330482 -0.88430345 -0.050644398
-0.4900668 -0.64756846 -0.0054693222
-0.51437777 -0.46572936 -0.2587471
-0.52410877 -0.36079943 -0.39285946
-0.52900279 -0.30802846 -0.46031618
-0.50490278 -0.56789839 -0.12816334
-0.5066008 -0.95105243 -0.069004059
-0.50732076 -0.62301445 -0.078817368
-0.51247978 -0.95075738 -0.067501068
-0.52328277 -0.53527844 -0.21287918
-0.51675379 -0.88316238 -0.04465723
-0.52423376 -0.9501704 -0.064494133
-0.5202108 -0.7244854 -0.011610508
-0.5546838 -0.3742944 -0.46479321
-0.53810579 -0.54269743 -0.24685812
-0.5331288 -0.67101038 -0.1022563
-0.5455718 -0.54643536 -0.26397228
-0.55944979 -0.48729444 -0.36307907
-0.57020777 -0.38115144 -0.5013113
-0.57324177 -0.43119645 -0.45885038
-0.54017478 -0.88204741 -0.038686275
-0.54776579 -0.67898643 -0.13514853
-0.55645877 -0.59443843 -0.24559736
-0.55854577 -0.65032744 -0.19453526
-0.5681988 -0.55776942 -0.31582928
-0.58250678 -0.49833739 -0.4164362
-0.5564208 -0.74496043 -0.092218399
-0.56254679 -0.68704438 -0.16835546
-0.5758158 -0.56158745 -0.33328629
-0.55945176 -0.9484514 -0.055503368
-0.5735088 -0.65831447 -0.22832727
-0.58347279 -0.56542635 -0.35083151
-0.59807378 -0.50579846 -0.45245934
-0.57747376 -0.69518745 -0.20189047
-0.58673477 -0.61004436 -0.31453753
-0.61257476 -0.44922543 -0.55070639
-0.57117879 -0.94789135 -0.052511215
-0.58499479 -0.69929147 -0.21878529
-0.58862376 -0.66638637 -0.26246023
-0.59440178 -0.61399937 -0.3319931
-0.61380476 -0.51334238 -0.48885632
-0.57703876 -0.94761443 -0.051018238
-0.57918876 -0.82292545 -0.076625347
-0.59255177 -0.70341647 -0.23576021
-0.61157978 -0.67865336 -0.31428909
-0.5954268 -0.88788939 -0.05597353
-0.61931175 -0.68278742 -0.33174515
-0.6254558 -0.63002646 -0.40268517
-0.60283476 -0.89238441 -0.072151184
-0.63331777 -0.63408637 -0.42058229
-0.62387979 -0.78317344 -0.24232531
-0.63091177 -0.72436941 -0.32190943
-0.6461578 -0.59688544 -0.49443913
-0.65062577 -0.69953942 -0.40242624
-0.65714979 -0.64639938 -0.47481918
-0.66652679 -0.7080524 -0.43831348
-0.67025679 -0.74588537 -0.41024113
-0.67453778 -0.71234345 -0.45639229
-0.68135679 -0.65891635 -0.52990246
-0.68259078 -0.71665645 -0.47456312
-0.69770777 -0.66737545 -0.56710434
-0.69435281 -0.7590754 -0.46432829
-0.7024678 -0.76351941 -0.48253918
-0.70700377 -0.72974038 -0.52964449
