# .PCD v0.7 - Point Cloud Data file format
VERSION 0.7
FIELDS x y z
SIZE 4 4 4
TYPE F F F
COUNT 1 1 1
WIDTH 1
HEIGHT 1024
VIEWPOINT 0 0 0 1 0 0 0
POINTS 1024
DATA ascii
1.0394102 -0.059163809 -0.084296703
1.0274131 -0.059064806 -0.085380554
0.99743021 -0.058825791 -0.088059425
0.99143815 -0.058783829 -0.088619709
0.95368618 -0.10819376 -0.12320757
0.95471215 -0.025826812 -0.13074875
0.90657216 0.098665178 0.13687325
0.93779016 -0.10376382 -0.095551491
0.93257916 -0.053099811 -0.056749344
0.90027916 0.13314921 0.14014435
0.93503016 -0.15191185 -0.12030554
0.89032519 0.10316616 0.17108965
0.8921392 0.13532621 0.15740252
0.90083116 0.16710418 0.091828346
0.92112017 0.017496169 -0.10706568
0.90141517 -0.044840813 -0.0027837753
0.91277319 0.019922197 -0.089648724
0.91137719 -0.14501786 -0.078969479
0.86830521 0.17541718 0.16126728
0.89091319 -0.090722799 -0.014003754
0.89621121 0.024735212 -0.055076599
0.8832162 -0.088584781 -0.00061559677
0.8783862 -0.038745821 0.037088394
0.88799715 0.027120173 -0.037940502
0.8755492 -0.086455822 0.012718678
0.87982517 0.029492199 -0.020889759
0.88688415 -0.20443678 -0.07638073
0.84437019 0.18153018 0.21237755
0.8539272 0.21904421 0.13672733
0.86023319 0.24378318 0.086815357
0.87169719 0.031851172 -0.0039343834
0.85214317 0.24566722 0.10435438
0.8294692 0.033274174 0.28510857
0.8314482 0.1440832 0.22336435
0.8560462 -0.19491684 -0.022167683
0.84975618 -0.12709785 0.028696537
0.82012916 0.14404422 0.22163868
0.82214916 0.22672021 0.20518351
0.83769917 -0.075956821 0.07854557
0.83318019 -0.026802838 0.11534643
0.86084419 -0.32773983 -0.10996246
0.81447017 0.14402419 0.22077465
0.8290062 0.28935117 0.1015296
0.80938917 0.2279402 0.21513033
0.81836015 -0.022893786 0.14099646
0.80134821 0.033265173 0.28157759
0.81099617 -0.020952821 0.15374327
0.8313992 -0.24898887 -0.016106606
0.79757017 0.14387816 0.21750832
0.79971516 0.2559852 0.19952059
0.81227815 -0.11622679 0.09416151
0.79386419 0.10826021 0.20012426
0.79257417 0.22771817 0.21102333
0.80062419 -0.065693796 0.14300966
0.79953718 0.053492188 0.15219545
0.81629717 -0.24408281 0.010592461
0.8107512 -0.1809628 0.057445526
0.8048752 -0.11408281 0.10709047
0.8087942 -0.24164677 0.023854256
0.80331218 -0.17867386 0.070519447
0.78073019 0.14365917 0.21368456
0.80737019 -0.30935383 -0.014818668
0.7757802 0.14289021 0.20663548
0.7998572 -0.30677485 -0.001452446
0.7885232 -0.17412686 0.096508503
0.77127618 0.25592822 0.19563341
0.76974916 0.061396182 0.20892763
0.7670452 0.10640717 0.18206358
0.76348019 0.18273818 0.21335459
0.78492916 -0.30165386 0.025101662
0.75996619 0.22625822 0.19349051
0.75712419 -0.053679824 0.21862841
0.75314116 -0.0057297945 0.25386047
0.75411117 0.1080932 0.19419146
0.75248718 0.18234921 0.20867252
0.74604017 -0.0038648248 0.26614761
0.75595719 0.2542842 0.17773151
0.74698418 0.18215418 0.20632935
0.74817616 0.22662419 0.19561958
0.73571515 0.037872195 0.30758953
0.74251419 0.18088716 0.19462442
0.74278921 0.22631717 0.19212866
0.75543916 -0.29154885 0.077550411
0.74987018 -0.22255278 0.12799168
0.7448802 -0.16073084 0.1731863
0.73663116 0.14210618 0.19563627
0.73739821 0.22600919 0.18863344
0.72490418 0.0016812086 0.30271244
0.7394172 0.25370419 0.17019653
0.74814218 -0.28905177 0.090524673
0.73771018 -0.15853286 0.18578339
0.7216692 -0.043909788 0.2802496
0.71791518 0.003513217 0.3148036
0.73056918 -0.15634477 0.19832754
0.72357816 0.14394522 0.20967531
0.71466118 -0.041981816 0.29242754
0.71095216 0.005338192 0.32684755
0.70785415 0.044872165 0.3556056
0.72826719 -0.21556878 0.16616058
0.72112417 -0.21326184 0.17877865
0.7140072 0.18086916 0.19138527
0.69576716 0.082772195 0.36347532
0.70931417 -0.14983881 0.2356596
0.70433617 -0.085045815 0.28263235
0.69023317 0.010763168 0.36268568
0.72732121 0.28172117 0.0098204613
0.71210319 -0.27673185 0.15460539
0.7022872 -0.14768982 0.24800253
0.69736916 -0.083040833 0.29479456
0.71964216 0.2833972 0.026608467
0.70498317 -0.27430081 0.16726255
0.69528717 -0.14554977 0.26029444
0.69042915 -0.081043839 0.30690527
0.67655319 0.014342189 0.38634634
0.71200216 0.28506422 0.043315411
0.68548119 0.1872282 0.24460268
0.66975421 0.016119182 0.39810467
0.66776818 0.053937197 0.41749239
0.66862017 0.089152217 0.40917444
0.68584019 -0.20187783 0.24110746
0.6813702 -0.14129686 0.28473663
0.69684118 0.28837222 0.076479435
0.6744532 -0.13918579 0.29688168
0.67090815 0.1909222 0.27576447
0.67790121 0.22855216 0.20632362
0.68250418 0.2533372 0.16060448
0.67613316 0.027258217 0.22387266
0.71607119 -0.39149678 -0.17274761
0.66294217 -0.073141813 0.35487556
0.66965216 0.028371215 0.23133945
0.6607002 -0.13498878 0.32103062
0.64850116 0.1334402 0.38724756
0.65078717 0.16323322 0.36414337
0.64609617 -0.023155808 0.41155243
0.66698116 0.29488021 0.14177656
0.64705616 -0.13082886 0.34498549
0.65031016 0.03169018 0.25361824
0.69227219 -0.39208984 -0.17823172
0.64162517 0.23725116 0.28457355
0.65227616 0.2980842 0.17395163
0.6421712 -0.25290084 0.27890348
0.63760918 -0.18635678 0.32628059
0.63674718 -0.00081479549 0.27618933
0.63187218 0.071012199 0.26764345
0.62401021 0.001450181 0.29084444
0.62473816 0.036069214 0.28307533
0.62549418 0.072059214 0.27500057
0.61340916 -0.12058675 0.40405035
0.62076616 0.15172917 0.26471758
0.62330818 0.30438817 0.23731947
0.6625402 -0.39294982 -0.18559456
0.6106382 -0.17769885 0.37389755
0.60739219 0.12142217 0.28662539
0.5951612 -0.11751676 0.42102528
0.60337418 -0.076005816 0.33076954
0.60334921 0.23592919 0.26858044
0.60013521 0.076215208 0.30424929
0.6085642 0.35014921 0.21072245
0.5961352 0.19285518 0.28572845
0.59757715 0.26526022 0.26957846
0.58908719 0.15643817 0.3013525
0.58616716 0.0081611872 0.33439064
0.59124517 0.26606619 0.27692652
0.58684421 0.042537212 0.32673168
0.58155417 -0.23232985 0.38659143
0.5835132 -0.12665677 0.36443043
0.5827952 0.15737218 0.30862951
0.58437419 0.23845017 0.29058361
0.58127517 0.079299212 0.32600355
0.57729018 -0.12539387 0.37155867
0.57808018 0.23928517 0.29788351
0.57433319 0.044668198 0.34114552
0.62092918 -0.3943758 -0.19684744
0.56836915 -0.22786582 0.41001034
0.57108319 -0.12413478 0.37867069
0.5618152 -0.22564876 0.4216485
0.56401819 0.16015518 0.33034658
0.56553817 0.24094719 0.31242752
0.56607115 0.2692672 0.30614662
0.56684816 0.31055921 0.29698849
0.55827218 0.16038316 0.33177137
0.55532318 0.013185203 0.36689568
0.56128019 0.31050521 0.29595041
0.55671716 0.082775176 0.3502903
0.55288619 0.1600982 0.32893133
0.55362117 0.19716519 0.32008266
0.5499652 0.012847185 0.36408329
0.55678821 0.35682219 0.28197527
0.54837918 -0.067095816 0.3831687
0.54908019 0.24049717 0.30681944
0.54597116 0.082148194 0.34463739
0.59120619 -0.39555478 -0.20557356
0.54099518 -0.17124784 0.40515661
0.5419752 -0.12133276 0.39323568
0.5414812 0.12763017 0.33086634
0.54282218 0.19661921 0.31438255
0.54502219 0.30981117 0.28733635
0.54592717 0.35639322 0.2762146
0.53566515 -0.17165279 0.40237761
0.53520817 0.081518173 0.33897829
0.54049015 0.35617721 0.27333164
0.5312922 -0.12210786 0.38765526
0.53129917 0.1589492 0.31755161
0.5328362 0.23972219 0.29823351
0.52914315 0.045665205 0.34464455
0.53504819 0.3559612 0.27044439
0.52594221 -0.1224978 0.38486147
0.5274142 0.23946321 0.29536867
0.52311516 0.011144221 0.34999752
0.5279482 0.26779521 0.28858948
0.52960318 0.3557452 0.26755762
0.51965022 -0.17287481 0.39402723
0.51988721 0.1264292 0.31949568
0.52048218 0.1583702 0.31184864
0.52251619 0.26754516 0.28571653
0.51903319 0.080566168 0.33047438
0.51328319 -0.22807086 0.40435457
0.5157522 0.19524217 0.30009747
0.51655817 0.23894221 0.28963041
0.5187012 0.3553102 0.26177359
0.50906521 0.1258232 0.31379843
0.54957515 -0.39743078 -0.21875858
0.50422418 0.15749621 0.30328131
0.54362518 -0.39771986 -0.22073174
0.49544221 -0.031064808 0.34557056
0.50148422 0.3079322 0.26427555
0.49740919 0.079285204 0.31910753
0.50231522 0.35465318 0.25308132
0.49287921 -0.17493284 0.38007164
0.4937712 -0.12485683 0.3680625
0.49280322 0.12490916 0.30523729
0.49402222 0.19412619 0.28863049
0.48654622 -0.23023283 0.39044237
0.48737422 0.12460321 0.30238056
0.49055821 0.3074562 0.25848961
0.4913722 0.35421121 0.24727726
0.48214221 -0.17576385 0.37447643
0.4838852 0.23736221 0.27236843
0.4799442 0.0083711743 0.32735825
0.4843742 0.26577717 0.26554346
0.4850882 0.30721718 0.25559235
0.47676721 -0.17618084 0.37167549
0.4770472 0.15602422 0.28896141
0.47842622 0.23709619 0.26948357
0.47511321 0.042323172 0.3162775
0.4713892 -0.17659986 0.3688736
0.47159922 0.15572721 0.28609037
0.4729622 0.23682916 0.26659632
0.4734402 0.26526618 0.25976133
0.47492322 0.35354519 0.23855352
0.50790322 -0.39957178 -0.23307657
0.46600622 -0.17701876 0.36606932
0.46685022 -0.1268518 0.35401154
0.46775922 -0.072709799 0.34099865
0.46561521 0.12336922 0.29092741
0.46749422 0.23656219 0.26370859
0.4686552 0.3064962 0.24689245
0.46425822 0.041643202 0.3105793
0.46062019 -0.17743981 0.36326265
0.4614532 -0.12725484 0.35119534
0.4575952 -0.033624828 0.32575464
0.45941022 0.077009201 0.2991395
0.4543272 -0.23286581 0.3736887
0.45064721 -0.12806177 0.34555769
0.4452382 -0.1284678 0.34273434
0.44131222 -0.034737825 0.31723166
0.4430612 0.076021194 0.29054928
0.43882221 0.15392822 0.26882458
0.4394052 0.19128418 0.25982141
0.44118121 0.30528218 0.23235369
0.43525422 -0.07502079 0.3240056
0.43158922 0.039583206 0.29343843
0.43213922 0.075357199 0.28481245
0.42982021 -0.075408816 0.32116747
0.42737421 0.1211772 0.27080727
0.4219602 -0.23554182 0.35686255
0.42279622 -0.18041575 0.34356356
0.4229362 0.19041717 0.2511363
0.42359421 0.23439717 0.24052238
0.41641021 0.12054318 0.26503944
0.41743821 0.19012618 0.24823856
0.4180882 0.23412317 0.23761463
0.4191232 0.30429918 0.22067928
0.41519922 0.038541198 0.28484058
0.41572821 0.074355185 0.27619267
0.41981721 0.35128617 0.20933437
0.4482502 -0.40309584 -0.25554132
0.41113821 -0.2364428 0.35123825
0.41195321 -0.18127584 0.33791733
0.41257721 0.23384821 0.23470545
0.40863222 -0.036988795 0.30013132
0.4092252 0.0037341714 0.29029465
0.4102492 0.074019194 0.27331448
0.40652519 -0.18170786 0.33509159
0.40725821 -0.13133681 0.32292461
0.40805021 -0.076973796 0.30979156
0.40642822 0.18954217 0.2424345
0.4031702 -0.037367821 0.29727459
0.40806821 0.30380321 0.21482944
0.40109122 -0.18214083 0.33226347
0.4003872 0.15179318 0.24858522
0.39770421 -0.0377478 0.29441547
0.43031821 -0.40426075 -0.26274872
0.39601621 0.23302019 0.22596169
0.38892421 0.11894417 0.2505827
0.38988221 0.18866122 0.23371124
0.39048821 0.2327432 0.22304344
0.39088121 0.26134318 0.21612024
0.38779521 0.036785185 0.27046728
0.39210021 0.35013318 0.19464445
0.38400921 -0.23871779 0.33714342
0.3862102 -0.078555822 0.29838133
0.3865422 0.3499012 0.19169855
0.37789822 0.11829919 0.24478626
0.3788282 0.18806916 0.22788429
0.40637621 -0.40589178 -0.27269077
0.37312621 -0.23963583 0.33149147
0.37453622 -0.13383877 0.30586338
0.37237921 0.11797416 0.24188328
0.36840522 -0.18476379 0.3152523
0.36906821 -0.13426077 0.30301142
0.36685622 0.11765021 0.23898029
0.36727321 0.14993018 0.23115349
0.36923721 0.30204719 0.19428062
0.36625722 0.071301162 0.25021839
0.36073822 0.070957184 0.24732161
0.38839522 -0.40717483 -0.28040552
0.3574762 -0.18564785 0.3095665
0.35579422 0.11699718 0.23316431
0.35619822 0.1493032 0.22532463
0.3538202 -0.040821791 0.27146435
0.35476422 0.034647167 0.25314951
0.35521421 0.070612192 0.24442148
0.3520042 -0.18609178 0.3067193
0.35111722 0.18657619 0.21328163
0.35166121 0.23077917 0.2025485
0.3763932 -0.40805781 -0.28567076
0.3475202 0.34825718 0.17102051
0.3416602 -0.13638186 0.28873062
0.3395552 0.1483562 0.21656656
0.36438122 -0.4089638 -0.29103231
0.3361662 -0.13680875 0.28586626
0.33681521 -0.082176805 0.27259064
0.33361921 0.11568117 0.22150755
0.33225122 -0.0014408231 0.24998426
0.33577722 0.30051619 0.17657948
0.3326562 0.033202171 0.24156046
0.3280642 0.1153512 0.21858931
0.3288672 0.18536818 0.20155764
0.32937521 0.2296412 0.19078922
0.32672021 -0.0018178225 0.24709034
0.32578921 -0.082992792 0.26683426
0.32072321 -0.04317081 0.25416327
0.32458821 0.30000019 0.1706605
0.32157519 0.03247422 0.23575449
0.32512122 0.34730417 0.15915155
0.31951022 0.3470642 0.15617943
0.31296721 -0.24477386 0.30025959
0.3101002 -0.0029547811 0.23839045
0.3133812 0.29948217 0.16473341
0.3074722 -0.24524784 0.29740953
0.30862522 -0.13896382 0.27151823
0.30579922 0.1140182 0.20688725
0.30614421 0.14643919 0.19898844
0.30411321 -0.044359803 0.2454834
0.3282662 -0.41181684 -0.30771255
0.30141622 0.22820121 0.17603827
0.2975772 -0.13983381 0.26576662
0.2946392 0.11334622 0.20102453
0.29581022 0.22791117 0.17308235
0.29301921 -0.045156837 0.23968649
0.2965332 0.2986992 0.15582466
0.2941632 0.066760182 0.21238756
0.31620321 -0.41281581 -0.31347847
0.29204622 -0.14027083 0.26288652
0.2874642 -0.045556784 0.23678446
0.31016621 -0.41332185 -0.31639338
0.2860032 -0.19150579 0.27239943
0.28190422 -0.045958817 0.23387861
0.28230721 -0.0048698187 0.22384739
0.28264821 0.0298962 0.21535826
0.2781752 0.14481819 0.18427563
0.27673522 -0.0052558184 0.22093344
0.27964422 0.29791021 0.1468935
0.27077219 -0.046764791 0.22806454
0.29203022 -0.41487885 -0.32529831
0.26887819 -0.24860477 0.27738762
0.27039319 -0.087138772 0.23792934
0.26665822 0.11165118 0.18632364
0.2673032 0.18197817 0.16913033
0.26771119 0.22644818 0.15826845
0.2652002 -0.047168791 0.22515345
0.26797619 0.25530118 0.1512146
0.26271421 0.29711521 0.13794231
0.26062921 0.064611197 0.19479942
0.25876719 -0.14291477 0.24556065
0.25470519 0.028026164 0.2007246
0.2550222 0.064250171 0.19185925
0.24941219 0.063887179 0.18891859
0.24672419 -0.25054979 0.26589966
0.2453872 0.25416517 0.13929033
0.24573919 0.29631317 0.12896824
0.2434952 0.027271211 0.19485426
0.23949419 0.22496617 0.14338732
0.23817919 0.063160181 0.18302965
0.2556552 -0.41814876 -0.34379578
0.23607419 -0.19567978 0.24645662
0.23383519 0.2246682 0.14040327
0.23198919 -0.0083808303 0.19752836
0.2313422 -0.090105772 0.21756554
0.22728519 0.10924119 0.16564655
0.22532119 -0.1456008 0.22815323
0.2212912 0.062061191 0.17417669
0.2189292 -0.2530098 0.25149155
0.2173522 0.29496318 0.1139636
0.2141362 -0.14650476 0.22233438
0.21084119 0.17881119 0.13940525
0.2100102 0.061324179 0.16826248
0.2081742 -0.19803977 0.23196745
0.2089262 -0.091825843 0.20587826
0.2049062 0.14050418 0.14575338
0.20358719 -0.05168879 0.19298124
0.19902019 0.10749316 0.15080547
0.1999802 0.25185621 0.11532545
0.1984652 0.024212182 0.17128134
0.19732119 -0.14787078 0.21358728
0.19409519 0.22255522 0.11945343
0.19455519 0.29387021 0.10191536
0.1910162 -0.25550187 0.2370286
0.1876802 0.1067872 0.14485455
0.1854202 -0.25600481 0.23412848
0.1821982 0.13914716 0.13382053
0.1824272 0.17719722 0.12445641
0.1812892 -0.011973798 0.17102528
0.1815002 0.023048162 0.16240263
0.1817192 0.05946517 0.15343666
0.18015519 -0.20043182 0.21742153
0.1767302 0.17687118 0.12145948
0.17563219 -0.012378812 0.16806746
0.1774042 0.29304421 0.092852592
0.17583519 0.022658169 0.15943766
0.17515519 -0.094438791 0.18827963
0.1706322 0.10572219 0.1359067
0.16973819 -0.054207802 0.17531538
0.18242219 -0.42533278 -0.38359737
0.1692012 -0.15016985 0.1989646
0.16511719 0.13812119 0.12484455
0.1657192 0.25009221 0.097249508
0.1659472 0.29248917 0.086798668
0.1646882 0.058338165 0.14451265
0.1590012 0.057960212 0.14153337
0.1537032 0.1374312 0.11884737
0.1541142 0.22040319 0.098381519
0.1527472 -0.055482805 0.16645145
0.15446819 0.29193121 0.080734253
0.1485202 0.24920017 0.08817625
0.1415842 -0.014826834 0.15027857
0.1427782 0.24890119 0.085148335
0.1429702 0.29137021 0.074660301
0.13690519 0.21946919 0.089314461
0.1372142 0.29108918 0.071619511
0.1360442 0.019900203 0.13862038
0.1362022 0.056440175 0.12959146
0.1348342 -0.2605828 0.20793247
0.13529919 -0.15296781 0.18133831
0.13081619 0.13604319 0.1068244
0.1298572 -0.097986817 0.16468334
0.12508319 0.13569319 0.10381365
0.1255192 0.2480002 0.076045513
0.1190502 0.055289209 0.12060833
0.1138882 0.2182132 0.077189445
0.12082619 -0.43198586 -0.41968966
0.11242019 -0.20629776 0.18227768
0.1072232 -0.058929801 0.14270735
0.1075912 0.054518163 0.11460829
0.10674419 -0.20679486 0.17933369
0.1070912 -0.099787831 0.15282965
0.1023472 0.21757919 0.071109295
0.10256519 0.28938621 0.053318501
0.1012172 -0.15580976 0.16362858
0.095791191 -0.059801817 0.13674641
0.096111193 0.05374217 0.10859728
0.095216192 -0.26421881 0.18742657
0.095676191 -0.10069478 0.1468854
0.090363197 0.053352177 0.10558844
0.089537196 -0.26474285 0.18448925
0.084724195 0.10027117 0.090836525
0.084802195 0.13322318 0.08266449
0.084440194 -0.018992782 0.12043238
0.084110193 -0.15724683 0.15474129
0.078164198 -0.26579583 0.1786046
0.078286193 -0.20929885 0.16457844
0.073089197 0.052178204 0.096545696
0.072679199 -0.15821075 0.14880466
0.072788194 -0.1025238 0.13497257
0.067258194 0.015057206 0.1026535
0.066769198 -0.26685381 0.17270947
0.066867195 -0.21030986 0.15865946
0.061671197 0.13179117 0.070522308
0.055984199 0.21501422 0.046693325
0.055622198 -0.062891781 0.11580944
0.050037198 0.098031163 0.072649479
0.049946196 0.013823211 0.093604565
0.052372195 -0.44002879 -0.46257353
0.049639195 -0.26845181 0.16385031
0.049701199 -0.21183479 0.14976263
0.044267196 0.13070822 0.061386585
0.044098198 -0.063784838 0.10980368
0.046110198 -0.44079876 -0.46664572
0.043920197 -0.26898777 0.16089344
0.038529195 0.24338919 0.030184269
0.038557194 0.28619421 0.019521236
0.032573197 -0.022832811 0.09335947
0.032688197 0.24307519 0.027104378
0.032707196 0.28589916 0.016433239
0.032537196 -0.10576975 0.11402845
0.026775196 -0.065132797 0.10077763
0.026851196 0.28560418 0.013342381
0.026730197 -0.2706008 0.15200567
0.026742196 -0.21388781 0.13786554
0.020988196 0.12925118 0.049171448
0.020988196 0.24244517 0.020938396
0.020988196 0.28530818 0.010248661
0.020988196 -0.21440387 0.13488436
0.015147196 0.16741318 0.036495686
0.015138196 0.21272719 0.0251894
0.015189197 -0.024132788 0.084289551
0.015173197 0.048199177 0.06623745
0.015231196 -0.21492076 0.13190269
0.0093011968 0.16706318 0.03342247
0.0093531962 0.04779619 0.063192368
0.0083851963 -0.44555175 -0.49165249
0.0037371963 -0.27277279 0.14012051
0.0037001967 -0.21595979 0.12592936
-0.0024088044 0.16635919 0.027269363
-0.0024488028 0.21173418 0.015931606
-0.0022048037 -0.06740278 0.085680485
-0.0022728033 0.010064185 0.066321373
-0.002120804 -0.16459882 0.10997248
-0.0082718041 0.16600621 0.024190426
-0.0080168042 -0.067859828 0.082654476
-0.0080618039 -0.025881827 0.072157383
-0.0081408042 0.046579182 0.054040432
-0.010578802 -0.44801784 -0.5045476
-0.014139803 0.16565222 0.021106243
-0.019953804 0.12666416 0.027688503
-0.020012805 0.16529721 0.018021584
-0.019719804 -0.02676183 0.066078663
-0.019773802 0.0087912083 0.057179451
-0.019829804 0.045763195 0.04792738
-0.019426802 -0.21805382 0.11395264
-0.019505804 -0.16610277 0.10095167
-0.025970804 0.2103982 0.0035524368
-0.025555803 -0.027203798 0.063035488
-0.037246801 -0.028091788 0.056937695
-0.037405804 0.044531167 0.03873539
-0.036941804 -0.1676178 0.091905594
-0.037064806 -0.11146784 0.077833652
-0.043099806 -0.028536797 0.053884506
-0.042638808 -0.22016883 0.10193539
-0.055261806 0.12441117 0.0091705322
-0.061164804 0.1240322 0.0060725212
-0.061283804 0.16278821 -0.003657341
-0.061423808 0.2083692 -0.015101433
-0.061514802 0.23794621 -0.022527695
-0.060802802 0.0057861805 0.035756588
-0.060436808 -0.11340582 0.065685272
-0.067201808 0.16242617 -0.0067653656
-0.067590803 0.28077519 -0.036493778
-0.072447807 -0.030780792 0.038582325
-0.078605808 0.041620195 0.017194271
-0.087151803 -0.45848584 -0.55881453
-0.077403806 -0.28054476 0.09820652
-0.078021802 -0.11487281 0.056546688
-0.085457802 0.27984822 -0.045917511
-0.093589805 -0.45940375 -0.56353855
-0.090627804 0.088726163 -0.0010433197
-0.089947805 -0.074383855 0.040001392
-0.090272807 0.0036062002 0.020372391
-0.090427808 0.040779173 0.011015415
-0.089082807 -0.28167784 0.092176437
-0.096704803 0.1217382 -0.012562752
-0.097075805 0.20631021 -0.033856392
-0.095657803 -0.11634982 0.047384262
-0.1030378 0.20596319 -0.036990643
-0.1017388 -0.075334787 0.033866405
-0.1085978 0.1209662 -0.018796444
-0.10802281 0.0022851825 0.011108398
-0.10717081 -0.17379487 0.055491447
-0.10744381 -0.1173408 0.041261673
-0.12590681 -0.46409178 -0.58759737
-0.1127938 -0.22664177 0.065634251
-0.1133448 -0.11783886 0.038197517
-0.1194708 -0.076769829 0.024641514
-0.1323978 -0.46505177 -0.59250975
-0.1186758 -0.22718978 0.062592506
-0.1192508 -0.1183368 0.035128593
-0.12629281 0.086310208 -0.019715309
-0.12539181 -0.077250838 0.021562576
-0.12562481 -0.034890831 0.010869503
-0.12602781 0.038230181 -0.0075826645
-0.13293381 0.20421916 -0.05271244
-0.14540881 -0.46699083 -0.60241556
-0.13075581 -0.17589486 0.043269634
-0.13842681 0.1190182 -0.034430504
-0.13893181 0.2038672 -0.055866718
-0.13910881 0.23362422 -0.063383579
-0.15192981 -0.4679718 -0.60741854
-0.14345281 -0.036281824 0.0015816689
-0.1425838 -0.17695284 0.037140369
-0.1509418 0.20316219 -0.062181473
-0.15113281 0.23294622 -0.069712639
-0.1561708 0.084269166 -0.035354614
-0.15665181 0.15688419 -0.053725719
-0.1550848 -0.079672813 0.0061182976
-0.1540848 -0.23050785 0.044282436
-0.16216481 0.083858192 -0.03849268
-0.16239481 0.1174432 -0.046992302
-0.1629768 0.20245218 -0.068508625
-0.1596138 -0.28859282 0.055785656
-0.16867781 0.15612918 -0.060036659
-0.16952081 0.27542716 -0.090246677
-0.1659348 -0.23162484 0.038157463
-0.1667078 -0.12237084 0.010487556
-0.17503381 0.20173919 -0.074847698
-0.17354281 -0.0026438236 -0.023071766
-0.1912588 -0.47400582 -0.63810444
-0.1807248 0.15537119 -0.06635952
-0.19784981 -0.47503686 -0.64333153
-0.17820081 -0.18015885 0.018690586
-0.1786278 -0.12339187 0.004298687
-0.1871148 0.20102316 -0.081198692
-0.19248581 0.11545122 -0.062757492
-0.19946581 0.2302022 -0.095149517
-0.19608781 -0.18177986 0.0094285011
-0.20456381 0.11464721 -0.069085598
-0.20528181 0.19994217 -0.090746403
-0.21061081 0.11424416 -0.07225275
-0.2092638 -0.041470826 -0.032691479
-0.23096181 -0.48030579 -0.66997147
-0.2080408 -0.18286681 0.003238678
-0.21742381 0.19921619 -0.097127438
-0.2130468 -0.29391682 0.028234482
-0.21953781 -0.2367208 0.010459423
-0.22847681 0.079266191 -0.07318449
-0.2287918 0.11302817 -0.081774712
-0.22498381 -0.29511583 0.022081375
-0.22654681 -0.12752783 -0.020566463
-0.23638479 0.27184421 -0.12548971
-0.23201881 -0.18505776 -0.0091733932
-0.2375098 -0.23844481 0.0011763573
-0.23802681 -0.18560886 -0.012282372
-0.24702682 0.11180317 -0.09132576
-0.24788381 0.19738722 -0.11313248
-0.24862181 0.27118218 -0.13193655
-0.24461479 -0.12909985 -0.029939651
-0.25107878 -0.087627769 -0.043777466
-0.25151679 -0.044847786 -0.054685593
-0.25227278 0.029004216 -0.073509693
-0.25921279 0.11098117 -0.097704411
-0.25834978 0.028552175 -0.07668066
-0.25492978 -0.29813886 0.0066514015
-0.26495278 0.076709211 -0.092259407
-0.26531479 0.11056918 -0.1008997
-0.2640298 -0.0095847845 -0.07023859
-0.26443279 0.028100193 -0.079854488
-0.2627348 -0.13068283 -0.039337635
-0.26971579 -0.046312809 -0.064156532
-0.2681638 -0.18838477 -0.027877331
-0.27797878 0.14916521 -0.11737061
-0.2813898 -0.090179801 -0.059522629
-0.28187779 -0.047295809 -0.070482731
-0.29113379 0.22490722 -0.14337063
-0.28838879 -0.011479795 -0.082931519
-0.29591978 0.1084922 -0.11692142
-0.29406378 -0.048282802 -0.076820374
-0.2996498 -0.091725826 -0.069006443
-0.30060679 -0.012434781 -0.089295387
-0.3082068 0.1076532 -0.12335253
-0.30869278 0.14717519 -0.1334734
-0.30574879 -0.092242837 -0.072171688
-0.3062768 -0.049274802 -0.083172321
-0.3067238 -0.012913823 -0.092482567
-0.3045238 -0.19176078 -0.046686649
-0.31393278 0.073239207 -0.11786461
-0.3143588 0.10723317 -0.12657356
-0.31543678 0.19328219 -0.14861774
-0.30920979 -0.30367684 -0.0213027
-0.31060579 -0.19232881 -0.04983139
-0.32008278 0.072800219 -0.12107944
-0.3194598 0.023976207 -0.10856533
-0.32668278 0.10638821 -0.13302374
-0.32408279 -0.093804836 -0.081691742
-0.32511479 -0.014357805 -0.10206175
-0.32133979 -0.30492377 -0.027546406
-0.33337778 0.14556521 -0.14641333
-0.3281838 -0.24725676 -0.045630455
-0.32888779 -0.19403982 -0.059286594
-0.33633578 -0.094851851 -0.088053703
-0.34059778 0.22200221 -0.16937971
-0.3411918 0.26610917 -0.1807003
-0.33499378 -0.19461286 -0.062443733
-0.3447488 0.071035206 -0.13396931
-0.34575778 0.14475417 -0.1529007
-0.3430618 -0.052281797 -0.1023016
-0.34037679 -0.24845684 -0.051921368
-0.35093078 0.070591211 -0.1371994
-0.35260579 0.19099617 -0.16813469
-0.34972179 -0.016299784 -0.11487436
-0.35882479 0.19061118 -0.17139959
-0.35642779 0.021176219 -0.12784576
-0.3609198 -0.096961856 -0.10081148
-0.36261079 0.020705163 -0.13106966
-0.35871479 -0.25026786 -0.061379433
-0.36708078 -0.09749186 -0.10401058
-0.36880079 0.020233214 -0.13429642
-0.3656188 -0.19749975 -0.078274727
-0.3664608 -0.13988185 -0.093101501
-0.37572378 0.068804204 -0.15015364
-0.3732478 -0.098023772 -0.10721064
-0.37388879 -0.054821789 -0.11832857
-0.3749958 0.019760191 -0.13752747
-0.3824538 0.1025362 -0.16220474
-0.3837578 0.1890642 -0.18448973
-0.37878278 -0.14098883 -0.099484444
-0.38816079 0.067904174 -0.15665054
-0.3886838 0.10210317 -0.16546345
-0.38929278 0.14188421 -0.17571259
-0.3911528 0.26332617 -0.20700645
-0.38740879 0.018810213 -0.14399958
-0.39362478 0.018333197 -0.14724064
-0.39113081 -0.14210176 -0.10588074
-0.40062079 0.06700021 -0.16315746
-0.3979848 -0.10016584 -0.12004566
-0.39924479 -0.020241797 -0.14065647
-0.3946338 -0.31253684 -0.065259457
-0.3955588 -0.25392878 -0.080378532
-0.40546378 -0.020739794 -0.14389277
-0.40172079 -0.25454378 -0.083555698
-0.41556978 0.2175352 -0.20878363
-0.4087618 -0.20160186 -0.10056734
-0.42135879 0.18671519 -0.20422459
-0.42259181 0.26155919 -0.22355652
-0.41792378 -0.021740794 -0.15037632
-0.4130998 -0.31447482 -0.074757576
-0.41406679 -0.25577986 -0.089920521
-0.4149498 -0.20219278 -0.10376453
-0.41590378 -0.14434481 -0.11871052
-0.42562279 0.065177202 -0.1762166
-0.42619678 0.099481165 -0.18508148
-0.42354879 -0.058950782 -0.14413643
-0.42211279 -0.14490879 -0.1219244
-0.4318898 0.0647192 -0.17948866
-0.42734578 -0.20338082 -0.11016846
-0.4381628 0.064259171 -0.18276453
-0.4387528 0.098599195 -0.19164753
-0.4360278 -0.05999583 -0.15061951
-0.4407708 0.21601617 -0.22202253
-0.44153479 0.26048821 -0.23352766
-0.43665978 -0.023249805 -0.16012669
-0.43263179 -0.25764382 -0.099488735
-0.44291979 -0.023755789 -0.16338253
-0.44358578 0.014478207 -0.17328072
-0.44077981 -0.14660883 -0.13158941
-0.4534128 0.21525121 -0.2286644
-0.45419878 0.25977021 -0.24019241
-0.44400379 -0.31773686 -0.09064436
-0.4459908 -0.20517385 -0.11979771
-0.45919678 0.18433118 -0.22407866
-0.4540208 -0.10505986 -0.14910555
-0.4561418 0.013503194 -0.17982149
-0.45125678 -0.25952184 -0.10908556
-0.45325679 -0.14774883 -0.13804674
-0.46332479 0.062410176 -0.19590044
-0.46552679 0.18393022 -0.22739935
-0.4610678 -0.062101781 -0.16362953
-0.46242878 0.013013184 -0.18309832
-0.45747778 -0.26015186 -0.11229038
-0.47594678 0.061478198 -0.20248938
-0.4773328 0.1359942 -0.22182465
-0.47502679 0.012031198 -0.18966055
-0.4836708 0.13556617 -0.22514248
-0.48455879 0.18272221 -0.23738337
-0.48061278 -0.026815832 -0.18299055
-0.48133478 0.011537194 -0.19294739
-0.4750708 -0.32103884 -0.10660934
-0.47618181 -0.26204777 -0.12192774
-0.48925176 0.095025182 -0.21804762
-0.49091682 0.1823172 -0.24071836
-0.48130378 -0.32170379 -0.10981369
-0.48456678 -0.15062475 -0.15425253
-0.49559382 0.0945732 -0.22136354
-0.49728081 0.18191117 -0.2440567
-0.49787179 0.21254522 -0.2520175
-0.49322978 -0.027844787 -0.18955231
-0.48754278 -0.32237077 -0.11301851
-0.4988288 -0.065297782 -0.18323755
-0.50512683 0.25686121 -0.26699162
-0.50761783 0.059129179 -0.21901941
-0.50587684 -0.028880835 -0.19613075
-0.5066368 0.0095521808 -0.20612669
-0.51546985 0.13340718 -0.24178934
-0.51641583 0.1806882 -0.2540946
-0.51792681 0.2561242 -0.27372456
-0.51220983 -0.029399812 -0.19942331
-0.51297981 0.0090531707 -0.20942974
-0.50856882 -0.21124387 -0.15210247
-0.50973582 -0.15295076 -0.16727352
-0.52342981 0.2109772 -0.26543856
-0.51932883 0.0085521936 -0.21273661
-0.52741385 0.09229821 -0.23799038
-0.52957481 -0.11175585 -0.18826675
-0.53625184 0.2101872 -0.2721715
-0.53204983 0.007548213 -0.21936035
-0.52635181 -0.26717377 -0.14776278
-0.54361379 0.25464118 -0.28723764
-0.53761083 -0.031489789 -0.21262932
-0.54658681 0.090919197 -0.24800968
-0.53896081 -0.26847076 -0.15425348
-0.55299181 0.090457201 -0.2513566
-0.54955584 -0.069633782 -0.20957232
-0.55649883 0.25389421 -0.29401445
-0.55117983 0.0060321689 -0.22932053
-0.56131083 0.17779821 -0.27763653
-0.5567348 -0.033070803 -0.22257042
-0.55277485 -0.21558177 -0.17491055
-0.56775182 0.17738217 -0.28101349
-0.5639708 0.0050151944 -0.23597956
-0.56040084 -0.15767181 -0.19347572
-0.57420081 0.17696416 -0.28439474
-0.56951779 -0.034131825 -0.22921467
-0.57037485 0.0045042038 -0.2393136
-0.56426281 -0.27108383 -0.16727638
-0.5692718 -0.33118975 -0.15499067
-0.58712083 0.17612517 -0.29116869
-0.58781981 0.20698917 -0.2992425
-0.57951581 -0.15946579 -0.20335865
-0.59157383 0.087663174 -0.27151155
-0.5935908 0.17570418 -0.29455948
-0.58331281 -0.2730608 -0.17707872
-0.58589983 -0.16006577 -0.20665836
-0.59722382 0.052398205 -0.26576853
-0.61013681 0.051417172 -0.27250338
-0.61304384 0.1744352 -0.30475664
-0.6080398 -0.037344813 -0.24923277
-0.6195448 0.17401022 -0.30816364
-0.61254483 -0.11923385 -0.2312417
-0.62136179 0.25010318 -0.32812357
-0.61448681 -0.037884831 -0.25258064
-0.61520082 -0.27638686 -0.1934824
-0.63041383 0.084828198 -0.29179478
-0.63791084 0.1249612 -0.30585575
-0.63908583 0.17272919 -0.31840563
-0.63079482 -0.16431379 -0.22986269
-0.63831484 -0.12158382 -0.24458456
-0.6422078 -0.22448277 -0.22102547
-0.64368683 -0.16554081 -0.23652363
-0.65645283 0.082914174 -0.3053894
-0.65948182 0.2024892 -0.33685064
-0.66062981 0.2477842 -0.34876633
-0.6542958 -0.0022448301 -0.28298473
-0.67180485 0.17057317 -0.3355484
-0.67260683 0.20165819 -0.34373665
-0.66630882 -0.042252839 -0.27949858
-0.66014081 -0.28111184 -0.21659231
-0.67068982 -0.12455177 -0.26134062
-0.6695568 -0.16801286 -0.24988747
-0.68168885 0.045938194 -0.30980444
-0.67448783 -0.2277348 -0.23765755
-0.68823683 0.04543221 -0.31321955
-0.68369085 -0.12574875 -0.26806736
-0.68586481 -0.043912828 -0.28965378
-0.67791682 -0.34314775 -0.21072531
-0.68096483 -0.22839081 -0.24099445
-0.69020182 -0.12634981 -0.27143669
-0.69139081 -0.082001805 -0.28313971
-0.69894981 0.19998318 -0.35755444
-0.70016783 0.24543017 -0.36954737
-0.69239682 -0.04446882 -0.29304552
-0.69672281 -0.12695277 -0.27481031
-0.7067858 0.24503422 -0.37302542
-0.69893885 -0.045025826 -0.2964406
-0.69394284 -0.22970581 -0.24768162
-0.71000379 0.11988819 -0.34355259
-0.7032488 -0.1275568 -0.27818632
-0.70655382 -0.0065048337 -0.31016254
-0.69894481 -0.28522682 -0.2365365
-0.70543683 -0.28591776 -0.23987341
-0.71632379 -0.1287688 -0.28495169
-0.7175588 -0.08432281 -0.29670477
-0.71511084 -0.17239583 -0.27341461
-0.71675581 -0.34748685 -0.23063135
-0.73644584 0.11801016 -0.35737371
-0.72942984 -0.12998676 -0.2917304
-0.73068881 -0.085491776 -0.30350876
-0.73998284 0.24304122 -0.39046955
-0.73175484 -0.047832787 -0.31347656
-0.74307483 0.1175372 -0.36083937
-0.7359938 -0.13059783 -0.29512453
-0.73833984 -0.048398793 -0.31689453
-0.73945785 -0.0092098117 -0.32727242
-0.73627681 -0.34968078 -0.24063444
-0.74914384 -0.13182485 -0.30192661
-0.75153381 -0.049533784 -0.32374144
-0.7445488 -0.29010284 -0.25996876
-0.74787384 -0.17557275 -0.29032946
-0.7607758 0.039791167 -0.35101461
-0.75703782 -0.087846756 -0.31716156
-0.76741582 0.039270163 -0.35447359
-0.76103282 -0.17685485 -0.29712057
-0.77406281 0.038749218 -0.35793638
-0.77777779 0.1634922 -0.39105558
-0.77871281 0.19486022 -0.3993845
-0.77919585 -0.012499809 -0.34792852
-0.78738183 0.037702203 -0.3648715
-0.7911638 0.16258818 -0.39806461
-0.78350782 -0.090223789 -0.33087349
-0.78465384 -0.052395821 -0.34092665
-0.77734882 -0.29363585 -0.27681255
-0.78082579 -0.17878783 -0.30733442
-0.79639184 0.11371619 -0.38870144
-0.78878182 -0.1355418 -0.3224206
-0.8007338 0.036649168 -0.37182665
-0.80458283 0.16167819 -0.40508938
-0.79052281 -0.29506183 -0.28357744
-0.79222482 -0.23977578 -0.29828358
-0.80742085 0.03612119 -0.37530851
-0.80851984 0.071543217 -0.38473654
-0.81370384 0.23857117 -0.42919636
-0.80461985 -0.054129779 -0.3512845
-0.80584282 -0.014719784 -0.36177444
-0.79712081 -0.29577684 -0.28696442
-0.81651384 0.11226422 -0.39921331
-0.8190158 0.19224221 -0.42051363
-0.82045281 0.23815817 -0.43274069
-0.80545783 -0.2411468 -0.30509472
-0.81677383 -0.093228817 -0.34810257
-0.81397283 -0.18204379 -0.32443857
-0.83397681 0.23733121 -0.43984365
-0.81503284 -0.3586148 -0.28097057
-0.81696182 -0.29793286 -0.29714966
-0.8367098 0.11080122 -0.40976334
-0.82869583 -0.13931179 -0.34305048
-0.83927679 0.19091821 -0.43113232
-0.8434568 0.11031121 -0.41328764
-0.84604579 0.19047517 -0.43468046
-0.83805281 -0.057048798 -0.36862564
-0.84352481 -0.095658779 -0.36195469
-0.84062785 -0.18467581 -0.33818769
-0.85697782 0.1093272 -0.42034864
-0.85857481 0.1579982 -0.43335152
-0.85023481 -0.096269846 -0.36542654
-0.84534681 -0.24529886 -0.32561541
-0.86535984 0.15753317 -0.43690157
-0.8595168 -0.019225836 -0.3896594
-0.8691498 0.066917181 -0.41635036
-0.87215281 0.15706617 -0.44045544
-0.87320584 0.1886912 -0.44891357
-0.85870481 -0.24669576 -0.33248758
-0.87592679 0.06639719 -0.41988373
-0.86889482 -0.14313781 -0.36382151
-0.87168485 -0.060002804 -0.38606453
-0.87301481 -0.020365834 -0.39666939
-0.86539483 -0.24739683 -0.33592844
-0.88411385 0.10734618 -0.43452168
-0.8868348 0.18779218 -0.45605469
-0.88839585 0.23397917 -0.46841764
-0.87977582 -0.0209378 -0.40018177
-0.86815083 -0.36471581 -0.30815649
-0.88829082 0.029684186 -0.41740751
-0.88950682 0.065352201 -0.42696142
-0.88235885 -0.14442575 -0.37077856
-0.89366281 0.18734121 -0.45963144
-0.87482685 -0.36548686 -0.31157255
-0.8769058 -0.30449677 -0.32790756
-0.87880284 -0.24880481 -0.34282351
-0.89773279 0.10634822 -0.44163132
-0.88910282 -0.14507186 -0.37426043
-0.89065081 -0.099967837 -0.38634634
-0.88150984 -0.36625981 -0.31499147
-0.90188283 0.028593183 -0.42448139
-0.90455383 0.10584718 -0.44519377
-0.9062438 0.15471822 -0.45829439
-0.88820082 -0.36703479 -0.31841469
-0.9086898 0.028045177 -0.42802334
-0.91308683 0.1542452 -0.46187544
-0.90106982 -0.19069278 -0.36935139
-0.91370779 -0.023818791 -0.41780043
-0.91911083 -0.064198792 -0.41064978
-0.91245979 -0.25235283 -0.3601284
-0.92136282 -0.19272685 -0.37981033
-0.93729085 0.06165719 -0.45186472
-0.94054282 0.15234119 -0.47623873
-0.94334882 0.2305612 -0.49726343
-0.92597783 -0.25378382 -0.36707544
-0.94565684 0.10281616 -0.46665049
-0.9502548 0.23012918 -0.50088835
-0.94971579 0.024731219 -0.44937038
-0.94639182 -0.066628814 -0.42478752
-0.93526381 -0.37250984 -0.34248447
-0.96239281 0.18277019 -0.49563646
-0.95323282 -0.067239821 -0.42833138
-0.95469582 -0.027322829 -0.43907833
-0.95866483 -0.10625279 -0.4215374
-0.9487828 -0.37409186 -0.34939575
-0.95104784 -0.31271482 -0.3659277
-0.97033983 0.023056209 -0.46009731
-0.9732278 0.10077119 -0.48104048
-0.96693981 -0.068466783 -0.43543339
-0.97723383 0.02249521 -0.46368361
-0.97530383 -0.029094815 -0.44977331
-0.96673483 -0.25811982 -0.38802052
-0.98413384 0.021933198 -0.46727276
-0.98891985 0.14896321 -0.50154257
-0.98437977 -0.15428579 -0.42345572
-0.9759208 -0.37727678 -0.36326742
-0.9826858 -0.19892085 -0.41140747
-0.99933577 0.05681318 -0.48418856
-0.99124682 -0.15495586 -0.42699957
-0.99298477 -0.10945284 -0.43928671
-0.99598587 -0.030878782 -0.46050549
-0.99640477 -0.20031583 -0.41847372
-1.0050098 -0.15630078 -0.43410158
-1.0055948 -0.31882977 -0.39388132
