# .PCD v0.7 - Point Cloud Data file format
VERSION 0.7
FIELDS x y z
SIZE 4 4 4
TYPE F F F
COUNT 1 1 1
WIDTH 1
HEIGHT 1024
VIEWPOINT 0 0 0 1 0 0 0
POINTS 1024
DATA ascii
0.60141933 0.12323308 0.36304092
0.59634733 0.12280113 0.35903597
0.60789037 0.21140808 0.13547087
0.59698737 0.17243809 0.18778992
0.60952234 0.27590609 0.062201977
0.57600135 0.12106013 0.34297085
0.60333532 0.27639109 0.066680908
0.58093637 0.1403591 0.23659992
0.58956736 0.2129941 0.14857292
0.59263736 0.2388351 0.11725569
0.55597132 0.15771013 0.37980795
0.57280833 0.17464912 0.20494699
0.58040535 0.23985213 0.12605
0.55028033 0.1580621 0.38221598
0.57132638 0.21456909 0.16162205
0.55044132 0.11885911 0.32278109
0.54464036 0.15835708 0.38415098
0.56526536 0.21509111 0.16595793
0.56820935 0.2408641 0.13482094
0.55289632 0.069160104 0.29681206
0.54531336 0.11841512 0.31872511
0.53955936 0.15793812 0.38015985
0.55476832 0.17629409 0.21775484
0.54718536 0.033374131 0.29872704
0.57130635 0.32258111 0.041155815
0.54877335 0.17683911 0.222013
0.54159236 0.069642127 0.29941988
0.54278636 0.17738312 0.22626591
0.54998434 0.24237311 0.14793015
0.53594434 0.069882095 0.30072403
0.54111034 0.21716809 0.18324614
0.53084034 0.17846912 0.23475504
0.53509432 0.2176851 0.18755388
0.52455235 -0.00032091141 0.30452299
0.52460533 0.034374118 0.3039341
0.52466035 0.070360124 0.30332708
0.54666632 0.32436609 0.059163094
0.51909232 0.11686313 0.30384493
0.51896834 0.034622133 0.30523491
0.51322234 -0.040893912 0.30781603
0.51328337 0.00019413233 0.3071208
0.52581435 0.24436712 0.16532183
0.50782537 0.11731011 0.30644369
0.51709932 0.21922612 0.20043993
0.50759137 -0.04062587 0.30911398
0.50705338 0.18062311 0.25166368
0.51378137 0.24535811 0.173985
0.49657136 0.1177541 0.30904102
0.50777936 0.2458511 0.1783061
0.49650437 0.071541131 0.30982208
0.51607633 0.32657313 0.081530094
0.49094933 0.11797512 0.31033802
0.48843032 0.15369809 0.34003115
0.49072337 -0.03982687 0.31300497
0.50178635 0.24634314 0.182621
0.49083233 0.035850108 0.31172609
0.48516333 0.0014671087 0.31360769
0.48521334 0.036093116 0.31302309
0.48504835 -0.079962909 0.31498289
0.47813433 0.15283513 0.33193779
0.47246838 0.19778711 0.40013075
0.47955036 0.0017191172 0.31490183
0.47964936 0.072241127 0.31370974
0.48511738 0.37003613 0.24789476
0.47403735 0.072473109 0.31500578
0.46837932 0.036818087 0.31690502
0.46822035 -0.079140902 0.31886292
0.46264833 0.15153313 0.31975794
0.45693135 0.1968751 0.39082193
0.46950334 0.22328413 0.23456192
0.47005236 0.40883711 0.2277379
0.45728034 0.11928612 0.31810808
0.46064132 0.3725431 0.27587175
0.45694134 -0.13362885 0.32237577
0.45147136 -0.037994921 0.32205677
0.45134535 -0.13334394 0.3236661
0.44612536 0.15173608 0.32015085
0.44155934 0.19565308 0.3788271
0.44593036 0.0032141209 0.32265711
0.44602334 0.073619127 0.32146883
0.44582435 -0.078057885 0.32402897
0.44048935 0.11993212 0.32198191
0.43642336 0.19524413 0.37482309
0.44591534 0.22528213 0.2514739
0.44028535 -0.037478864 0.32463789
0.44033834 0.0034611225 0.32394695
0.44043034 0.073846102 0.32275915
0.44069135 0.34807408 0.31935692
0.44639236 0.41033712 0.24527502
0.43474835 0.0037060976 0.32523584
0.43483835 0.074073136 0.324049
0.43457335 -0.1324929 0.32753277
0.42935035 0.15235209 0.32402277
0.43644035 0.25168109 0.22972488
0.42920536 0.03848213 0.32594299
0.42925134 0.074299097 0.32533789
0.43792534 0.44813612 0.20997715
0.42372435 0.12057114 0.32585192
0.42874035 0.41145211 0.25835371
0.42347735 -0.076989889 0.32917976
0.41814235 0.12078309 0.32713985
0.41808534 0.074748099 0.32791615
0.42609733 0.44882712 0.21881914
0.41783035 -0.13165092 0.33139181
0.41260335 0.15296113 0.32788897
0.41224036 0.30336308 0.33289099
0.41246435 0.03918308 0.32980585
0.40698636 0.12120408 0.32971382
0.40548334 0.19276613 0.35068798
0.40679735 -0.035951912 0.3323617
0.40662035 -0.18214691 0.33482409
0.40030634 0.19235009 0.34664679
0.40122634 -0.035699904 0.33364582
0.40127534 0.0051621199 0.33295774
0.40842235 0.44985512 0.23201609
0.40117836 -0.075934887 0.33432293
0.39584434 0.12162209 0.33228493
0.40057734 0.25550508 0.26459599
0.39574835 0.039877117 0.33366203
0.39648736 0.37689608 0.32308388
0.40504134 0.48033011 0.20076275
0.39554736 -0.13054192 0.33653069
0.38993335 0.19151312 0.3385458
0.39009434 -0.035199881 0.33621407
0.39014235 0.0056411028 0.33552694
0.39070734 0.37728614 0.32734203
0.38992536 -0.18127787 0.33867311
0.38998434 -0.13026595 0.33781385
0.39004835 -0.075412869 0.3368907
0.38471335 0.12203813 0.33485508
0.38837236 0.41344211 0.28118706
0.39082736 0.4508771 0.24516487
0.38448736 -0.075152874 0.33817291
0.37918735 0.1541611 0.33560085
0.37396535 0.24306613 0.41319513
0.37901935 0.0061171055 0.33809185
0.38299733 0.25709713 0.27898598
0.37888736 0.3042711 0.34006214
0.37359336 0.12245113 0.33741999
0.37341735 -0.034454882 0.34006071
0.37346336 0.0063530803 0.33937407
0.37263936 0.30543113 0.35178185
0.37350136 0.040792108 0.33879375
0.37341633 0.37845111 0.34008312
0.37625936 0.41475111 0.29728508
0.38149434 0.48160511 0.21846771
0.37325436 -0.1804179 0.3425169
0.37337336 -0.074636877 0.34073591
0.36803836 0.12265611 0.33870173
0.36794835 0.041019082 0.34007502
0.36228234 0.30466908 0.34313583
0.36227134 -0.074123919 0.34329605
0.35988533 0.25888908 0.2950139
0.35501635 0.35319209 0.37134409
0.35620135 0.37960708 0.3527689
0.36167634 0.45256209 0.26694202
0.35708234 -0.18085289 0.33895302
0.35666534 -0.12863493 0.34549713
0.35138834 0.12326813 0.34254503
0.35126635 0.0072920918 0.34449482
0.35085934 0.3054871 0.35095787
0.35315835 0.41619411 0.31442595
0.34584534 0.12347013 0.34382486
0.34587836 0.15533608 0.3432889
0.34302434 0.24073112 0.38929081
0.34409836 0.35330909 0.37198305
0.35225934 0.48317909 0.24043512
0.34558335 -0.12809885 0.34805202
0.33513436 0.27279609 0.42964077
0.33881035 0.3531211 0.36953402
0.34429035 0.45356309 0.2799387
0.34643936 0.48349011 0.244802
0.34921834 -0.26241589 0.19936275
0.33483633 0.19267511 0.34522486
0.33460835 -0.032746911 0.3490119
0.33464935 0.007987082 0.34832907
0.33467436 0.30529112 0.34791803
0.33283535 0.35393912 0.37842894
0.34062734 0.48380211 0.24916697
0.33456734 -0.07285589 0.34968615
0.32432336 0.27292609 0.430264
0.33019236 0.4176231 0.33147192
0.33482236 0.4841131 0.25353384
0.33110934 -0.18454087 0.31603575
0.32897934 -0.12730086 0.35188198
0.32903436 -0.072604895 0.35096312
0.32369834 0.12427312 0.34893608
0.32372934 0.15610713 0.34840202
0.32361835 0.042805135 0.35030413
0.32902834 0.48442411 0.25789213
0.33329335 -0.26485288 0.18502188
0.31820035 0.1562981 0.34967804
0.31805736 0.0086750984 0.35215712
0.31924435 0.30381513 0.33157206
0.32067135 -0.18603194 0.30681181
0.31792635 -0.12677491 0.35442972
0.31270835 0.19340312 0.35033512
0.31186536 0.23835808 0.36518478
0.30884436 0.27180409 0.41837788
0.31174535 0.3810491 0.36730099
0.31746334 0.4850421 0.26659679
0.32264134 -0.26648986 0.1754179
0.31240335 -0.12651193 0.35570383
0.30737835 0.4190141 0.34810877
0.31020436 -0.18753088 0.29755497
0.30142835 0.23755813 0.35710287
0.30149034 0.0093560815 0.35597897
0.30192134 0.41904011 0.34814692
0.31195736 -0.26813591 0.16578007
0.30136535 -0.12599087 0.35824871
0.29607934 0.12526208 0.35530996
0.29593736 -0.031080902 0.35793304
0.29597434 0.009581089 0.35725212
0.29331034 0.27067208 0.40643978
0.29646534 0.4190661 0.3481741
0.30052236 0.4855451 0.27326202
0.29056436 0.12545711 0.35658407
0.29066435 0.23736513 0.35470772
0.29191235 0.30393213 0.33127689
0.29083633 0.35176909 0.3514719
0.29037634 0.38054508 0.3601017
0.29499534 0.48557511 0.27342272
0.28511134 0.19429809 0.35670471
0.28501135 0.079903126 0.35862494
0.28557834 0.35147011 0.34780312
0.28946835 0.48560512 0.2735858
0.28483135 -0.12521493 0.36206198
0.27959934 0.19447511 0.35797787
0.27940536 -0.030378878 0.36174774
0.27950034 0.080109119 0.35989571
0.28064534 0.37870812 0.33767986
0.27390036 -0.030145884 0.36301804
0.27396435 0.044756114 0.36176205
0.27399436 0.080313087 0.36116695
0.27668133 0.45583811 0.30813074
0.26862234 0.23802912 0.359797
0.26988435 0.35036111 0.33443975
0.27078035 0.45645112 0.31645489
0.28561136 -0.34707189 0.018539906
0.27334633 -0.19284785 0.26489687
0.26289934 -0.029683888 0.36555576
0.26293334 0.010917127 0.36487579
0.26299036 0.08072108 0.36370468
0.26466736 0.34994012 0.32942104
0.26805234 -0.19361591 0.26020098
0.26282236 -0.12419391 0.36713982
0.26286736 -0.069661915 0.36622572
0.25755334 0.1583541 0.36367798
0.25740236 -0.029453874 0.36682415
0.25743434 0.011137128 0.3661437
0.25746235 0.045393109 0.36557007
0.25749034 0.080924094 0.36497498
0.25944036 0.34951812 0.32438612
0.26945636 0.47525212 0.11586475
0.27461836 -0.34889591 0.0084056854
0.25205636 0.15853709 0.36494684
0.25208536 0.19535112 0.36432981
0.24802433 0.3155421 0.45043802
0.25196734 0.045603096 0.36683893
0.25456935 0.34841412 0.31166172
0.25454736 0.41643611 0.31212091
0.26911035 -0.34981191 0.0033249855
0.25187635 -0.069182873 0.36876011
0.24656235 0.15872014 0.36621571
0.24899332 0.37682712 0.31368971
0.24689932 -0.12542284 0.35893297
0.24104734 0.12718713 0.36801291
0.24109934 0.19569713 0.36686707
0.24113233 0.23884612 0.3661437
0.24092834 -0.02876991 0.37062407
0.24095933 0.011792123 0.36994505
0.23762934 0.31490308 0.44327497
0.24447934 0.34675813 0.29243994
0.24425133 0.37548411 0.29746008
0.25029334 0.44569811 0.16439581
0.24680032 -0.1967119 0.24132013
0.23243932 0.31454909 0.43934298
0.23549832 0.046231091 0.37063885
0.23952033 0.41402611 0.28033686
0.25253835 -0.35257685 -0.011973858
0.24146934 -0.19749093 0.23657799
0.23015432 0.23916912 0.36868
0.22998832 0.012225091 0.37247705
0.23459734 0.41300312 0.26692009
0.24178635 -0.27907491 0.10225868
0.22992934 -0.068236887 0.37382412
0.22459035 0.12775111 0.37181187
0.22461234 0.15944213 0.3712821
0.22447832 -0.028091908 0.37441874
0.22450735 0.012440085 0.37374306
0.22203933 0.31383413 0.4314208
0.22453134 0.046645105 0.37316895
0.24144934 -0.35443389 -0.022223949
0.22444932 -0.068001866 0.37508678
0.21918835 0.23948908 0.37121105
0.21900032 -0.027867913 0.37568378
0.21683033 0.31347609 0.42745304
0.21905334 0.046851099 0.37443399
0.23087533 -0.28079486 0.092350006
0.21897234 -0.067767918 0.37635088
0.21365432 0.15980011 0.37381172
0.21372832 0.2675401 0.37201071
0.21161632 0.31311613 0.42347813
0.21357633 0.047057092 0.37569809
0.21663834 0.34762913 0.30110168
0.21778534 0.37354112 0.27313709
0.22135933 0.4473291 0.18605995
0.20815633 0.12830913 0.37560606
0.20817733 0.15997809 0.37507486
0.20805134 -0.027422905 0.37821007
0.20639333 0.31275511 0.41949797
0.21217333 0.37376511 0.27558088
0.21387334 0.41046011 0.23325396
0.21700133 0.47801611 0.15536976
0.22475533 -0.35723984 -0.037671089
0.21993233 -0.2825259 0.082402706
0.20265433 0.082911134 0.37763214
0.20533434 0.34840411 0.30941391
0.21917434 -0.35817993 -0.04283905
0.20483433 -0.13119686 0.32214594
0.19711433 -0.026979864 0.38073301
0.19730334 0.26799411 0.37580299
0.19716233 0.047669113 0.37948513
0.19718534 0.083106101 0.37889385
0.20345934 -0.28513992 0.067414761
0.18628334 0.12904412 0.38065481
0.18630233 0.16068208 0.38012695
0.18632533 0.19739008 0.37951374
0.18636833 0.26829511 0.3783288
0.19390634 0.47922412 0.17276573
0.19550833 0.51723707 0.1290617
0.19314533 -0.20461094 0.19351482
0.18083833 0.16085708 0.38138771
0.18077134 0.0482741 0.38326883
0.18387733 0.3756091 0.29649401
0.17536034 0.12940711 0.3831768
0.17537934 0.16103113 0.38264894
0.17542534 0.24074709 0.38131714
0.17526934 -0.026104867 0.38577414
0.17529333 0.014341116 0.38509798
0.17493033 0.31057113 0.39549875
0.19114533 -0.36292684 -0.068834305
0.16992134 0.1612041 0.38390875
0.16966434 0.31020409 0.39148092
0.16985734 0.048673093 0.38578796
0.16710433 0.36242414 0.46667194
0.18551433 -0.36388385 -0.074063301
0.17689833 -0.20702589 0.17900181
0.16438633 0.01475513 0.38761568
0.16168533 0.36264712 0.46901369
0.16764033 -0.13635993 0.28952312
0.16434133 -0.065477908 0.38895512
0.15899633 0.12994713 0.38695478
0.15897234 0.084449112 0.38771391
0.15358333 0.19837713 0.38707399
0.15360533 0.24136311 0.38635588
0.15348734 0.015166104 0.390131
0.15362033 0.26918209 0.38589191
0.15350534 0.049267113 0.38956213
0.15352333 0.084638119 0.38897181
0.15577634 0.37743109 0.31727409
0.15841833 0.4508501 0.23321581
0.14813533 0.19853908 0.38833094
0.14817134 0.26932812 0.38715076
0.14819233 0.30979109 0.38647509
0.15512633 -0.21027887 0.15952587
0.15158533 -0.13860488 0.27541494
0.14265633 0.13048112 0.39072704
0.14257933 -0.024815917 0.39331675
0.14272533 0.26947409 0.38840914
0.14582734 0.41457212 0.28390694
0.14265233 -0.065070868 0.39087486
0.13717633 0.049855113 0.3933301
0.13178933 0.16239911 0.39271212
0.13180633 0.19902211 0.39210272
0.13170233 -0.024392903 0.39582682
0.13793333 0.51996011 0.1727581
0.14243133 -0.29492688 0.011721134
0.13871333 -0.21274292 0.14482403
0.12636833 0.19918209 0.3933568
0.12626733 -0.024181902 0.39708185
0.12899034 0.41558212 0.29645014
0.12680633 -0.067139864 0.37719202
0.12091734 0.16273409 0.39522171
0.12083633 -0.023972869 0.39833593
0.12085333 0.016381085 0.39766169
0.12096433 0.27005011 0.393435
0.11969833 0.36035109 0.44178915
0.12773234 -0.21439791 0.13497686
0.11547233 0.13135713 0.39700174
0.11554733 0.31060112 0.39401674
0.11543733 0.050627112 0.39834785
0.12222934 -0.21522892 0.13004112
0.11006834 0.1996581 0.39712191
0.10917133 0.35967213 0.433846
0.11222433 0.41658512 0.30894279
0.12712634 -0.47845888 -0.30083799
0.11089233 -0.069225907 0.3634367
0.10461433 0.13170308 0.39950991
0.10462633 0.1632331 0.39898491
0.10455333 -0.023348868 0.40209293
0.10468434 0.31086612 0.39652586
0.10843933 0.48365411 0.23719788
0.11727233 -0.37560189 -0.13761711
0.099189326 0.1318751 0.40076208
0.099131331 -0.023141921 0.40334272
0.099146336 0.017175078 0.40267181
0.09924233 0.27061713 0.39845181
0.099172339 0.086490095 0.40151691
0.10479033 0.5609321 0.15395784
0.09376733 0.1320461 0.40201473
0.09377934 0.16356212 0.40148878
0.093832329 0.31113011 0.39903212
0.10307033 -0.30132186 -0.024337292
0.10013533 -0.21857786 0.11019802
0.089976326 0.4179101 0.32552481
0.091560334 0.48452112 0.24993277
0.092453331 0.5220921 0.2072978
0.10356933 -0.48287892 -0.32339621
0.094591334 -0.21942091 0.10521412
0.08956933 -0.072036922 0.34498072
0.08294034 0.16388911 0.4039917
0.08289133 0.017763078 0.40642405
0.082975343 0.2710371 0.40220881
0.082989335 0.31139213 0.40153694
0.082914338 0.08703208 0.40527105
0.084432334 0.4182401 0.32965899
0.094244331 -0.37960088 -0.15913725
0.09174633 -0.30317295 -0.034729004
0.077559337 0.2711761 0.40346003
0.077571332 0.31152213 0.40278912
0.077488333 0.05195111 0.40710688
0.077500343 0.087212086 0.40652084
0.07743533 0.35761511 0.40987682
0.078896344 0.4185681 0.33378696
0.079693332 0.45519909 0.29227686
0.07205534 -0.022121906 0.40959215
0.072067335 0.018151104 0.40892172
0.072123334 0.35726911 0.40586376
0.071162343 0.38944113 0.45830011
0.073368341 0.41889611 0.33790874
0.07412833 0.45550412 0.29645491
0.075526342 0.52288115 0.22015905
0.080389336 -0.30503595 -0.045162201
0.066701338 0.16437411 0.40774107
0.06672433 0.24373209 0.40642071
0.066744342 0.3117801 0.40529108
0.066668332 0.052323103 0.40960598
0.069160342 0.48566809 0.26684093
0.072331339 -0.22281885 0.085181713
0.061301339 0.20105213 0.40838289
0.061294336 -0.022210896 0.40881395
0.061321337 0.27159011 0.40720987
0.060605336 0.3887921 0.45038509
0.062333334 0.41955012 0.34613895
0.063019335 0.45611212 0.30479574
0.06899634 -0.30690992 -0.055638313
0.066744342 -0.22367585 0.080147743
0.055979338 -0.022879899 0.40426493
0.055856336 0.052692115 0.41210079
0.055865336 0.087921083 0.41151476
0.05593634 0.35739613 0.40703487
0.055317339 0.38846612 0.44641972
0.065256342 -0.38466787 -0.18628311
0.057349335 -0.076311886 0.31704807
0.050474335 0.1333921 0.41201115
0.050501335 0.24416012 0.41016912
0.050446335 0.018918097 0.41391182
0.050529335 0.35751408 0.40828371
0.057568338 -0.3087939 -0.066152096
0.055547338 -0.22539389 0.070056915
0.045089338 0.20150709 0.41212797
0.045099337 0.24430209 0.41141701
0.045047339 0.019108117 0.41515875
0.045054335 0.053058088 0.4145937
0.045063335 0.088272095 0.41400909
0.044721339 0.38781208 0.43847084
0.046600338 0.45606712 0.30391169
0.048271339 -0.15328085 0.18424797
0.046548333 -0.077753901 0.30766869
0.03968234 0.16517013 0.41398096
0.039689336 0.20165712 0.4133749
0.039988335 -0.024898887 0.39056969
0.03965034 0.019297123 0.41640472
0.03970534 0.27213311 0.41220284
0.050008338 -0.49302185 -0.37483788
0.034641337 -0.025575876 0.38598776
0.03431334 0.31254411 0.41278172
0.034268338 0.088620126 0.416502
0.038687337 -0.22799194 0.054844856
0.028883334 0.13405013 0.41699505
0.028889339 0.16548413 0.41647291
0.028896336 0.20195508 0.41586685
0.028904337 0.24472308 0.41515589
0.028925333 0.35798109 0.41327477
0.030604336 0.3732931 0.26528406
0.030835334 0.41173711 0.24499798
0.031066339 0.4504281 0.22457981
0.031690333 -0.15567291 0.16955805
0.023504335 0.20210409 0.41711187
0.023516338 0.27253509 0.41594172
0.023523334 0.31279409 0.41527414
0.02347834 0.053781092 0.41957474
0.023484338 0.088966131 0.41899109
0.023531336 0.35809612 0.41452169
0.027057339 0.51440907 0.07778883
0.018113337 0.20225114 0.4183569
0.018084336 0.020046115 0.42138195
0.018095337 0.089137077 0.42023611
0.019757338 0.41191411 0.24715996
0.020186335 0.4488571 0.20240688
0.021589335 0.51312613 0.056293011
0.020596337 -0.1572789 0.15971804
0.013179336 -0.028301895 0.36758184
0.012704335 0.054138124 0.42206287
0.012709338 0.089308083 0.42147779
0.014801338 0.4473851 0.18170881
0.019911338 -0.49877691 -0.4038353
0.013949338 -0.082127869 0.27932692
0.0073293373 0.13469708 0.4219718
0.0073383376 0.20254511 0.42084503
0.0073193349 0.054316103 0.42330694
0.0084143355 0.34655613 0.28387594
0.0085263364 0.37367111 0.26957798
0.0087583363 0.41136611 0.24000788
0.0093803369 0.44590411 0.16087103
0.010413337 -0.23237085 0.029296875
0.001967337 0.31328911 0.42025471
0.0029123351 0.34665412 0.28494596
0.0043833368 0.4729791 0.074203014
0.0078023374 -0.50110388 -0.4155221
0.005697336 -0.31741285 -0.11398602
-0.0034296624 0.1664111 0.42393589
-0.0034266636 0.20283711 0.42333174
-0.0030006617 -0.030366898 0.35368872
-0.0034376644 0.089817107 0.42520714
-0.0025876649 0.34675211 0.2860117
-0.0011616647 0.47155711 0.05266571
0.0017333366 -0.50227189 -0.421381
-0.000956662 -0.23414087 0.019009113
-0.0016946644 -0.16051984 0.13992596
-0.0024596639 -0.08434391 0.26503706
-0.0088056624 0.20298111 0.4245739
-0.0088016652 0.24568713 0.4238658
-0.0043446645 -0.50344491 -0.42725611
-0.0052596629 -0.39714086 -0.25255489
-0.0059296638 -0.3193599 -0.12473106
-0.014186664 0.1667161 0.42641973
-0.014196664 0.021147132 0.42883396
-0.012657663 0.43987912 0.076174736
-0.012365663 0.46868512 0.0091967583
-0.011757663 -0.32033789 -0.13012218
-0.013440663 -0.085831881 0.25546598
-0.019562664 0.13549113 0.42818213
-0.019564664 0.090319097 0.42893076
-0.018022664 0.4672341 -0.012769222
-0.016534664 -0.50579894 -0.43903923
-0.015838664 -0.62697995 -0.638412
-0.024933664 0.13564813 0.4294219
-0.024930663 0.20341212 0.42829895
-0.024916664 0.020325124 0.42306995
-0.024683664 0.26418108 0.33398294
-0.023895664 0.43680412 0.032990932
-0.023103664 -0.40032995 -0.26938009
-0.022121664 -0.62830091 -0.64466286
-0.030127663 -0.033848882 0.3303628
-0.030281663 0.019675136 0.41852093
-0.029070664 -0.4013989 -0.27501011
-0.028414663 -0.62962592 -0.65092707
-0.035576664 -0.034550905 0.32567406
-0.035427663 0.36398208 0.15394211
-0.035223663 0.4628191 -0.07955122
-0.035047665 -0.40247095 -0.28065109
-0.035282664 -0.23951292 -0.012098312
-0.035388663 -0.16545093 0.10995388
-0.041036662 0.2999351 0.28067875
-0.041036662 0.055881083 0.43446875
-0.041036662 0.39672208 0.051083088
-0.041036662 0.46132711 -0.10211802
-0.046399664 0.16761309 0.43385887
-0.046399664 0.20397913 0.43325806
-0.046424665 0.01771009 0.4048171
-0.046398662 0.091142118 0.43512583
-0.046630662 0.33641613 0.16901112
-0.046690665 -0.1671139 0.099885941
-0.047362663 -0.63362694 -0.66980505
-0.051759664 0.1364221 0.43561697
-0.051756665 0.056221128 0.43694496
-0.051757663 0.091305077 0.4363637
-0.052361663 0.35865813 0.090507984
-0.053348664 -0.51294994 -0.47469187
-0.053039663 -0.40570784 -0.29765224
-0.052568663 -0.24223495 -0.02779007
-0.052354664 -0.16794884 0.09484005
-0.057121664 0.20422411 0.435431
-0.057458661 -0.03737992 0.30682611
-0.057225663 0.016392112 0.3956418
-0.057928663 0.33270508 0.1270647
-0.058080666 0.35685909 0.069087982
-0.058299661 0.39164013 -0.014399052
-0.057693664 -0.091868877 0.21682692
-0.060047664 -0.63631392 -0.68245792
-0.063027665 0.25864112 0.27985382
-0.063838661 0.35504711 0.047519684
-0.064132661 0.38992208 -0.036526203
-0.06570366 -0.51536286 -0.48667908
-0.067831665 0.16819912 0.43880892
-0.068449661 -0.038806915 0.29734993
-0.068060666 0.015065134 0.38643169
-0.068967663 0.29013711 0.17845774
-0.067823663 0.056726098 0.4406538
-0.070003666 0.38819408 -0.058769226
-0.071896665 -0.51657486 -0.49269199
-0.069936663 -0.24498093 -0.043576241
-0.073956668 -0.0395239 0.29259777
-0.075467661 0.3513881 0.003967762
-0.074429661 -0.094168901 0.20218611
-0.079161659 -0.64037585 -0.70154619
-0.078531668 0.1371811 0.44179773
-0.078798667 0.1633181 0.39809704
-0.080395669 0.28612709 0.13664293
-0.078523666 0.057059109 0.44312382
-0.078527659 0.09210813 0.44254494
-0.084313661 -0.51900995 -0.50475407
-0.082425669 -0.33229887 -0.1956501
-0.081561662 -0.24682486 -0.054152012
-0.08418566 0.16343808 0.39912987
-0.085198663 0.22753912 0.25404692
-0.084371664 0.013062119 0.37255669
-0.083870664 0.057224095 0.44435883
-0.087252662 0.34767812 -0.040166855
-0.088473663 0.41911912 -0.215065
-0.090538666 -0.52023292 -0.51080704
-0.087387666 -0.24775088 -0.059455872
-0.091959663 -0.64310586 -0.71434212
-0.090530664 -0.041684866 0.27829075
-0.089826658 0.01239109 0.36791277
-0.093206659 0.34580308 -0.062461853
-0.093889669 0.38115513 -0.14934301
-0.094589666 0.41744211 -0.23855591
-0.095368668 -0.4133749 -0.33772993
-0.09322466 -0.24867988 -0.064770222
-0.09225066 -0.17386389 0.059225082
-0.095853664 0.1886211 0.29851103
-0.099199668 0.3439151 -0.084900856
-0.10074666 0.4157531 -0.26220226
-0.096865669 -0.097266912 0.18253708
-0.10480466 -0.64585185 -0.72719526
-0.10084166 0.15752512 0.34986782
-0.10152766 0.18633312 0.27845097
-0.10075766 0.011042118 0.358603
-0.10927866 -0.52392495 -0.52904129
-0.10585067 0.13078713 0.39079809
-0.10648566 0.15515614 0.33013678
-0.10963166 0.2758581 0.029679775
-0.11223567 0.3757441 -0.21890688
-0.11078866 -0.25148189 -0.080777168
-0.10813466 -0.098828912 0.17265606
-0.11058167 0.093049109 0.44994593
-0.11978166 -0.41782892 -0.36089706
-0.11666366 -0.25242186 -0.086134911
-0.11378466 -0.099613905 0.16769981
-0.12575567 -0.73483789 -0.88751125
-0.12415667 -0.65000284 -0.74658585
-0.11713167 0.12589508 0.35172892
-0.12054966 0.23733008 0.072040081
-0.13063066 -0.65139592 -0.75307608
-0.12282567 0.12342608 0.33201313
-0.12574767 0.21198213 0.10881805
-0.12174967 0.0530141 0.41420507
-0.13441867 -0.52889991 -0.55353928
-0.12510666 -0.1011889 0.157763
-0.13896666 -0.73783493 -0.90101719
-0.13045466 0.17466211 0.17620468
-0.13251266 0.23289311 0.028830051
-0.13373166 0.26738709 -0.058471203
-0.13729866 0.36834812 -0.31393003
-0.13819866 -0.42120385 -0.37840223
-0.13634767 -0.34155393 -0.24586201
-0.13434267 -0.25525784 -0.10227013
-0.13078167 -0.10198092 0.15278006
-0.14559066 -0.73934186 -0.907794
-0.13767767 0.20740211 0.06609869
-0.13301666 0.08379811 0.38024092
-0.14367366 0.3664661 -0.33810091
-0.14238967 -0.34259784 -0.25150108
-0.13646567 -0.1027739 0.14778614
-0.14111766 0.14061308 0.2090807
-0.14370266 0.20508713 0.044523716
-0.14071266 -0.048281908 0.23488569
-0.14602767 0.26306212 -0.1034441
-0.14864366 0.32833308 -0.26997614
-0.15053166 -0.42347193 -0.39013624
-0.14844267 -0.3436439 -0.25714922
-0.14215967 -0.10356987 0.14278412
-0.14482266 0.0055691004 0.32101774
-0.14358266 0.050431132 0.39579487
-0.15501866 0.32632208 -0.29383516
-0.15671267 -0.42461085 -0.39601898
-0.15450366 -0.3446939 -0.26281118
-0.14786166 -0.10436785 0.13777208
-0.15195966 -0.049770892 0.22514009
-0.15849066 0.25867808 -0.14902115
-0.14909366 0.049522102 0.38929176
-0.16030267 0.29902309 -0.25282192
-0.16971967 -0.65984094 -0.79234028
-0.16478567 0.2564621 -0.17204285
-0.15929167 -0.10597086 0.12771893
-0.16643567 0.1601311 0.049059868
-0.16820766 0.19567108 -0.043207169
-0.16324267 -0.051268876 0.21535587
-0.16065367 0.044108093 0.35023689
-0.17532267 -0.4280479 -0.41375017
-0.16996767 -0.26100588 -0.1348381
-0.16753566 -0.18517184 -0.0082192421
-0.18559566 -0.74847889 -0.94879007
-0.18284567 -0.66269195 -0.80554914
-0.16971567 0.10307109 0.16968298
-0.16705966 0.0027860999 0.30201483
-0.17567167 0.2168721 -0.12702513
-0.16648667 0.041375101 0.33052874
-0.17963667 0.2926501 -0.32454395
-0.17076066 -0.10758388 0.11762571
-0.18942566 -0.66412389 -0.81217432
-0.17574967 0.10044909 0.1487999
-0.17456067 -0.052774906 0.20553684
-0.17263967 0.0020850897 0.29724169
-0.18393667 0.24972314 -0.2420373
-0.18326166 0.1228931 0.061815739
-0.18838367 0.2121501 -0.17292023
-0.19422367 0.31394613 -0.44056702
-0.18226467 -0.10920584 0.10749388
-0.18944266 0.12029308 0.040223122
-0.19480567 0.20976311 -0.1961031
-0.18581867 0.059837103 0.19991112
-0.20092167 0.3118301 -0.46563196
-0.20447066 -0.54289889 -0.62203121
-0.19102067 -0.18873787 -0.029322147
-0.19409066 0.092478096 0.085325718
-0.19566567 0.11767411 0.018481731
-0.19380766 -0.11083686 0.097322941
-0.20028567 0.089785099 0.063890934
-0.20192967 0.11503708 -0.0033988953
-0.20622867 0.18104911 -0.17929697
-0.20952767 -0.35428584 -0.314291
-0.22251166 -0.67135084 -0.84553719
-0.21675567 0.23816109 -0.36201525
-0.21912366 -0.43619084 -0.45556831
-0.20873767 -0.19144094 -0.04526329
-0.20538667 -0.1124779 0.087112904
-0.23283766 -0.75935888 -0.99735403
-0.21670267 0.13980412 -0.12850428
-0.21925266 0.17603612 -0.22590828
-0.20873266 -0.05734688 0.17584896
-0.22345866 0.23579812 -0.386518
-0.20838967 0.021722078 0.18894196
-0.21029067 0.048719108 0.11636496
-0.21802166 -0.26882994 -0.17888832
-0.21466267 -0.19234693 -0.050597191
-0.21911967 0.08159411 -0.0012750626
-0.21446167 -0.058116913 0.17086697
-0.21453367 0.018839121 0.16818571
-0.22407566 -0.26982093 -0.18444729
-0.22970267 0.13454211 -0.17441607
-0.22019766 -0.058887899 0.16587591
-0.23701067 0.23102009 -0.43605328
-0.24016666 0.27267712 -0.54902792
-0.25327766 -0.76409686 -1.018414
-0.24920267 -0.67721391 -0.87250519
-0.23188667 0.076038122 -0.045444012
-0.23389067 0.10157812 -0.11503029
-0.22594367 -0.059661865 0.16087484
-0.22492866 -0.012604892 0.19608212
-0.24103166 0.19257712 -0.36292887
-0.24385966 0.2286061 -0.46108103
-0.26011667 -0.76568592 -1.0254679
-0.23833467 0.073232114 -0.067749023
-0.24585266 0.1657961 -0.32106304
-0.23320466 0.010072112 0.1051178
-0.23541567 0.037296116 0.0306077
-0.25415865 0.26805609 -0.60090923
-0.25629565 -0.55338192 -0.67290592
-0.25074267 -0.44211388 -0.48582888
-0.23846267 -0.19599783 -0.072043896
-0.26696867 -0.76727986 -1.032537
-0.24698266 0.09606111 -0.16074705
-0.24953967 0.12651008 -0.24446392
-0.25466266 0.18750411 -0.41211605
-0.25359765 0.093273103 -0.183846
-0.26937065 -0.55604291 -0.68576908
-0.28071466 -0.77048385 -1.04673
-0.25794667 0.064694107 -0.13558626
-0.26025665 0.090466082 -0.20709801
-0.26299867 0.12105811 -0.29198217
-0.24993467 -0.02470088 0.1124568
-0.26541367 -0.36414087 -0.36676598
-0.26060966 -0.27582884 -0.21803427
-0.27547866 0.17975509 -0.48722601
-0.25868267 -0.0018969178 0.019072056
-0.28249365 -0.55872095 -0.69869089
-0.26673567 -0.27684093 -0.22367287
-0.28961667 -0.68614888 -0.91343307
-0.28907266 -0.56006587 -0.70517206
-0.28264666 -0.44812787 -0.51642418
-0.27795267 -0.36636686 -0.37856293
-0.27287167 -0.27785587 -0.22932291
-0.27168065 -0.0080068707 -0.02481699
-0.29566565 -0.56141591 -0.71167326
-0.30319265 -0.68916488 -0.92720509
-0.28736266 0.07903409 -0.30173302
-0.28103966 0.01653409 -0.12506914
-0.29053766 -0.36860585 -0.39041328
-0.28517666 -0.27989388 -0.24066114
-0.29748166 0.10708511 -0.41368818
-0.27899367 -0.07047087 0.090490818
-0.28485265 -0.014199913 -0.069291115
-0.30888566 -0.5641259 -0.72471094
-0.29134464 -0.28091788 -0.2463479
-0.30120265 0.073194087 -0.35004425
-0.30452564 0.10422808 -0.4385519
-0.28546667 -0.073710918 0.069113731
-0.30316564 -0.37085891 -0.40231323
-0.29752365 -0.28194487 -0.25204706
-0.31162065 0.10135013 -0.46359396
-0.29198366 -0.076973915 0.047586918
-0.29531965 -0.046676874 -0.039267063
-0.31848964 0.16372913 -0.64239597
-0.32257366 0.20081711 -0.74870491
-0.30949664 -0.37199092 -0.40828323
-0.33049664 -0.6952529 -0.95494509
-0.31227165 0.041020095 -0.32343912
-0.32302365 0.13604313 -0.59708929
-0.32131466 -0.45546591 -0.55358696
-0.30991566 -0.28400886 -0.26348114
-0.34323266 -0.78515589 -1.1114459
-0.32219365 -0.37426484 -0.42026329
-0.34422964 -0.69832695 -0.96891308
-0.32948065 0.061260104 -0.44871521
-0.31179866 -0.086899877 -0.017869949
-0.34071866 0.15544111 -0.72257423
-0.31858164 -0.030068874 -0.183146
-0.34215465 -0.57097793 -0.75757217
-0.33429664 -0.45794189 -0.56608629
-0.32855865 -0.37540686 -0.42627096
-0.34516066 0.12749809 -0.67624712
-0.31849265 -0.09025389 -0.039980888
-0.34823865 0.15263611 -0.74969721
-0.34080565 -0.45918584 -0.57235622
-0.32304165 -0.20911992 -0.14850521
-0.31731766 -0.12854886 -0.011939049
-0.32907766 -0.063039899 -0.15208292
-0.33593366 -0.0084788799 -0.31230116
-0.35555166 -0.57374895 -0.77082491
-0.34132564 -0.37770092 -0.43833113
-0.33482864 -0.28817189 -0.28649521
-0.34301266 -0.011706889 -0.33644199
-0.34772566 -0.37885392 -0.44438028
-0.37185565 -0.70453191 -0.99705124
-0.36275867 0.080596089 -0.64404488
-0.34143266 -0.21200287 -0.16517925
-0.33531964 -0.13116884 -0.027929306
-0.37879565 -0.70609593 -1.004128
-0.37028065 0.077542126 -0.67057991
-0.36055964 -0.38116884 -0.45651531
-0.35362867 -0.29132688 -0.30388212
-0.34758365 -0.2129699 -0.17076015
-0.37785766 0.074464083 -0.69731426
-0.38317266 0.1128161 -0.81214809
-0.35692966 -0.076548874 -0.24513531
-0.37353566 -0.46546185 -0.60391808
-0.35991764 -0.29238486 -0.30970192
-0.39271566 -0.70923686 -1.0183301
-0.37716964 0.012701094 -0.54773188
-0.36781067 -0.053253889 -0.34926987
-0.37184066 -0.024856865 -0.43473291
-0.36621964 -0.2934469 -0.31553888
-0.38854665 0.036300123 -0.65480232
-0.37917766 -0.028205872 -0.45974302
-0.37253165 -0.29451084 -0.32138491
-0.39617667 0.033074081 -0.68141603
-0.40284064 -0.58358192 -0.81769228
-0.36930564 -0.14767587 -0.13199902
-0.41463464 0.10065508 -0.92461014
-0.38518864 -0.29664886 -0.3331151
-0.42072564 -0.71558189 -1.046948
-0.42265365 0.097554088 -0.95326996
-0.39286065 -0.093990922 -0.36515427
-0.38472265 -0.21883094 -0.20449686
-0.38337666 -0.15495884 -0.17792606
-0.41509965 -0.0038688779 -0.67878389
-0.43073264 0.094430089 -0.98214293
-0.41321766 -0.47312093 -0.64227009
-0.40585664 -0.38938391 -0.49942207
-0.39789265 -0.29880095 -0.34489727
-0.39094967 -0.21981788 -0.21016216
-0.43015164 -0.58929884 -0.84482002
-0.39718866 -0.22080791 -0.215837
-0.44057664 0.048971117 -0.91853809
-0.40983364 -0.13607693 -0.34155607
-0.41503665 -0.10476184 -0.43921089
-0.42654365 -0.47570586 -0.65516901
-0.43853965 -0.01411587 -0.759758
-0.44868866 0.045671105 -0.94714308
-0.42253566 -0.10840595 -0.46425009
-0.42544764 -0.39295793 -0.51801395
-0.40969867 -0.22279584 -0.2272253
-0.45605165 -0.72362685 -1.0831122
-0.44647366 -0.01758492 -0.78716326
-0.45121866 0.0097841024 -0.87339115
-0.43009067 -0.11207688 -0.4894762
-0.45077565 -0.59363389 -0.86533499
-0.41941765 -0.17362487 -0.29553509
-0.46316165 -0.72525191 -1.0903993
-0.45446566 -0.021079898 -0.81476593
-0.45932266 0.0063521266 -0.90164804
-0.46510264 0.03899312 -1.0050249
-0.44252965 -0.088488877 -0.60127831
-0.42985466 -0.30423594 -0.37457609
-0.42677864 -0.1774379 -0.31954908
-0.45335165 -0.48092294 -0.6811471
-0.44515064 -0.39656591 -0.5367341
-0.43419164 -0.1812799 -0.34373426
-0.46351266 -0.06672591 -0.74713707
-0.47880766 -0.031729877 -0.89883709
-0.46602765 -0.099580884 -0.68050814
-0.47846165 -0.59947693 -0.8929162
-0.44163066 -0.22910988 -0.26370907
-0.44917664 -0.18904686 -0.39261627
-0.49870664 0.025315106 -1.123508
-0.46259266 -0.16258693 -0.51564693
-0.45675164 -0.19297493 -0.41732502
-0.47034964 -0.16648686 -0.54123688
-0.47658566 -0.13468087 -0.64467096
-0.47159466 -0.40142691 -0.56189108
-0.46437964 -0.19692993 -0.442204
-0.51590866 0.01831013 -1.184155
-0.49937165 -0.60390794 -0.91377592
-0.48715064 -0.48753583 -0.71396112
-0.47823665 -0.40265095 -0.56821394
-0.51784068 -0.018438876 -1.1056671
-0.49254566 -0.14244592 -0.69793701
-0.49819064 -0.11477184 -0.78892899
-0.47980064 -0.20492792 -0.49249601
-0.52646667 -0.022095919 -1.1357379
-0.49396464 -0.17836392 -0.61913586
-0.51338267 -0.60688591 -0.92776728
-0.51464069 -0.12254488 -0.84437609
-0.48813266 -0.31422794 -0.42882729
-0.49544966 -0.21304691 -0.54352713
-0.50999969 -0.1864289 -0.67200708
-0.5229587 -0.12647593 -0.87240887
-0.49466765 -0.31535494 -0.43492126
-0.49459466 -0.25768983 -0.43378925
-0.52519464 -0.15833688 -0.80688286
-0.53788167 -0.1007489 -1.0004539
-0.52127969 -0.49425292 -0.7471571
-0.56165767 -0.037018895 -1.2583942
-0.51935267 -0.22545385 -0.62146711
-0.54830164 -0.13845789 -0.95781517
-0.55512267 -0.10864294 -1.059166
-0.52744168 -0.22965288 -0.64783525
-0.57307768 -0.073014915 -1.224308
-0.54279864 -0.20293784 -0.78016424
-0.56384367 -0.11263585 -1.088861
-0.52093369 -0.31989789 -0.45943689
-0.52607566 -0.27469289 -0.53485918
-0.53859168 -0.41384387 -0.62579107
-0.55957162 -0.21138394 -0.83546305
-0.57423866 -0.15072489 -1.045208
-0.56998765 -0.61898494 -0.9844079
-0.55574566 -0.50107384 -0.78074598
-0.54536265 -0.41510689 -0.63226318
-0.53414065 -0.32218885 -0.47177601
-0.54216266 -0.28338587 -0.58649492
-0.60024863 -0.084926903 -1.3180871
-0.59187365 -0.1590699 -1.1046233
-0.59942865 -0.12893891 -1.2100182
-0.58428466 -0.62205791 -0.9987421
-0.54926163 -0.32901084 -0.51015186
-0.56879163 -0.25112784 -0.78260517
-0.60850263 -0.13309789 -1.2409101
-0.59145367 -0.62360191 -1.0059352
-0.60240465 -0.19595289 -1.0644412
-0.57505965 -0.30116987 -0.6920743
-0.60264766 -0.23308587 -0.97745705
-0.61885166 -0.17183888 -1.1955009
-0.62799066 -0.17616594 -1.226285
-0.61305267 -0.62826288 -1.0276213
-0.59756064 -0.50940192 -0.82157993
-0.58626968 -0.42276692 -0.67140818
-0.60038668 -0.31486785 -0.77333927
-0.62930763 -0.24652588 -1.0653191
-0.61161065 -0.51221287 -0.8353219
-0.60001063 -0.4253509 -0.68457603
-0.60690266 -0.42664886 -0.69118404
-0.60703868 -0.36135793 -0.6929369
-0.62938064 -0.28262484 -0.98002625
-0.64206165 -0.63454688 -1.0567851
-0.62571865 -0.51504087 -0.84913111
-0.61380965 -0.42795193 -0.69781017
-0.64935064 -0.63613093 -1.0641232
-0.62072766 -0.42925787 -0.70444822
-0.65665567 -0.63771987 -1.0714769
-0.62766063 -0.43056893 -0.71110392
-0.65637165 -0.29666591 -1.0679479
-0.65280068 -0.34323287 -0.94146013
-0.65410465 -0.52075183 -0.87694597
-0.66123867 -0.52219093 -0.88394499
-0.68400764 -0.31104791 -1.1579561
-0.66792566 -0.39547884 -0.8854723
-0.67554867 -0.52508187 -0.89798594
-0.68911964 -0.36290288 -1.0579243
-0.68272567 -0.52653491 -0.90503407
-0.68592668 -0.40557289 -0.942379
-0.68163568 -0.45053494 -0.81646204
-0.69712567 -0.52945387 -0.91917992
-0.69957864 -0.46096587 -0.87231112
-0.71158463 -0.53239095 -0.93339586
-0.72278267 -0.42624891 -1.0588722
-0.73217863 -0.43152094 -1.0885649
-0.73338765 -0.53683186 -0.9548521
-0.74068564 -0.53832185 -0.96203899
-0.76267368 -0.54281986 -0.98370695
-0.77953964 -0.55003786 -1.0201802
