# .PCD v0.7 - Point Cloud Data file format
VERSION 0.7
FIELDS x y z
SIZE 4 4 4
TYPE F F F
COUNT 1 1 1
WIDTH 1
HEIGHT 1024
VIEWPOINT 0 0 0 1 0 0 0
POINTS 1024
DATA ascii
0.63661116 0.41067123 -0.55393982
0.62739015 0.41305727 -0.52113676
0.60304612 0.59011924 -0.30940771
0.59396017 0.63927627 -0.27496767
0.61678714 0.36498427 -0.54680967
0.57155818 0.56390625 -0.1523447
0.58305514 0.59103024 -0.29217768
0.60611516 0.31658328 -0.57266665
0.57859313 0.51356125 -0.23790789
0.57680815 0.59109825 -0.29127884
0.58252114 0.42465723 -0.36152267
0.56822413 0.67293626 -0.2613039
0.58080417 0.37520027 -0.41766787
0.57378715 0.42691326 -0.33045673
0.56201112 0.67298424 -0.26047564
0.53826517 0.5701822 -0.036818504
0.57521212 0.28967524 -0.50626993
0.55601913 0.63992524 -0.26240683
0.56329215 0.38016927 -0.35482073
0.53649914 0.52254826 -0.090529919
0.52524912 0.57101226 -0.022204876
0.55754113 0.29547328 -0.4418726
0.54385114 0.63990021 -0.26395464
0.51940012 0.57097721 -0.02331686
0.54410917 0.33577925 -0.34814167
0.52624518 0.47770825 -0.11329556
0.52016217 0.52603328 -0.033334732
0.54791617 0.23878425 -0.48145771
0.51429117 0.60372525 -0.034265518
0.51256818 0.52737826 -0.01135397
0.50185114 0.57087028 -0.026651859
0.51870513 0.34363627 -0.2561655
0.50089014 0.52729821 -0.013570786
0.49599913 0.57083321 -0.02776289
0.49671313 0.60362625 -0.037606716
0.51038617 0.34620827 -0.2260437
0.49505013 0.5272572 -0.014681816
0.51999813 0.19533223 -0.44535589
0.49085012 0.60359323 -0.038721561
0.50729513 0.67285526 -0.26814175
0.48682612 0.64829922 -0.065806866
0.50378013 0.75374627 -0.30526161
0.51426017 0.10183024 -0.54342985
0.50735015 0.16312826 -0.4446187
0.48993212 0.31763726 -0.19552183
0.47592512 0.45125726 0.0047883987
0.47751811 0.52713323 -0.018004894
0.47700313 0.64706123 -0.096310616
0.46671912 0.57064724 -0.033320904
0.45844111 0.45110723 0.0014781952
0.47766912 0.71980226 -0.28423977
0.46210712 0.64518225 -0.14257765
0.45328712 0.48488024 -0.0097908974
0.47184411 0.12035227 -0.38312674
0.45614111 0.27169025 -0.14353275
0.44978213 0.60335326 -0.046522617
0.44678113 0.45100525 -0.00072669983
0.46599311 0.71953624 -0.29385185
0.46358812 0.12395626 -0.35192251
0.44391111 0.60331726 -0.047639847
0.44765413 0.67899323 -0.10552883
0.43431112 0.40908825 0.0096402168
0.43657011 0.52683425 -0.02576685
0.44729111 0.13106728 -0.2903347
0.43260312 0.28011727 -0.056880951
0.45102912 0.75271326 -0.34974861
0.44855911 0.038438261 -0.40998697
0.43925112 0.13457423 -0.25995064
0.42628711 0.60321021 -0.050985813
0.44214711 0.71919727 -0.3066349
0.42486012 0.52674526 -0.027984619
0.43128112 0.13805026 -0.22983265
0.42224011 0.23309326 -0.08202076
0.41606912 0.36724627 0.018877029
0.40971711 0.33770227 0.02665329
0.41675711 0.72576326 -0.090115547
0.45136112 0.74478722 -0.66410971
0.41554511 0.14491028 -0.17037153
0.40806413 0.57025528 -0.044448853
0.40443212 0.36712223 0.016685486
0.40592512 0.45063725 -0.0084505081
0.44327113 0.74548125 -0.63705873
0.39934611 0.24192226 0.003051281
0.42678812 -0.062726736 -0.46575689
0.39861211 0.36705828 0.015588284
0.41209412 0.67505121 -0.21472359
0.40008411 0.45058325 -0.0095539093
0.43524513 0.74616927 -0.6102438
0.40068111 0.48444024 -0.019744873
0.41408312 -0.0066927671 -0.35476685
0.39688912 0.60302526 -0.056567669
0.39424112 0.45052925 -0.010656834
0.40121311 0.72454226 -0.13156366
0.39244911 0.15497524 -0.083103657
0.38564211 0.28933924 0.036756039
0.38646513 0.33743626 0.022275448
0.39367211 0.75898027 -0.10465574
0.38897711 0.48433825 -0.021957874
0.38487911 0.15827227 -0.054501534
0.40684813 -0.099757791 -0.44744968
0.37912011 0.24668324 0.048491478
0.38114411 0.36686623 0.0122962
0.38184613 0.40856522 -0.00026082993
0.39092511 0.72362423 -0.16264486
0.38774613 0.75896025 -0.10578585
0.38383013 0.52642626 -0.035754681
0.37737513 0.16154027 -0.026151657
0.39039713 0.0056212544 -0.26278877
0.37868813 0.57004821 -0.050018787
0.37483013 0.33730024 0.020085335
0.37531912 0.36680126 0.011199474
0.37998411 0.64825523 -0.073575974
0.37726611 0.48423526 -0.024171829
0.36993411 0.16478026 0.0019612312
0.36949313 0.36673623 0.010102272
0.37085611 0.45030826 -0.015073776
0.37140912 0.48418325 -0.025279522
0.38809511 0.84584123 -0.33338594
0.38295913 -0.086059809 -0.35309172
0.36745712 0.60283422 -0.062152863
0.36433512 0.40838325 -0.0035629272
0.37532312 0.72223026 -0.20978165
0.37149411 0.75817227 -0.13792086
0.36622813 0.52628422 -0.039087772
0.38059512 0.84614623 -0.30873156
0.36239311 0.080290258 -0.079049587
0.37983513 -0.14127374 -0.41186094
0.36732811 0.017607272 -0.17321062
0.36842811 0.67589629 -0.19420481
0.37007612 0.72176027 -0.22563457
0.36035711 0.52623624 -0.040198803
0.37605312 0.80956328 -0.33969164
0.35948211 0.67797422 -0.13830471
0.36106712 0.75740027 -0.16905451
0.35382912 0.48402524 -0.028601646
0.35969412 -0.072725773 -0.26120663
0.34572211 0.33695227 0.014610291
0.34617212 0.36647123 0.005710125
0.34388611 0.60267723 -0.066624641
0.34096611 0.40813524 -0.0079689026
0.36081311 -0.18641877 -0.40664577
0.33107212 0.13361627 0.073693275
0.33230013 0.21683425 0.048597336
0.34102812 -0.015839756 -0.12985992
0.33750513 0.56974721 -0.057824612
0.34884912 0.71986026 -0.28977394
0.34223312 0.89035225 -0.15450859
0.32692412 0.24595922 0.038701057
0.32754213 0.28858626 0.025845051
0.32823911 0.33673823 0.011322498
0.33320811 0.67972529 -0.092124939
0.31905112 0.10056722 0.081449032
0.32070312 0.21666127 0.046426296
0.32629511 -0.0077957511 -0.072167873
0.32293212 0.040652275 -0.00084877014
0.32241011 0.33666623 0.01022625
0.32283011 0.36619824 0.0013184547
0.32683811 0.64794827 -0.083673954
0.32402012 0.44984823 -0.023915768
0.31328112 0.10046625 0.08037138
0.31699112 0.36612922 0.00021934509
0.33009413 -0.16685379 -0.28287554
0.30751011 0.10036522 0.079294205
0.30862811 0.048070252 0.054676056
0.31172311 0.40781623 -0.013478756
0.31229711 0.44972923 -0.026127815
0.31334013 0.52584225 -0.049094677
0.30217913 0.13313222 0.068299294
0.30329812 0.21639925 0.043169498
0.30369112 0.24562424 0.034347057
0.30156511 0.051732242 0.082092285
0.30848712 0.6024332 -0.073338509
0.32017612 0.71851325 -0.33581257
0.32540113 -0.31551671 -0.45313692
0.29749313 0.21631026 0.04208231
0.30412611 -0.095493793 -0.10985851
0.30317912 0.64780629 -0.088166714
0.30359811 0.67956722 -0.097753525
0.31402412 0.71849924 -0.33656073
0.30654013 0.81263524 -0.16514158
0.30775112 -0.15263271 -0.19286489
0.29061112 0.13293427 0.066140175
0.29168713 0.21622127 0.040995121
0.29053813 0.01171124 0.067834377
0.29624912 0.56943125 -0.065640926
0.29323813 0.33629727 0.0047440529
0.30053812 0.81262726 -0.16586351
0.28588012 0.21613222 0.039910316
0.29076713 0.60230827 -0.07669878
0.28777313 0.36577624 -0.0052757263
0.28007111 0.21604127 0.038823128
0.27936712 -0.026756763 0.055983067
0.28445011 0.56933928 -0.067874908
0.28853011 0.81261122 -0.16730261
0.27513212 0.28786725 0.016013145
0.27227712 0.052555263 0.087089062
0.27854612 0.56929225 -0.068992615
0.27894613 0.60222328 -0.078939915
0.27658212 0.40741926 -0.020096779
0.28941312 0.71844023 -0.33956385
0.27884513 -0.13424873 -0.076423645
0.26745912 0.13253224 0.061823368
0.26565713 -0.019268751 0.10768414
0.26930213 0.28778422 0.014920235
0.26650813 0.05244422 0.086017132
0.27303311 0.60218024 -0.080060959
0.27651811 0.81259423 -0.16874695
0.27615911 -0.2078898 -0.15960169
0.26211211 0.17071325 0.049175262
0.26263511 0.21576726 0.035562038
0.26172611 -0.069898725 0.059230328
0.25990513 -0.019389749 0.10661745
0.2607381 0.052332222 0.084945202
0.26673713 0.56919825 -0.071227551
0.26402912 0.33591825 -0.00074052811
0.26801613 0.67937124 -0.10451889
0.26622912 0.52542824 -0.058002949
0.26901111 -0.2030257 -0.13041353
0.25415212 -0.019511759 0.10555029
0.25715211 0.24492925 0.025635242
0.25455111 0.015643239 0.094925404
0.27094713 0.71839327 -0.34182072
0.26845512 0.75482023 -0.27543974
0.27449313 -0.43400872 -0.43627167
0.24805814 -0.06165576 0.11372328
0.24919212 0.052106261 0.082800388
0.25492212 0.56910229 -0.073465824
0.25312713 0.40714723 -0.024512768
0.26459813 0.71853626 -0.33732986
0.26235613 0.75480723 -0.27618074
0.25849512 0.81256926 -0.17091179
0.26706812 -0.42795169 -0.4046979
0.25489712 -0.1934247 -0.072779655
0.24392712 0.099210262 0.067453384
0.24219012 -0.061286747 0.11597347
0.24302012 0.015407264 0.092787266
0.25020313 0.67927122 -0.10790253
0.24808013 0.48301125 -0.048571587
0.23813814 0.099101245 0.066376209
0.23889011 0.17031825 0.044844151
0.23967513 0.24465925 0.022366047
0.24820012 0.72203827 -0.22176075
0.23727912 -0.10784173 0.090976238
0.23354512 0.21529925 0.030127048
0.23478311 0.33552623 -0.0062298775
0.23551813 0.40693825 -0.027825832
0.24157614 -0.33456576 -0.20575857
0.22688612 0.13180327 0.054263115
0.22536212 -0.02012974 0.1002183
0.22608212 0.051646233 0.078509331
0.23160213 0.60187328 -0.08791256
0.22922611 0.36503828 -0.01627779
0.23205912 0.64735824 -0.10166979
0.23283812 0.72496623 -0.12514257
0.23040813 0.48283124 -0.051905632
0.23072514 -0.24702775 -0.061458588
0.22687912 0.72493827 -0.12627697
0.22387013 -0.2420758 -0.03310585
0.21879312 -0.10257471 0.12405205
0.21635014 0.24429226 0.018005371
0.21829411 0.44872424 -0.043847561
0.21861711 0.48270926 -0.054129601
0.20916912 0.09854722 0.060990334
0.20947412 0.13148224 0.051024437
0.21424213 0.64724123 -0.10505152
0.21201813 0.40665424 -0.032245636
0.21963012 0.75471222 -0.28137779
0.21687812 -0.38704276 -0.19132853
0.20730713 -0.10284972 0.12193346
0.20401111 0.16970623 0.038340092
0.20549712 0.33512324 -0.011722565
0.20651713 0.44859225 -0.046066761
0.20682213 0.48258525 -0.056354523
0.20694312 -0.30787778 -0.06044054
0.19884214 0.24401224 0.014734268
0.20196012 0.60164624 -0.09352684
0.19963613 0.33504122 -0.012821674
0.19989413 0.36465228 -0.021785736
0.20235711 0.64716226 -0.10730457
0.20092213 0.48252326 -0.057466507
0.20309013 -0.37581575 -0.13272381
0.20019114 -0.3026787 -0.032112598
0.19533214 -0.15853572 0.13658619
0.19237211 0.16949826 0.036173344
0.19275314 0.21462125 0.022512436
0.19668013 0.67895925 -0.11807251
0.20005211 -0.46871972 -0.23878384
0.19044614 -0.2179507 0.10511017
0.19006512 -0.10326779 0.11875439
0.20428914 -0.57933676 -0.39046669
0.18655014 0.16939324 0.035088062
0.18692014 0.21452224 0.02142334
0.18982112 0.56855726 -0.085782528
0.19009113 0.60155427 -0.095774651
0.18814912 0.36449426 -0.023989677
0.19072512 0.67892325 -0.11920357
0.18849212 0.40636426 -0.036669731
0.19315413 -0.46269679 -0.20895672
0.18108514 0.21442324 0.020335197
0.17978612 0.050693274 0.069921494
0.18227413 0.36441523 -0.025091648
0.18476912 0.67888725 -0.12033558
0.18260711 0.40629023 -0.037775517
0.17771712 -0.21029079 0.14896441
0.17812413 -0.15898073 0.13342237
0.17547312 0.24363023 0.010369301
0.17821711 0.60146022 -0.098023891
0.17672011 0.40621626 -0.038881779
0.17762712 0.52459621 -0.074740887
0.17199114 -0.21044779 0.14791346
0.16735613 -0.063020766 0.10215044
0.16994214 0.28630626 -0.0036826134
0.17083013 0.40614122 -0.03998661
0.17318812 0.72467625 -0.13649273
0.17170614 0.52453828 -0.075858593
0.17881912 -0.62648678 -0.36689663
0.16213712 0.013672233 0.077804089
0.16464013 0.36417425 -0.028400898
0.16493914 0.40606725 -0.04109478
0.16083711 -0.27239776 0.13296413
0.16129711 -0.10398078 0.1134553
0.15772712 0.21401823 0.01597929
0.15610611 -0.021688759 0.087411404
0.15634814 0.013543248 0.076735497
0.15855613 0.33445424 -0.020520687
0.16426814 0.75498027 -0.27223492
0.15553913 -0.10412574 0.11239529
0.15315413 0.40591526 -0.043308735
0.15393713 0.52436221 -0.079211712
0.15620711 0.81240726 -0.18323088
0.15297914 -0.42764378 -0.035283566
0.14870113 -0.26728272 0.1607461
0.14941314 -0.15973771 0.12814713
0.14978012 -0.10427177 0.11133432
0.15820813 -0.60621774 -0.27494669
0.14575213 0.16864026 0.027495384
0.14427814 -0.063580751 0.097894192
0.14680412 0.33428222 -0.022722721
0.14899114 0.67866826 -0.12712765
0.14965314 0.75785524 -0.15871477
0.14383411 -0.32762575 0.11907005
0.14334014 -0.21124279 0.14266014
0.15416813 -0.69630277 -0.37424469
0.13991612 0.16853124 0.026409149
0.14063013 0.28584427 -0.0091629028
0.14350411 0.75801927 -0.15233469
0.14003113 -0.4163568 0.020680428
0.13760412 -0.2114048 0.14160919
0.13791612 -0.1600467 0.12603617
0.14476112 -0.59300172 -0.21496582
0.13385612 0.13002527 0.036967278
0.13297012 -0.022231758 0.083140373
0.13476312 0.28575027 -0.010258675
0.13546112 0.40568626 -0.046632767
0.13570613 0.44776624 -0.059392929
0.13751313 0.75799322 -0.15347672
0.13590512 0.48181626 -0.069720745
0.13812512 -0.58648181 -0.18536854
0.12784512 0.096912265 0.045893192
0.12737814 0.012887239 0.071377277
0.13090113 0.64666826 -0.12085772
0.12998413 0.48175025 -0.070834637
0.13209713 0.81236523 -0.18613958
0.12581614 -0.26796174 0.15656328
0.13385713 -0.67512476 -0.28213167
0.13154614 -0.58001876 -0.15602493
0.12177312 0.049441278 0.059178352
0.12510413 0.67851722 -0.13166475
0.12534712 0.72443223 -0.14559364
0.12009113 -0.26813376 0.1555171
0.12720412 -0.66819179 -0.25196552
0.11620013 0.096668243 0.043734074
0.11678613 0.21328926 0.0083503723
0.11539013 -0.064296722 0.092573166
0.11693413 0.24263823 -0.00055551529
0.11714913 0.28546524 -0.013549805
0.11873712 0.60097623 -0.10928154
0.11739313 0.33384424 -0.02822876
0.11952613 0.75791526 -0.15689993
0.11518413 -0.10516274 0.10497236
0.11702513 -0.49745274 -0.0060696602
0.11071613 0.16797227 0.020979404
0.11278012 0.60092628 -0.11040878
0.11336812 0.72436923 -0.14787054
0.11352812 0.75788927 -0.15804386
0.11400413 0.81233323 -0.18832779
0.11533713 -0.71600175 -0.27321672
0.10941312 -0.10531378 0.1039114
0.10667212 0.56781328 -0.10150194
0.10561713 0.33366627 -0.030432701
0.10717013 0.67840225 -0.13506794
0.10647412 0.52387929 -0.088166714
0.10245012 -0.38362777 0.18307829
0.10339013 -0.16099274 0.11970425
0.10577612 -0.55472279 -0.041117668
0.099727124 0.33357626 -0.031534672
0.10105313 0.64645326 -0.12651587
0.10035413 0.48141325 -0.076413631
0.093355127 0.21286124 0.0039873123
0.092252128 -0.064883769 0.088315487
0.093472123 0.24222624 -0.0049285889
0.094766125 0.56770223 -0.10375071
0.094897129 0.60077524 -0.11379194
0.094287127 0.44725823 -0.067181587
0.094591126 0.52375525 -0.090407848
0.095902123 0.81230026 -0.19051695
0.087059125 0.096046269 0.038336277
0.086616129 -0.023352742 0.074593067
0.087601125 0.24212122 -0.0060238838
0.086747125 0.011938274 0.063876152
0.091188125 -0.79980075 -0.29963255
0.086309128 -0.10592675 0.099667072
0.085928127 -0.46833372 0.13085032
0.081472129 0.16739923 0.015546322
0.080671124 -0.065181732 0.086184025
0.080814123 -0.023495734 0.073523045
0.083232127 0.67824626 -0.13961077
0.082436129 0.44711024 -0.069409847
0.079573125 -0.38360476 0.18289518
0.079861127 -0.46265674 0.15756035
0.075618125 0.16728324 0.014459133
0.075762123 0.21253324 0.00071334839
0.075240128 0.048390269 0.050575256
0.076891124 0.56753325 -0.10712767
0.076241128 0.36291027 -0.044967651
0.077788129 0.81226528 -0.19270992
0.073865123 -0.38379979 0.18185949
0.069416128 0.048255265 0.049499035
0.070247129 0.33311927 -0.037048817
0.070333123 0.36282223 -0.046073914
0.07067813 0.48106626 -0.082000732
0.07080213 0.52350223 -0.094892502
0.071748123 0.81225425 -0.19343996
0.071902126 -0.7775718 -0.20952368
0.068488128 -0.2697227 0.14610624
0.064025126 0.21231222 -0.0014696121
0.064217128 0.28458327 -0.023431778
0.064967126 0.56741929 -0.10937977
0.064346127 0.33302623 -0.038151741
0.064850122 0.52343929 -0.096013546
0.065583125 -0.77029181 -0.18000364
0.062747121 -0.26990378 0.14505911
0.057489127 -0.065787733 0.081924438
0.058223125 0.24159223 -0.01149559
0.059000127 0.56736225 -0.11050558
0.059079126 0.60046524 -0.12056684
0.058895126 0.52337426 -0.097136974
0.060542125 -0.88498175 -0.30675554
0.057001125 -0.27008569 0.14401436
0.057635125 -0.59579575 0.063364029
0.052280128 0.21208823 -0.0036535263
0.051690128 -0.065940738 0.080859184
0.052342128 0.24148422 -0.012589931
0.053269126 0.67804623 -0.14529657
0.052688126 0.40456527 -0.06216383
0.052850127 0.48085424 -0.085353851
0.051151127 -0.31995678 0.15807247
0.051603127 -0.10687077 0.093301296
0.050832126 -0.50087273 0.20379019
0.046188127 0.095149219 0.030771255
0.046685126 0.36246628 -0.050501823
0.047211125 0.64605129 -0.13671875
0.047356125 0.72401226 -0.16042185
0.047576126 0.81220722 -0.19636774
0.045509126 -0.27045274 0.14192247
0.045709126 -0.16263771 0.10914421
0.045813125 -0.10703075 0.09223938
0.040395126 0.12808722 0.019634247
0.040528126 0.21186322 -0.0058398247
0.041147128 0.60030723 -0.12395763
0.041220125 0.64600527 -0.13785172
0.041397125 0.75756127 -0.17177582
0.041631125 -0.8616668 -0.21650696
0.039742127 -0.57720673 0.14443541
0.034648128 0.21174926 -0.0069317818
0.034809127 0.33255523 -0.043673515
0.035373129 0.75753325 -0.17292261
0.035062127 0.52311528 -0.10162878
0.033856124 -0.38519478 0.17461348
0.035434127 -0.8540287 -0.18693352
0.034776129 -0.73482776 -0.036117554
0.028768126 0.21163523 -0.0080256462
0.028473126 -0.066561759 0.07659626
0.029017126 0.44642326 -0.079443932
0.029433126 0.81217027 -0.19856691
0.029759126 -0.95295572 -0.29197598
0.029290127 -0.8464607 -0.15762186
0.022793125 0.094622254 0.026446342
0.022909125 0.24093825 -0.018067837
0.023006126 0.36210322 -0.054929733
0.023257127 0.67784125 -0.15098858
0.022464126 -0.61579072 0.1521945
0.022587126 -0.16331875 0.10491848
0.022355126 -0.4549247 0.19363117
0.016940126 0.094488263 0.025364399
0.017002126 0.21140426 -0.010210514
0.016876128 -0.025123775 0.061759472
0.016915126 0.047014236 0.039809227
0.017191127 0.56695223 -0.11839867
0.017127126 0.44626623 -0.081675529
0.017145127 0.48042026 -0.092068672
0.017167125 0.52291626 -0.10499954
0.016648125 -0.45513976 0.19260311
0.011104126 0.16596323 0.00248909
0.011053126 -0.025275767 0.060689449
0.011072126 0.046872258 0.038731098
0.011219126 0.60003829 -0.12961388
0.011148127 0.33217025 -0.048093796
0.011156127 0.36191922 -0.057146549
0.011240127 0.67775822 -0.15326691
0.011167126 0.40397424 -0.069945812
0.010911126 -0.55916071 0.22316408
0.011031127 -0.10800779 0.085867405
0.0052261264 0.094220221 0.023200035
0.0052261264 0.24060422 -0.021357536
0.0052261264 0.04673022 0.0376544
0.0052261264 0.56683224 -0.12065697
0.0052261264 0.40388823 -0.07105875
0.0052261264 -0.32151175 0.14973927
0.0052261264 -0.81683576 -0.042832851
-0.00065087387 0.16571528 0.00031137466
-0.0007768739 -0.91312981 -0.14352655
-0.00053887395 -0.69423378 0.12874603
-0.00053487392 -0.2719568 0.13355112
-0.0005498738 -0.21554875 0.11637926
-0.006509874 0.12705827 0.010952473
-0.0064288741 -0.025737762 0.057478428
-0.0065708738 0.24037826 -0.02355051
-0.0065938737 0.28334224 -0.036633968
-0.006447874 0.0096382499 0.0467062
-0.0067438735 0.56671125 -0.12291574
-0.0068028737 0.67763221 -0.15668774
-0.0068748742 0.81218624 -0.19765472
-0.0062718736 -0.32191074 0.14765549
-0.0069328742 -0.99927676 -0.2310729
-0.006257874 -0.68766475 0.15544033
-0.0062978743 -0.27214873 0.13250542
-0.006176874 -0.5011797 0.20223904
-0.012316873 0.046300232 0.034422398
-0.012758873 0.59981823 -0.13414574
-0.012635874 0.44586724 -0.087260723
-0.012696873 0.52257925 -0.11062384
-0.012193874 -0.10867572 0.081616402
-0.011880875 -0.50140679 0.20121527
-0.011916874 -0.45623374 0.18745804
-0.018345874 0.21070027 -0.016775608
-0.018170875 0.046155274 0.033343315
-0.018807873 0.64553428 -0.14922094
-0.018841874 0.67754626 -0.15897179
-0.018595874 0.44578624 -0.08837986
-0.017778873 -0.32231271 0.14557123
-0.018887874 -0.98290575 -0.17198372
-0.017559873 -0.6746887 0.20818806
-0.017485874 -0.5976367 0.22942924
-0.018005874 -0.10884476 0.080553055
-0.023872875 -0.068004727 0.066998482
-0.024499875 0.40345126 -0.076625824
-0.024969874 0.75724226 -0.18440485
-0.024657873 0.52244222 -0.11287451
-0.023448873 -0.38727379 0.1642561
-0.024787873 -0.97482777 -0.14282084
-0.023142874 -0.66828275 0.2342391
-0.023600874 -0.27273178 0.12936449
-0.023743873 -0.1647228 0.096461296
-0.030008875 0.12652826 0.0066084862
-0.029820874 0.009034276 0.042408466
-0.030763872 0.59965026 -0.13754797
-0.028852873 -0.5981257 0.22739935
-0.029005874 -0.5020957 0.1981411
-0.036098875 0.23980522 -0.02903986
-0.035668872 0.0088812709 0.041332245
-0.036998875 0.72352922 -0.17645073
-0.037061874 0.75718325 -0.18670082
-0.036624875 0.52230322 -0.11512852
-0.037212875 -1.0620267 -0.21140194
-0.035759874 -0.86757076 0.02645731
-0.035344873 -0.16508174 0.094346046
-0.041697875 0.09311825 0.014537334
-0.041442875 -0.026680768 0.05105114
-0.043110874 0.75715327 -0.18784761
-0.040225875 -0.5986197 0.2253685
-0.047745872 0.16469926 -0.0084118843
-0.048215874 0.36097026 -0.068244934
-0.046576872 -0.32333577 0.14036131
-0.047041874 -0.85289478 0.081252098
-0.047088873 -0.10970175 0.075237274
-0.046255875 -0.4575808 0.18128347
-0.053537875 0.12598825 0.0022602081
-0.053640872 0.16456926 -0.0095028877
-0.053954873 0.28247422 -0.045450687
-0.054919872 0.64524126 -0.15605688
-0.052169874 -0.3883518 0.15907717
-0.052612875 -0.84565079 0.10831022
-0.059188873 0.045122266 0.025792122
-0.058108874 -0.32375181 0.1382761
-0.058138877 -0.83846676 0.13514519
-0.056999873 -0.74037874 0.25382042
-0.057106875 -0.66625381 0.24271727
-0.057411872 -0.56202877 0.21093512
-0.058734871 -0.1100508 0.07310915
-0.065313876 0.12571424 8.5353851e-05
-0.064691871 -0.069170713 0.05952549
-0.065676875 0.23921824 -0.034531593
-0.066333875 0.44512525 -0.097333908
-0.066579871 0.52195126 -0.12076473
-0.063877873 -0.32396173 0.13723326
-0.067019872 -1.1003158 -0.16275072
-0.064036876 -0.27412271 0.12203407
-0.071497872 0.20960528 -0.026634693
-0.071748875 0.28214025 -0.048760891
-0.070017874 -0.21781278 0.10374737
-0.068695873 -0.59987473 0.22029209
-0.076372877 -0.069510698 0.057389259
-0.07786487 0.33065623 -0.064702511
-0.079036877 0.64504027 -0.16061974
-0.078418873 0.47920024 -0.11002254
-0.07857687 0.52180827 -0.12302256
-0.074533872 -0.5627718 0.20787811
-0.074753873 -0.50398171 0.18994331
-0.083951876 -1.0749047 -0.076284885
-0.082721874 -0.99641371 0.017645359
-0.079806872 -0.81031871 0.24034548
-0.079542875 -0.73872781 0.26047421
-0.081622876 -0.21820176 0.10164118
-0.080244876 -0.56302178 0.20685911
-0.088749871 0.091974258 0.0058631897
-0.089893878 0.36027926 -0.076025963
-0.086697876 -0.38967776 0.15286207
-0.085115872 -0.80342579 0.26611805
-0.08520887 -0.7390058 0.25947332
-0.087885872 -0.11093676 0.067790031
-0.09390787 -0.070026755 0.054184437
-0.094096877 -0.028147757 0.041399479
-0.095499873 0.28168726 -0.053178787
-0.096937872 0.59901321 -0.15004396
-0.096238874 0.44469824 -0.10293865
-0.10069387 0.12487727 -0.0064435005
-0.10087887 0.16351026 -0.018238544
-0.10109688 0.20897627 -0.032119751
-0.10030587 0.04405427 0.018232346
-0.10296687 0.59895426 -0.15117979
-0.10167887 0.33023524 -0.069139957
-0.10259587 0.52151823 -0.12753868
-0.099026874 -0.97294474 0.099657059
-0.099044874 -0.21879375 0.098479271
-0.097211875 -0.60115874 0.21521425
-0.10659687 0.12473524 -0.0075325966
-0.10582087 -0.028481722 0.039253235
-0.10600087 0.0069912672 0.028422356
-0.10190888 -0.80106974 0.27516222
-0.10485587 -0.21899271 0.097425461
-0.11232487 0.091386259 0.0015201569
-0.11502987 0.59883523 -0.15345192
-0.11375587 0.35987425 -0.080477715
-0.11461687 0.52137125 -0.12979984
-0.10975587 -0.3905828 0.14871407
-0.11125088 -1.0339837 0.06305933
-0.10769787 -0.86158574 0.26661015
-0.10827287 -0.66865873 0.23363829
-0.11755087 -0.028818727 0.037107468
-0.11795688 0.043585241 0.01499033
-0.11996288 0.40198123 -0.09448576
-0.12039187 0.47863623 -0.11790085
-0.11552487 -0.3908118 0.14767838
-0.11356787 -0.74041677 0.25446415
-0.11648387 -0.21939373 0.095318317
-0.11455187 -0.5645448 0.20074415
-0.12317487 -0.070902705 0.048838139
-0.12664887 0.52122325 -0.13206196
-0.12015887 -0.94255674 0.2059164
-0.11888687 -0.80195177 0.27217436
-0.12027787 -0.56480277 0.19972515
-0.12260587 -0.16788673 0.078468323
-0.12903386 -0.071080804 0.047768116
-0.12929186 -0.029158771 0.03496027
-0.13193488 0.40178925 -0.096721649
-0.12422087 -0.85586476 0.28756237
-0.12454987 -0.80224872 0.2711792
-0.13593286 0.090787232 -0.0028238297
-0.13539088 0.0061722398 0.023034096
-0.13819486 0.44408524 -0.11079788
-0.13326088 -0.32655072 0.12471628
-0.13021389 -0.80254674 0.27018547
-0.13358086 -0.27661574 0.10945749
-0.13463187 -0.11239672 0.059271336
-0.14281988 0.23762625 -0.048840523
-0.13557088 -0.92041874 0.28338146
-0.13676688 -0.67003775 0.22859526
-0.13938886 -0.27682877 0.10840845
-0.14797887 0.12372524 -0.015160561
-0.14856386 0.20794022 -0.040906906
-0.14662388 -0.071617723 0.044559479
-0.14691487 -0.029674768 0.031737328
-0.14940587 0.32936823 -0.078029633
-0.14990687 0.40149927 -0.10008097
-0.15043887 0.47822323 -0.12353563
-0.14559188 -0.2204107 0.090047359
-0.15472087 0.23737323 -0.051045895
-0.15503186 0.28051823 -0.064237595
-0.15590286 0.40140224 -0.10120058
-0.15620887 0.44381624 -0.1141696
-0.14766288 -0.74215078 0.24845505
-0.14935589 -0.50719774 0.17661428
-0.15957487 0.090177238 -0.0071725845
-0.16067389 0.23724627 -0.052148819
-0.15894186 0.0055042505 0.018722057
-0.16158387 0.35904223 -0.089396954
-0.15645388 -0.32744479 0.12054205
-0.15466788 -0.56637478 0.19360924
-0.15510789 -0.50745273 0.17559147
-0.15544689 -0.4621017 0.16172028
-0.16423488 -0.072162747 0.041348457
-0.16175288 -0.39267981 0.13938236
-0.17293188 0.28015727 -0.067560673
-0.17424089 0.44354424 -0.1175437
-0.17451587 0.47788626 -0.1280427
-0.16753986 -0.39291775 0.1383462
-0.16932988 -0.1694628 0.069987297
-0.16977787 -0.11352575 0.052873135
-0.17662787 0.0049952269 0.015485287
-0.17189088 -0.56717575 0.19055128
-0.17237887 -0.50822473 0.17251348
-0.18425587 0.20713925 -0.047508717
-0.18186387 -0.072714806 0.038135052
-0.18487787 0.27991426 -0.069777966
-0.18555087 0.35861427 -0.09386158
-0.17967889 -0.32835579 0.11636734
-0.17464787 -0.91693878 0.29648113
-0.18059087 -0.22166073 0.083716393
-0.17731488 -0.6049118 0.20099735
-0.17763487 -0.56744576 0.18953133
-0.18103388 -0.16986573 0.067865372
-0.18548986 -0.32858574 0.11532116
-0.18029988 -0.91726673 0.29549742
-0.18182787 -0.7439307 0.24244547
-0.18245986 -0.67230773 0.22052336
-0.18430188 -0.46335578 0.15657043
-0.19466788 0.041483223 0.00092029572
-0.19754687 0.35839826 -0.096097946
-0.18912986 -0.56798875 0.18749237
-0.19274387 -0.17027175 0.065743446
-0.20102987 0.089085221 -0.014788628
-0.20170388 0.16112822 -0.036847591
-0.19951087 -0.073273778 0.034921169
-0.19990388 -0.031264722 0.022059441
-0.20281187 0.27954525 -0.073104858
-0.19650987 -0.39412379 0.1331563
-0.19711888 -0.32904875 0.11323214
-0.19758686 -0.27901971 0.097916126
-0.20696187 0.088926256 -0.015878677
-0.20765588 0.16098225 -0.03794384
-0.20809487 0.20659328 -0.051912785
-0.20837986 0.23620623 -0.06098175
-0.20879588 0.27942127 -0.074214935
-0.20231086 -0.39436769 0.13211918
-0.19783089 -0.85995674 0.27469206
-0.20500287 -0.11468577 0.046473026
-0.21322489 0.12207323 -0.027168751
-0.21405986 0.20645523 -0.053013802
-0.21555987 0.35807025 -0.099449635
-0.20925286 -0.27946973 0.095815182
-0.20981386 -0.22272873 0.078437328
-0.20601887 -0.60630774 0.19591808
-0.20638987 -0.5688107 0.18443346
-0.21834487 0.040812254 -0.0034165382
-0.22156787 0.35796022 -0.10056496
-0.21457887 -0.32975078 0.11009836
-0.21214688 -0.56908774 0.18341208
-0.21274689 -0.51006579 0.16533327
-0.22351187 -0.031990767 0.017753124
-0.22630486 0.23580724 -0.064295769
-0.22757787 0.35784924 -0.10168171
-0.21972388 -0.39510679 0.12900543
-0.21681386 -0.67406273 0.21447134
-0.22264287 -0.11527574 0.043270111
-0.23106587 0.12160927 -0.030450821
-0.23148087 0.16039324 -0.042333603
-0.23196986 0.20603722 -0.056322575
-0.22942087 -0.032174766 0.016675472
-0.23019788 0.040472269 -0.0055856705
-0.22553387 -0.3953557 0.12796736
-0.21992388 -0.91960478 0.28861141
-0.22852889 -0.1154747 0.042202473
-0.23826888 0.23553824 -0.06650877
-0.23927888 0.32765925 -0.094736576
-0.22828388 -0.6746577 0.21245241
-0.23441586 -0.11567473 0.041133404
-0.24473986 0.27866626 -0.080877781
-0.24205786 0.040129244 -0.0077557564
-0.23126286 -0.9202857 0.28664303
-0.23321387 -0.74668872 0.23343134
-0.23402086 -0.67495775 0.21144247
-0.24854288 0.087795258 -0.023507595
-0.24667087 -0.07480073 0.026342392
-0.24756488 0.0028922558 0.0025210381
-0.24799189 0.039957225 -0.0088405609
-0.24297288 -0.39610779 0.12485123
-0.24429989 -0.28084075 0.089512348
-0.24164587 -0.51141477 0.16020203
-0.25449088 0.087631226 -0.024599552
-0.25307089 -0.032916725 0.012366295
-0.25392789 0.039784253 -0.0099277496
-0.24955788 -0.33118176 0.10382748
-0.24393186 -0.80878878 0.25027704
-0.24465588 -0.74731672 0.23142719
-0.25142887 -0.1723547 0.055125237
-0.2604439 0.08746624 -0.025690556
-0.26084587 0.12082326 -0.035921574
-0.26222187 0.23499322 -0.070935726
-0.26274288 0.27828223 -0.084206581
-0.25942087 0.0025312304 0.00035810471
-0.25250888 -0.57105577 0.17627335
-0.25322089 -0.5119617 0.15814924
-0.26639789 0.087301254 -0.026781559
-0.26491189 -0.03329277 0.010210037
-0.25610787 -0.74794877 0.22942543
-0.26319388 -0.17278171 0.052999496
-0.25957188 -0.46674478 0.1431694
-0.27235389 0.087134242 -0.027872562
-0.27421188 0.23471826 -0.073148727
-0.26273987 -0.67647278 0.20639706
-0.26770887 -0.28177476 0.085308075
-0.26405987 -0.57162881 0.17423248
-0.26978487 -0.11688876 0.034721375
-0.26480389 -0.51251376 0.15609741
-0.27924088 0.15918523 -0.051124573
-0.26608288 -0.86393976 0.26281834
-0.26677489 -0.81010175 0.24629736
-0.26756588 -0.74858677 0.22742224
-0.26848987 -0.67677975 0.20538807
-0.26983789 -0.5719167 0.1732111
-0.27118388 -0.46728277 0.14110613
-0.28471288 0.12018126 -0.040302753
-0.28213689 -0.075978756 0.019900322
-0.28315789 0.0018012524 -0.003970623
-0.27876887 -0.33240175 0.09859705
-0.27101788 -0.9227128 0.27975941
-0.27942789 -0.28224778 0.083204269
-0.29023689 0.086631238 -0.031149864
-0.29068488 0.12001926 -0.041398525
-0.28959489 0.038730264 -0.016444683
-0.28374287 -0.39789879 0.11757803
-0.27820989 -0.81076574 0.24430609
-0.2821959 -0.51335073 0.15301609
-0.29781488 0.20446223 -0.068461895
-0.28319389 -0.86496675 0.25984716
-0.29264289 -0.17386472 0.047680378
-0.30048689 -0.034437776 0.003736496
-0.30098388 0.0012452602 -0.0072207451
-0.30150187 0.038372278 -0.018620968
-0.2889019 -0.86531174 0.25885916
-0.29702088 -0.28296375 0.080048084
-0.29245189 -0.61067772 0.18067408
-0.29380089 -0.51391375 0.15096235
-0.30693087 0.0010582209 -0.0083026886
-0.30745888 0.038193226 -0.01970768
-0.29727387 -0.67833281 0.20034122
-0.29876587 -0.5733757 0.16810942
-0.31411389 0.085951269 -0.035520554
-0.31236488 -0.034825742 0.0015773773
-0.30110589 -0.81211078 0.2403264
-0.30199787 -0.75053072 0.22141027
-0.31034088 -0.17452574 0.044487476
-0.30541688 -0.51448178 0.14890814
-0.3129319 -0.39920878 0.11238003
-0.31035388 -0.5739677 0.16606712
-0.31707388 -0.11855578 0.02616024
-0.32425088 -0.035217762 -0.00058269501
-0.32051289 -0.28393281 0.075839043
-0.33255789 0.11886823 -0.049073696
-0.32639089 -0.28417671 0.074786186
-0.32805887 -0.17519474 0.041294098
-0.32285488 -0.51534271 0.14582634
-0.32319587 -0.86741173 0.25292206
-0.32716489 -0.61250269 0.17457247
-0.33397087 -0.17541981 0.040228367
-0.32867387 -0.51563179 0.14479733
-0.32938388 -0.47003877 0.13078403
-0.33632487 -0.40027678 0.10821915
-0.32977387 -0.81382275 0.23534918
-0.33295789 -0.61281073 0.17355537
-0.34737289 -0.078215718 0.0080714226
-0.34805289 -0.036009729 -0.0049066544
-0.33766687 -0.68055975 0.1932745
-0.35520488 0.036729276 -0.028418541
-0.34226689 -0.75285876 0.21439838
-0.35926488 -0.078633785 0.0059170723
-0.36118388 0.03654325 -0.029508591
-0.35272589 -0.47117281 0.12665319
-0.35274988 -0.81521678 0.2313695
-0.35379389 -0.75353575 0.21239424
-0.36171487 -0.28566575 0.068465233
-0.35679287 -0.57638276 0.15789747
-0.37116787 -0.07905376 0.0037631989
-0.3718949 -0.036813736 -0.0092325211
-0.3607989 -0.6818608 0.18923426
-0.36195987 -0.6143707 0.16846848
-0.36948687 -0.17678678 0.033834457
-0.37045488 -0.1204958 0.016514301
-0.36362788 -0.51739073 0.13863039
-0.36532789 -0.7542187 0.21038914
-0.36658689 -0.68218875 0.18822527
-0.37350687 -0.28616869 0.066357136
-0.37450388 -0.22913074 0.048804283
-0.36946189 -0.5176878 0.13760233
-0.37025887 -0.47203469 0.12355423
-0.37735289 -0.40218675 0.10093307
-0.37000388 -0.81627679 0.22838306
-0.37237787 -0.68251872 0.18721437
-0.38980088 -0.037425756 -0.012480736
-0.38440287 -0.33700371 0.079741478
-0.37575987 -0.81663275 0.22738743
-0.39577588 -0.037630737 -0.013564587
-0.38053188 -0.87102377 0.24302721
-0.3942439 -0.12137973 0.01222229
-0.39618888 -0.33753479 0.077643394
-0.38976589 -0.68351579 0.18418312
-0.39366987 -0.47319973 0.11942005
-0.39202589 -0.87176371 0.24104834
-0.39304388 -0.8177098 0.22440004
-0.39556587 -0.68384969 0.18317318
-0.39866689 -0.51919079 0.13246012
-0.41211089 -0.12205172 0.0090003014
-0.41261488 -0.40386474 0.094682217
-0.40848488 -0.61692977 0.16032648
-0.41697988 -0.17865872 0.025297165
-0.41807288 -0.12227774 0.0079250336
-0.41125387 -0.47408581 0.11631727
-0.41431087 -0.61725581 0.15930939
-0.41711888 -0.47438276 0.11528349
-0.42438787 -0.40443277 0.092598438
-0.42669889 -0.28848577 0.056863308
-0.42080387 -0.87363672 0.23609924
-0.42460388 -0.68554378 0.17811918
-0.42885789 -0.47498071 0.11321449
-0.43616989 -0.40500569 0.090512276
-0.43751287 -0.33942771 0.070295334
-0.42894089 -0.75806677 0.19936228
-0.43041888 -0.68588674 0.17710829
-0.43180388 -0.61823976 0.15625429
-0.44078588 -0.17961776 0.021023273
-0.43379387 -0.52103376 0.12628412
-0.44342789 -0.33970273 0.069244385
-0.44674489 -0.17985976 0.019953251
-0.43965888 -0.52134478 0.12525511
-0.44053787 -0.7587837 0.19735718
-0.44205689 -0.6865747 0.17508745
-0.45160687 -0.23235273 0.035000324
-0.4434799 -0.61890173 0.15421724
-0.44552389 -0.52165675 0.12422514
-0.45526189 -0.34025478 0.067142487
-0.45755488 -0.23260772 0.033937454
-0.45976689 -0.40616369 0.086340427
-0.45597887 -0.58177078 0.14051723
-0.45953187 -0.68761778 0.17205429
-0.46946189 -0.23311973 0.03180933
-0.47158188 -0.40674877 0.084252357
-0.47303489 -0.3410908 0.063989162
-0.46685889 -0.62024081 0.15014029
-0.47355688 -0.58275771 0.13744926
-0.47488987 -0.5232358 0.1190753
-0.48489487 -0.3416537 0.061886311
-0.47398388 -0.82289875 0.21045828
-0.48932087 -0.40763581 0.081120491
-0.48120487 -0.7613368 0.19033527
-0.48528689 -0.58342278 0.13540125
-0.48665389 -0.52387571 0.11701345
-0.48770589 -0.4780407 0.1028614
-0.4952409 -0.40793276 0.080076218
-0.4925409 -0.5241977 0.11598349
-0.49360588 -0.47835279 0.10182524
-0.50270587 -0.34250569 0.058729172
-0.49454689 -0.68973875 0.16598511
-0.49613985 -0.62194276 0.14504528
-0.50200385 -0.6222868 0.14402437
-0.50290388 -0.58442771 0.13232803
-0.50449884 -0.76282477 0.18632221
-0.50877982 -0.58476579 0.13130426
-0.51466084 -0.5851047 0.13028049
-0.52379686 -0.69154274 0.16092539
-0.52548486 -0.62367678 0.13994408
-0.52642787 -0.58578575 0.12823105
-0.52965486 -0.69190681 0.15991306
-0.53381485 -0.5264827 0.10876322
-0.54268283 -0.41035378 0.071715355
-0.54435587 -0.34452975 0.051359177
-0.53367287 -0.76471579 0.18130445
-0.53551483 -0.69227278 0.15890121
-0.53820485 -0.5864718 0.12618113
-0.54088885 -0.48089278 0.093530178
-0.54724383 -0.69300878 0.15687513
-0.55273783 -0.48153877 0.091456413
-0.55120885 -0.76586676 0.17829227
-0.56078583 -0.62579775 0.13382149
-0.56459588 -0.48218977 0.089380264
-0.57242286 -0.41190279 0.066484451
-0.56291384 -0.76664078 0.17628336
-0.57837886 -0.41221476 0.065439224
-0.56876886 -0.76702976 0.17527914
-0.57360286 -0.5885607 0.1200304
-0.57951087 -0.5889138 0.11900425
-0.58114582 -0.52916574 0.1005044
-0.58048785 -0.76781273 0.17326927
-0.58437288 -0.6272378 0.12973738
-0.59027582 -0.62760079 0.12871647
-0.59300482 -0.52984869 0.098438263
-0.59618384 -0.62796581 0.12769318
-0.60015488 -0.69638479 0.14775705
-0.60487688 -0.53053677 0.09637022
-0.61784083 -0.69753373 0.14471626
-0.61983585 -0.62943578 0.1236062
-0.62270385 -0.53157675 0.093269348
-0.62575585 -0.62980676 0.12258339
-0.63335884 -0.77140176 0.16422415
-0.63875085 -0.59250677 0.10873842
-0.63924688 -0.77180779 0.16321707
-0.64468986 -0.59287274 0.10771036
-0.65328586 -0.6998688 0.13862944
-0.65920287 -0.70026278 0.13761425
-0.66133487 -0.63205969 0.1164465
-0.66727388 -0.63243878 0.1154232
-0.66873085 -0.77385771 0.1581893
-0.67104787 -0.70105469 0.13558435
-0.70070487 -0.70305669 0.13050842
