# .PCD v0.7 - Point Cloud Data file format
VERSION 0.7
FIELDS x y z
SIZE 4 4 4
TYPE F F F
COUNT 1 1 1
WIDTH 1
HEIGHT 1024
VIEWPOINT 0 0 0 1 0 0 0
POINTS 1024
DATA ascii
0.97484303 -0.074220181 -0.15774202
0.91767806 0.010544777 0.17471075
0.95601702 -0.11864918 -0.15398121
0.96088606 -0.00025320053 -0.19022799
0.90179902 0.090221822 0.11886215
0.93147105 -0.1111092 -0.10651588
0.89403707 0.092153788 0.1334548
0.91775006 -0.057519197 -0.047885895
0.89660805 -0.0035651922 0.068696976
0.92084402 -0.15697616 -0.11790705
0.88045502 0.12802982 0.14822483
0.88914603 0.1595428 0.080843925
0.92033803 -0.22457319 -0.16097498
0.91275603 -0.15437621 -0.10219193
0.87547302 0.093465805 0.14165306
0.89169902 0.19900978 0.014984131
0.90079302 0.018369794 -0.056005955
0.86679202 0.13011783 0.16406012
0.88328302 0.20118481 0.034431934
0.90410203 -0.21902817 -0.12921715
0.86021602 0.13093978 0.17014599
0.87813205 -0.045953214 0.028329849
0.88406307 0.023550808 -0.018619061
0.89604402 -0.21627814 -0.11345816
0.85691601 0.094817817 0.15021992
0.85352904 0.13187981 0.17721987
0.85614204 0.1685428 0.15638781
0.84885502 0.16998279 0.16823578
0.86772704 -0.091564238 0.016720772
0.86254704 -0.041409194 0.058309078
0.87289202 -0.14157623 -0.024748802
0.85012603 0.20974678 0.11105204
0.85480803 -0.039154172 0.073194027
0.85156405 0.0014197826 0.099421978
0.85932803 0.031203806 0.036638737
0.86503202 -0.13905519 -0.0094790459
0.84196001 0.2118538 0.1299181
0.84861201 0.23609883 0.075747013
0.87818706 -0.34338421 -0.16512585
0.83384603 0.21394479 0.14865112
0.84041005 0.23813683 0.09480381
0.82377201 0.17209482 0.18385983
0.83675301 -0.082087219 0.076590061
0.83454102 0.039241791 0.094872952
0.82014102 0.21595782 0.16596794
0.82910103 -0.079748213 0.091380119
0.83363402 0.27791679 0.053646088
0.84708005 -0.26201314 -0.05828619
0.81665707 -0.028048217 0.14656687
0.84628701 -0.33124214 -0.10191917
0.80764204 0.21692878 0.17363787
0.81052804 0.2440328 0.14925289
0.81770504 0.28142279 0.088608742
0.80515605 0.015222788 0.19464111
0.83840907 -0.32824618 -0.086310863
0.82523304 -0.19215423 0.025012016
0.81095105 0.28222078 0.096207142
0.81755102 -0.18954116 0.040030956
0.81105101 -0.1217652 0.09536314
0.80031306 0.094059825 0.1372509
0.81597501 -0.25084418 0.002907753
0.78293103 0.021407783 0.23719883
0.81499606 -0.31935018 -0.039934158
0.80829006 -0.24808723 0.018025875
0.78484106 0.17112583 0.17068815
0.78717905 -0.17922217 0.099400997
0.76101005 0.027501822 0.27917099
0.79191804 -0.31059116 0.0057740211
0.77356005 -0.10978323 0.16816187
0.77710903 0.28151983 0.084950924
0.75683105 0.0628618 0.26573181
0.75816703 0.10274982 0.20252705
0.77671105 -0.30482417 0.035889149
0.77040702 -0.23451215 0.092532158
0.76760602 0.27971381 0.064929008
0.73938203 0.033506811 0.32057619
0.75147605 -0.10273618 0.21103096
0.74288702 0.10723883 0.23702288
0.75415206 0.21338582 0.134161
0.73997802 -0.052569211 0.26358318
0.75500506 0.2423498 0.12636995
0.76164806 -0.29911715 0.065713882
0.75000203 -0.16661316 0.17205715
0.74418306 -0.10041124 0.22518778
0.73277003 -0.050376177 0.27750492
0.74435902 0.24153578 0.11721087
0.71931607 0.074424803 0.34962177
0.72618902 0.14024079 0.23275185
0.73851901 0.21178281 0.1173768
0.71193504 0.07669878 0.36613083
0.73931402 -0.29066223 0.10993481
0.73339605 -0.2212742 0.16530895
0.72810203 -0.1591962 0.214849
0.72554803 0.17346579 0.18483496
0.71133906 -0.043862224 0.31889915
0.70732707 0.0036618114 0.35675287
0.71796006 0.1755228 0.20221806
0.72553402 0.21328682 0.13015985
0.72958606 0.23908979 0.091608047
0.71366906 -0.15431315 0.24304819
0.70370805 0.1466068 0.28385401
0.71041405 0.17756879 0.21950817
0.71605706 0.050251782 0.16536283
0.69085306 0.12236482 0.35335875
0.68833601 0.0069338083 0.37770796
0.71606505 0.24104279 0.10938215
0.70855302 0.014968812 0.18207884
0.70943302 0.051420808 0.1735611
0.69404203 -0.084447205 0.32250214
0.68550801 0.12211281 0.35078001
0.68320906 -0.035322189 0.37322283
0.68802005 0.18363678 0.27082205
0.69455302 -0.017581165 0.20651007
0.70834601 0.28086382 0.070713043
0.68519002 -0.14468819 0.29868317
0.68800205 -0.016333222 0.21459484
0.68882102 0.018590808 0.20646381
0.68420404 0.10281581 0.19524717
0.67012602 0.1532588 0.33628607
0.69305003 0.28443283 0.10661983
0.68124604 -0.26872319 0.22487593
0.66608804 -0.075565219 0.37674189
0.67765707 0.10390383 0.20335913
0.67658406 0.057201803 0.21420574
0.67413604 -0.26604217 0.23894691
0.67112702 0.10498881 0.21145296
0.67080504 0.25223279 0.2147398
0.67792404 0.28796083 0.14213705
0.66924405 0.022177815 0.23065901
0.66705805 -0.2633732 0.25295305
0.65467507 -0.074999213 0.37925005
0.66619402 0.17623478 0.20327091
0.65488803 -0.19327718 0.31963015
0.65138406 0.23186982 0.29753017
0.65550703 -0.010151207 0.25470877
0.66296506 0.29144681 0.17725706
0.65299702 -0.25807625 0.28077698
0.65369701 -0.091443241 0.27351475
0.64815503 -0.049889207 0.27213573
0.65554404 0.29317778 0.19469213
0.64982206 0.025729835 0.25466394
0.63966805 -0.14342016 0.30192614
0.64024305 0.18016678 0.23551083
0.63696104 0.028078794 0.27055979
0.62894702 -0.046084166 0.29581785
0.62657803 0.14467978 0.26011181
0.62736905 0.18211383 0.25150585
0.62257504 -0.04482317 0.30367279
0.62890202 0.25468481 0.2348218
0.61838704 -0.24505216 0.34925079
0.62017703 0.14569581 0.26805401
0.62187606 0.22704279 0.24937773
0.62247205 0.25556082 0.24283075
0.62634003 0.34210378 0.20032883
0.61155802 -0.24248618 0.36276102
0.61312807 0.11459982 0.28333807
0.61606002 0.25643378 0.25081682
0.60061502 -0.18540615 0.36016703
0.60271102 0.22976279 0.27322578
0.59284306 -0.23816222 0.38488579
0.59196407 0.0016217828 0.33130693
0.58852404 -0.18341619 0.37062311
0.59046805 -0.078874171 0.34841013
0.58871502 0.11744082 0.3040309
0.58582902 -0.039303184 0.33734989
0.58215404 -0.23892015 0.37978077
0.58409601 -0.13347214 0.35736799
0.58118701 0.0010138154 0.32612181
0.58749402 0.34700578 0.25255394
0.57781106 -0.18414122 0.36549616
0.57789004 0.11690682 0.29880619
0.57914203 0.18628478 0.28404713
0.57579303 0.00070881844 0.32352591
0.57641304 0.035091817 0.31621075
0.57574403 0.29982382 0.2572031
0.56895304 -0.080196202 0.33808279
0.56623304 0.070263803 0.30339098
0.55958706 -0.00021117926 0.31573105
0.56019002 0.034204781 0.30840015
0.55739903 0.18529779 0.27353191
0.55816007 0.22920179 0.26417589
0.55183804 -0.13557023 0.34190798
0.55278003 -0.081197202 0.33032084
0.55270803 0.22896779 0.26153612
0.54806805 -0.041544199 0.31920481
0.55319601 0.2574538 0.25546408
0.54997104 0.069405794 0.29555178
0.54738206 -0.081533253 0.32773018
0.54587007 0.1474278 0.27623415
0.54265702 -0.041867197 0.316607
0.54773402 0.25722879 0.25281811
0.54843903 0.29877281 0.24395704
0.54019904 -0.18671316 0.34749889
0.53988504 0.11501181 0.28046513
0.53910905 0.068830788 0.29031897
0.53388304 -0.24238521 0.35672092
0.53444105 0.11473781 0.27783775
0.53250605 -0.0017641783 0.30270481
0.53307903 0.032708824 0.29534817
0.53367406 0.068540812 0.28769875
0.52707905 -0.0020762086 0.30009699
0.53278208 0.34505683 0.22598219
0.52311808 -0.24316818 0.35158014
0.52485603 -0.13734716 0.32898188
0.52406406 0.14637381 0.26570415
0.52538705 0.22778678 0.248312
0.52098405 -0.043172181 0.30619717
0.52220803 0.032103777 0.29011393
0.51862705 -0.18820721 0.33718109
0.51920605 0.18354183 0.25506687
0.51734406 0.067668796 0.27982998
0.51262808 0.11363482 0.26731491
0.51012605 -0.043829203 0.300982
0.51077503 -0.0030211806 0.29225683
0.50694007 -0.24435014 0.34385586
0.50587505 0.031190813 0.28225613
0.50154108 -0.24474615 0.34127808
0.50320506 -0.13878721 0.3186121
0.50220007 0.14530683 0.25514698
0.50098103 0.066789806 0.27194881
0.49699807 -0.18971723 0.32683802
0.49778306 -0.1391502 0.3160181
0.49729806 0.18252283 0.24447775
0.49797407 0.2265898 0.23504496
0.49443606 -0.0039741993 0.28440285
0.49073008 -0.24554223 0.33611679
0.49235708 -0.13951319 0.31341887
0.49319407 -0.084944189 0.30173683
0.49248108 0.2263478 0.23238611
0.48836407 -0.045156181 0.29053307
0.48898306 -0.0042932034 0.2817831
0.48616007 -0.19047922 0.32165575
0.48874006 0.34345579 0.204597
0.48149407 -0.14024323 0.30821896
0.48231307 -0.085638225 0.2965188
0.48148206 0.2258628 0.22706413
0.47448707 -0.24674422 0.3283658
0.47605807 -0.14061016 0.3056159
0.47310707 0.029341817 0.26648998
0.46928605 0.1436848 0.23925877
0.46982908 0.18123281 0.23120403
0.46363807 -0.24755222 0.32318878
0.46596107 -0.086686194 0.28868008
0.46536106 0.25377083 0.21292114
0.46595508 0.29552782 0.20396996
0.46662706 0.34264183 0.19386101
0.46050307 -0.087037146 0.28606319
0.45783105 0.11082083 0.24088812
0.45560706 -0.047174215 0.27481079
0.46108907 0.34243679 0.19117403
0.45427206 -0.14208716 0.29518795
0.45233008 0.1105358 0.23823595
0.45277905 0.1428628 0.23129082
0.44465706 -0.047854185 0.26955605
0.44618708 0.063802779 0.24556208
0.45000008 0.3420248 0.18579102
0.44335505 -0.14283222 0.28996515
0.44175306 0.14231181 0.22597313
0.44226205 0.17992479 0.21788597
0.43917707 -0.048196197 0.26692581
0.44324806 0.25282282 0.20221519
0.44445106 0.3418178 0.18309593
0.43580306 0.1096738 0.23026896
0.43470207 0.027143776 0.24801874
0.43071306 0.14175683 0.22064495
0.42920107 0.026826799 0.24537277
0.42555207 -0.25041217 0.30502319
0.42567608 0.17913079 0.20987415
0.42625007 0.22339481 0.20034599
0.42716506 0.29396582 0.18516874
0.42147806 -0.14433414 0.27949905
0.42219007 -0.089525163 0.2677002
0.42013708 0.17886478 0.20720005
0.41864607 0.062277794 0.23230505
0.42221108 0.34098583 0.17230272
0.41534808 -0.19553417 0.28782082
0.41267106 0.025868833 0.23742485
0.40960306 0.22264183 0.19229507
0.40621108 -0.050265193 0.25111198
0.41048008 0.2932868 0.17708302
0.40715405 0.025547802 0.23477316
0.41106707 0.3405658 0.16689491
0.40370408 -0.25207216 0.29460478
0.40404606 0.2223888 0.18960905
0.40120706 -0.0095282197 0.2396121
0.40207508 0.061351776 0.22432995
0.39823207 -0.25249022 0.291996
0.39953807 -0.14585215 0.26900387
0.39749408 0.14007479 0.20461893
0.39519107 -0.050963223 0.24582577
0.39933607 0.29283082 0.17168283
0.39342806 -0.19712716 0.27735376
0.39016306 -0.010199189 0.2343092
0.39100608 0.060730815 0.21900272
0.38793907 -0.19752818 0.27473211
0.38919505 -0.091696203 0.251894
0.38601106 0.1070438 0.20627117
0.38683206 0.17725283 0.19111586
0.38415506 -0.051665187 0.24053288
0.37863207 -0.052017212 0.23788595
0.37630507 -0.25417417 0.28154516
0.37694806 -0.19833416 0.269485
0.37753406 -0.14738816 0.25848293
0.37490207 0.1064508 0.2009201
0.37527007 0.13893682 0.19390106
0.37437406 0.059792817 0.21100092
0.37264606 -0.092795193 0.24396896
0.36934108 0.10615283 0.19823885
0.37093908 0.24967182 0.16722918
0.37140608 0.2916798 0.15815115
0.36503306 0.22059983 0.1707449
0.36248606 -0.0118922 0.22102213
0.36326507 0.059162796 0.20565701
0.36159205 -0.093532145 0.23867607
0.35820806 0.10555482 0.19287682
0.35649508 -0.053435206 0.22727299
0.35693908 -0.012234211 0.21835804
0.35975406 0.2491768 0.16181803
0.35491708 -0.19995815 0.25896978
0.35546708 -0.14894122 0.24793291
0.35338005 0.17561382 0.1749649
0.35460007 0.29098183 0.15001011
0.34994006 -0.14933223 0.24529219
0.35052305 -0.094274223 0.23337698
0.34219506 0.17506081 0.16956615
0.34027106 -0.013264179 0.21036005
0.33943605 -0.095020235 0.22806787
0.33659706 0.17478383 0.16686392
0.33704406 0.21930182 0.15721893
0.33429408 -0.054870188 0.21662998
0.33505806 0.021292806 0.20012617
0.32948408 0.020958781 0.19744682
0.32984108 0.057252824 0.18957996
0.32673708 -0.25802916 0.25793219
0.32728907 -0.20201319 0.24578714
0.32425606 0.05693078 0.18689394
0.32121006 -0.2584632 0.25529814
0.32175106 -0.20242721 0.24314499
0.31910908 0.1034348 0.17404604
0.32087207 0.28956783 0.13367319
0.31567708 -0.25889915 0.25266409
0.31721506 -0.096524179 0.21743202
0.31381008 0.1357438 0.16426897
0.31457606 0.21825081 0.14636707
0.31523606 0.28932983 0.13094378
0.31307206 0.056284785 0.18151712
0.30959606 0.28909183 0.12821293
0.30714408 0.019614816 0.18671894
0.30001408 -0.15289825 0.22143602
0.29768106 0.21745378 0.13820696
0.29564306 -0.0160532 0.18894672
0.29594907 0.018937826 0.18134117
0.29166007 0.1725378 0.14517879
0.28969306 -0.057786167 0.19525909
0.28887308 -0.1537022 0.216115
0.28602406 0.17225283 0.14245892
0.28504208 0.05465579 0.1680398
0.28038406 0.1719678 0.13973808
0.27850106 -0.058524191 0.18989897
0.27883905 -0.017114222 0.18088675
0.28133106 0.28788882 0.11452579
0.27942306 0.054327786 0.16533995
0.27729806 -0.20578319 0.22194481
0.27509606 0.21638179 0.12729406
0.27289906 -0.058895171 0.18721294
0.27566507 0.28764683 0.11178303
0.27172306 -0.20620817 0.21928692
0.26729107 -0.059267223 0.18452883
0.26999307 0.28740382 0.10903788
0.26654205 -0.15532416 0.20545197
0.26697406 -0.099969208 0.19339418
0.26137105 -0.10035723 0.19071388
0.25725305 0.10001981 0.14426708
0.25811106 0.21557081 0.11909103
0.25832605 0.24459583 0.11276388
0.25663406 0.016537786 0.16246605
0.25455305 -0.26376814 0.22356892
0.25497106 -0.20748919 0.2113018
0.25074705 -0.018902183 0.1674161
0.25126407 0.052670777 0.15180588
0.24937907 -0.20791823 0.20863581
0.24676406 0.21502578 0.11360979
0.24696907 0.24407279 0.10727406
0.24561808 0.052336812 0.14909315
0.24378107 -0.20834917 0.2059679
0.24108607 0.21475178 0.11086702
0.23818107 -0.20878023 0.2033
0.23540206 0.21447778 0.10812283
0.23328906 -0.10231215 0.17728519
0.22896408 0.098434806 0.13065386
0.22792506 -0.061899185 0.16567898
0.22660106 -0.26602918 0.21027184
0.22228406 -0.062279165 0.16298008
0.22276707 0.014443815 0.1462121
0.22099806 -0.26648515 0.20760679
0.22135307 -0.21008223 0.19528198
0.21761706 0.097793818 0.12519503
0.21805006 0.16878182 0.10967875
0.21098706 -0.063043177 0.15757084
0.21279506 0.24248779 0.090755939
0.21304707 0.28493583 0.081472874
0.21165808 0.050314784 0.13277674
0.21074606 -0.10389525 0.1665082
0.20666006 0.1681928 0.10418892
0.20691808 0.21309483 0.094367981
0.20557207 -0.021815181 0.14576006
0.20598307 0.049974799 0.13005114
0.20074707 0.12968779 0.10979795
0.19990607 -0.02218318 0.14304495
0.19487107 0.096502781 0.11425114
0.19549108 0.21253681 0.088850975
0.19442207 0.012672782 0.13261175
0.18917307 0.096177816 0.11151218
0.18954007 0.16730279 0.095937729
0.19014207 0.28392982 0.070389748
0.18347107 0.095852792 0.10876799
0.18363507 0.1287508 0.10155678
0.18404907 0.21197581 0.083326817
0.17832007 0.21169382 0.080562115
0.17736307 0.011599779 0.12442875
0.17753907 0.048259795 0.1163888
0.17131408 -0.065746188 0.138587
0.17166807 0.011239827 0.12169695
0.17183706 0.04791379 0.11365175
0.16612807 0.047567785 0.11091089
0.16544707 -0.10711318 0.14485979
0.16110706 0.21084481 0.07225275
0.16011406 -0.024790168 0.12397909
0.15976506 -0.10752016 0.14214516
0.15489206 0.094210804 0.095025063
0.15517907 0.16550082 0.07937479
0.15547806 0.23978782 0.063062191
0.15407807 -0.10792822 0.13942909
0.14943607 0.16519779 0.076608181
0.14960906 0.21027482 0.066703796
0.14972107 0.2395128 0.060279846
0.14775707 -0.27252418 0.172791
0.14817306 -0.16413122 0.14897108
0.14284006 -0.067708194 0.12496519
0.14395906 0.2392388 0.057495117
0.14411406 0.2818858 0.048120975
0.13809106 0.20970082 0.061144829
0.13699007 -0.10915917 0.13126516
0.13141906 -0.068500221 0.11950302
0.13155606 -0.026681185 0.11030102
0.13093406 -0.2172032 0.15222311
0.12641807 0.16397679 0.065516949
0.12570207 -0.068898201 0.11676979
0.11369906 -0.27538222 0.15661097
0.11414206 -0.11081618 0.12035418
0.10892606 0.091537833 0.072926044
0.10929106 0.23757482 0.04075098
0.10871506 0.0072178245 0.091513157
0.10841906 -0.11123317 0.11762094
0.10342906 0.20796281 0.044419765
0.10288307 -0.028598189 0.096570969
0.10359506 0.28006178 0.028523922
0.10305007 0.043692827 0.080630779
0.097388059 0.090860784 0.067379951
0.097458065 0.12395382 0.060090065
0.097540066 0.16243279 0.05160284
0.097636059 0.20767081 0.041625023
0.097135067 -0.028984189 0.093820095
0.096840069 -0.16805822 0.1244998
0.091613069 0.090520799 0.064604759
0.091301069 -0.071306169 0.10031986
0.09189406 0.23673278 0.032350063
0.085888065 0.12329978 0.054523945
0.085955068 0.16180879 0.046021938
0.086158067 0.2792688 0.020092964
0.085291065 -0.22087818 0.13050699
0.085381061 -0.16894323 0.11904001
0.079565063 -0.22134322 0.12778282
0.074413061 0.20649379 0.030423164
0.074036062 -0.07252419 0.092068195
0.074452065 0.23588479 0.023929119
0.074141063 0.0049747825 0.074943066
0.074191064 0.041894794 0.066782951
0.073981062 -0.11375719 0.10118008
0.068543062 0.16086781 0.03763485
0.068596065 0.20619678 0.027616978
0.068630069 0.23559982 0.021116734
0.068100065 -0.22227615 0.12233019
0.062659062 0.088807821 0.050692081
0.062691063 0.12198079 0.043365002
0.062543064 -0.031324208 0.077261925
0.062842064 0.27820283 0.0088191032
0.062463064 -0.11460716 0.095683098
0.056910064 0.16023684 0.032032013
0.056729063 -0.073752165 0.083796024
0.057001065 0.27793479 0.0059947968
0.056789063 0.0038397908 0.066627026
0.051155064 0.27766579 0.0031690598
0.051017065 0.040438831 0.055666924
0.050895065 -0.17162722 0.10261106
0.045244064 0.12098283 0.034973145
0.045184065 -0.032508194 0.068956852
0.045212064 0.040071785 0.052882195
0.039412066 0.087422788 0.039528847
0.039341066 -0.28173023 0.12131214
0.039352063 -0.22463018 0.10866213
0.033586066 0.12031382 0.029367924
0.033586066 -0.075404167 0.072738171
0.033586066 -0.033302188 0.063406944
0.027744064 0.15864283 0.017989159
0.027729064 0.23358881 0.0013728142
0.027829064 -0.28272623 0.11584997
0.027797066 -0.11718518 0.079142094
0.021867065 0.23329878 -0.0014562607
0.022067064 -0.28322619 0.11311579
0.022045065 -0.22605819 0.10043287
0.016066065 0.1193018 0.020941734
0.016044065 0.15799981 0.012354851
0.016017064 0.2034958 0.0022597313
0.015975064 0.2760368 -0.013835907
0.016237065 -0.17435318 0.086106777
0.010149065 0.20319182 -0.00056886673
0.010306064 0.00076979399 0.044362068
0.010442065 -0.17481214 0.083346844
0.0043920651 0.085315824 0.022711754
0.0042780638 0.20288682 -0.0033988953
0.0042490643 0.23242283 -0.0099601746
0.0047510639 -0.28473324 0.10490274
-0.0015449338 0.15702879 0.0038890839
-0.0013629347 -8.1658363e-06 0.038774014
-0.0010969341 -0.22797924 0.089435101
-0.0011579357 -0.17573315 0.077825069
-0.0012239367 -0.1193642 0.065299034
-0.0073199347 0.084605813 0.017087936
-0.0073649362 0.1179418 0.0096769333
-0.0071559362 -0.03611517 0.043918133
-0.0075779371 0.2749368 -0.02521801
-0.0068169348 -0.2857452 0.099415779
-0.0068949349 -0.22846216 0.086680889
-0.0070419349 -0.11980325 0.062523842
-0.013478935 0.27465981 -0.028069973
-0.012696937 -0.22894722 0.083922863
-0.012777936 -0.17665821 0.072293758
-0.019052934 0.083892822 0.011454105
-0.019110937 0.11725581 0.004032135
-0.018841937 -0.036928177 0.038328171
-0.019385934 0.27438182 -0.030926228
-0.018904936 -0.0011821985 0.030375957
-0.018404935 -0.28676218 0.093921185
-0.018695936 -0.12068516 0.056965828
-0.025154937 0.20135081 -0.017589092
-0.024691936 -0.037336171 0.035531998
-0.025212936 0.23094881 -0.024176121
-0.024760935 -0.0015751719 0.027570724
-0.030958932 0.15539283 -0.010270119
-0.031056937 0.2010408 -0.020431995
-0.031211939 0.27382481 -0.036639214
-0.030011933 -0.28778416 0.088417053
-0.036687937 0.082815826 0.0029859543
-0.036307935 -0.080464184 0.039357185
-0.036210936 -0.12201625 0.048615932
-0.042662937 0.11587381 -0.0072870255
-0.043060932 0.27326483 -0.042365074
-0.042456936 0.034460783 0.010847092
-0.041916933 -0.17899317 0.058427811
-0.048239935 -0.0031591654 0.01633215
-0.047616933 -0.23188025 0.067336082
-0.047913935 -0.12290925 0.043035984
-0.054370936 0.081730783 -0.0055012703
-0.054468933 0.11517781 -0.012961864
-0.054581936 0.15406883 -0.021637917
-0.053893935 -0.081754148 0.030961037
-0.054016937 -0.039393187 0.021511078
-0.054121938 -0.0035572052 0.013515949
-0.053771939 -0.12335724 0.040243149
-0.059458937 -0.18040818 0.050080776
-0.065900937 -0.0043572187 0.0078787804
-0.066023931 0.032927811 -0.00044298172
-0.065141931 -0.23336416 0.05901289
-0.07167393 -0.040640175 0.013072014
-0.070995942 -0.23386115 0.056233883
-0.078286931 0.15273178 -0.033041954
-0.078726932 0.27156681 -0.059593201
-0.077839941 0.032154799 -0.0061030388
-0.076638937 -0.29192525 0.066317081
-0.084520936 0.22794181 -0.052785873
-0.08271493 -0.23485917 0.050671101
-0.083140939 -0.12561625 0.026246071
-0.090009943 0.11306679 -0.03003788
-0.090357929 0.19789982 -0.04901123
-0.088581935 -0.23536021 0.047884941
-0.095952928 0.11271179 -0.032894135
-0.095286936 -0.042317212 0.0017871857
-0.096444935 0.2273308 -0.058537006
-0.095601931 0.030988812 -0.01460886
-0.10189994 0.11235583 -0.035748959
-0.10101193 -0.085243165 0.0084748268
-0.10260993 0.27042079 -0.071130276
-0.10785194 0.1119988 -0.038609028
-0.10803494 0.15104079 -0.047350883
-0.10692394 -0.08568424 0.0056538582
-0.10859293 0.27013183 -0.074018955
-0.10672893 -0.12744516 0.015007019
-0.11422393 0.19662082 -0.060508251
-0.11181994 -0.29508716 0.0496521
-0.11996993 0.15035778 -0.053092957
-0.11898193 -0.044011176 -0.0095348358
-0.12057593 0.26955283 -0.079804897
-0.11770193 -0.29561824 0.04686594
-0.12469493 -0.087014139 -0.002822876
-0.12491994 -0.044438183 -0.012371063
-0.12417293 -0.18569118 0.019307137
-0.13152893 0.076929808 -0.042526245
-0.13791393 0.14932781 -0.061720848
-0.13859193 0.26867783 -0.088505268
-0.13722593 0.028232813 -0.034544945
-0.14417593 0.19500381 -0.074934959
-0.14435193 0.22485679 -0.081636906
-0.14460793 0.26838583 -0.091409206
-0.14297293 -0.0096591711 -0.028992176
-0.14226393 -0.13022214 -0.0019192696
-0.14946193 0.07579881 -0.051126957
-0.14966594 0.10947579 -0.058691025
-0.15590693 0.14828879 -0.070373058
-0.15441594 -0.0892542 -0.016997814
-0.15490994 -0.010490179 -0.034699917
-0.15379493 -0.18814224 0.0052270889
-0.16144194 0.075039804 -0.056872845
-0.16221294 0.19402283 -0.083620071
-0.15939294 -0.24147314 0.014285088
-0.16792794 0.14759278 -0.076153278
-0.16711794 0.026232779 -0.048858166
-0.16532694 -0.24199122 0.011468887
-0.17476892 0.26690882 -0.10597086
-0.17202294 -0.13256925 -0.016088963
-0.18081893 0.26661181 -0.10889101
-0.18600193 0.14654082 -0.084841251
-0.18426993 -0.091522157 -0.031234264
-0.18484393 -0.012586176 -0.049006939
-0.18511793 0.025020778 -0.05747509
-0.18316393 -0.24355322 0.0030107498
-0.19260593 0.22233081 -0.10489702
-0.19293194 0.26601481 -0.11473799
-0.18868594 -0.30210525 0.013264179
-0.18951494 -0.19112521 -0.01174593
-0.19807693 0.1458348 -0.090647221
-0.19843194 0.19203979 -0.10105991
-0.19624893 -0.092438161 -0.036942959
-0.19866194 0.2220118 -0.10781527
-0.19508094 -0.24460024 -0.0026388168
-0.20354894 0.07235378 -0.077063084
-0.20381494 0.10616481 -0.084688187
-0.20412493 0.14548081 -0.093552113
-0.20258494 -0.05008018 -0.049458981
-0.20146593 -0.19212919 -0.017422199
-0.20985894 0.10579181 -0.087587833
-0.20655093 -0.3037582 0.0048098564
-0.20702094 -0.24565321 -0.0082998276
-0.21299793 -0.24618119 -0.011134148
-0.22229594 0.14441282 -0.10228586
-0.22027293 -0.09428221 -0.04839325
-0.22063592 -0.051409185 -0.058076859
-0.22331393 0.26450783 -0.12940216
-0.22094294 -0.015138209 -0.066260815
-0.21942994 -0.19364518 -0.025954247
-0.21991593 -0.13638717 -0.03888607
-0.22836393 0.14405483 -0.10520315
-0.22629192 -0.094747245 -0.051261902
-0.22592592 -0.13687021 -0.04174614
-0.23985294 0.070013821 -0.094463825
-0.23796594 -0.13783914 -0.047473907
-0.24660394 0.14297682 -0.11396694
-0.24772093 0.2632888 -0.14118099
-0.24511993 -0.016860187 -0.077814102
-0.25269493 0.14261478 -0.11689425
-0.25341994 0.21910083 -0.134202
-0.24842393 -0.30766314 -0.014995098
-0.25953394 0.21877378 -0.137146
-0.25760892 0.020079792 -0.09216404
-0.26416892 0.068432808 -0.10611916
-0.26450393 0.10239583 -0.11381006
-0.26489493 0.14188981 -0.1227541
-0.26295194 -0.054548204 -0.07826519
-0.26154193 -0.19722718 -0.045948029
-0.27100292 0.14152479 -0.12568998
-0.27147192 0.18798083 -0.13621521
-0.26976892 0.01924181 -0.097980976
-0.26757893 -0.19774419 -0.048812866
-0.26815894 -0.14028317 -0.061837196
-0.27635893 0.067637801 -0.11195898
-0.27585694 0.018820822 -0.10089302
-0.27307394 -0.25154024 -0.039601803
-0.28071892 -0.098977149 -0.07719326
-0.28936192 0.14042681 -0.13450909
-0.29065394 0.2611258 -0.16189528
-0.28764594 -0.01991719 -0.098129272
-0.28634292 -0.14176422 -0.070484161
-0.29468992 0.066435814 -0.12074184
-0.29374394 -0.020358205 -0.10103989
-0.30081093 0.066032827 -0.12367296
-0.30026793 0.017127812 -0.1125679
-0.29849193 -0.14275819 -0.076261044
-0.30777192 0.13932079 -0.14335108
-0.30554295 -0.057743192 -0.098579884
-0.30863994 0.21612382 -0.16079903
-0.30265793 -0.31278616 -0.040630817
-0.30392393 -0.2008732 -0.066061974
-0.31445792 0.18555582 -0.15689802
-0.31115493 -0.1013692 -0.091687202
-0.31531394 0.25987178 -0.17378902
-0.31250894 0.01627481 -0.11842108
-0.31000292 -0.20139915 -0.068945885
-0.31066594 -0.14375716 -0.082049847
-0.31961092 0.098921835 -0.1402421
-0.32007495 0.13857883 -0.149261
-0.32097593 0.21545279 -0.16674089
-0.31477192 -0.31394118 -0.046355247
-0.32679093 0.18485481 -0.16283083
-0.32715192 0.21511579 -0.16971588
-0.32948294 -0.10281819 -0.10041285
-0.33044994 -0.023028195 -0.11856699
-0.33091092 0.014986813 -0.12722015
-0.33658794 -0.023477197 -0.12149906
-0.34533694 0.18379682 -0.17175102
-0.34227392 -0.060527205 -0.11609602
-0.34936795 0.013689816 -0.13604307
-0.35616693 0.062363803 -0.15018606
-0.35400292 -0.10476822 -0.11208487
-0.36279592 0.096164823 -0.16095114
-0.35812092 -0.2592712 -0.079872131
-0.35958794 -0.14780217 -0.10530424
-0.36629692 -0.10574919 -0.11793327
-0.36687595 -0.062407196 -0.12782192
-0.36345392 -0.31861621 -0.069351196
-0.37472492 0.061122835 -0.15907288
-0.37304294 -0.062879205 -0.1307621
-0.37737793 0.25668281 -0.20372009
-0.38258794 0.18165779 -0.18966484
-0.38300693 0.2120468 -0.19660711
-0.38361692 0.25635982 -0.20672798
-0.37971994 -0.026651204 -0.14208603
-0.37723294 -0.20727319 -0.10083199
-0.38986194 0.2560358 -0.20973921
-0.38337892 -0.20781523 -0.10374594
-0.39333594 0.059871793 -0.1679821
-0.38876894 -0.26209825 -0.094375134
-0.39035392 -0.15037221 -0.11992216
-0.40129593 0.18057579 -0.1986599
-0.39713994 -0.10822624 -0.13260698
-0.39406994 -0.32158524 -0.083806038
-0.40577492 0.059032798 -0.17393684
-0.40685794 0.13327783 -0.19092512
-0.40754393 0.1802128 -0.20166397
-0.40332595 -0.1087262 -0.13555098
-0.40505493 0.0097377896 -0.16265726
-0.40270293 -0.15140921 -0.12578917
-0.41310194 0.13289183 -0.19392204
-0.41379693 0.1798498 -0.20466995
-0.41424793 0.21031183 -0.21164322
-0.41935194 0.13250583 -0.19691992
-0.41571593 -0.1097272 -0.14144516
-0.41636893 -0.066222191 -0.1514082
-0.42118192 0.25440282 -0.22483826
-0.42632294 0.17911983 -0.21069193
-0.42038494 -0.21109623 -0.12128592
-0.43072394 0.057341814 -0.18587828
-0.43125394 0.091734827 -0.19376087
-0.43751392 0.091325819 -0.19675922
-0.43813893 0.13133883 -0.20593691
-0.44004792 0.25341278 -0.23393106
-0.43560395 -0.030815184 -0.16875124
-0.44441393 0.13094878 -0.20894718
-0.44245094 0.0070548058 -0.18052197
-0.44949892 0.056062818 -0.19486189
-0.45005193 0.090504825 -0.2027669
-0.45194092 0.20820081 -0.22978306
-0.44808894 -0.031752169 -0.17470598
-0.44335994 -0.32641417 -0.10706806
-0.45633093 0.090092778 -0.20577621
-0.45774892 0.17728078 -0.22579718
-0.45374292 -0.069134176 -0.16921186
-0.45496693 0.0061507821 -0.18650007
-0.45138893 -0.2138682 -0.13597822
-0.46528992 0.25208181 -0.24609709
-0.46060094 -0.032695174 -0.18067312
-0.45574293 -0.32763618 -0.11291027
-0.45856792 -0.15613919 -0.15231705
-0.46750495 0.0052428246 -0.19248819
-0.46194294 -0.32824916 -0.11583424
-0.46293092 -0.26902825 -0.12944889
-0.46383294 -0.21498615 -0.14187288
-0.46814993 -0.32886416 -0.11876202
-0.47104892 -0.15720421 -0.15823984
-0.48006895 0.0043308139 -0.1984868
-0.47537491 -0.27020317 -0.13533211
-0.47629991 -0.21611017 -0.14777803
-0.47729793 -0.15773922 -0.16120481
-0.48569593 -0.034594178 -0.19263983
-0.49352792 0.053039789 -0.21592617
-0.48680595 -0.33071822 -0.12756109
-0.48879394 -0.2172392 -0.15369511
-0.48981795 -0.15881222 -0.16714716
-0.49303696 -0.33133823 -0.13049793
-0.50750595 0.12698883 -0.23921394
-0.50970697 0.2497198 -0.26749897
-0.50235999 -0.15989119 -0.17309904
-0.51249295 0.051728785 -0.224998
-0.51159096 0.0020288229 -0.21353912
-0.50551897 -0.33258516 -0.13638496
-0.50864297 -0.16043216 -0.17608118
-0.52516699 0.050848782 -0.23106003
-0.52743798 0.17315179 -0.25928402
-0.52833194 -0.11897224 -0.19498682
-0.53057796 0.00063478947 -0.22260284
-0.52540296 -0.2749632 -0.15897322
-0.52752298 -0.16206414 -0.18503904
-0.54077494 0.20315182 -0.27251625
-0.53618693 -0.038449168 -0.21671009
-0.53168398 -0.27556425 -0.1619401
-0.54327095 -0.00030016899 -0.22866011
-0.53797299 -0.27616721 -0.16490984
-0.53901696 -0.22181314 -0.17747402
-0.55059296 0.049076796 -0.24321795
-0.55205095 0.12415779 -0.26057482
-0.54729998 -0.1205532 -0.20400095
-0.55444199 0.24731678 -0.28904915
-0.54310995 -0.33636123 -0.15410423
-0.55764699 0.083360791 -0.25429726
-0.55843997 0.12374878 -0.26363897
-0.55363494 -0.1210832 -0.20701027
-0.55278695 -0.16425914 -0.19702291
-0.56334394 0.048183799 -0.24931383
-0.56638896 0.20167583 -0.284832
-0.55911899 -0.16481215 -0.20002604
-0.56720793 -0.078134179 -0.22322798
-0.56795394 -0.040898204 -0.23184919
-0.56199199 -0.3382712 -0.16300106
-0.56427997 -0.22413319 -0.18943024
-0.57460994 -0.33955222 -0.16894817
-0.57815397 -0.16647619 -0.20905304
-0.58892697 0.046384811 -0.26154327
-0.59048498 0.12169182 -0.27900219
-0.58540696 -0.12375122 -0.22210407
-0.58631897 -0.079673231 -0.23232126
-0.58789295 -0.003611207 -0.24995518
-0.59533894 0.045932829 -0.26460791
-0.59270298 -0.080188215 -0.23535824
-0.58725399 -0.34083825 -0.17490387
-0.58850396 -0.28104514 -0.18877506
-0.59087598 -0.16759318 -0.21508694
-0.59816295 -0.12482721 -0.22816086
-0.59358793 -0.34148425 -0.17788696
-0.59600395 -0.22706717 -0.20444107
-0.60892797 0.079893827 -0.27884293
-0.60979295 0.12044483 -0.28825712
-0.61080998 0.16812581 -0.29932499
-0.59992594 -0.34213215 -0.18087292
-0.60362494 -0.16871518 -0.22113085
-0.61624193 0.12002683 -0.29134703
-0.60626996 -0.34278125 -0.18386126
-0.62269694 0.11960882 -0.29444218
-0.61830497 -0.082264245 -0.24753618
-0.61511594 -0.22884423 -0.2134819
-0.62472296 -0.082786143 -0.25058794
-0.63737798 0.19754279 -0.31895924
-0.63838094 0.24274278 -0.32947111
-0.62789094 -0.2300362 -0.219522
-0.63658494 -0.12808818 -0.24640417
-0.64401299 -0.084359229 -0.25976181
-0.64574099 -0.0079522133 -0.27754927
-0.65414798 0.076803803 -0.30048084
-0.65507793 0.11749983 -0.30995798
-0.65220195 -0.0084401965 -0.2806282
-0.64845198 -0.17268616 -0.24238014
-0.65690798 -0.085415184 -0.26589394
-0.65777296 -0.047916174 -0.27463102
-0.65225494 -0.28727823 -0.21886301
-0.66631597 0.040880799 -0.29852486
-0.66233295 -0.13028914 -0.25862694
-0.66423798 -0.048427165 -0.27770901
-0.66514593 -0.0094202161 -0.28680086
-0.65994298 -0.23304218 -0.23467588
-0.66131997 -0.17383319 -0.24847698
-0.66982895 -0.086476147 -0.27203703
-0.67644393 0.1952408 -0.33773422
-0.67162699 -0.0099121928 -0.2898922
-0.68110597 0.11579382 -0.32242823
-0.68367696 -0.049966216 -0.28696299
-0.68461198 -0.010900199 -0.29608297
-0.67925495 -0.23486322 -0.24380589
-0.69317698 0.074112833 -0.31914902
-0.69416195 0.1149348 -0.3286829
-0.70069999 0.11450279 -0.33181381
-0.70624095 0.073205829 -0.32539892
-0.70842499 0.16212279 -0.34618092
-0.71030796 0.23875582 -0.36409283
-0.70413798 -0.012390196 -0.30539083
-0.69862694 -0.23669821 -0.25296211
-0.70008594 -0.17730922 -0.26684284
-0.71498793 0.16171479 -0.3493309
-0.70765394 -0.13419324 -0.2801342
-0.70373398 -0.29237515 -0.24314499
-0.70657098 -0.17789322 -0.26991606
-0.72035694 0.11320281 -0.34122992
-0.72155994 0.16130579 -0.35248327
-0.71719193 -0.01338917 -0.31161308
-0.71157795 -0.23792917 -0.25908184
-0.71306396 -0.17847914 -0.27299023
-0.72692299 0.11276782 -0.34437418
-0.72066593 -0.1353212 -0.28630781
-0.72273993 -0.053079188 -0.30555725
-0.73472095 0.16048378 -0.35879803
-0.72718096 -0.13588721 -0.28939915
-0.72831494 -0.091314137 -0.29983616
-0.72927499 -0.053603172 -0.30866718
-0.73027194 -0.01439321 -0.31784582
-0.73484796 -0.091858208 -0.30293894
-0.73682296 -0.014898181 -0.32097006
-0.72963697 -0.29496223 -0.25535917
-0.73613197 -0.29561216 -0.2584219
-0.75533396 0.19053382 -0.37563181
-0.74263096 -0.29626423 -0.26148605
-0.75785196 0.034250796 -0.34224319
-0.75878096 0.069537818 -0.35052204
-0.75331497 -0.13816422 -0.30179405
-0.75548494 -0.055709183 -0.32113791
-0.76444298 0.033767819 -0.34538889
-0.76774997 0.15841281 -0.3746438
-0.76205498 -0.056238174 -0.3242631
-0.75870097 -0.1826182 -0.29460001
-0.77308494 0.10968983 -0.36647987
-0.76863098 -0.056769192 -0.32739115
-0.76054996 -0.35884219 -0.25645924
-0.76524794 -0.18321615 -0.29769993
-0.77419597 -0.095151246 -0.32163382
-0.77627897 -0.017949224 -0.33977127
-0.77019393 -0.24354213 -0.2867732
-0.77358496 -0.36022419 -0.26258898
-0.77836597 -0.18441516 -0.30391121
-0.79087996 0.031826794 -0.35800886
-0.79750699 0.031338811 -0.36117125
-0.79272693 -0.14162225 -0.32048225
-0.79610199 -0.019491196 -0.34921503
-0.79488295 -0.30153817 -0.28610706
-0.79809594 -0.18622416 -0.31325006
-0.81293595 0.10700881 -0.38555717
-0.80592197 -0.1427862 -0.32673883
-0.80718195 -0.097933233 -0.33729982
-0.80824697 -0.059983194 -0.34623623
-0.80300397 -0.24671417 -0.30226612
-0.81252998 -0.14337021 -0.32987022
-0.81599194 -0.021044195 -0.35868788
-0.80629498 -0.36370724 -0.27796412
-0.81914496 -0.14395624 -0.33300591
-0.82150894 -0.061064184 -0.35254288
-0.81459397 -0.30354315 -0.29539394
-0.83845395 0.063897789 -0.38859987
-0.84868497 0.18486381 -0.42045784
-0.83436996 -0.3055622 -0.304708
-0.83774698 -0.18988222 -0.33201027
-0.85304993 0.1042878 -0.40475702
-0.84700298 -0.1013152 -0.35620689
-0.85540795 0.18445081 -0.42368603
-0.84097594 -0.30623823 -0.30781889
-0.84438097 -0.19049722 -0.3351512
-0.85853595 0.062461793 -0.39819622
-0.85366595 -0.10188419 -0.35937023
-0.85479498 -0.063792169 -0.36837006
-0.84758997 -0.30691618 -0.31093407
-0.85899097 -0.14750022 -0.35189009
-0.86147296 -0.064341187 -0.37154388
-0.86265695 -0.024714172 -0.38090992
-0.85420996 -0.30759615 -0.3140521
-0.87196398 0.061498821 -0.40461111
-0.86701494 -0.10302621 -0.36570692
-0.86816198 -0.064892173 -0.37472391
-0.85900193 -0.36936814 -0.30272722
-0.86083996 -0.30827814 -0.317173
-0.86432695 -0.19235116 -0.34458494
-0.87868798 0.061014831 -0.40782213
-0.87994295 0.1024518 -0.41762495
-0.87605798 -0.025774181 -0.38729095
-0.86747497 -0.30896014 -0.32029724
-0.86916596 -0.2531752 -0.33349514
-0.88155699 -0.065998197 -0.38109112
-0.89343494 0.1015268 -0.4240799
-0.88076794 -0.31033117 -0.32655621
-0.90019298 0.10106283 -0.4273119
-0.89498395 -0.067109168 -0.38747406
-0.88553095 -0.37224025 -0.31518602
-0.90946996 0.18111479 -0.44963408
-0.91130096 0.022852778 -0.41546392
-0.91242397 0.058580816 -0.42393684
-0.91372997 0.10013181 -0.43379021
-0.90581495 -0.1517002 -0.37407398
-0.91626197 0.18069279 -0.45289183
-0.90843898 -0.068225205 -0.39386702
-0.91806197 0.022342801 -0.41868925
-0.92050993 0.099663794 -0.43703222
-0.91253394 -0.15230614 -0.37725687
-0.92885697 0.14811081 -0.45188904
-0.92986894 0.17984682 -0.45942116
-0.91217595 -0.3751412 -0.32769728
-0.91784394 -0.19736117 -0.36989403
-0.92599595 -0.15352219 -0.38363218
-0.93839395 0.020804822 -0.42838526
-0.93420297 -0.10881716 -0.39759016
-0.93673193 -0.030608177 -0.41617107
-0.92753094 -0.31518215 -0.34856415
-0.93424094 -0.31588215 -0.35171986
-0.95198596 0.019772828 -0.434865
-0.95316094 0.055619776 -0.44338894
-0.95717794 0.17814183 -0.47252417
-0.95153898 -0.20054215 -0.38581991
-0.96680301 0.054622829 -0.44990206
-0.95978296 -0.15658921 -0.39963007
-0.96656293 -0.15720719 -0.40284014
-0.96808392 -0.11176521 -0.413661
-0.97488195 -0.11235923 -0.4168849
-0.97617894 -0.073890209 -0.42605209
-0.98610395 0.0171718 -0.45113087
-0.98732299 0.053118825 -0.45969915
-0.99040896 0.1440888 -0.48138189
-0.99149102 0.17598581 -0.48898411
-0.99118894 -0.034995198 -0.44208002
-0.98542494 -0.20376223 -0.40183496
-0.99222499 -0.20441014 -0.40504694
-0.99283999 -0.38401216 -0.36555004
-0.99692792 -0.26589113 -0.39374399
