# .PCD v0.7 - Point Cloud Data file format
VERSION 0.7
FIELDS x y z
SIZE 4 4 4
TYPE F F F
COUNT 1 1 1
WIDTH 1
HEIGHT 1024
VIEWPOINT 0 0 0 1 0 0 0
POINTS 1024
DATA ascii
0.60039335 0.26050526 0.060362339
0.58659238 0.19726825 0.14267921
0.59424537 0.26097023 0.06463623
0.56306136 0.10435522 0.32664347
0.5758574 0.15846926 0.19495869
0.58089638 0.30560821 0.024554253
0.55787337 0.16005123 0.20720434
0.56240338 0.19928223 0.15928459
0.5747304 0.30604023 0.028877258
0.55637836 0.19978225 0.16342163
0.55931437 0.22546721 0.13207054
0.56857336 0.30647224 0.033195496
0.53203338 0.14131421 0.36513042
0.55036139 0.2002812 0.16755247
0.54537737 0.26465124 0.0986166
0.52199137 0.10090023 0.29499245
0.52807337 0.16266423 0.22751141
0.53236336 0.20177126 0.17991638
0.5393104 0.2651062 0.10283661
0.5217194 0.018980205 0.29800844
0.54403538 0.30818623 0.050408363
0.51611036 0.019201219 0.29911566
0.51622736 0.05502224 0.29779625
0.5272004 0.26601321 0.11126328
0.5106194 0.055234253 0.29890347
0.53182137 0.30903721 0.058980465
0.50516039 0.10149926 0.29831457
0.51715839 0.22882223 0.16117859
0.49955633 0.10169721 0.2994194
0.49637935 0.13823521 0.33610249
0.49918535 -0.014640749 0.3037014
0.49929634 0.019860208 0.30243158
0.51964039 0.30988425 0.067529678
0.48690334 0.18067223 0.38278961
0.50253838 0.20423222 0.20041227
0.49369738 0.020078242 0.30353546
0.51356441 0.31030625 0.071795464
0.48835734 0.10209125 0.30162954
0.49659935 0.20472026 0.20449734
0.50749737 0.31072724 0.076054573
0.5102284 0.33729422 0.043868542
0.49066636 0.20520824 0.2085824
0.48250738 0.020512223 0.30574322
0.50143737 0.31114721 0.080309391
0.47587433 0.13645023 0.3193965
0.47157738 0.10267723 0.30494165
0.47883037 0.2061792 0.21671629
0.48136237 0.23165423 0.18591642
0.47292438 0.20666325 0.22078228
0.46585235 0.056897223 0.30773449
0.47170934 0.3536092 0.23572254
0.45490634 0.18014622 0.37548733
0.46702734 0.20714724 0.22484446
0.46006134 -0.013071775 0.31141567
0.47729138 0.3128162 0.097268581
0.46581635 0.35399723 0.23989153
0.45982233 -0.094037771 0.31439161
0.44878936 -0.053411782 0.3151145
0.44890735 -0.012629747 0.31361532
0.46121636 0.27092522 0.15721226
0.44911036 0.057509243 0.31103849
0.44938335 0.20858926 0.2369895
0.44333434 -0.01241076 0.31471443
0.45176435 0.23398423 0.20639133
0.44577834 0.32943624 0.28331661
0.43818337 0.13573325 0.31037855
0.43940735 0.33046222 0.29446268
0.43738136 -0.14779675 0.32079363
0.43753636 -0.093079746 0.31878328
0.43219635 -0.011973798 0.31691027
0.43229234 0.022425234 0.31564665
0.43239236 0.058114231 0.3143363
0.42651936 -0.052499771 0.31950426
0.42682534 0.058314204 0.31543446
0.43583736 0.43141523 0.19558764
0.42138636 0.1043992 0.31484842
0.42993435 0.43174824 0.19982243
0.41388634 0.17674321 0.34233046
0.41540134 -0.052047789 0.32169628
0.41551134 -0.011324763 0.32020044
0.41560435 0.023049235 0.31893826
0.41570035 0.058712244 0.31763029
0.42078435 0.39512423 0.24840546
0.41529337 -0.092134774 0.32316732
0.40873134 0.17631221 0.33815956
0.41331935 0.28251421 0.27492857
0.41815636 0.43240923 0.2082696
0.41067636 0.2372002 0.23483467
0.40458435 0.059108257 0.31982422
0.40411335 0.33350921 0.32639027
0.41227937 0.43273824 0.21247435
0.40418735 -0.091667771 0.32535648
0.39874336 -0.05137676 0.32498121
0.40484035 0.23765522 0.23887348
0.39893836 0.023667216 0.32222843
0.39849734 -0.14606178 0.32845354
0.39863935 -0.09143579 0.32645035
0.39338836 0.023872256 0.32332325
0.40055037 0.43339723 0.22090626
0.38812834 0.1373502 0.32026243
0.39319235 0.23856121 0.24693537
0.38897234 0.28584421 0.30805159
0.38784236 0.02407521 0.32441664
0.38865834 0.36056525 0.31258965
0.38250136 0.10570025 0.3225255
0.38258034 0.13752621 0.32135868
0.37740636 0.22622424 0.39726257
0.38238636 0.059890211 0.3242054
0.38124636 0.33493322 0.34093046
0.38585836 0.39724022 0.27327538
0.38187334 -0.14533174 0.33173037
0.38201034 -0.09074378 0.3297286
0.37666935 -0.0098377466 0.32786226
0.37559336 0.33522421 0.34385252
0.38302135 0.43437523 0.23347139
0.37633637 -0.14508975 0.33282137
0.37647036 -0.090514779 0.33082056
0.37141335 0.10606521 0.32471323
0.37149036 0.13787723 0.32354832
0.37563434 0.24013525 0.26116943
0.37121534 0.024681211 0.32769728
0.36994836 0.3355152 0.34676933
0.37067935 -0.19557273 0.33577156
0.36595035 0.13805121 0.32464266
0.36199936 0.2250182 0.38491964
0.36621535 0.28719026 0.32060766
0.36576435 0.06046921 0.32748556
0.36433735 0.33576721 0.34925938
0.36850736 0.39828622 0.28562641
0.36527136 -0.14460981 0.33500147
0.36033735 0.10642821 0.32690048
0.36041334 0.13822526 0.32573557
0.36274037 0.39863423 0.28974533
0.35974336 -0.14437079 0.33609152
0.35453135 -0.009005785 0.33222961
0.34934336 0.13857025 0.32792234
0.34942836 0.17545325 0.32657146
0.34869236 -0.14389479 0.33826828
0.34389734 0.1756162 0.32766438
0.33872434 0.25568223 0.4110465
0.34212434 0.33650821 0.35624027
0.34282136 0.36353225 0.34501266
0.34548634 0.39967224 0.30205059
0.33821535 0.10714525 0.33126926
0.33836836 0.17577922 0.32875633
0.33619836 0.22298723 0.3642354
0.33786535 -0.048979759 0.33698654
0.33803335 0.025874257 0.33424568
0.33684635 0.33630925 0.35365438
0.33712736 0.36389923 0.34904623
0.34651735 -0.27695072 0.19552422
0.33101934 0.22257823 0.36008453
0.33079034 0.33724523 0.36389351
0.33402637 0.40035823 0.31021166
0.34123635 -0.27778578 0.19061661
0.33225834 -0.088714778 0.33953667
0.32278135 0.25539821 0.40729523
0.33594635 -0.27862275 0.18570137
0.32064134 0.22175622 0.35175943
0.32080737 0.33597624 0.34892035
0.32045335 0.36447823 0.3549633
0.31620035 0.13959122 0.33446741
0.31627735 0.17642325 0.33312035
0.31588936 -0.0075777769 0.33985329
0.31603634 0.062168241 0.33730125
0.31496036 0.36458921 0.35596657
0.31689435 0.40138322 0.32242823
0.32534635 -0.28030479 0.17584133
0.31061935 0.10802722 0.33671856
0.31068537 0.13975924 0.33555746
0.31029534 -0.047921777 0.34242439
0.31136134 0.28780222 0.32365131
0.31052434 0.062354207 0.33839035
0.31009936 -0.14225972 0.34587622
0.30510634 0.10820222 0.33780766
0.30214036 0.25384021 0.39085245
0.30663735 0.28656125 0.31041241
0.30494034 0.02703923 0.34077549
0.30501235 0.062538207 0.33947849
0.30401635 0.36475223 0.35729551
0.30470535 -0.087615788 0.34497023
0.29936436 -0.0069777966 0.34311438
0.30057237 0.28762323 0.32117224
0.30414236 0.46862224 0.25629425
0.29909337 -0.14180076 0.3480444
0.29519534 0.28749824 0.31957531
0.29839835 0.46891624 0.26044226
0.29359534 -0.14157271 0.34912825
0.28858635 0.10872126 0.34107065
0.28864837 0.14042425 0.33991146
0.28842837 0.027612209 0.34403563
0.28835636 0.33582425 0.34539032
0.28861934 0.40290022 0.34044933
0.29871234 -0.28455281 0.15103436
0.28314537 0.14058924 0.34099865
0.28299734 0.063269258 0.34382439
0.28304935 0.36363524 0.34282446
0.28509536 0.43979424 0.30378723
0.29336235 -0.28540981 0.14604568
0.27619636 0.2518692 0.37016726
0.27749836 0.063450217 0.34491062
0.27838936 0.33430123 0.32761335
0.27770835 0.40297422 0.34083128
0.28121036 0.46979722 0.27286768
0.28166234 -0.2070688 0.26410055
0.27721536 -0.086538792 0.35039139
0.27214536 0.14091724 0.3431716
0.27179936 -0.046475768 0.3500185
0.27193734 0.028179228 0.34729052
0.27253535 0.33502221 0.33548021
0.28263834 -0.28713179 0.13603926
0.27639535 -0.20785677 0.25927639
0.27172536 -0.086325765 0.35147524
0.26659235 0.10940325 0.34541464
0.26671734 0.17783922 0.34291363
0.26630935 -0.046271741 0.35110044
0.26638335 -0.0057987571 0.3496213
0.26268035 0.29764825 0.42399454
0.26644534 0.028366208 0.34837437
0.26678836 0.36359221 0.34148359
0.27112135 -0.20864773 0.25444555
0.26623735 -0.086113751 0.35255766
0.26122335 0.17799324 0.34400034
0.26082236 -0.046068788 0.35218334
0.25720435 0.29788226 0.42617369
0.27188537 -0.28886282 0.12599754
0.26583937 -0.20944083 0.24960566
0.25560936 0.10974121 0.34758234
0.25533634 -0.045867741 0.35326624
0.25552934 0.064167202 0.34924746
0.25612035 0.40275723 0.33695841
0.25739235 0.44036824 0.31046534
0.25533834 -0.14057171 0.35323763
0.25031435 0.22138923 0.34459543
0.24992436 -0.0052187443 0.35287046
0.25009036 0.24987221 0.3493433
0.25004336 0.064345241 0.35033131
0.25115535 0.36242223 0.32676649
0.24978635 -0.085481763 0.35580158
0.24463734 0.11007524 0.34975052
0.24139535 0.29734325 0.41978836
0.24456036 0.064521253 0.35141325
0.24624535 0.33332723 0.31501627
0.24594736 0.36199725 0.32145739
0.24491134 -0.14204276 0.34383535
0.24430734 -0.085273743 0.35688353
0.23933935 0.2216742 0.34676647
0.23620936 0.29697526 0.41570568
0.23907936 0.064698219 0.35249662
0.25028136 -0.29235673 0.10579824
0.23385537 0.22181624 0.34785032
0.23342234 -0.045067787 0.35758924
0.23348737 -0.0046457648 0.35611439
0.23572335 0.40042424 0.30591631
0.23931435 -0.21343982 0.22527266
0.23445436 -0.14352071 0.33439922
0.22794735 -0.044869781 0.35867023
0.22801235 -0.0044567585 0.35719538
0.23053434 0.39993924 0.29943132
0.24444136 -0.36758876 -0.019098759
0.22921434 -0.14426374 0.32966852
0.22276935 0.14235926 0.35292625
0.22282636 0.17905521 0.35158634
0.22557035 0.35922223 0.28744745
0.22579035 0.39862823 0.28231144
0.21735135 0.17920524 0.35267067
0.21707034 -0.0040797591 0.35935545
0.21745935 0.2500962 0.35008335
0.21539834 0.29548925 0.39926434
0.21712336 0.03001821 0.35811043
0.21717736 0.065395236 0.35682154
0.22036135 0.39853224 0.2808423
0.21871236 -0.14575481 0.32018232
0.21694836 -0.084241748 0.36227942
0.21154335 -0.044280767 0.36190748
0.21160334 -0.0038927794 0.36043549
0.21017936 0.29511523 0.39513826
0.21552035 0.35737425 0.26499128
0.21530235 0.39773124 0.27030325
0.22105336 0.46055123 0.13015461
0.22309837 -0.29678178 0.080336571
0.21148336 -0.084037781 0.36335659
0.20630535 0.1112262 0.35732365
0.20613736 -0.0037067533 0.36151361
0.20650935 0.25036424 0.35224867
0.20914134 0.33096725 0.28670263
0.20999536 0.35743123 0.26544333
0.20817935 -0.14725578 0.31066132
0.20061636 -0.043891788 0.36406326
0.20067436 -0.0035207868 0.36259222
0.20072335 0.030556202 0.36134958
0.20077437 0.065911233 0.36006021
0.20947737 0.46113622 0.13853264
0.21216735 -0.2985698 0.070082664
0.20722836 -0.21831679 0.1957736
0.20290235 -0.14800882 0.30588722
0.20055935 -0.083632767 0.36551142
0.19537535 0.11154926 0.35948133
0.19541937 0.14313823 0.35833025
0.19547036 0.17979622 0.35699368
0.19515735 -0.043698788 0.36514044
0.19788837 0.33165723 0.29406357
0.20234436 0.43111223 0.17806959
0.20540836 0.49948624 0.098312378
0.20669037 -0.2994678 0.064941406
0.20185435 -0.21913779 0.19082546
0.19761735 -0.14876378 0.3011055
0.18991336 0.11170924 0.36056042
0.18970135 -0.043505788 0.36621857
0.18923736 0.2936092 0.37857866
0.20120436 -0.30036879 0.059791565
0.19232535 -0.14952183 0.29631567
0.18460235 0.22306925 0.35758734
0.18463936 0.25089222 0.35657454
0.18398535 0.29323024 0.37442446
0.19217536 0.46200624 0.15105152
0.19997135 -0.37532175 -0.06154871
0.19571137 -0.3012718 0.05463028
0.18702537 -0.15028071 0.2915163
0.17899537 0.11202925 0.36271954
0.17908335 0.18023425 0.36023331
0.17914036 0.22320622 0.35866833
0.17879236 -0.043123782 0.36837053
0.17626235 0.34454125 0.43906546
0.18516135 0.43203822 0.19043255
0.17348236 0.066756248 0.36545038
0.18222037 0.50054622 0.11521053
0.18876737 -0.37728477 -0.072266579
0.18027437 -0.22244477 0.17094231
0.16822436 0.22347724 0.36082649
0.16794437 -0.00242275 0.36905241
0.17374635 0.43265122 0.1986413
0.17494237 0.46287122 0.16352654
0.17107636 -0.15257382 0.27706528
0.16263637 0.11250222 0.36595154
0.16271836 0.18066621 0.3634696
0.16249737 -0.002242744 0.37012863
0.16253936 0.031786203 0.36888933
0.17753035 -0.3792578 -0.083023548
0.16240135 -0.082239747 0.37304163
0.15726635 0.18080825 0.3645463
0.15739736 0.29198521 0.36049938
0.15492237 0.34443325 0.43712759
0.16236037 0.43326223 0.20683861
0.16349137 0.46344522 0.17181635
0.16491237 0.50133622 0.12783766
0.16400537 -0.22495174 0.15593147
0.16040435 -0.15411282 0.26738739
0.15695736 -0.082043767 0.37411547
0.15160936 -0.0018837452 0.37227726
0.15189937 0.25166821 0.36304951
0.15194535 0.29210424 0.36157751
0.15168837 0.067421257 0.36975622
0.15777937 0.46373022 0.17594957
0.16625735 -0.38124382 -0.093826771
0.15505835 -0.15488577 0.26253557
0.14633137 0.14450121 0.36803246
0.14641935 0.22401226 0.36513853
0.14612436 -0.04199475 0.37481833
0.14645037 0.25179625 0.36412764
0.14620635 0.032302201 0.37211466
0.14969835 0.39694524 0.25781345
0.15341336 0.50185823 0.1362195
0.15311837 -0.22663379 0.14587641
0.14088836 0.14465022 0.36910725
0.14092836 0.18123323 0.36777639
0.14100435 0.25192225 0.36520338
0.13548636 0.18137425 0.36885262
0.13556036 0.25204921 0.36628056
0.13845336 0.39759523 0.2658596
0.14068636 0.46458223 0.1883235
0.14588836 -0.30952179 0.0077376366
0.13896936 -0.15721881 0.24792433
0.13562036 -0.083492756 0.36419344
0.13000736 0.14494425 0.37125731
0.13008836 0.22440821 0.36836767
0.13011637 0.25217521 0.3673563
0.12989435 0.032812238 0.37533665
0.12790436 0.37285823 0.44656944
0.13283935 0.39791924 0.26987648
0.13403037 0.43477622 0.22724342
0.14030835 -0.31045175 0.0024752617
0.13033637 -0.08420676 0.35947943
0.12454037 0.11358422 0.37347746
0.12457136 0.14509124 0.37233257
0.12449536 0.068235219 0.37512732
0.12723535 0.39824224 0.27388525
0.13792136 -0.38625872 -0.12101555
0.13472235 -0.3113848 -0.0027947426
0.12820235 -0.15878475 0.23814058
0.12504736 -0.084921777 0.35475922
0.11921237 0.22466922 0.37051868
0.11923937 0.25242525 0.36950922
0.11906435 0.068396211 0.37619925
0.12275136 0.43537623 0.23537064
0.13645437 -0.48945677 -0.28792334
0.13222736 -0.38727081 -0.12648439
0.12575737 -0.23088479 0.12057447
0.11373837 0.18193024 0.3731513
0.11353336 -0.040893793 0.38125134
0.11357035 -0.00065279007 0.37978935
0.11380336 0.25254923 0.37058449
0.11384136 0.29293025 0.36911631
0.12025536 0.54287624 0.11569357
0.11295036 0.34164023 0.40430927
0.11712336 0.43567622 0.23942661
0.11800136 0.46570924 0.2047596
0.12352236 -0.31325877 -0.013367653
0.10827336 0.14552724 0.37555456
0.10836836 0.25267321 0.37165833
0.10840436 0.29304624 0.37019253
0.10643636 0.37325525 0.45073938
0.10287736 0.18220425 0.37529945
0.10293736 0.25279623 0.37273455
0.10278036 0.068875253 0.37941742
0.10489035 0.39952624 0.28987932
0.10670336 0.46626922 0.21294641
0.11228637 -0.31514382 -0.023981571
0.097450368 0.1823402 0.37637138
0.097485356 0.22518522 0.37481546
0.097266354 -0.040353775 0.38446236
0.097356357 0.069033206 0.3804884
0.09709736 0.34057623 0.39189863
0.10028236 0.43656924 0.2515645
0.10204936 0.50418019 0.1736865
0.10936036 -0.39134872 -0.1484766
0.091996364 0.14595622 0.37877131
0.092059366 0.22531223 0.37588835
0.092081361 0.25304121 0.37488127
0.092113353 0.29339021 0.37341547
0.093762361 0.40016422 0.29784632
0.095436357 0.46682623 0.22111368
0.10362136 -0.39237583 -0.15400171
0.093142368 -0.089256763 0.32625437
0.086574368 0.14609921 0.37984228
0.086635359 0.22543925 0.37696123
0.086463355 0.00020521879 0.38514233
0.08543136 0.3719272 0.43443441
0.089814357 0.46710324 0.22518969
0.087797366 -0.089986742 0.3214736
0.081131361 0.11478221 0.38205767
0.081211358 0.22556621 0.37803364
0.085972361 0.54425919 0.14089155
0.081183359 0.33950424 0.37943268
0.084198363 0.46738023 0.2292614
0.085064359 0.50494325 0.18608332
0.092114367 -0.39443874 -0.16508675
0.075736359 0.14638126 0.38198566
0.075791359 0.22569221 0.37910652
0.075606361 -0.039644778 0.38873959
0.075683363 0.069659233 0.38477039
0.080943361 0.57432324 0.11080456
0.077123359 0.40111423 0.30976152
0.079418361 0.50519621 0.19020557
0.086347364 -0.39547479 -0.17064476
0.070300363 0.11507523 0.38419867
0.070321359 0.14652121 0.38305759
0.070345357 0.1830132 0.38173246
0.07022436 0.00071024895 0.38834953
0.07044936 0.33922422 0.37606144
0.072362363 0.43804422 0.27169561
0.064958364 0.22594225 0.38124943
0.068934359 0.54494321 0.15341854
0.06502936 0.33932823 0.37713242
0.067398362 0.46820724 0.24144363
0.072685361 -0.32182777 -0.061458588
0.066336364 -0.092925787 0.30226135
0.059476361 0.11536622 0.38633728
0.059552364 -0.040654778 0.38171959
0.059448361 0.070121229 0.38797951
0.06383536 0.57494926 0.12344933
0.061244361 0.43862924 0.27971363
0.054067358 0.11551023 0.38740635
0.054106362 0.18341023 0.38494253
0.054131359 0.22619021 0.38339043
0.054231361 -0.041346788 0.37701368
0.054146364 0.25388223 0.38238525
0.054195359 0.33953321 0.37927723
0.055039361 0.40237224 0.3255825
0.065772362 -0.50315678 -0.35765839
0.061288364 -0.32376373 -0.072264671
0.048678361 0.14707625 0.38733435
0.048698358 0.18354124 0.38601255
0.048721358 0.22631323 0.38446045
0.048406363 0.36956722 0.40564442
0.04759936 0.41281223 0.46003723
0.05557736 -0.32473576 -0.077681541
0.050155364 -0.095152795 0.2877593
0.043257363 0.11579722 0.38954353
0.043347359 0.29439825 0.38306522
0.043234363 0.070577204 0.39118338
0.046761364 0.54417121 0.13858223
0.043090358 0.36922622 0.40150642
0.04462336 0.43950123 0.29170227
0.05385536 -0.5054878 -0.36945057
0.048020363 -0.24311781 0.048434258
0.037870362 0.14735025 0.38947248
0.03776636 0.36888421 0.39736366
0.03954336 0.46957123 0.26164722
0.040893361 -0.17164278 0.15853548
0.032502361 0.22667921 0.38766956
0.032433361 0.070878208 0.39331722
0.032552361 0.33993924 0.38356161
0.033993363 0.46984223 0.26567459
0.03524936 0.50360227 0.16285658
0.041897364 -0.50783372 -0.38129473
0.039872363 -0.40387678 -0.21552277
0.036775358 -0.24490678 0.037966251
0.027502358 -0.044840753 0.35335541
0.027112357 0.25446624 0.38773441
0.030783363 0.54021722 0.064129353
0.028549358 0.46953824 0.26101065
0.032639362 -0.32865274 -0.099461555
0.029827364 -0.1732918 0.14841366
0.022132359 -0.045544744 0.34859848
0.021615364 0.002187252 0.39795065
0.023832358 0.46459723 0.18625546
0.028158359 -0.40600872 -0.22685575
0.023024358 -0.098906755 0.26341152
0.01622536 0.0023482442 0.39901638
0.016312361 0.2546972 0.3898716
0.022287361 -0.40707874 -0.23254061
0.010882359 0.1480242 0.39480829
0.01089336 0.18444222 0.39348841
0.010858361 0.071472228 0.39758158
0.012695361 0.46465924 0.18708134
0.013547361 0.49922523 0.089429379
0.014180362 -0.24851573 0.016913414
0.0054893605 0.14815724 0.3958745
0.0059733614 -0.047670782 0.33427334
0.0055443607 0.34043521 0.38890743
0.0068113618 0.39480823 0.22752857
0.00010935962 0.18469524 0.39562035
6.3359737e-05 0.0028252006 0.40220833
8.0361962e-05 0.071764231 0.39971161
0.00015535951 0.36821222 0.38897562
0.001276359 0.39488322 0.2284503
0.001424361 0.43351424 0.20721865
0.0026083626 0.49613324 0.037639618
0.0046143606 -0.41030979 -0.24966478
0.0037573613 -0.33361375 -0.12693357
0.0028273612 -0.25033677 0.0063233376
0.0020123608 -0.17745674 0.12294245
0.007110361 -0.63373375 -0.60719252
-0.0052796379 0.18482023 0.39668751
-0.0052706376 0.22751421 0.3951416
-0.0048396401 -0.049097776 0.32468033
-0.0053046383 0.071910203 0.40077639
-0.0040156394 0.43227923 0.18985033
-0.0035366379 0.45966122 0.1114006
-0.0012966394 -0.41139376 -0.25539541
-0.0043156408 -0.10271579 0.23883343
-0.010687638 0.072054207 0.40184069
-0.0097896382 0.39503124 0.23029661
-0.0091736391 -0.17914081 0.11268425
-0.0053376406 -0.63641071 -0.61989832
-0.01607064 0.072198212 0.40290546
-0.016028639 0.34082526 0.39317942
-0.01541364 0.35674822 0.25229025
-0.015321638 0.39510524 0.23121738
-0.014921639 0.42870522 0.13964224
-0.014574639 0.45626122 0.05994463
-0.014130639 0.49139822 -0.041619778
-0.013147639 -0.41357076 -0.26689577
-0.02143064 0.22786421 0.39833832
-0.021426639 0.25548625 0.39733839
-0.02145464 0.037263215 0.40523767
-0.020158639 0.45454124 0.033912659
-0.019800639 0.48979324 -0.068469524
-0.018499639 -0.51977777 -0.44126463
-0.026820639 0.14894223 0.4022646
-0.026809638 0.25559723 0.3984046
-0.026471639 0.3298462 0.26898336
-0.025361639 -0.3386488 -0.15468359
-0.026021639 -0.18168283 0.097224236
-0.032200638 0.11773324 0.40446138
-0.032018639 -0.052701771 0.30054045
-0.03216764 0.0005222559 0.38600731
-0.032191638 0.2557072 0.39946842
-0.031965639 0.32992721 0.2698946
-0.031939641 0.35698324 0.25503731
-0.031775638 0.38968322 0.16129351
-0.031603638 0.42323723 0.062847614
-0.03121464 -0.33966482 -0.16026878
-0.031867638 -0.10657877 0.21402454
-0.03757064 0.25581723 0.40053368
-0.037424639 0.35507721 0.23232746
-0.036820639 -0.52343178 -0.45950556
-0.042950638 0.14932722 0.40545464
-0.042950638 0.22832322 0.40259647
-0.042950638 -0.054157794 0.2908206
-0.042950638 0.25592625 0.4015975
-0.042950638 0.33009022 0.27171659
-0.042950638 -0.18424881 0.081673622
-0.048321638 0.11813223 0.40764952
-0.04832264 0.14945424 0.40651655
-0.048325639 0.25603426 0.40266132
-0.048418641 0.28619021 0.29676723
-0.048318639 0.038000226 0.4105463
-0.04845864 0.32820624 0.25042152
-0.048603639 0.38376623 0.085018635
-0.049088638 -0.52588677 -0.47173357
-0.04925764 -0.64591479 -0.66482449
-0.053913638 -0.055621743 0.28106546
-0.054129638 0.34881723 0.15774965
-0.054301638 0.38176125 0.059192657
-0.054723639 -0.34375882 -0.18271875
-0.059408639 -0.056356788 0.2761755
-0.059183639 -0.0028787851 0.36230326
-0.059349641 0.28636122 0.2985754
-0.059054639 0.07332623 0.41140127
-0.06139864 -0.52835572 -0.4840126
-0.059958637 -0.18683577 0.06603241
-0.061906639 -0.64866781 -0.67778873
-0.06442064 0.073464215 0.41246128
-0.066196635 0.41189322 -0.09633255
-0.066495642 0.44025823 -0.18202162
-0.06697464 -0.42352879 -0.31923866
-0.068249643 -0.65005076 -0.68429375
-0.069807641 0.22888422 0.40791035
-0.070184641 0.24774021 0.32166338
-0.070443638 0.28287023 0.26217222
-0.071232639 0.34240526 0.081401348
-0.07250464 0.43840423 -0.21002054
-0.073006637 -0.42465174 -0.32511473
-0.071864635 -0.26243079 -0.063538551
-0.071345642 -0.18857372 0.055553436
-0.075152636 0.11878425 0.41295433
-0.075165644 0.18639624 0.41051149
-0.075946644 -0.058575749 0.26144552
-0.075137638 0.03872025 0.4158473
-0.079946637 -0.53208876 -0.50253439
-0.079048641 -0.42577779 -0.33100367
-0.078390643 -0.34790075 -0.20535374
-0.081664637 -0.73553181 -0.83078051
-0.080520645 0.15020221 0.41288328
-0.080503643 0.073874235 0.41564131
-0.088158637 -0.73702872 -0.83757162
-0.08701364 -0.060064793 0.25157928
-0.087455638 0.27578825 0.18832445
-0.08824864 0.31265324 0.074688435
-0.089327641 -0.26528776 -0.079919338
-0.093729638 -0.65562582 -0.71045542
-0.091230638 0.11916721 0.4161334
-0.09256164 -0.060812771 0.24663258
-0.092442639 0.24160123 0.26180124
-0.095500641 0.36726224 -0.12747049
-0.096345641 0.40199524 -0.23506355
-0.098592639 -0.53585577 -0.52117538
-0.096246637 -0.35104072 -0.22245359
-0.10013064 -0.65702975 -0.71703339
-0.097574636 0.21774924 0.30385351
-0.097357638 -0.007722795 0.32874823
-0.096732639 0.036565244 0.40037251
-0.10002863 0.30804521 0.022668362
-0.10252564 0.39996523 -0.26350164
-0.10101964 -0.26720679 -0.090895653
-0.10284464 -0.0084217787 0.3239193
-0.10487164 0.26853323 0.11272621
-0.10215564 0.035908222 0.39565468
-0.10770864 0.36296225 -0.1827836
-0.11296364 -0.65985179 -0.73023272
-0.10834064 -0.0091237426 0.31908321
-0.10971364 0.23402923 0.18795538
-0.11076964 0.26607621 0.087130547
-0.11018164 -0.11769378 0.14329243
-0.11479064 0.20994824 0.23099422
-0.11483864 -0.063826799 0.22675037
-0.11384664 -0.0098277926 0.31423426
-0.11302964 0.034587204 0.38619137
-0.11805764 0.30099124 -0.056933403
-0.12584664 -0.66269171 -0.74349356
-0.11935964 -0.01053375 0.30937862
-0.12145664 0.22887826 0.13775349
-0.12640764 0.3563742 -0.26749563
-0.12988964 -0.54221082 -0.55251646
-0.12333664 0.11991823 0.42248535
-0.12602964 -0.065345764 0.21675444
-0.12331564 0.074939251 0.42410755
-0.13163865 -0.066108763 0.21174145
-0.13041164 -0.011950791 0.29964066
-0.13759364 0.31750321 -0.21470833
-0.13913563 0.35188824 -0.32515478
-0.13463464 -0.19831181 -0.0028247833
-0.13288164 -0.1209538 0.12272835
-0.13837764 0.19925421 0.13118744
-0.13725664 -0.066873789 0.2067194
-0.14558163 0.34961522 -0.35434961
-0.13857964 -0.12177372 0.11756325
-0.15377064 -0.75226772 -0.90635967
-0.15175064 -0.66842377 -0.77019453
-0.14017664 0.11385626 0.37415648
-0.14133865 0.13663524 0.3001976
-0.13934164 0.075327218 0.42727661
-0.14910063 0.28883922 -0.19394445
-0.15513164 -0.54736471 -0.57784176
-0.15825865 -0.66986775 -0.7769084
-0.14720464 0.13373721 0.27607822
-0.15863964 0.34501123 -0.41349649
-0.16147064 -0.54866278 -0.58420753
-0.15856063 -0.44073379 -0.40871859
-0.15642965 -0.36171079 -0.28023148
-0.15180564 0.10793221 0.32687759
-0.15467763 0.15806222 0.16235638
-0.15656464 0.19100523 0.054242611
-0.15262364 -0.014809787 0.28005028
-0.15782064 0.21292025 -0.017682552
-0.15969664 0.24567622 -0.12518358
-0.16475165 -0.44190872 -0.41478777
-0.16250464 -0.36279476 -0.28607655
-0.15768763 0.10493523 0.30296659
-0.15907463 0.12787223 0.22728157
-0.15982163 -0.069956779 0.18653059
-0.15819764 -0.015529752 0.27513027
-0.16405264 0.2101832 -0.044318676
-0.16603965 0.24303025 -0.15270042
-0.15574864 0.072848201 0.40879345
-0.16835263 0.28129822 -0.27891541
-0.16859064 -0.36388278 -0.29193258
-0.16602764 -0.27796376 -0.15207052
-0.16146663 -0.12507975 0.096800327
-0.17785063 -0.67422771 -0.79714155
-0.16508165 0.12490422 0.20259333
-0.16893464 0.18539125 0.0019145012
-0.16378364 -0.016251743 0.2701993
-0.17033765 0.20742321 -0.07117939
-0.17243662 0.2403602 -0.18045378
-0.17113364 0.12191224 0.17771864
-0.17297065 0.14935625 0.086170673
-0.16937563 -0.01697576 0.26526165
-0.16743264 0.066644251 0.36207438
-0.18308464 0.30040926 -0.41763878
-0.18694264 -0.55389678 -0.6098156
-0.18079665 -0.36606777 -0.30368471
-0.17684263 -0.072292745 0.17128849
-0.17497763 -0.017701745 0.26031256
-0.18305963 0.20183522 -0.1255455
-0.18538663 0.23495823 -0.23660469
-0.17334065 0.063506246 0.33844328
-0.17873064 -0.12758577 0.081118584
-0.19755465 -0.6786288 -0.81751776
-0.18167663 0.09270823 0.2054615
-0.18540964 0.14343423 0.034369469
-0.18786564 0.17679822 -0.078159332
-0.18253365 -0.073075771 0.16618729
-0.19194365 0.23222125 -0.26504278
-0.18450463 -0.12842476 0.075870514
-0.20716363 -0.76480877 -0.96256256
-0.20616764 -0.55786479 -0.62917137
-0.19918364 -0.36937082 -0.32140636
-0.21817863 -0.88202977 -1.1584597
-0.21075165 -0.68158472 -0.83117867
-0.20074764 0.17094821 -0.13264132
-0.21032763 0.29016322 -0.53914356
-0.21260163 -0.55919576 -0.63565445
-0.20533565 -0.37047875 -0.3273406
-0.22509864 -0.88377881 -1.1659446
-0.22064063 -0.76799476 -0.97678041
-0.20212165 0.10658926 0.050366402
-0.20914465 0.19037324 -0.2369976
-0.19743663 0.050698221 0.24206352
-0.21904665 -0.56052983 -0.64214945
-0.21149763 -0.37158883 -0.33328438
-0.20501363 -0.20929873 -0.067993641
-0.20188463 -0.13095975 0.060065269
-0.20539564 -0.076229751 0.14568329
-0.20142865 0.022809207 0.30238342
-0.21767065 -0.37270272 -0.3392415
-0.21486664 0.10028422 -0.0020027161
-0.21113363 -0.077023745 0.14053345
-0.22013363 -0.28702879 -0.20316553
-0.22395962 0.12507224 -0.12612963
-0.22715765 0.15895021 -0.24432468
-0.21688363 -0.077820778 0.13537264
-0.22928765 0.18152124 -0.32301855
-0.21600664 0.040823221 0.16780043
-0.22619963 -0.28805077 -0.20890474
-0.21935165 -0.13351572 0.044164658
-0.24396965 -0.68905783 -0.86561537
-0.22012264 -0.023584783 0.22038126
-0.24330765 0.25190622 -0.60965252
-0.22879463 -0.21304679 -0.090071678
-0.22840863 -0.079420745 0.1250205
-0.23835963 -0.29010379 -0.22041273
-0.23104465 -0.13523173 0.033513546
-0.24098665 0.087357223 -0.10931253
-0.23418564 -0.080224752 0.11982822
-0.24994865 0.17243421 -0.41126776
-0.25353563 0.20649326 -0.53214931
-0.23239765 0.0058332086 0.18008566
-0.25796664 -0.56862581 -0.68143559
-0.23690563 -0.13609374 0.028171539
-0.25073263 0.11231023 -0.23757267
-0.25446564 0.14654124 -0.35975266
-0.23997265 -0.081029773 0.11462641
-0.27507663 -0.78093672 -1.0343328
-0.24291763 -0.026576757 0.20018339
-0.24512964 -0.0011507869 0.12979937
-0.25668064 -0.29320776 -0.23777056
-0.25273862 -0.21683979 -0.11233139
-0.28194264 -0.78257883 -1.0416064
-0.26446065 0.10576421 -0.29470444
-0.27759263 -0.57272983 -0.7012825
-0.26745364 -0.38173783 -0.38737154
-0.25875065 -0.21779478 -0.11792469
-0.25455165 -0.13869476 0.012078285
-0.26510262 0.050133228 -0.13347673
-0.26797965 0.073990226 -0.22018766
-0.27141064 0.10244924 -0.32362843
-0.25739264 -0.083461761 0.098959446
-0.27834064 0.15994221 -0.53252172
-0.25806364 -0.0082477927 0.078722477
-0.26894864 -0.29529178 -0.24940157
-0.29101264 -0.69971871 -0.91450834
-0.27486864 0.070577204 -0.2484827
-0.27509865 -0.29633772 -0.25523472
-0.29778466 -0.70126081 -0.92155933
-0.26905465 -0.085093796 0.088462353
-0.29291365 0.15352726 -0.59474945
-0.29096565 -0.46616876 -0.53898335
-0.27685064 -0.22067773 -0.13477755
-0.30953965 -0.78919578 -1.0708714
-0.27490065 -0.085913777 0.083198547
-0.27472264 -0.04278475 0.088173389
-0.30029565 0.15027726 -0.62627172
-0.28120163 0.0061212182 -0.092829704
-0.30393565 -0.57826173 -0.72795773
-0.29261664 -0.3863368 -0.41175175
-0.27821964 -0.1421988 -0.0095305443
-0.28456363 -0.022794783 -0.025906563
-0.28801563 0.0024912357 -0.12006474
-0.31055266 -0.57965577 -0.73466349
-0.30706665 0.085440218 -0.47196245
-0.31198063 0.12037921 -0.60284233
-0.31718165 -0.58105373 -0.74138546
-0.29011464 -0.14396572 -0.02039957
-0.31438464 0.081947207 -0.50240564
-0.29468966 -0.054056764 0.010260582
-0.32284066 0.14034921 -0.7225275
-0.32382366 -0.58245575 -0.7481246
-0.31160966 -0.38982272 -0.43017578
-0.29607666 -0.14485276 -0.025851727
-0.33735764 -0.79589677 -1.1004224
-0.32176766 0.078423202 -0.53311872
-0.30501065 -0.034023762 -0.1066227
-0.30880263 -0.0085837841 -0.20312834
-0.32325163 -0.47246778 -0.57090235
-0.31796566 -0.39099276 -0.43634558
-0.31223565 -0.30268478 -0.29050446
-0.30205163 -0.14574277 -0.031315327
-0.32104164 0.021546245 -0.36061859
-0.33461064 0.11007822 -0.69847155
-0.30427966 -0.09004879 0.056719303
-0.33821264 0.13357723 -0.7881546
-0.31193766 -0.037829757 -0.1339674
-0.30803466 -0.14663577 -0.036789417
-0.33672565 0.071281254 -0.59534264
-0.33625063 -0.47501481 -0.58377171
-0.31402865 -0.14753079 -0.042274475
-0.33562765 0.014088213 -0.41983175
-0.34430465 0.067662239 -0.62686443
-0.35386464 0.12668025 -0.85496855
-0.34276864 -0.4762938 -0.59022856
-0.34301665 0.010308206 -0.44982767
-0.36180064 0.12318224 -0.88884354
-0.33307064 -0.049441755 -0.21737242
-0.34930065 -0.47757673 -0.59670067
-0.33721665 -0.30697882 -0.31427145
-0.32604966 -0.14932978 -0.053280354
-0.37245163 -0.80439579 -1.1377745
-0.33611566 -0.077457786 -0.15134573
-0.33207566 -0.15023279 -0.058798313
-0.37000364 0.023411214 -0.63903761
-0.35473865 -0.061351776 -0.30287647
-0.35938564 -0.03555274 -0.40521479
-0.36277765 -0.39927578 -0.47990942
-0.35607165 -0.31023371 -0.33223057
-0.35021466 -0.23246574 -0.20324945
-0.34415764 -0.15204573 -0.069870472
-0.38706565 -0.7217598 -1.0147796
-0.36686164 -0.039539754 -0.43507338
-0.39402965 -0.72337174 -1.0220704
-0.38093564 -0.0090897679 -0.60369873
-0.39123166 0.04524225 -0.82202435
-0.36949465 -0.069465756 -0.36109543
-0.37440366 -0.043563783 -0.46519852
-0.38214165 -0.48405182 -0.62927675
-0.37224266 -0.097879767 -0.29223967
-0.37696666 -0.073574781 -0.39057446
-0.38200966 -0.047621787 -0.49557734
-0.39775166 -0.59817374 -0.82329369
-0.37503263 -0.31351781 -0.35030937
-0.40744764 0.037491202 -0.88945436
-0.39536566 -0.48666978 -0.64241266
-0.38865066 -0.40408778 -0.50511169
-0.38137564 -0.31461883 -0.35635948
-0.38712466 -0.10629576 -0.3502655
-0.39210466 -0.081901789 -0.45029354
-0.41772264 -0.00027579069 -0.83486032
-0.42396766 0.029592216 -0.95814276
-0.38879263 -0.13863277 -0.26376247
-0.39466363 -0.11055976 -0.37965775
-0.40864265 -0.48930383 -0.65560961
-0.40166163 -0.40651679 -0.51779842
-0.38749465 -0.23851871 -0.23814678
-0.42057064 -0.029381752 -0.76452065
-0.42593065 -0.0043517947 -0.86853743
-0.43234265 0.025588214 -0.99296045
-0.40750864 -0.090377748 -0.51105976
-0.42503265 -0.60402381 -0.8511157
-0.41529965 -0.49062681 -0.66223049
-0.40818465 -0.40773678 -0.52416277
-0.42871365 -0.033551753 -0.79755354
-0.42105764 -0.068460763 -0.65148067
-0.43188664 -0.60549772 -0.85811043
-0.42196864 -0.4919548 -0.66886663
-0.41471964 -0.40895975 -0.53054142
-0.40001065 -0.24056077 -0.24987745
-0.39786965 -0.17419279 -0.20901537
-0.44932866 0.017463207 -1.0635757
-0.42126766 -0.41018772 -0.53693438
-0.40529764 -0.17865574 -0.23720169
-0.43534765 -0.4946208 -0.68218374
-0.41257265 -0.24261475 -0.26165867
-0.43913665 -0.10778379 -0.63577652
-0.45253363 -0.60994875 -0.87920332
-0.43440366 -0.4126538 -0.54976654
-0.42034364 -0.18769872 -0.29429054
-0.46446463 -0.7397778 -1.0959916
-0.47541964 0.0049802065 -1.1720314
-0.44127864 -0.13693881 -0.56136847
-0.44722065 -0.11223376 -0.66765165
-0.44098964 -0.41389179 -0.55620337
-0.47158766 -0.74144781 -1.1034837
-0.47680965 -0.029629767 -1.0772605
-0.45537665 -0.11672473 -0.6998105
-0.43900064 -0.32468081 -0.4114356
-0.47872466 -0.74312174 -1.1109924
-0.46360564 -0.12125683 -0.73225737
-0.47027764 -0.094748795 -0.84796143
-0.46226564 -0.50000477 -0.70900774
-0.44546366 -0.3258158 -0.41762257
-0.44339466 -0.20155573 -0.38173676
-0.46902764 -0.50136077 -0.7157526
-0.46082366 -0.41762972 -0.57560062
-0.46624064 -0.18385577 -0.56152964
-0.48029163 -0.13044679 -0.79804277
-0.48874766 -0.13510478 -0.83137846
-0.46492764 -0.3292408 -0.43626738
-0.46704966 -0.21578181 -0.47145748
-0.49728164 -0.13980675 -0.86502075
-0.50462264 -0.11310279 -0.98503542
-0.50119561 -0.62049782 -0.92900848
-0.48077464 -0.42140281 -0.59513378
-0.47507164 -0.2206068 -0.5018816
-0.52343762 -0.082100749 -1.1817417
-0.53065664 -0.056400776 -1.2981067
-0.50820464 -0.62202275 -0.93619251
-0.51522863 -0.62355483 -0.94339848
-0.48106465 -0.26614881 -0.40036535
-0.52226561 -0.62508976 -0.95061541
-0.55103064 -0.096254766 -1.2936215
-0.51607162 -0.21297777 -0.75301647
-0.52469563 -0.18418479 -0.88637161
-0.53221965 -0.15906179 -1.0027304
-0.50755966 -0.4264878 -0.62138844
-0.56040764 -0.10106575 -1.3316383
-0.52361465 -0.51236379 -0.77028847
-0.50528061 -0.28127372 -0.49055767
-0.56987661 -0.10592377 -1.3700266
-0.55018264 -0.16896474 -1.0735226
-0.55861461 -0.14197373 -1.2004695
-0.52778763 -0.43034375 -0.6412406
-0.51738065 -0.33852875 -0.4866066
-0.54186666 -0.26080573 -0.75512838
-0.5867976 -0.15705073 -1.3128977
-0.56479859 -0.63440776 -0.9943037
-0.53857464 -0.30207574 -0.61453247
-0.57193863 -0.63597775 -1.0016484
-0.55818063 -0.51938176 -0.80490351
-0.54813462 -0.43423378 -0.66123056
-0.55932862 -0.27132082 -0.82131243
-0.59661859 -0.19457471 -1.2564964
-0.5721066 -0.52221978 -0.81886578
-0.56433362 -0.31817579 -0.71042967
-0.57711363 -0.28203273 -0.88871956
-0.59345162 -0.64071882 -1.0237913
-0.56148064 -0.35576272 -0.58317232
-0.57307559 -0.32364082 -0.74296856
-0.60542864 -0.26524973 -1.0962577
-0.61617762 -0.23606074 -1.2426348
-0.57545561 -0.4394778 -0.68810272
-0.62581462 -0.24152875 -1.2801538
-0.6078676 -0.64390481 -1.0386434
-0.59079659 -0.3347218 -0.80892849
-0.60441363 -0.29848075 -0.99216938
-0.62432861 -0.27631378 -1.1688375
-0.5962466 -0.37821579 -0.71046066
-0.62960863 -0.64872181 -1.0610638
-0.60513461 -0.38395774 -0.74299765
-0.61799562 -0.35173178 -0.91014051
-0.63249362 -0.31540382 -1.0985603
-0.60991859 -0.44612575 -0.72205353
-0.62838459 -0.53375173 -0.87539244
-0.63655365 -0.36334181 -0.97919273
-0.65148962 -0.65358579 -1.0836525
-0.62380362 -0.4488138 -0.73574543
-0.6588136 -0.65521681 -1.0912204
-0.64259964 -0.53667974 -0.88969755
-0.64150864 -0.40746176 -0.87613153
-0.65545964 -0.37517273 -1.0495334
-0.64972961 -0.53815174 -0.89687538
-0.63774264 -0.45151782 -0.74950361
-0.66504765 -0.38117278 -1.0851994
-0.67472661 -0.38723075 -1.1212068
-0.66403663 -0.54110777 -0.9112854
-0.65415061 -0.45954382 -0.79231167
-0.66968161 -0.42567182 -0.97921944
-0.68450063 -0.39334977 -1.1575646
-0.69170064 -0.48464477 -0.92727137
-0.71843565 -0.45720077 -1.1575856
-0.72078961 -0.50409675 -1.0317936
-0.73066962 -0.51070476 -1.0672908
-0.76465964 -0.57320178 -1.0716348
