# .PCD v0.7 - Point Cloud Data file format
VERSION 0.7
FIELDS x y z
SIZE 4 4 4
TYPE F F F
COUNT 1 1 1
WIDTH 1
HEIGHT 1024
VIEWPOINT 0 0 0 1 0 0 0
POINTS 1024
DATA ascii
1.0735803 -0.036369324 -0.12882948
1.0671692 -0.14528233 -0.2552824
1.0443763 -0.036951303 -0.13709354
1.0385222 -0.037061274 -0.13868856
1.0464113 -0.14236027 -0.23932648
1.0326293 -0.25126225 -0.18407345
1.0209413 -0.037380278 -0.14336967
1.0329772 -0.14082032 -0.23123837
1.0150732 -0.037483275 -0.14489555
1.0183833 -0.24837428 -0.16921329
1.0143982 -0.19423133 -0.1848464
1.0137513 -0.13952929 -0.22551727
1.0006702 -0.19207531 -0.17352533
0.99447221 -0.19181532 -0.17275953
0.97034121 -0.021121323 -0.035772324
0.98827523 -0.19155532 -0.17199135
0.95772523 -0.10108131 0.015043736
0.95833522 -0.065197289 -0.035267353
0.94236422 -0.074189246 -0.097771645
0.94762421 -0.035444319 -0.1394062
0.9256562 0.10868269 -0.012551308
0.91797322 0.10459471 -0.046514511
0.93019921 -0.081046283 -0.14537144
0.91410422 0.10253572 -0.06361866
0.93210518 -0.04524833 -0.21022749
0.91957623 -0.11945134 -0.10818529
0.92817819 -0.047732294 -0.22815561
0.92439723 -0.31350833 -0.19714022
0.90152019 0.1381067 -0.058493614
0.89608723 0.18355769 -0.013596535
0.91862619 -0.31387335 -0.19985628
0.89447421 0.092073679 -0.15041447
0.87883621 0.23022068 -0.018287659
0.88243818 -0.22467834 -0.048722267
0.88387918 0.097019672 -0.11175537
0.88440722 0.13148469 -0.11624432
0.87325519 0.26036471 -0.021315575
0.8698532 -0.27524728 0.0076446533
0.87007421 0.22750068 -0.044958591
0.87044919 0.016326725 -0.04818058
0.86572421 -0.27792925 -0.0076475143
0.86092418 0.18360072 -0.017384529
0.85410523 0.14457667 -0.009660244
0.8550992 0.23051172 -0.018312454
0.8517822 -0.05643326 0.010577679
0.85228318 -0.013074279 0.0062127113
0.85544622 0.26057267 -0.021339417
0.84637421 -0.012979329 0.0062036514
0.84342319 -0.2702623 0.0321064
0.84187323 0.11070269 -0.0062475204
0.83694118 -0.3225593 0.037373543
0.83540219 0.06184268 -0.0013256073
0.82816619 -0.056040347 0.010543346
0.8286522 -0.012698293 0.0061807632
0.8257702 -0.2699073 0.032075405
0.82412118 0.1109457 -0.0062675476
0.82274818 -0.012605309 0.006172657
0.82054722 -0.21057028 0.026103497
0.81986022 0.26097572 -0.021370411
0.81766719 0.062097669 -0.0013465881
0.80755621 -0.32195336 0.037321568
0.80584818 0.062264681 -0.0013604164
0.80225021 -0.26944727 0.032036781
0.80083418 0.14527267 -0.0097155571
0.7991392 -0.012244284 0.0061435699
0.79580921 -0.32171732 0.03730154
0.79492122 0.1453467 -0.0097203255
0.79583722 0.2312007 -0.018364429
0.78993821 -0.32160133 0.037290573
0.79232323 -0.098080337 0.01478672
0.78991723 0.23126668 -0.018368244
0.7877292 0.024521708 0.0024447441
0.78643322 -0.097985327 0.014779568
0.78309721 0.14549369 -0.0097312927
0.77874821 -0.26900226 0.031998634
0.77993518 -0.15592533 0.020614624
0.78054422 -0.097890317 0.014771461
0.77683222 0.11156768 -0.0063142776
0.77759719 0.18504769 -0.013712406
0.76646221 -0.32114631 0.037251472
0.76816821 -0.15572828 0.020596504
0.76536918 0.14570868 -0.0097475052
0.76624721 0.23152471 -0.018387318
0.76113123 -0.26867932 0.031970501
0.76173621 -0.20951134 0.026014328
0.76063722 0.26160473 -0.021415234
0.75355518 0.14584869 -0.0097594261
0.75153822 -0.054848254 0.010447502
0.7527222 0.062982678 -0.0014162064
0.74850523 0.23171169 -0.018402576
0.74644721 0.025093675 0.0023994446
0.74300224 -0.32070535 0.037214756
0.74352419 -0.2683633 0.031945705
0.74464923 -0.15534431 0.02056551
0.74288923 0.26178271 -0.021427631
0.74055421 0.02517271 0.0023927689
0.73388124 -0.054592311 0.010425568
0.73697621 0.2618407 -0.0214324
0.73289722 -0.15515727 0.020550728
0.7299422 0.14612269 -0.009780407
0.72799718 -0.054508269 0.010418415
0.7284162 -0.01123029 0.0060625076
0.72877121 0.025327682 0.0023827553
0.72758418 -0.09707433 0.014704704
0.72170323 -0.096988261 0.014697552
0.71813923 0.14625567 -0.0097894669
0.71851522 0.18570369 -0.01376152
0.7192412 0.26201272 -0.021444321
0.7147612 -0.20872825 0.025948524
0.7119202 0.11235368 -0.0063753128
0.71261221 0.1857667 -0.013765335
0.70833719 -0.26775736 0.031892776
0.7024762 -0.26766032 0.031885624
0.7030282 -0.20854026 0.025934696
0.70353121 -0.15470427 0.020512581
0.70013022 0.11248869 -0.0063843727
0.70044422 0.1464507 -0.0098032951
0.7012372 0.23218769 -0.018435478
0.69490921 0.18594968 -0.01377964
0.69271123 -0.054020345 0.010379791
0.69129622 -0.20835727 0.025918484
0.68834519 0.11262071 -0.0063943863
0.68865323 0.14657772 -0.009812355
0.68943119 0.23230171 -0.018444538
0.68592119 -0.15444332 0.020492554
0.67903918 -0.26727825 0.03185463
0.67546618 -0.010540307 0.006008625
0.67612922 0.06392169 -0.0014882088
0.67271823 -0.31947833 0.037110329
0.67370921 -0.20808834 0.025897503
0.67131823 0.18618667 -0.013795376
0.66920519 -0.053710282 0.010355473
0.67199022 0.26244771 -0.021473408
0.66883123 -0.096244276 0.01463747
0.66507924 0.1468237 -0.0098314285
0.65918922 0.14688373 -0.0098352432
0.65612721 -0.20782834 0.025876522
0.65403122 0.2326287 -0.018466473
0.64931822 -0.31909925 0.037080765
0.6512242 -0.096010268 0.014620781
0.64813322 0.23268169 -0.018469334
0.6415202 0.14705968 -0.009847641
0.64185023 0.18646967 -0.013815403
0.64082819 0.064315677 -0.0015172958
0.6380592 -0.26664633 0.031802654
0.63855422 -0.20757526 0.025855541
0.63900423 -0.15378326 0.020440578
0.63494819 0.064379692 -0.0015234947
0.63177621 -0.31882626 0.037056446
0.63220918 -0.2665593 0.031796455
0.63314319 -0.15370435 0.020433426
0.62728322 -0.15362626 0.020427704
0.62386119 0.14723068 -0.0098595619
0.62479818 0.26284969 -0.021500587
0.62051123 -0.26638931 0.031781673
0.62142521 -0.15354925 0.020421505
0.62189418 -0.095637262 0.014591694
0.61797523 0.14728671 -0.0098643303
0.6163702 -0.053058326 0.010306358
0.61700821 0.026663721 0.0022807121
0.6160292 -0.095565259 0.014585495
0.61276919 0.23298568 -0.018489361
0.61084622 -0.0097773075 0.0059504509
0.6092822 -0.20717126 0.025822639
0.60687822 0.23303372 -0.018493652
0.60711318 0.26299173 -0.021508217
0.60063022 0.18684071 -0.013840199
0.59877318 -0.052855313 0.010291576
0.59939122 0.026851714 0.0022654533
0.59474421 0.18689167 -0.01384449
0.5950982 0.23312968 -0.018499374
0.5929082 -0.052788317 0.010285378
0.5953272 0.2630837 -0.021515369
0.59087521 -0.31822032 0.037008762
0.58830422 0.11363971 -0.0064682961
0.58704519 -0.052723348 0.010281563
0.58503622 -0.3181383 0.037003517
0.58672321 -0.095215261 0.014559746
0.5811832 -0.05265826 0.010276794
0.58354622 0.26317269 -0.021520615
0.57958823 -0.26582128 0.031736374
0.5808652 -0.095148265 0.014554501
0.57680219 0.14765972 -0.0098896027
0.57765621 0.26321769 -0.021523476
0.56977624 -0.009337306 0.0059185028
0.57004219 0.027150691 0.0022454262
0.56833524 -0.20664328 0.025782585
0.56479925 0.11385369 -0.0064816475
0.56444722 0.065087676 -0.0015726089
0.56168425 -0.31781727 0.036976337
0.55804724 -0.0092182755 0.0059103966
0.55584824 -0.31773931 0.036970615
0.55305123 0.11395568 -0.0064883232
0.55356723 0.18722969 -0.013866425
0.55389321 0.23344868 -0.018519402
0.55188024 -0.052345335 0.010254383
0.55270821 0.06519568 -0.0015802383
0.55038023 -0.26544327 0.031707764
0.55079621 -0.20643026 0.025766373
0.5465762 0.027376711 0.0022287369
0.54532522 -0.15262431 0.02035141
0.54572719 -0.094759285 0.014525414
0.54212719 0.23353469 -0.018524647
0.5404622 -0.0090453029 0.005897522
0.54233223 0.26347071 -0.021537304
0.53910822 -0.20629233 0.025756359
0.53593022 0.18736672 -0.013874531
0.53430724 -0.052167356 0.010240555
0.53644621 0.26351172 -0.021540642
0.5351032 0.065353692 -0.0015926361
0.52702725 -0.26515836 0.031684399
0.52417624 0.1874547 -0.013880253
0.51804423 0.14814067 -0.0099205971
0.51501524 -0.3172223 0.036930561
0.51195323 0.11429572 -0.0065102577
0.51242423 0.1875397 -0.013886452
0.51116323 -0.0087713003 0.0058774948
0.51139724 0.027694702 0.002207756
0.50918323 -0.31715232 0.036925793
0.50951821 -0.26495332 0.031669617
0.5068422 0.23377967 -0.018539429
0.50553721 0.027745724 0.0022034645
0.50577724 0.065603673 -0.0016074181
0.50405723 -0.20590025 0.025726795
0.50096422 0.23381871 -0.018541336
0.4989152 -0.094285309 0.014492512
0.49508721 0.23385668 -0.01854229
0.49527121 0.2637797 -0.021555424
0.49381819 0.027844667 0.0021977425
0.49405122 0.065698683 -0.0016136169
0.4920162 -0.26475734 0.031655788
0.48747721 -0.051724255 0.01020956
0.4858672 -0.31688136 0.036904335
0.4865422 -0.20571536 0.025713444
0.48333222 0.23393172 -0.018547535
0.48351121 0.2638517 -0.021559238
0.48210022 0.027941704 0.0021915436
0.4803502 -0.26463026 0.031646729
0.4760282 -0.0084673166 0.0058574677
0.47421122 -0.3167513 0.036894798
0.47518322 -0.15189534 0.020297527
0.47175622 0.26392168 -0.021562576
0.47038621 0.028034687 0.0021867752
0.46868822 -0.26450831 0.031637669
0.4657082 0.23404068 -0.018552303
0.4628582 -0.26444834 0.031632423
0.4595722 0.18789667 -0.013905525
0.45983222 0.23407573 -0.018555641
0.4584682 -0.0083243251 0.0058484077
0.4600012 0.26398969 -0.021565437
0.45867321 0.028125703 0.0021796227
0.4567332 -0.31656426 0.036881447
0.4570272 -0.26438934 0.031628609
0.45281821 0.028169692 0.0021777153
0.45182222 -0.15167826 0.020283699
0.44743621 0.1147657 -0.0065393448
0.4482502 0.26405567 -0.021570206
0.4450852 -0.31644434 0.036872387
0.44569021 -0.20531625 0.025684357
0.44629821 -0.09381336 0.014460564
0.44157422 0.11480469 -0.0065412521
0.44091421 -0.0081883073 0.005841732
0.44237521 0.26408768 -0.021571636
0.44111019 0.028256714 0.0021715164
0.4392612 -0.31638533 0.036868572
0.4404552 -0.093765318 0.014456749
0.4357132 0.11484271 -0.00654459
0.43634319 0.23421067 -0.018561363
0.43343821 -0.31632727 0.036864758
0.4294022 0.028340697 0.002166748
0.42819121 -0.20515734 0.025673389
0.41813222 0.11495471 -0.006550312
0.41830221 0.14881772 -0.0099582672
0.4176982 0.0284217 0.0021615028
0.41597122 -0.31616026 0.03685236
0.4165282 -0.20505625 0.025667667
0.41244021 0.14885169 -0.0099616051
0.4118472 0.028460681 0.0021595955
0.4101502 -0.31610626 0.036849499
0.41040722 -0.26394933 0.031598568
0.41124621 -0.093534291 0.014442444
0.4064132 0.1150257 -0.0065536499
0.40581819 -0.0079362988 0.0058245659
0.4043282 -0.31605333 0.036845684
0.4051252 -0.15128535 0.020258427
0.40055519 0.11505967 -0.0065555573
0.3990362 -0.20491129 0.025658607
0.39929122 -0.15124029 0.020255566
0.39956522 -0.093447268 0.014436722
0.3948552 0.14895171 -0.0099644661
0.3950392 0.18826967 -0.013923645
0.39293221 -0.26380032 0.031587601
0.38884121 0.11512768 -0.0065584183
0.38808119 -0.050945342 0.0101614
0.38687021 -0.31590027 0.036834717
0.38762322 -0.15115231 0.020248413
0.38313621 0.14901471 -0.0099682808
0.3835192 0.23448271 -0.01857233
0.38223919 -0.05090636 0.010157585
0.38179022 -0.15110928 0.020246506
0.3774482 0.18835968 -0.01392746
0.3777822 0.26440668 -0.021584511
0.3757202 -0.20473033 0.025646687
0.37055519 -0.050830305 0.010154724
0.37191319 0.26443267 -0.021584511
0.36572421 0.18841571 -0.013929367
0.36471522 -0.050794303 0.01015234
0.36604521 0.2644577 -0.021585464
0.36359721 -0.31570929 0.03682375
0.36017722 0.26448268 -0.021585464
0.35920322 0.028784692 0.002143383
0.35936022 0.06660068 -0.0016655922
0.3584612 -0.15094632 0.020237446
0.35196221 -0.31561929 0.036817551
0.3526282 -0.15090734 0.020235538
0.35286221 -0.093132317 0.014417648
0.34785122 0.11534268 -0.0065684319
0.34798521 0.14918971 -0.0099754333
0.34719419 -0.050688326 0.010147572
0.3473652 -0.0075733066 0.0058064461
0.34844121 0.26453072 -0.021586418
0.34750921 0.028848708 0.0021395683
0.3463532 -0.26344031 0.031565666
0.34257421 0.26455373 -0.021588326
0.34180921 0.066691697 -0.0016684532
0.33627221 0.14924371 -0.0099773407
0.32967821 -0.050589263 0.010142326
0.33084223 0.26459867 -0.021589279
0.32930923 -0.15076131 0.020228386
0.32952222 -0.092992246 0.014411449
0.32455921 0.14929467 -0.009979248
0.32497522 0.26462072 -0.021588326
0.3242622 0.066777706 -0.0016713142
0.32368621 -0.092959344 0.014410496
0.3188422 0.18861967 -0.01393652
0.31911021 0.2646417 -0.021589279
0.31746122 -0.2043373 0.025625706
0.3121652 -0.050497353 0.010137558
0.31182122 -0.15065926 0.020222664
0.30712622 0.18866467 -0.013938427
0.3073802 0.26468271 -0.021590233
0.30544323 -0.31529826 0.036798477
0.30561721 -0.26317436 0.031550407
0.30114022 0.14938968 -0.0099816322
0.3004902 -0.050439298 0.010136604
0.30151421 0.26470172 -0.021591663
0.3007482 0.029078722 0.0021305084
0.29999021 -0.20423633 0.025619507
0.29555622 0.23483771 -0.018582344
0.2950252 0.066906691 -0.0016756058
0.29398122 -0.26310629 0.031547546
0.29416722 -0.20420426 0.025617599
0.2886872 -0.092779338 0.014401436
0.2835792 0.14945471 -0.0099835396
0.28369722 0.18874872 -0.013938427
0.2838352 0.23487669 -0.018583298
0.28311121 -0.0072572827 0.0057935715
0.28392422 0.26475769 -0.021591663
0.2832202 0.029152691 0.0021276474
0.28333321 0.066953719 -0.0016775131
0.28252321 -0.20414335 0.025615692
0.28285623 -0.092752278 0.014400482
0.27772722 0.14947569 -0.0099835396
0.27797422 0.23489469 -0.018582344
0.27637923 -0.31512827 0.036790371
0.27702421 -0.09272629 0.014399529
0.27177823 0.11566067 -0.0065784454
0.27198321 0.18878669 -0.013938427
0.2715342 0.029198706 0.0021276474
0.27071321 -0.26298231 0.031542778
0.2662532 0.23492968 -0.018583298
0.26633522 0.26480871 -0.021591663
0.26536122 -0.092675269 0.014399529
0.26007921 0.11569971 -0.0065784454
0.2602722 0.18882269 -0.013939381
0.26039422 0.23494667 -0.018583298
0.25923622 -0.20403129 0.025610447
0.25341621 -0.2040053 0.025609493
0.24846423 0.14956868 -0.0099835396
0.24732122 -0.31498331 0.036783695
0.24744922 -0.26287133 0.031537533
0.2477262 -0.1503523 0.020209789
0.24270621 0.18887269 -0.013939381
0.24288622 0.26486969 -0.021589279
0.24203822 -0.092583358 0.014395714
0.23607722 -0.15030736 0.020209789
0.23083723 0.11578768 -0.0065774918
0.23091123 0.14961672 -0.0099844933
0.23099822 0.18890268 -0.013939381
0.23056722 -0.0070633292 0.0057897568
0.23025221 -0.1502853 0.020209789
0.23037922 -0.09254235 0.014395714
0.22524121 0.2350347 -0.018582344
0.22463921 -0.050137341 0.010129452
0.2248072 0.029356718 0.0021257401
0.22455022 -0.092522323 0.01439333
0.21896622 0.029372692 0.0021247864
0.21837622 -0.26275426 0.031535625
0.21305621 -0.0070123076 0.0057907104
0.21312621 0.029388726 0.0021233559
0.2125622 -0.26273328 0.031534672
0.20750922 0.1496737 -0.0099835396
0.20772222 0.26494467 -0.021587372
0.20166022 0.14968568 -0.0099825859
0.20186222 0.2649557 -0.021586418
0.19580822 0.14969772 -0.0099825859
0.19600122 0.26496571 -0.021586418
0.18971121 -0.006953299 0.0057907104
0.19014122 0.26497567 -0.021585464
0.18940021 -0.20377833 0.025606632
0.18948522 -0.1501593 0.020208359
0.1841692 0.18900168 -0.013935566
0.18428221 0.26498467 -0.021585464
0.17821321 0.1159057 -0.0065746307
0.17241222 0.14973968 -0.009979248
0.1722542 0.029479682 0.0021276474
0.17230321 0.067267716 -0.0016765594
0.17186922 -0.26261431 0.031532764
0.17194621 -0.20373529 0.025607586
0.17201722 -0.15011829 0.020208359
0.16666722 0.23513967 -0.018575668
0.16646022 0.06727767 -0.0016765594
0.16599122 -0.31470031 0.036780357
0.16057622 0.02949971 0.0021295547
0.15443021 -0.26257533 0.031536579
0.14898422 0.11594868 -0.0065703392
0.14872721 -0.1500743 0.020211697
0.14299321 -0.049955308 0.010133743
0.14290521 -0.15006536 0.02021265
0.13729221 0.11596167 -0.0065674782
0.13735022 0.18906271 -0.013928413
0.13716121 -0.049948275 0.010134697
0.13741021 0.2650407 -0.021576405
0.13153021 0.23517567 -0.018567562
0.13133022 -0.049941361 0.010136604
0.13138622 0.029537678 0.0021348
0.13122222 -0.20366329 0.025611401
0.12569322 0.26504868 -0.021573544
0.12533721 -0.3146283 0.036784649
0.12543821 -0.15004331 0.020215511
0.12547322 -0.092311323 0.014403343
0.11981921 0.23518372 -0.018565655
0.11969221 -0.006847322 0.0058016777
0.11961621 -0.15003735 0.020216465
0.11397621 0.26505572 -0.021571636
0.11388922 0.067336679 -0.0016665459
0.11374421 -0.2625193 0.031541348
0.10811821 0.26505768 -0.021570206
0.10797221 -0.15002829 0.020218372
0.10222021 0.11598569 -0.0065593719
0.10217722 -0.049919307 0.010142326
0.10220821 0.067342699 -0.001663208
0.10212121 -0.26251131 0.031545639
0.096346214 -0.049917281 0.010143757
0.096354216 -0.0068343282 0.0058064461
0.096339211 -0.092292249 0.014409542
0.090531215 0.11598867 -0.0065584183
0.090541214 0.23519468 -0.018558502
0.090516217 -0.049916327 0.010145664
0.090544216 0.26506269 -0.021565437
0.090498216 -0.26250726 0.031547546
0.084684215 0.11598867 -0.0065555573
0.084684215 0.23519468 -0.018556595
0.084684215 -0.049915254 0.010147572
0.084684215 -0.0068323016 0.0058097839
0.084684215 0.029561698 0.0021457672
0.084684215 0.067345679 -0.0016584396
0.084684215 -0.20363325 0.025621414
0.084684215 -0.1500203 0.020225525
0.078850217 -0.0068333149 0.0058116913
0.078847215 0.029561698 0.0021476746
0.072995216 0.11598867 -0.0065512657
0.07298921 0.14980972 -0.0099563599
0.067150213 0.1159867 -0.006550312
0.067234218 -0.20363635 0.025628567
0.061278217 0.1890837 -0.013908386
0.061347216 -0.0068373084 0.0058164597
0.061397213 -0.15002626 0.020232677
0.055427216 0.18908167 -0.013905525
0.055513214 -0.0068402886 0.005818367
0.055625215 -0.26251632 0.031558514
0.055599213 -0.20364231 0.025631428
0.049614213 0.11597872 -0.00654459
0.049535215 0.2650547 -0.021552563
0.049782213 -0.20364732 0.025633335
0.049754214 -0.15003425 0.020236492
0.043696214 0.2351827 -0.01854229
0.043871213 -0.049931347 0.010160446
0.044002213 -0.26252729 0.031563759
0.037900213 0.14979368 -0.0099444389
0.038190212 -0.26253325 0.031564713
0.031983215 0.23517472 -0.018538475
0.031959213 0.26504368 -0.021546364
0.026101213 0.26503867 -0.021543503
0.026611213 -0.31464726 0.03681469
0.026565213 -0.26254934 0.031570435
0.014542215 0.11594671 -0.0065302849
0.014506213 0.14976972 -0.009935379
0.014465213 0.18904871 -0.013889313
0.014941216 -0.2625683 0.031576633
0.014761217 -0.092343271 0.014439583
0.008695215 0.11593872 -0.0065274239
0.0085592121 0.23515171 -0.018529415
0.0088842139 -0.049975336 0.010174751
0.0091872141 -0.31467825 0.036824703
-0.0029967874 0.11592168 -0.0065226555
-0.0028347895 -0.0069103241 0.0058436394
-0.0026457831 -0.15010935 0.02025938
-0.009009786 0.2351287 -0.018522263
-0.0086697862 -0.0069212914 0.0058465004
-0.008309789 -0.26261824 0.031587601
-0.014687784 0.11590171 -0.0065174103
-0.014796786 0.1890077 -0.013876438
-0.014865786 0.2351197 -0.018518448
-0.014439784 -0.050019324 0.010187626
-0.014376789 -0.092399299 0.014452457
-0.020723782 0.2351107 -0.018517494
-0.020771787 0.2649827 -0.021523476
-0.020398788 0.029453695 0.0021886826
-0.019854784 -0.31475025 0.036837578
-0.026381783 0.11587971 -0.0065112114
-0.026580788 0.23510069 -0.018514633
-0.026300788 0.067229688 -0.0016145706
-0.025847785 -0.20378429 0.025669575
-0.032287784 0.14969468 -0.0099134445
-0.032142788 0.067217708 -0.0016102791
-0.038209789 0.18896472 -0.013865471
-0.037375785 -0.26270026 0.031604767
-0.037484787 -0.20381826 0.025676727
-0.037690789 -0.092457354 0.014467716
-0.043922789 0.11584169 -0.0065026283
-0.043090783 -0.31482428 0.03685379
-0.043520786 -0.092474282 0.014469624
-0.050071783 0.26492971 -0.021510601
-0.049671791 0.067175686 -0.0016002655
-0.049123786 -0.20385534 0.025684357
-0.049232788 -0.15023226 0.02028656
-0.049348779 -0.092491329 0.014472485
-0.055616789 0.11581272 -0.0064964294
-0.05577179 0.1889267 -0.013856411
-0.061791785 0.26490569 -0.021504402
-0.061274789 0.029350698 0.0022106171
-0.060761787 -0.20389634 0.025691509
-0.067311786 0.11578172 -0.0064892769
-0.06693279 -0.050163329 0.010215759
-0.067114793 0.029333711 0.0022125244
-0.066703789 -0.15029234 0.020296574
-0.073334791 0.18888372 -0.013846397
-0.072869785 -0.0070883036 0.0058817863
-0.073514782 0.26487869 -0.021498203
-0.079188786 0.18886769 -0.01384449
-0.078600787 -0.05020231 0.010223389
-0.079375781 0.26486468 -0.021494389
-0.078354783 -0.15033633 0.02030468
-0.078496791 -0.092590272 0.014491558
-0.085161783 0.23497272 -0.018483639
-0.085237779 0.26485068 -0.021491528
-0.083892785 -0.26288027 0.031635761
-0.091098793 0.2648347 -0.021488667
-0.089570783 -0.31501931 0.036886692
-0.089707784 -0.26290625 0.03164053
-0.089862786 -0.20401436 0.025710583
-0.096104793 -0.050268352 0.010235786
-0.096221782 -0.0071713328 0.0058965683
-0.096423782 0.067033708 -0.0015735626
-0.09552478 -0.26293331 0.031645775
-0.10261079 0.18879968 -0.013830662
-0.10715679 -0.26299125 0.031654358
-0.11446079 0.23488867 -0.018467426
-0.11281679 -0.31513935 0.036905766
-0.11297279 -0.26302129 0.031659603
-0.12017878 0.1887427 -0.013819218
-0.12618279 0.23485172 -0.01845932
-0.12627777 0.26473367 -0.021468639
-0.12565178 0.066923678 -0.0015535355
-0.12460778 -0.26308435 0.031669617
-0.13025579 -0.31523925 0.036920547
-0.13061678 -0.20421535 0.025743484
-0.13775179 0.1886797 -0.013807297
-0.13721877 0.029069722 0.002260685
-0.13734478 0.066874683 -0.0015444756
-0.13661879 -0.15060633 0.020348549
-0.14264378 -0.092875302 0.014539719
-0.14973578 0.26465571 -0.021452427
-0.14890778 0.029016674 0.0022697449
-0.15549278 0.23474771 -0.018439293
-0.15560079 0.26463467 -0.021448612
-0.15475178 0.028988719 0.0022745132
-0.16091579 0.11544371 -0.0064272881
-0.16104078 0.14928669 -0.0098352432
-0.16135579 0.23472571 -0.018436432
-0.1593248 -0.31542426 0.036948681
-0.16676781 0.11541671 -0.006424427
-0.16689581 0.14926171 -0.0098304749
-0.1657618 -0.15077227 0.020373344
-0.17308179 0.2346797 -0.018428326
-0.17095479 -0.31550533 0.036959648
-0.1784758 0.11536169 -0.0064144135
-0.17860979 0.14920872 -0.0098223686
-0.17798978 -0.0075502992 0.0059604645
-0.17813379 0.028869689 0.0022935867
-0.18432981 0.11533368 -0.0064105988
-0.18462479 0.18848872 -0.013775349
-0.1848118 0.23463172 -0.018420219
-0.1836578 -0.050699294 0.010304451
-0.18383279 -0.0075833201 0.005964756
-0.18279779 -0.26345426 0.031722546
-0.18303579 -0.20453531 0.025791645
-0.19018379 0.1153037 -0.0064053535
-0.19048581 0.18846172 -0.01377058
-0.19067681 0.23460668 -0.018415451
-0.1894978 -0.050734341 0.01031065
-0.1960378 0.11527467 -0.0064005852
-0.19583279 0.066590726 -0.0014996529
-0.19491479 -0.15095931 0.020400524
-0.20189479 0.11524469 -0.00639534
-0.20026278 -0.26358336 0.031740665
-0.20051679 -0.20465833 0.025808334
-0.20074779 -0.15099829 0.020407677
-0.2078988 0.14906567 -0.0097994804
-0.20840579 0.26442367 -0.021412373
-0.2065798 -0.1510393 0.020413399
-0.21375778 0.14903569 -0.0097932816
-0.21286079 -0.050880253 0.010331631
-0.21305481 -0.0077573061 0.0059905052
-0.21217078 -0.20474428 0.025821686
-0.21241179 -0.15108126 0.020419598
-0.2196168 0.1490047 -0.0097894669
-0.21979681 0.1883207 -0.013746262
-0.22000781 0.23447371 -0.018392563
-0.21923879 0.066457689 -0.001478672
-0.21850878 -0.093336284 0.01460743
-0.22565979 0.18829072 -0.013742447
-0.22587478 0.23444569 -0.018388271
-0.23117679 0.11508268 -0.0063705444
-0.23133779 0.14894068 -0.0097794533
-0.23038879 -0.050998271 0.010348797
-0.2309458 0.066387713 -0.0014672279
-0.2291308 -0.31596631 0.037023544
-0.22937879 -0.26381534 0.031773567
-0.2296578 -0.20487934 0.025840759
-0.22991279 -0.15121025 0.020436764
-0.2301878 -0.0934183 0.01461935
-0.23520279 -0.26386529 0.03178072
-0.2357468 -0.15125531 0.020443439
-0.2428928 0.11501467 -0.0063595772
-0.24325278 0.18819672 -0.013727665
-0.24207479 -0.051080287 0.010360718
-0.24077079 -0.31607026 0.037036419
-0.24875179 0.11497867 -0.0063533783
-0.2491188 0.18816471 -0.01372242
-0.24685279 -0.26396626 0.031793594
-0.2477068 -0.093548357 0.01463747
-0.2552208 0.23429573 -0.018365383
-0.2526798 -0.26401836 0.031800747
-0.25297979 -0.20507234 0.025865555
-0.26047179 0.11490667 -0.0063433647
-0.2606478 0.1487717 -0.0097522736
-0.2602188 0.066200674 -0.0014405251
-0.25850579 -0.26407129 0.031807423
-0.2588118 -0.20512325 0.025872707
-0.2590898 -0.15144235 0.020469666
-0.25938979 -0.093639314 0.014650345
-0.26568279 -0.0081152916 0.0060415268
-0.2643328 -0.26412529 0.031814575
-0.26464379 -0.20517427 0.025879383
-0.26523179 -0.093685329 0.01465559
-0.27219281 0.11483067 -0.0063323975
-0.27870479 0.23416668 -0.018344402
-0.27738279 -0.0082023144 0.0060544014
-0.2777878 0.066080689 -0.0014233589
-0.27598679 -0.26423532 0.031829357
-0.2829968 -0.051392257 0.010404587
-0.28323579 -0.0082473159 0.0060596466
-0.29019079 0.1879217 -0.013686657
-0.28884378 -0.051440299 0.010410786
-0.29061979 0.26401269 -0.021346569
-0.28764579 -0.26434928 0.031843662
-0.2949388 -0.0083392859 0.0060734749
-0.2938118 -0.20544332 0.025915623
-0.29444981 -0.09392935 0.014688492
-0.30150479 0.11463171 -0.0063042641
-0.30736879 0.1145907 -0.0062975883
-0.30756879 0.14846772 -0.0097103119
-0.30664378 -0.0084342957 0.00608778
-0.30708179 0.065866709 -0.0013933182
-0.30482778 -0.31670827 0.037119389
-0.31367278 0.18777072 -0.013663292
-0.31198779 -0.094085276 0.014710426
-0.31954479 0.18773168 -0.013659477
-0.31809178 -0.051689327 0.010443687
-0.32000679 0.26384068 -0.021320343
-0.31783378 -0.094138324 0.014717579
-0.32443279 0.027877688 0.0024366379
-0.33157879 0.2338447 -0.018298626
-0.33052778 0.065683722 -0.0013685226
-0.32952878 -0.094248354 0.014731407
-0.33716479 0.18761069 -0.013641357
-0.33592179 -0.0086833239 0.0061206818
-0.33639279 0.065635681 -0.0013623238
-0.34333581 0.23376667 -0.018286228
-0.3417778 -0.0087363124 0.0061273575
-0.33979779 -0.31710535 0.037171364
-0.34891379 0.1875267 -0.013629436
-0.3467018 -0.1522643 0.020577431
-0.3552908 0.26361769 -0.021286488
-0.35373381 0.027626693 0.0024695396
-0.3518028 -0.26504225 0.031932354
-0.36040178 0.14807969 -0.0096545219
-0.36604679 0.11413872 -0.0062355995
-0.3652128 -0.0089513063 0.0061554909
-0.3654598 0.02752167 0.0024847984
-0.36347678 -0.26518029 0.03194952
-0.3642408 -0.15245134 0.020602703
-0.37242079 0.1873517 -0.01360321
-0.37158281 0.065337718 -0.0013213158
-0.3697198 -0.20624632 0.026019573
-0.37663379 -0.052245319 0.010517597
-0.3747898 -0.31753629 0.037223339
-0.3841778 0.1872617 -0.01359129
-0.38249078 -0.052305281 0.010525703
-0.3827948 -0.0091212988 0.0061783791
-0.38953578 0.1139397 -0.0062084198
-0.38977778 0.14784372 -0.0096225739
-0.38865879 -0.0091792941 0.0061855316
-0.3876358 -0.15271229 0.020634651
-0.3964878 0.26333272 -0.021246433
-0.39348578 -0.15277928 0.020643711
-0.4012838 0.11383671 -0.0061945915
-0.4021568 0.23334569 -0.01822567
-0.40006879 -0.052488267 0.010549545
-0.39975879 -0.094971359 0.014826775
-0.4059298 -0.052551329 0.010557652
-0.40679878 0.065013707 -0.0012784004
-0.40518779 -0.15291625 0.0206604
-0.40561581 -0.095036328 0.01483345
-0.4130348 0.11373067 -0.0061802864
-0.41358379 0.18702471 -0.013559341
-0.41211379 -0.0094183087 0.006216526
-0.4101958 -0.2657693 0.03202343
-0.4114728 -0.095102251 0.01484251
-0.41916978 0.14759171 -0.0095872879
-0.41946781 0.18697572 -0.013552666
-0.41798079 -0.0094792843 0.0062246323
-0.42593479 0.26311368 -0.021216393
-0.4297148 -0.0096052885 0.0062403679
-0.42732382 -0.31824833 0.0373106
-0.42818582 -0.20696431 0.026109695
-0.43681282 0.14743268 -0.0095663071
-0.44242877 0.11345571 -0.0061445236
-0.44361377 0.26297671 -0.021197319
-0.44174176 0.026769698 0.00258255
-0.44031477 -0.15334731 0.02071476
-0.44697577 -0.053012311 0.010615349
-0.44950682 0.26292968 -0.021190643
-0.45418978 0.11334068 -0.0061292648
-0.4547838 0.18666768 -0.013511658
-0.45515877 0.23291969 -0.018169403
-0.45653582 -0.31867629 0.037362576
-0.45744681 -0.20735627 0.026155472
-0.46694481 0.23281968 -0.018154621
-0.46457779 -0.053221285 0.010641575
-0.46237981 -0.31876534 0.037373543
-0.46281177 -0.26650125 0.032113552
-0.47245377 0.18650669 -0.0134902
-0.47801179 0.14704168 -0.0095143318
-0.47668278 -0.010135293 0.0063066483
-0.47501379 -0.20760232 0.026186466
-0.48389977 0.14698267 -0.0095062256
-0.4828698 0.026315689 0.0026397705
-0.47991979 -0.31903726 0.037406445
-0.48805982 -0.053510249 0.010677338
-0.48843277 -0.010275304 0.0063247681
-0.48907477 0.064165711 -0.001168251
-0.48576677 -0.31912929 0.037416458
-0.48769277 -0.096035302 0.014958382
-0.49568081 0.14686471 -0.0094914436
-0.4939338 -0.053584278 0.010686398
-0.49207282 -0.2669403 0.032164574
-0.50232679 0.23250473 -0.018112659
-0.49892181 -0.15413326 0.020810604
-0.5071618 0.11279368 -0.0060596466
-0.5063898 0.02603972 0.0026745796
-0.50430781 -0.20802933 0.026237488
-0.51227182 0.025969684 0.0026836395
-0.50963777 -0.26721531 0.032197475
-0.51065278 -0.15430027 0.020831585
-0.51743078 -0.053889334 0.010724545
-0.51782382 -0.010638297 0.0063705444
-0.51849878 0.063830674 -0.0011253357
-0.52438778 0.063761711 -0.0011172295
-0.5208748 -0.31970531 0.0374856
-0.52135378 -0.2674033 0.03221941
-0.52189577 -0.20829636 0.02627039
-0.52291977 -0.096511304 0.015016556
-0.53140682 0.18593067 -0.013414383
-0.53183478 0.23222667 -0.018074512
-0.52918679 -0.054046333 0.010743618
-0.52825677 -0.15455729 0.020861626
-0.5287928 -0.09659332 0.015026569
-0.53730679 0.18586969 -0.013405323
-0.53506482 -0.054125249 0.010753632
-0.53546977 -0.010864317 0.0063986778
-0.53362381 -0.20847827 0.02629137
-0.53412682 -0.15464526 0.020872593
-0.54364377 0.23211169 -0.018060207
-0.54205477 0.063550711 -0.0010924339
-0.5384388 -0.32000536 0.037520409
-0.54054379 -0.096760333 0.01504755
-0.54841179 0.11233169 -0.0060005188
-0.54682678 -0.054287255 0.010773659
-0.54758579 0.025531709 0.0027384758
-0.5442968 -0.32010728 0.03753376
-0.55501378 0.18568367 -0.013382435
-0.55383879 0.063406706 -0.0010733604
-0.55015481 -0.32021028 0.037545681
-0.55122477 -0.20875829 0.026325703
-0.55174178 -0.15491229 0.020904541
-0.55973178 0.06333369 -0.0010633469
-0.55601281 -0.3203153 0.037557602
-0.55761582 -0.15500325 0.020914555
-0.56643581 0.1461007 -0.0093932152
-0.56682181 0.18555671 -0.013365269
-0.56447381 -0.054535329 0.010803699
-0.56756878 0.2618807 -0.021050453
-0.56296277 -0.20894927 0.026348591
-0.56348979 -0.15509433 0.020926476
-0.57200277 0.11205369 -0.0059652328
-0.5727278 0.18549269 -0.013358593
-0.56773281 -0.3205263 0.037582397
-0.56936479 -0.15518731 0.020937443
-0.56993681 -0.09719032 0.015098572
-0.57790482 0.1119827 -0.0059566498
-0.57741779 0.063109696 -0.0010352135
-0.57470578 -0.20914429 0.026370525
-0.5838058 0.11191171 -0.0059475899
-0.58454376 0.18536168 -0.013342381
-0.58256578 -0.011501312 0.0064764023
-0.58293277 0.025067687 0.0027947426
-0.57945782 -0.32074028 0.03760767
-0.58111978 -0.15537435 0.020959377
-0.59005177 0.1458267 -0.0093593597
-0.58845681 -0.011584282 0.0064854622
-0.58645177 -0.2093423 0.026394367
-0.58699781 -0.15546936 0.020971775
-0.58758581 -0.097458303 0.015131474
-0.5956108 0.11176568 -0.0059304237
-0.59118581 -0.32095927 0.037633419
-0.59287679 -0.15556532 0.020981789
-0.60151678 0.11169267 -0.0059204102
-0.60227382 0.18516171 -0.013315201
-0.59935677 -0.097641289 0.015152454
-0.60777479 0.14561468 -0.0093326569
-0.60898077 0.26146269 -0.020997524
-0.60651779 0.024744689 0.0028333664
-0.60691279 0.062723696 -0.00098848343
-0.6133278 0.1115427 -0.0059013367
-0.62050277 0.23131073 -0.017956257
-0.6179288 -0.012009323 0.0065374374
-0.61465478 -0.32140929 0.037684441
-0.61583477 -0.20985335 0.026453495
-0.62382579 -0.012096286 0.0065484047
-0.62674278 0.26127672 -0.020972252
-0.63105381 0.11131471 -0.0058732033
-0.63184482 0.18481672 -0.013272285
-0.62880081 -0.098111331 0.015209675
-0.63733381 0.14524871 -0.0092873573
-0.63347781 -0.21017128 0.026491642
-0.63871378 -0.26948434 0.032464504
-0.63936079 -0.21027833 0.026503563
-0.64694881 -0.055784285 0.010953426
-0.64783078 0.024151683 0.0029053688
-0.64401382 -0.32199234 0.037752628
-0.64647877 -0.098403275 0.01524353
-0.65508282 0.14502168 -0.0092606544
-0.6533308 -0.012543321 0.0066027641
-0.65173078 -0.15657026 0.021100521
-0.66144282 0.18445671 -0.013227463
-0.65923482 -0.012635291 0.0066137314
-0.66653478 0.11083972 -0.005815506
-0.66788882 0.23077172 -0.017888546
-0.66513979 -0.012728274 0.0066256523
-0.66290379 -0.21071726 0.026555538
-0.66351277 -0.15678233 0.021125793
-0.66416878 -0.098703325 0.015278339
-0.67283982 0.14478868 -0.0092315674
-0.6738168 0.23070168 -0.017879486
-0.66752177 -0.32247633 0.037806511
-0.67006677 -0.098804295 0.015291691
-0.67974579 0.2306307 -0.01787138
-0.6764558 -0.056266248 0.011012554
-0.67695278 -0.012915313 0.0066466331
-0.68009079 0.26068771 -0.020897388
-0.67780882 0.061727703 -0.00086641312
-0.68567777 0.23055971 -0.01786232
-0.68372577 0.06164068 -0.00085735321
-0.67988878 -0.27030128 0.032557487
-0.69021177 0.11050969 -0.0057754517
-0.6916098 0.23048872 -0.01785326
-0.6919598 0.26055068 -0.020880222
-0.68964177 0.061552703 -0.00084638596
-0.6857748 -0.27042133 0.032572746
-0.68646479 -0.21117133 0.026607513
-0.69511276 0.023430705 0.00299263
-0.69367278 -0.099218309 0.015339375
-0.70059478 -0.013298333 0.0066914558
-0.70383078 0.26041168 -0.020861626
-0.70147777 0.061373711 -0.00082445145
-0.69825178 -0.21140331 0.026634693
-0.7094118 0.23027068 -0.017826557
-0.70650882 -0.013396323 0.0067033768
-0.7028178 -0.32323235 0.037893772
-0.71534878 0.23019671 -0.017817497
-0.7119028 -0.056872308 0.011081696
-0.71570981 0.26027071 -0.02084446
-0.70870382 -0.32336229 0.037908554
-0.70933276 -0.27091235 0.03262949
-0.72024578 0.14414167 -0.0091514587
-0.72072381 0.18369168 -0.013133526
-0.71594179 -0.21175736 0.026675701
-0.71729779 -0.099644244 0.015388489
-0.72722477 0.23004669 -0.017798424
-0.7275908 0.26012772 -0.02082634
-0.72320682 -0.09975332 0.015402794
-0.72964078 -0.057185352 0.011117458
-0.73108977 0.060915709 -0.00077056885
-0.7291168 -0.099862278 0.015414715
-0.73853278 0.1834507 -0.013103485
-0.73364377 -0.21212035 0.026716709
-0.73502982 -0.099973261 0.015428543
-0.74397779 0.1438027 -0.0091114044
-0.74504882 0.2298187 -0.01777029
-0.74147278 -0.057397306 0.011143684
-0.7402178 -0.15823835 0.021294594
-0.74094182 -0.10008425 0.015440464
-0.75040978 0.18328768 -0.013083458
-0.75099277 0.22974169 -0.017759323
-0.74839479 0.022565722 0.0030956268
-0.7554208 0.1095497 -0.0056595802
-0.75585079 0.14362872 -0.0090904236
-0.75635082 0.18320471 -0.013073444
-0.75060481 -0.27180725 0.032730579
-0.7617898 0.14354169 -0.0090794563
-0.7622928 0.18312168 -0.013063431
-0.76288378 0.22958571 -0.01774025
-0.75650579 -0.27193934 0.032746792
-0.75725979 -0.21261626 0.026773453
-0.75868678 -0.10042232 0.015479565
-0.76823777 0.1830377 -0.013053417
-0.76921779 0.2596097 -0.020762444
-0.76386082 -0.15871531 0.021350384
-0.7732318 0.10927469 -0.0056262016
-0.77516979 0.2595337 -0.02075243
-0.76977479 -0.15883631 0.021363735
-0.78073078 0.22934771 -0.017711639
-0.77803981 0.022059679 0.003156662
-0.78668278 0.2292667 -0.017701626
-0.78707677 0.25937968 -0.020733356
-0.77943581 -0.32499129 0.038093567
-0.78089881 -0.21312732 0.026832581
-0.78942478 -0.014841318 0.0068745613
-0.79303277 0.25930172 -0.020724297
-0.79744977 0.14300269 -0.0090155602
-0.79797477 0.18260968 -0.013001442
-0.79478079 -0.058392346 0.011259556
-0.79124379 -0.32527632 0.038127422
-0.8012898 -0.015060306 0.0068984032
-0.79784977 -0.27288836 0.03285265
-0.80934578 0.14281869 -0.008992672
-0.81149679 0.30293369 -0.025111675
-0.80771679 0.021535695 0.0032176971
-0.80305481 -0.32556528 0.038158417
-0.80375981 -0.27302629 0.03287077
-0.81483477 0.10860872 -0.0055475235
-0.81529582 0.14272571 -0.0089812279
-0.81583178 0.18234468 -0.012970448
-0.81199378 -0.10148031 0.015602589
-0.82124978 0.14263171 -0.0089702606
-0.82178879 0.18225569 -0.012958527
-0.81909877 -0.015393317 0.0069365501
-0.81713277 -0.15983826 0.021478653
-0.82720178 0.14253771 -0.0089583397
-0.82553977 0.021212697 0.0032544136
-0.8260628 0.059334695 -0.00058221817
-0.82305777 -0.15996832 0.021493435
-0.83315676 0.14244169 -0.0089483261
-0.8343448 0.22860169 -0.017622471
-0.83475977 0.25874168 -0.020654202
-0.83536577 0.30263072 -0.025073528
-0.83148378 0.02110368 0.003267765
-0.8289848 -0.16009825 0.021508694
-0.8391118 0.14234668 -0.0089354515
-0.8363148 -0.05921036 0.011353493
-0.84072679 0.25865972 -0.020645618
-0.84507078 0.1422497 -0.0089254379
-0.84669578 0.25857669 -0.020635605
-0.84390879 0.059018672 -0.00054550171
-0.84008777 -0.21446735 0.026984692
-0.85158682 0.18179971 -0.012905598
-0.85650676 0.10791069 -0.0054645538
-0.8592568 0.30231971 -0.025035381
-0.85527182 0.020659685 0.0033187866
-0.8629508 0.14195669 -0.0088906288
-0.86351579 0.18161368 -0.012881279
-0.86417878 0.22816771 -0.017568588
-0.86122179 0.020546675 0.0033316612
-0.8617658 0.058695674 -0.00050735474
-0.85787082 -0.21488625 0.027032375
-0.8712098 0.30216169 -0.025015354
-0.86717379 0.020433724 0.0033445358
-0.8754518 0.18142468 -0.012860298
-0.87719077 0.3020817 -0.025005341
-0.87135482 -0.10273427 0.01574564
-0.8831718 0.3020007 -0.024995327
-0.8756668 -0.21531433 0.027080536
-0.88681281 0.14155769 -0.0088434219
-0.88739181 0.1812337 -0.01283741
-0.88851178 0.25798368 -0.020563602
-0.88559681 0.058255672 -0.00045633316
-0.88073379 -0.27492434 0.033082485
-0.89278179 0.14145672 -0.008831501
-0.90291882 0.01973772 0.0034265518
-0.90348577 0.057918668 -0.00041627884
-0.90703881 -0.10352629 0.015835762
