# .PCD v0.7 - Point Cloud Data file format
VERSION 0.7
FIELDS x y z
SIZE 4 4 4
TYPE F F F
COUNT 1 1 1
WIDTH 1
HEIGHT 1024
VIEWPOINT 0 0 0 1 0 0 0
POINTS 1024
DATA ascii
0.44076425 -0.56256354 0.39694643
0.42394423 -0.61576056 0.48035526
0.42886525 -0.55937946 0.40908432
0.44040623 -0.42715752 0.24194241
0.43015724 -0.47387052 0.30918455
0.43753725 -0.38812149 0.20092869
0.44104925 -0.27293146 0.063995361
0.43838423 -0.22848451 0.016498566
0.42214024 -0.42270052 0.26106739
0.42527524 -0.38521254 0.21385956
0.43207425 -0.22716153 0.023355484
0.43991724 -0.13201046 -0.09631443
0.42228323 -0.2688545 0.084222317
0.39932624 -0.55149055 0.43923044
0.41306725 -0.3823185 0.22673941
0.44249925 0.062989473 -0.32365036
0.41949224 -0.22452545 0.037027359
0.39772823 -0.4964875 0.37819338
0.42709324 -0.12953651 -0.08213377
0.43109024 -0.079584479 -0.14479446
0.40698025 -0.38087654 0.23316336
0.41322225 -0.22321248 0.043841362
0.41710725 -0.17391753 -0.017918587
0.39180124 -0.49496353 0.38431025
0.42070323 -0.12830448 -0.075066566
0.42108023 -0.040079474 -0.17687368
0.38174424 -0.54680645 0.45718765
0.41819724 -0.077212453 -0.13040638
0.44006824 0.29416847 -0.58587551
0.42264023 0.0661515 -0.30092239
0.40072224 -0.22059846 0.057429314
0.40796423 -0.12585151 -0.060976505
0.38594824 -0.41389346 0.29899025
0.42784524 0.22395349 -0.4890275
0.39126924 -0.26213348 0.11766768
0.40536124 -0.074853539 -0.11608076
0.41509825 0.1442045 -0.38053846
0.40170524 -0.036644459 -0.15510035
0.40947324 0.068244517 -0.28585052
0.43848225 0.45994347 -0.77412271
0.38103625 -0.31574249 0.19280767
0.41431424 0.2257365 -0.47311544
0.37495425 -0.31436956 0.19930267
0.35799825 -0.61246157 0.48896027
0.37073123 -0.37230849 0.27143669
0.42439225 0.46122748 -0.7568965
0.42692223 0.4965125 -0.80076933
0.35672125 -0.69541454 0.41673136
0.35864124 -0.45587456 0.38343668
0.36206624 -0.40809953 0.32403326
0.38246024 -0.03323853 -0.13346958
0.40583625 0.29825652 -0.54513645
0.41985923 0.49711248 -0.79208469
0.36669323 -0.25682151 0.14418554
0.35121223 -0.69530451 0.41682625
0.34710523 -0.61225355 0.48914051
0.36970425 -0.21412456 0.091163635
0.37635726 -0.11977649 -0.026001453
0.35612723 -0.40666056 0.33026361
0.35874924 -0.36948347 0.28409529
0.38856524 0.14806652 -0.34975672
0.41281024 0.49771148 -0.78341675
0.35678324 -0.31027055 0.21871328
0.36058024 -0.25550151 0.15078545
0.34570125 -0.69519651 0.41692066
0.36693424 -0.16387355 0.037139416
0.38446924 0.18568349 -0.38751554
0.38938725 0.25782847 -0.4768815
0.39225325 0.2998755 -0.52896738
0.37449625 0.039393485 -0.20630074
0.37681624 0.073425472 -0.24845648
0.40044925 0.42009449 -0.67788649
0.40338326 0.46313852 -0.73120737
0.40578124 0.4983075 -0.77477264
0.35075125 -0.30891156 0.22515869
0.33899024 -0.48143053 0.43886232
0.36718524 -0.067853451 -0.073449612
0.34681424 -0.36667252 0.29670858
0.37538925 0.14998049 -0.33446741
0.36333925 -0.029860497 -0.11197138
0.38267225 0.25867647 -0.46894455
0.36805025 0.04045248 -0.19896173
0.37032825 0.074453473 -0.24102545
0.39641425 0.46377248 -0.72268438
0.40172523 0.5430395 -0.82075262
0.32962924 -0.53296947 0.51046848
0.36882323 0.1509335 -0.3268466
0.36385524 0.075477481 -0.23361254
0.38384625 0.37911052 -0.6087923
0.38946223 0.46440351 -0.71418142
0.32917926 -0.69488251 0.41719055
0.32389623 -0.53145254 0.51633549
0.34512523 -0.20900846 0.11790943
0.34834126 -0.16016352 0.057556629
0.36463624 0.18843651 -0.3643527
0.36928925 0.2603665 -0.45312166
0.37200025 0.30228651 -0.50485659
0.37509724 0.35017651 -0.56395531
0.38252625 0.46503347 -0.7057004
0.33273223 -0.30485654 0.24441624
0.33626324 -0.25026155 0.17704153
0.34217024 -0.15893352 0.064333439
0.34828424 -0.064396501 -0.052332401
0.35805425 0.18934852 -0.35666466
0.36527824 0.30308551 -0.49685144
0.37782824 0.50067747 -0.74039268
0.38062224 0.54466748 -0.79461145
0.32674924 -0.3035115 0.25081348
0.31816626 -0.69468153 0.41736364
0.33291325 -0.20647049 0.13120556
0.32074124 -0.3981055 0.36740541
0.32309124 -0.36109555 0.32178926
0.34727526 0.12269652 -0.2658267
0.34452125 0.078534484 -0.21145964
0.36155424 0.35167348 -0.54769945
0.32986525 -0.15648353 0.077852249
0.33575025 -0.062108517 -0.03832674
0.34080523 0.12366849 -0.25835466
0.35480723 0.35241848 -0.53959942
0.30715823 -0.69448745 0.41753054
0.30107623 -0.52542055 0.53969669
0.32373324 -0.15526354 0.084589481
0.30431023 -0.47258246 0.47473145
0.30904123 -0.39528346 0.37969351
0.32967225 0.046744466 -0.1552496
0.34807524 0.35316151 -0.53151941
0.30165523 -0.69439256 0.4176116
0.32790825 0.1256035 -0.2434597
0.32332423 0.047782481 -0.14801645
0.29738826 -0.39247656 0.39193535
0.32148224 0.12656748 -0.23603535
0.32950023 0.26537752 -0.40606833
0.33635923 0.38411248 -0.55150747
0.34124926 0.46877247 -0.65520954
0.34578824 0.5473485 -0.75145531
0.30016226 -0.24250448 0.21604967
0.28724125 -0.61122251 0.49002838
0.31682125 0.1584605 -0.26647139
0.32292223 0.26620448 -0.39828539
0.30049923 -0.018802524 -0.041265488
0.30623525 0.084570467 -0.16757536
0.32293326 0.38552248 -0.53530645
0.32762125 0.4700045 -0.63853455
0.29847324 -0.055317521 0.0033526421
0.31206825 0.30939347 -0.43347359
0.29807425 0.05190748 -0.11924076
0.28964323 -0.10320449 0.070056438
0.27422425 -0.3869065 0.41628456
0.30177423 0.24047852 -0.34067774
0.29008824 0.020883501 -0.073017597
0.29179424 0.052931488 -0.11208248
0.29358324 0.086560488 -0.15307045
0.31821823 0.54946446 -0.71729136
0.27634326 -0.23740256 0.24180365
0.27858824 -0.19521952 0.19038725
0.28615224 -0.053078532 0.017133236
0.29675624 0.26948851 -0.36732864
0.31374025 0.5955655 -0.76428461
0.26760024 -0.29026055 0.3141017
0.27041924 -0.23613548 0.24820948
0.27513424 -0.14562154 0.13802052
0.26271024 -0.38414252 0.42839241
0.28662923 0.19921452 -0.2731967
0.27574024 -0.014463544 -0.013385773
0.29025224 0.27030349 -0.35963249
0.29839423 0.43008649 -0.55390739
0.26037323 -0.76830852 0.3532443
0.25765026 -0.6936965 0.41821241
0.25462323 -0.61074245 0.49044228
0.27388525 -0.050852537 0.030857563
0.27842325 0.1639955 -0.22186661
0.28236124 0.24300647 -0.31781673
0.28376225 0.27111548 -0.35195065
0.28817925 0.35975349 -0.45959044
0.24583524 -0.51680255 0.57223749
0.27207226 0.16490948 -0.21448374
0.27728525 0.27192652 -0.34428549
0.26681525 0.057000518 -0.083600521
0.28711224 0.47365749 -0.5889616
0.29090723 0.55155551 -0.68344355
0.25476724 -0.19030547 0.21635962
0.25929123 -0.097436547 0.10371828
0.26427424 0.1351195 -0.1699295
0.26948923 0.24468046 -0.30265331
0.25908524 0.026105464 -0.037865639
0.27082425 0.27273446 -0.33663654
0.24427524 -0.28505754 0.33908558
0.25326025 -0.096292496 0.11041069
0.23982024 -0.37865853 0.45247555
0.26307523 0.2455135 -0.29509735
0.25119123 -0.010172486 0.014267445
0.25596124 0.092463493 -0.10991573
0.27177525 0.43267751 -0.52155161
0.23815824 -0.76798451 0.35352468
0.22974925 -0.51660347 0.57240725
0.24293125 -0.18786752 0.22927046
0.23194124 -0.42431152 0.51535463
0.23412624 -0.37729657 0.45846748
0.24973923 0.093437493 -0.10277557
0.27264723 0.5983845 -0.71297741
0.26327324 0.39176852 -0.46329451
0.23268424 -0.28247654 0.35150623
0.22438924 -0.51653945 0.57246351
0.23703124 -0.18665445 0.23570728
0.22497225 -0.45246255 0.55692959
0.24123424 -0.094013453 0.12375355
0.22844425 -0.37593746 0.46445036
0.26737624 0.63321251 -0.74597263
0.26194224 0.5104385 -0.59778547
0.22928824 -0.22735846 0.29272461
0.22467324 -0.69324553 0.41859961
0.22202525 -0.61031747 0.49080658
0.21902925 -0.51647854 0.57251549
0.22277224 -0.37458253 0.47042131
0.24207625 0.20533448 -0.22109175
0.25018024 0.39313447 -0.44748545
0.21868724 -0.33671045 0.43235731
0.23756024 0.24882251 -0.26503277
0.22841224 0.031255484 -0.0030684471
0.24046224 0.3178345 -0.34812355
0.22974825 0.063018501 -0.041314602
0.25231624 0.59977448 -0.6875906
0.24365725 0.3938145 -0.43960762
0.24539825 0.43523949 -0.48948336
0.21368325 -0.69310856 0.41871643
0.21146224 -0.37188256 0.48233223
0.21299624 -0.33538949 0.43839359
0.22231725 0.032276511 0.003847599
0.23884225 0.43587452 -0.48151159
0.20963924 -0.27735448 0.37621069
0.20390624 -0.41738451 0.54460859
0.22319324 0.20792049 -0.1989975
0.22599824 0.27832848 -0.28356457
0.23065424 0.3951695 -0.42390347
0.23704924 0.55566347 -0.61667538
0.20019725 -0.36919653 0.49420166
0.21857125 0.25128049 -0.24264956
0.19818524 -0.27481353 0.38849449
0.19930124 -0.7674855 0.35395145
0.19720425 -0.69291556 0.41888142
0.21227024 0.25209451 -0.23522139
0.21926124 0.4377715 -0.45769835
0.19375224 -0.76742053 0.35400629
0.18721524 -0.41327155 0.56203842
0.20201324 0.14437246 -0.09791851
0.21020024 0.36828148 -0.36588335
0.22380525 0.71620148 -0.81117964
0.18622124 -0.69279552 0.41898441
0.18151924 -0.51608551 0.57285166
0.18059924 -0.44128549 0.60298634
0.18167324 -0.41190648 0.5678277
0.19362624 -0.085019469 0.17661333
0.19203225 0.037342489 0.038225651
0.20214224 0.32232851 -0.30242157
0.20482124 0.39785451 -0.39270163
0.20897225 0.51486647 -0.53256655
0.19076625 0.1765545 -0.11994267
0.18709925 0.069916487 0.007370472
0.20543124 0.60297251 -0.62903261
0.19740824 0.3696745 -0.35050249
0.20242025 0.51541245 -0.52449656
0.17541625 -0.26977253 0.41292429
0.17347524 -0.32623553 0.48033667
0.19992624 0.63741249 -0.66126966
0.19103125 0.37036848 -0.34283543
0.19474724 0.48193449 -0.47587347
0.19730324 0.5586825 -0.56738853
0.17156124 -0.76718152 0.35421228
0.16974725 -0.6926285 0.41912746
0.16545025 -0.51593852 0.57297564
0.17450424 -0.12580645 0.24882555
0.17960425 0.21387249 -0.14797735
0.18096624 0.25613451 -0.19831133
0.19677524 0.71728748 -0.78253365
0.16869424 -0.12466848 0.25523043
0.16803125 0.04134649 0.06548357
0.18662424 0.63823748 -0.64456367
0.18284924 0.5170415 -0.50039148
0.18417725 0.55967748 -0.55110836
0.16854124 0.25773346 -0.18365574
0.17999724 0.63864851 -0.63623857
0.18141624 0.68584549 -0.69231653
0.17635624 0.51758146 -0.49239349
0.15675424 -0.85011852 0.28199434
0.15567724 -0.16999447 0.32455254
0.15710825 -0.12240255 0.26800632
0.14776525 -0.43305051 0.63711023
0.15921924 0.1506995 -0.04838562
0.16009624 0.18092352 -0.08425045
0.16314724 0.28612947 -0.20910168
0.16432524 0.32674646 -0.25730276
0.17338324 0.63905752 -0.62793064
0.16567025 0.37312251 -0.31233835
0.17110924 0.5606665 -0.53490067
0.14720525 -0.26354253 0.44321346
0.15114424 -0.85006547 0.28203869
0.14778924 -0.69242847 0.41929865
0.14602624 -0.60954952 0.49146223
0.15400024 -0.029237509 0.16515446
0.14452425 -0.35597253 0.55290556
0.15315825 0.15159351 -0.041365623
0.15616724 0.25932449 -0.16905832
0.14913425 0.0075525045 0.12936544
0.15807125 0.32747549 -0.2498374
0.15195924 0.10866648 0.0095152855
0.17019925 0.71797848 -0.76449251
0.16341124 0.51865751 -0.47644758
0.14308324 -0.20908952 0.38615847
0.14230125 -0.69238245 0.41933823
0.14060025 -0.60950649 0.49150038
0.14424025 -0.16766453 0.33705568
0.14324324 0.0085704923 0.13601542
0.14423025 0.045306504 0.092525482
0.15074125 0.28766352 -0.1943984
0.15183124 0.32820249 -0.24239063
0.15307425 0.37448847 -0.29718733
0.16365524 0.71802247 -0.7634325
0.15494125 0.44397551 -0.37945271
0.15605325 0.48538148 -0.42847252
0.13854024 -0.16650355 0.34328938
0.13164024 -0.4305625 0.64731026
0.14099525 -0.075128555 0.23510933
0.14384924 0.26090652 -0.15452576
0.13996924 0.11052448 0.02329731
0.15052724 0.51972651 -0.46057272
0.15162124 0.5621385 -0.51072454
0.13041224 -0.25984347 0.46125555
0.13432024 -0.84991753 0.28216553
0.13274124 -0.76683056 0.35451269
0.12975124 -0.60942554 0.49156952
0.12896425 -0.31597352 0.52762747
0.13770925 0.26169449 -0.14728165
0.13240424 0.047270477 0.10596752
0.13939025 0.32965052 -0.22754145
0.14708525 0.64068353 -0.5948925
0.14824724 0.68762445 -0.65033245
0.14515424 0.56262648 -0.50270271
0.12615024 -0.20552051 0.40453434
0.12871324 -0.84987247 0.28220463
0.12583825 -0.6922555 0.41944647
0.12141024 -0.39712846 0.63084126
0.12255725 -0.35077751 0.57609844
0.13318925 0.3303715 -0.2201395
0.12724924 0.079544485 0.075751305
0.14165725 0.68797648 -0.64199257
0.12165225 -0.76674652 0.35458231
0.12150525 -0.16303957 0.36192226
0.11577425 -0.43046248 0.64739561
0.11709025 -0.34948754 0.58187056
0.12700324 0.33109051 -0.21275473
0.12133325 0.080492496 0.082513332
0.11610925 -0.76670754 0.35461664
0.11163425 -0.34819949 0.58763361
0.11396725 0.013617516 0.16908169
0.12083025 0.33180749 -0.2053833
0.12182324 0.37786847 -0.25959253
0.12331525 0.44701147 -0.34096241
0.12420326 0.48820752 -0.38944435
0.11056525 -0.76666951 0.35464764
0.10937625 -0.69214356 0.41954041
0.10655725 -0.51551449 0.5733366
0.11319925 -0.02194345 0.2109313
0.10619025 -0.34691548 0.5933857
0.11170025 0.18778849 -0.027899742
0.11384325 0.29221547 -0.1506505
0.11021025 0.11512351 0.057515621
0.10554225 -0.11234951 0.32490253
0.10643925 -0.068665504 0.27355051
0.10149425 -0.30966651 0.55684662
0.10304925 0.052135468 0.13934231
0.10852225 0.3332355 -0.19068766
0.11076125 0.44821447 -0.32568169
0.11156125 0.48932749 -0.37395048
0.11825225 0.76801348 -0.77745438
0.10067825 -0.84967256 0.28237343
0.098402247 -0.69207656 0.41959667
0.09720625 -0.60921955 0.49174261
0.095330253 -0.34435749 0.60486031
0.09721525 0.053100467 0.1459794
0.10894325 0.6897245 -0.6005764
0.09160725 -0.25132346 0.50297546
0.09393625 -0.76656747 0.35473537
0.089066252 -0.38923955 0.66471052
0.08991725 -0.3430835 0.61058044
0.090578251 -0.3071655 0.56846237
0.095096253 0.26714748 -0.096984386
0.09557125 0.2944625 -0.1289773
0.10163625 0.64348447 -0.53778553
0.098263249 0.44940948 -0.31046534
0.10526625 0.76786852 -0.78247452
0.086107247 -0.25011957 0.50889158
0.084513247 -0.34181249 0.61629438
0.087807253 0.19116551 -6.3419342e-05
0.084987253 0.018597484 0.20182562
0.08609125 0.0861305 0.12281847
0.091374248 0.40956849 -0.25557756
0.09270525 0.49099451 -0.35083866
0.079798251 -0.51538146 0.57344866
0.082920253 -0.10795748 0.34988356
0.078367248 -0.3866365 0.67592049
0.079120249 -0.34054446 0.62199736
0.079706252 -0.30467856 0.58003426
0.081408247 0.1621325 0.041766644
0.082401253 0.22704947 -0.034091473
0.079784252 0.055980504 0.16580725
0.084068254 0.3360675 -0.16148376
0.088272251 0.61089945 -0.48263264
0.086958252 0.52498049 -0.38223553
0.087600254 0.56695652 -0.43128252
0.077310249 -0.76648057 0.35480738
0.07646025 -0.69196355 0.41969252
0.075516254 -0.60911345 0.4918313
0.077293247 -0.10686648 0.35610056
0.073738247 -0.33928049 0.62768745
0.075934254 0.1928395 0.013773441
0.076433249 0.22785348 -0.027094364
0.073477253 0.020570517 0.2148366
0.073996253 0.056935489 0.17239332
0.083039246 0.69110453 -0.56777954
0.079618253 0.45119047 -0.28776455
0.080677249 0.5254975 -0.37449169
0.081275247 0.5674305 -0.4234333
0.071767248 -0.76645553 0.35482931
0.070092253 -0.60909057 0.49185038
0.069095246 -0.51533747 0.57348347
0.072973251 -0.014783502 0.25610161
0.068363249 -0.33801854 0.63337231
0.069622248 0.16385549 0.055430412
0.074412249 0.52601349 -0.36676836
0.064907253 -0.19267154 0.47106457
0.067691252 -0.91482556 0.22563744
0.065489247 -0.69191754 0.41973066
0.065449253 -0.15169048 0.42328835
0.066070251 -0.10469353 0.36850023
0.062904254 -0.43021953 0.64759827
0.062446248 -0.38382554 0.68799543
0.065044247 0.27097946 -0.061495304
0.062835254 0.089838505 0.14942646
0.069610253 0.64545047 -0.49753571
0.05839425 -0.51529956 0.57351637
0.057887245 0.16556948 0.069038391
0.056301247 0.023511469 0.23425865
0.059375245 0.2989015 -0.086033344
0.057051245 0.090759516 0.15604639
0.060331244 0.38448948 -0.18557453
0.054520246 -0.69187856 0.41976357
0.054893248 -0.10253155 0.38085365
0.052332245 -0.43018746 0.64762449
0.051608246 0.12413651 0.12494564
0.057370249 0.69246745 -0.53527641
0.058182243 0.77253652 -0.6282897
0.056122247 0.56931353 -0.39220953
0.047899246 -0.24177253 0.55001831
0.050233245 -0.84943151 0.28257561
0.049035247 -0.69186056 0.41977644
0.047693245 -0.51526856 0.57354259
0.050241247 -0.010751486 0.28164434
0.046469245 0.1969865 0.048119545
0.047774248 0.34025651 -0.11812258
0.048189245 0.38579148 -0.17095566
0.051284246 0.72540951 -0.56502342
0.044059247 -0.76635551 0.35491133
0.042983245 -0.60900152 0.49192524
0.042342246 -0.51525545 0.57355165
0.043332245 -0.14723253 0.44752359
0.039519247 0.062610507 0.21163845
0.045267247 0.77303946 -0.61172676
0.037562247 -0.60898852 0.49193525
0.036475245 -0.43014956 0.64765549
0.034769244 0.1986295 0.061761379
0.034261245 0.1267935 0.14492035
0.036101248 0.3870855 -0.15639877
0.038268246 0.69348049 -0.51108551
0.038832247 0.7732895 -0.60347366
0.031679247 -0.23824155 0.56749058
0.032975245 -0.055006504 0.35537434
0.030735247 0.4964515 -0.27485132
0.027816247 -0.84937251 0.28262234
0.025959246 -0.29242849 0.63730431
0.024204247 0.41644049 -0.17431355
0.020917246 -0.23590147 0.57908869
0.021612246 -0.69179952 0.41982555
0.020941246 -0.51521552 0.5735836
0.020442246 -0.38373351 0.68806839
0.016888246 0.097136497 0.20203066
0.017018246 0.12942851 0.16477966
0.018064246 0.38901448 -0.13467169
0.019424247 0.72691345 -0.5244627
0.019614246 0.77403551 -0.57882166
0.016128246 -0.69179249 0.41983223
0.016288247 -0.051920533 0.37397957
0.015186246 -0.32557845 0.68966627
0.011295246 0.13030249 0.17137241
0.012077246 0.3896535 -0.12745953
0.012998246 0.69481647 -0.47907972
0.012404246 0.4980585 -0.25236654
0.012504246 0.53109145 -0.29042959
0.010197246 -0.23357451 0.59064245
0.010644246 -0.69178653 0.41983652
0.010618247 -0.093996525 0.42981768
0.010748247 -0.050896525 0.38015747
0.010030247 -0.28881347 0.65429354
0.0057962467 0.23733747 0.055770397
0.0061592464 0.41827852 -0.15247154
0.004852247 -0.23241556 0.59640551
0.004670247 -0.32312846 0.70080948
-4.5753084e-05 0.2035045 0.10237169
0.00044724671 0.69547951 -0.46318245
0.00048024673 0.7278055 -0.50034142
0.00028324686 0.53208947 -0.27535677
-0.00020375336 -0.84934151 0.2826457
-0.00038875313 -0.13845348 0.49547338
-0.00029875338 -0.048858523 0.39247847
-0.00025175326 -0.0018345118 0.3384223
-0.005808753 0.30685252 -0.0086474419
-0.005808753 0.13291049 0.19107962
-0.005808753 0.65005445 -0.40272141
-0.005808753 0.41949546 -0.13798571
-0.005808753 0.72810048 -0.49233532
-0.005808753 0.4996525 -0.23002434
-0.005808753 -0.090841532 0.44799757
-0.005808753 -0.32068956 0.7119174
-0.011527753 0.17565948 0.14958429
-0.011632754 0.28069848 0.029116631
-0.011485754 0.13377452 0.19762135
-0.011291754 -0.69178152 0.41983747
-0.011215754 -0.1362865 0.50735664
-0.011261754 -0.089794517 0.45403433
-0.011057753 -0.38371956 0.6880765
-0.011304753 -0.046829462 0.40475845
-0.017294753 0.20591348 0.12250042
-0.016954754 0.035986483 0.31716442
-0.017087754 0.10250849 0.24095964
-0.018118754 0.61801749 -0.3495965
-0.017723754 0.4207055 -0.12355852
-0.018275753 0.69646651 -0.43946457
-0.016427753 -0.22780645 0.61936045
-0.023123754 0.24119848 0.08972168
-0.023579754 0.39345348 -0.084495544
-0.024488755 0.69679248 -0.43159342
-0.024584753 0.72898245 -0.4684267
-0.023782754 0.46100348 -0.16179037
-0.024828754 0.81020749 -0.56136751
-0.021877754 -0.17462051 0.56552362
-0.022618754 -0.84935045 0.28263426
-0.021999754 -0.13413155 0.51919365
-0.021557754 -0.38372552 0.68806934
-0.026949754 -0.43011951 0.6476717
-0.026808754 -0.38372946 0.68806458
-0.036516752 0.6188575 -0.33377457
-0.036911752 0.69709253 -0.42434168
-0.036091752 0.53466851 -0.23631144
-0.036299754 0.57580149 -0.2839303
-0.033420753 0.0039954782 0.3757534
-0.039589755 0.10405648 0.2522645
-0.042711753 0.61831248 -0.34397554
-0.042910755 0.65105546 -0.38193941
-0.041516755 0.42136347 -0.11562872
-0.043187752 0.69665647 -0.43480968
-0.042000752 0.50120151 -0.2081933
-0.042449754 0.57519853 -0.29398966
-0.037592754 -0.22494054 0.63371229
-0.039052755 -0.76632047 0.35492945
-0.038433753 -0.086488485 0.47318745
-0.038976755 0.0030024648 0.36942959
-0.037045754 -0.31496656 0.73809147
-0.046004754 0.20606351 0.12386847
-0.045272753 0.10287046 0.24369764
-0.047525752 0.4205575 -0.12520456
-0.048092753 0.50049746 -0.21803141
-0.048618753 0.57459247 -0.30407238
-0.045382753 -0.91471553 0.22571659
-0.045034755 -0.84938955 0.28259754
-0.043755755 -0.60898149 0.49192858
-0.042547755 -0.28130448 0.68980646
-0.051570754 0.17558652 0.14915657
-0.051808752 0.20499247 0.11495638
-0.050721753 0.071080506 0.2706995
-0.050969753 0.10168147 0.23510838
-0.053325754 0.39185947 -0.10237074
-0.056717753 0.80952752 -0.58812046
-0.048714753 -0.17605448 0.55811739
-0.051035754 -0.91473055 0.22570229
-0.047560755 -0.31819654 0.72342825
-0.047847755 -0.28288949 0.68236637
-0.057630755 0.2039175 0.1060195
-0.058929753 0.34588647 -0.05934763
-0.059597753 0.41893649 -0.14443445
-0.062422752 0.72766054 -0.50403976
-0.059961755 0.45873851 -0.19079733
-0.060331754 0.49908349 -0.23779154
-0.053665753 -0.22953856 0.61091137
-0.054140754 -0.17754149 0.55034542
-0.056690753 -0.91474748 0.2256856
-0.055675752 -0.76636052 0.35489035
-0.053958755 -0.5152595 0.57353354
-0.053376753 -0.43016553 0.64762735
-0.053059753 -0.38377357 0.68802261
-0.055327754 -0.047780514 0.39919853
-0.067674749 0.6161145 -0.38506937
-0.068009749 0.64903748 -0.42347765
-0.066811755 0.5313555 -0.28618956
-0.061848752 -0.84943855 0.28255224
-0.059308752 -0.51527345 0.57352066
-0.058309752 -0.38378656 0.68801165
-0.058489755 -0.28607357 0.6674304
-0.07047075 0.30444151 -0.031898499
-0.071736753 0.41730452 -0.16377068
-0.076304749 0.80822247 -0.63961935
-0.073008753 0.5306865 -0.29624844
-0.07518775 0.20067251 0.079071522
-0.081232749 0.69400454 -0.49824142
-0.078817748 0.49694449 -0.2676363
-0.071619749 -0.69190454 0.41972065
-0.071564749 -0.094895482 0.42495441
-0.081072748 0.19958347 0.070038319
-0.082441747 0.30251551 -0.050601482
-0.082969747 0.34224248 -0.097165585
-0.086589754 0.61444652 -0.41620255
-0.087029748 0.64750648 -0.45495176
-0.084478751 0.45567048 -0.23010969
-0.078662753 -0.84950352 0.28249264
-0.094534747 0.72566247 -0.5578537
-0.091233753 0.4955065 -0.28767776
-0.083343752 -0.054615498 0.35810041
-0.092433751 0.16774851 0.086760521
-0.095790751 0.3858695 -0.16968775
-0.10174375 0.77264249 -0.62442255
-0.086062752 -0.51536655 0.57343435
-0.085092753 -0.43026555 0.64753437
-0.088990748 -0.055994511 0.34981823
-0.099395752 0.23112249 0.0017905235
-0.096006751 0.024999499 0.24451256
-0.10052175 0.2996015 -0.078846455
-0.10192575 0.38500249 -0.17941046
-0.10829475 0.7723065 -0.63548374
-0.10886975 0.8072775 -0.67666149
-0.10426575 0.5273065 -0.34698153
-0.091642752 -0.24043047 0.5570693
-0.094467752 -0.76651752 0.35474825
-0.093561754 -0.69199955 0.41963434
-0.094651751 -0.057378531 0.34151649
-0.090732753 -0.29573953 0.62219667
-0.10294575 0.090803504 0.15678835
-0.11403375 0.72444654 -0.59052753
-0.10998975 0.49333149 -0.31795073
-0.11057175 0.5266245 -0.3572154
-0.10108275 -0.84961748 0.28239059
-0.099046752 -0.69202745 0.41960955
-0.095530748 -0.33297253 0.65658951
-0.096153751 -0.29736745 0.61459637
-0.10755375 0.022396505 0.22732449
-0.11477475 0.41150647 -0.23230839
-0.12057475 0.72403848 -0.60148859
-0.12242675 0.76976848 -0.71941233
-0.10031975 -0.38393545 0.68787336
-0.11613775 0.16318947 0.050581455
-0.11335075 0.021089494 0.21869946
-0.11530775 0.12084252 0.10068035
-0.12099375 0.41066748 -0.24220943
-0.12648976 0.69083953 -0.57368469
-0.11001975 -0.69208848 0.41955328
-0.11087875 -0.10490251 0.36776066
-0.10633875 -0.33631051 0.64153862
-0.12210475 0.16204047 0.041475296
-0.12344575 0.22685748 -0.035330772
-0.11991375 0.056091487 0.16702032
-0.12486875 0.29567248 -0.11687231
-0.12055475 0.087108493 0.13026857
-0.12122775 0.11964351 0.091713428
-0.12722975 0.4098255 -0.25214052
-0.12891175 0.49113446 -0.34848738
-0.12960276 0.52456152 -0.38809776
-0.13047075 0.56653547 -0.43783569
-0.11364975 -0.24675953 0.52588749
-0.11663875 -0.7666465 0.35463333
-0.11558275 -0.1532805 0.41511726
-0.11843175 -0.01552248 0.25188065
-0.12808776 0.16088748 0.032345295
-0.12873775 0.19074649 -0.0030913353
-0.12949975 0.2257815 -0.044672489
-0.12498975 0.018461466 0.20138025
-0.13187076 0.33480752 -0.1740675
-0.11918575 -0.24835348 0.51804352
-0.12350775 -0.84976149 0.28226042
-0.13477176 0.18962449 -0.012346745
-0.13652375 0.26638752 -0.10359573
-0.13083476 0.017141521 0.1926837
-0.13911076 0.37973851 -0.23833561
-0.14161976 0.48965651 -0.36899567
-0.12911576 -0.84980154 0.28222561
-0.12687676 -0.15628648 0.39883947
-0.12346875 -0.30558252 0.57630539
-0.13908876 0.11602449 0.06466341
-0.15166676 0.64228648 -0.56189775
-0.13156375 -0.19883752 0.43953037
-0.13366976 -0.11071849 0.33461952
-0.14776576 0.22253549 -0.072858334
-0.15440075 0.48816949 -0.38961935
-0.13940476 -0.11218452 0.32628345
-0.13267976 -0.43050647 0.64731836
-0.14168376 -0.02096653 0.21750736
-0.14941175 0.049675465 0.12285042
-0.16081975 0.48742151 -0.39997673
-0.14285375 -0.20195448 0.42338467
-0.13796876 -0.43054056 0.64728737
-0.16116476 0.2622425 -0.14188957
-0.15535976 0.048379481 0.11394548
-0.16503276 0.40471148 -0.31231976
-0.16932176 0.56269348 -0.50130653
-0.14990276 -0.76689255 0.35441351
-0.16814676 0.28866851 -0.18444538
-0.16928875 0.32909948 -0.23288774
-0.16313376 0.11114448 0.028255463
-0.17059176 0.37526947 -0.28820848
-0.18333475 0.71559954 -0.82892036
-0.17371675 0.48591852 -0.42078543
-0.15715376 -0.85003245 0.28202057
-0.15029375 -0.51573849 0.57310057
-0.15011676 -0.34986448 0.58061647
-0.17044176 0.15271246 -0.032266617
-0.17132476 0.18282151 -0.068399429
-0.17359276 0.26014948 -0.16119862
-0.16730575 0.045775473 0.096065521
-0.16918676 0.10991448 0.01909256
-0.17694275 0.37436748 -0.29826736
-0.18849376 0.7681765 -0.77087164
-0.15834776 -0.25965047 0.46259546
-0.15940776 -0.69244552 0.41923428
-0.15383676 -0.43064952 0.64719057
-0.17983276 0.25909752 -0.17089367
-0.18067075 0.28663749 -0.20399475
-0.18190376 0.3271715 -0.25271654
-0.19036476 0.60525048 -0.58696747
-0.19282776 0.68618149 -0.68424654
-0.16561376 -0.20824754 0.39084768
-0.16653976 -0.76703846 0.35428333
-0.16489676 -0.69249356 0.41919231
-0.15979275 -0.39956653 0.62080956
-0.18695976 0.28561652 -0.2138114
-0.18823975 0.32620251 -0.26267242
-0.18030576 0.074527502 0.040319443
-0.18134275 0.1074425 0.00069236755
-0.19561276 0.5600875 -0.5442524
-0.17134076 -0.2098335 0.3826623
-0.17413875 -0.12107456 0.27580547
-0.21134776 0.76451147 -0.89178467
-0.17082976 -0.40311348 0.60560036
-0.17234276 -0.35676551 0.54971027
-0.19959475 0.28356451 -0.23353052
-0.20096776 0.32425451 -0.28267574
-0.21153276 0.63742948 -0.66092253
-0.21672776 0.71490449 -0.84689474
-0.20743975 0.51609349 -0.51437664
-0.20887975 0.55877048 -0.56592035
-0.18136676 -0.69264746 0.41905546
-0.17706876 -0.51595545 0.57290745
-0.17793375 -0.35850346 0.5419383
-0.17915276 -0.32238853 0.49831963
-0.20226276 0.1770485 -0.11582375
-0.20350176 0.2125985 -0.15883064
-0.20593876 0.28253347 -0.24343157
-0.19855575 0.070673466 0.012857437
-0.21286675 0.4813475 -0.4839406
-0.18872675 -0.76725948 0.35408735
-0.18685676 -0.69270253 0.4190073
-0.19005975 -0.1731565 0.30782032
-0.22987776 0.71493852 -0.84558344
-0.21795976 0.43886149 -0.44403076
-0.23170476 0.8013885 -0.90712833
-0.18916076 -0.36199546 0.52633333
-0.21476075 0.17471248 -0.13497734
-0.21203476 0.10119152 -0.045752525
-0.22452475 0.43803048 -0.45454741
-0.22607376 0.47980148 -0.50524235
-0.23688176 0.76547849 -0.85901165
-0.19783875 -0.69281745 0.41890526
-0.19313675 -0.51610351 0.57277536
-0.20351376 -0.12861252 0.23313951
-0.19198576 -0.43952656 0.61046648
-0.19307075 -0.41027248 0.57496357
-0.20514876 -0.084520459 0.17962837
-0.19479576 -0.3637495 0.51850367
-0.21575376 0.035189509 0.023573399
-0.20537175 -0.76744354 0.35392332
-0.20943776 -0.13013554 0.22453737
-0.20044675 -0.36550951 0.51065159
-0.22613576 0.14192051 -0.11718035
-0.22733276 0.17235947 -0.15424156
-0.22873776 0.20808649 -0.19773865
-0.23495176 0.3661015 -0.39013338
-0.24992175 0.67906851 -0.85359955
-0.24239776 0.55543852 -0.6206584
-0.21185976 -0.22107148 0.32477427
-0.20882376 -0.69293857 0.41879749
-0.21537676 -0.13166249 0.21591568
-0.22931476 0.064164519 -0.033409595
-0.24266575 0.39416552 -0.43585157
-0.24742176 0.5117265 -0.57921934
-0.20921075 -0.51626456 0.57263327
-0.21178976 -0.36904454 0.4948926
-0.24146375 0.20580751 -0.2173605
-0.24439476 0.27627248 -0.30343246
-0.25415576 0.51098949 -0.59013939
-0.25594875 0.55408847 -0.64278555
-0.22134776 -0.27790153 0.37348652
-0.22201976 -0.76764345 0.35374737
-0.22730176 -0.13473046 0.19860458
-0.23115776 -0.042013526 0.085351467
-0.21748276 -0.37082052 0.48698425
-0.24632476 0.1688025 -0.18334055
-0.24038576 0.029792488 -0.013263702
-0.26966175 0.67912245 -0.85163069
-0.25944474 0.47589147 -0.55906057
-0.26091275 0.5102495 -0.60109663
-0.26275676 0.55340946 -0.65390348
-0.22530375 -0.69313252 0.41862535
-0.22278176 -0.61021256 0.49082851
-0.21994075 -0.44873345 0.57219839
-0.22319275 -0.37260246 0.47905445
-0.25134975 0.13702047 -0.15560865
-0.24797976 0.060208499 -0.061475754
-0.27157077 0.59800649 -0.72053862
-0.26768875 0.50950754 -0.61208439
-0.23079675 -0.69320154 0.41856432
-0.22528775 -0.51643956 0.57247925
-0.23718876 -0.1857965 0.23999357
-0.23051476 -0.33796048 0.42646551
-0.25907674 0.16641152 -0.20287466
-0.27847475 0.59738851 -0.73189163
-0.28334376 0.62746847 -0.86467552
-0.26785275 0.36139852 -0.4422183
-0.23122175 -0.45245457 0.5567627
-0.24731275 -0.094941497 0.11792755
-0.24950075 -0.046345472 0.058278561
-0.23629576 -0.33971751 0.41838264
-0.26547974 0.16520947 -0.21268272
-0.26714176 0.20120251 -0.2569375
-0.26911676 0.24399352 -0.30954742
-0.27776074 0.43127847 -0.53981256
-0.28330377 0.55136049 -0.68745136
-0.25134975 -0.14092648 0.16370249
-0.23824476 -0.42485356 0.51278353
-0.24209276 -0.34148049 0.41027737
-0.26680276 0.056212485 -0.089775562
-0.29625976 0.67887652 -0.85657072
-0.24728176 -0.69341552 0.41837645
-0.25950876 -0.097961545 0.1000886
-0.24790476 -0.34324849 0.40215445
-0.27685577 0.13205349 -0.19447041
-0.26975676 -0.014417529 -0.013793468
-0.28554076 0.3112635 -0.4155283
-0.29127374 0.42956048 -0.56144857
-0.25910375 -0.23422146 0.25733328
-0.26347375 -0.14405453 0.14611244
-0.26799676 -0.050721526 0.030985355
-0.28872976 0.24066252 -0.33999062
-0.29012576 0.2688055 -0.37476254
-0.28110775 0.087069511 -0.15022039
-0.30630776 0.59489548 -0.77766132
-0.29598576 0.3868885 -0.5206604
-0.30016476 0.47110748 -0.62471533
-0.26088476 -0.7681725 0.3532815
-0.26716676 -0.19386053 0.19687843
-0.29530475 0.23954451 -0.35019636
-0.28416374 0.020174503 -0.078709602
-0.28578874 0.052176476 -0.11831331
-0.30125076 0.35661352 -0.49507761
-0.26833075 -0.29157352 0.30709934
-0.26377276 -0.69364655 0.41817236
-0.27793175 -0.10252953 0.07314539
-0.26543576 -0.34858549 0.37765551
-0.29778177 0.15913951 -0.26215076
-0.29966277 0.19535947 -0.30704832
-0.28854075 -0.018711567 -0.041683674
-0.29048875 0.018782496 -0.088162422
-0.29215375 0.050822496 -0.12787867
-0.29390076 0.08444649 -0.16955948
-0.32286876 0.62758446 -0.8607316
-0.30951777 0.38503748 -0.54217768
-0.31390575 0.46949047 -0.64686632
-0.27199274 -0.76833951 0.35313463
-0.28410676 -0.10406148 0.064117432
-0.27130976 -0.35037553 0.36944723
-0.30622676 0.19417852 -0.31716156
-0.29483977 -0.020151496 -0.051034451
-0.31222776 0.30714852 -0.45743036
-0.32990375 0.58990049 -0.87054157
-0.31475276 0.35467547 -0.51644468
-0.32080975 0.46867752 -0.65799761
-0.28311077 -0.2409215 0.22308445
-0.26838377 -0.51813352 0.56728268
-0.28792176 -0.15037048 0.11065245
-0.27525076 -0.38888347 0.40679932
-0.31083575 0.15668148 -0.28213835
-0.33649677 0.58992052 -0.86988354
-0.28310576 -0.76851356 0.35298157
-0.28111076 -0.39072049 0.39867067
-0.31567276 0.12447852 -0.25359249
-0.31940776 0.19180447 -0.33746767
-0.32833576 0.35272449 -0.53793573
-0.33904675 0.54578549 -0.77844858
-0.28866175 -0.76860356 0.35290146
-0.28255075 -0.61100447 0.49012852
-0.27980277 -0.52205455 0.55183744
-0.28271875 -0.46948647 0.48634958
-0.30273575 -0.10868955 0.036882401
-0.30545977 -0.059600472 -0.024270535
-0.32220775 0.12320048 -0.26354551
-0.31779677 0.045359492 -0.1664114
-0.33515877 0.35174352 -0.54873133
-0.33683276 0.38129652 -0.58560753
-0.29821077 -0.30029452 0.26490927
-0.28798676 -0.61108553 0.49005747
-0.30897975 -0.11024153 0.027756691
-0.34615576 0.42256749 -0.64931154
-0.30737975 -0.24770749 0.18847656
-0.33533877 0.12063247 -0.28353739
-0.33932877 0.18821347 -0.36814976
-0.35061777 0.3794055 -0.60752249
-0.30227175 -0.69424152 0.4176507
-0.34380674 0.1504665 -0.3326087
-0.36267775 0.4637385 -0.7254796
-0.31633475 -0.30559456 0.23933029
-0.32217175 -0.20870447 0.1178236
-0.31064877 -0.39999247 0.35771132
-0.34854475 0.11804652 -0.30364275
-0.35045975 0.14921051 -0.3427906
-0.35713276 0.2578215 -0.47922564
-0.32836777 -0.21038055 0.10892248
-0.31660375 -0.40186453 0.34945726
-0.35517776 0.1167475 -0.3137393
-0.36215675 0.22815251 -0.45391941
-0.34586975 -0.031849504 -0.12676239
-0.33191776 -0.25458145 0.1534996
-0.34046775 -0.11808145 -0.018257618
-0.32489175 -0.36674154 0.29462528
-0.36616877 0.18336749 -0.40948153
-0.37346774 0.29767752 -0.55355549
-0.35682476 0.037026465 -0.22503376
-0.35899776 0.071061492 -0.26792955
-0.34081274 -0.21374953 0.091046333
-0.34393275 -0.16488445 0.029456615
-0.37577075 0.22582549 -0.47503567
-0.35881275 -0.034822464 -0.14596176
-0.36128375 0.0031585097 -0.19391441
-0.39653376 0.5396775 -0.87794542
-0.33146876 -0.4551115 0.38465548
-0.35641277 -0.071717501 -0.099382401
-0.36998576 0.03421247 -0.24479532
-0.37224677 0.068329513 -0.2879405
-0.35332677 -0.21713948 0.073074341
-0.39140376 0.25218451 -0.53263235
-0.39425677 0.2944535 -0.5861783
-0.39751676 0.3427605 -0.64737272
-0.40241775 0.41537249 -0.73935461
-0.35672775 -0.26154447 0.11814547
-0.35961077 -0.21884346 0.064053535
-0.34340075 -0.45899951 0.36827469
-0.36933276 -0.074796557 -0.11842155
-0.39079776 0.1415835 -0.40451241
-0.39333177 0.17845452 -0.45129871
-0.39634475 0.22230649 -0.50694275
-0.36928377 -0.1714735 -0.0072717667
-0.34732875 -0.49095249 0.3981185
-0.35522577 -0.37603545 0.25230169
-0.39539376 0.10885549 -0.37494469
-0.39759275 0.14029652 -0.41490746
-0.37566876 -0.17313457 -0.016517639
-0.35329777 -0.4929415 0.38997364
-0.36134377 -0.37791252 0.24376726
-0.40440676 0.13900548 -0.42533064
-0.42698076 0.45612746 -0.82909441
-0.37160477 -0.32179952 0.16137457
-0.35328275 -0.61218846 0.48908758
-0.36142075 -0.46487951 0.34354258
-0.38885576 -0.079454541 -0.14718246
-0.36482477 -0.41705251 0.28265047
-0.36747676 -0.37979448 0.23521423
-0.41920075 0.24760348 -0.57594252
-0.42227775 0.29010147 -0.63014174
-0.39178875 -0.13089645 -0.093210697
-0.42082676 0.17347246 -0.49361849
-0.42407477 0.21755546 -0.54993677
-0.40470576 -0.045387506 -0.21401453
-0.40993875 0.025651515 -0.30476952
-0.36834577 -0.69545448 0.41658258
-0.36417475 -0.6123935 0.48890638
-0.36736977 -0.55224049 0.43351126
-0.43322676 0.2452895 -0.59778976
-0.41666576 0.024207473 -0.31486654
-0.44006777 0.3366105 -0.71464968
-0.39446574 -0.2721585 0.064399242
-0.43470177 0.17095548 -0.5149703
-0.43806875 0.21515447 -0.57163048
-0.44953975 0.36578947 -0.76470852
-0.37936977 -0.6956805 0.41638327
-0.40409476 -0.23092449 0.00020360947
-0.43879077 0.13248348 -0.47791576
-0.42466375 -0.049992561 -0.24359941
-0.43018377 0.021305501 -0.33515263
-0.42177474 -0.087322474 -0.19566345
-0.44865975 0.16842252 -0.53643465
-0.40922275 -0.33286548 0.10835743
-0.38689175 -0.6167165 0.47347164
-0.44114676 -0.014557481 -0.31310844
-0.41998076 -0.27935147 0.028080463
-0.39733675 -0.56261754 0.39307165
-0.40161675 -0.50907052 0.32407665
-0.41088375 -0.39314246 0.17470264
-0.42991474 -0.2379545 -0.036836624
-0.41019174 -0.48083055 0.27665043
-0.43767476 -0.14239156 -0.16018152
-0.40694275 -0.69627547 0.41586161
-0.44430575 -0.14405549 -0.16985464
-0.41551074 -0.56892157 0.36855745
-0.42254975 -0.48488152 0.25970936
-0.44105676 -0.34225357 0.063518524
-0.41680175 -0.62747753 0.43357229
-0.42875475 -0.48691654 0.2512064
-0.43286577 -0.43857455 0.18848658
-0.43606874 -0.40090656 0.13961554
-0.43383276 -0.57528555 0.34385538
-0.43494076 -0.63401449 0.4093895
