# .PCD v0.7 - Point Cloud Data file format
VERSION 0.7
FIELDS x y z
SIZE 4 4 4
TYPE F F F
COUNT 1 1 1
WIDTH 1
HEIGHT 1024
VIEWPOINT 0 0 0 1 0 0 0
POINTS 1024
DATA ascii
1.0278395 -0.039438605 -0.15413857
1.0193305 -0.036980629 -0.1373477
0.99865144 -0.034292579 -0.1205554
1.0337645 0.018718421 -0.41946268
0.99153948 -0.16108865 -0.11320257
1.0197355 0.020142376 -0.40986538
0.99990243 0.074603379 -0.26413679
0.97344947 -0.22909361 -0.15982771
0.95949847 -0.11411065 -0.1011734
0.95934445 -0.068821609 -0.10002279
0.96734446 -0.22898358 -0.15997839
0.99180645 0.022971392 -0.39074945
0.97260243 0.077207386 -0.24585867
0.95128143 0.13742238 -0.084995747
0.95351946 -0.11409658 -0.10187435
0.95599747 -0.22985965 -0.16682768
0.94750845 -0.15848655 -0.1023488
0.97790945 0.024372399 -0.38125372
0.94126046 -0.068619609 -0.10098743
0.94914943 0.00086438656 -0.16132164
0.94292444 -0.16015464 -0.11371136
0.97097844 0.025070369 -0.37652063
0.93668443 -0.15983659 -0.11247444
0.92253548 -0.11275464 -0.096887589
0.93233043 -0.00042557716 -0.1733427
0.90449446 0.10711938 -0.0027146339
0.91799748 -0.15890366 -0.10885954
0.91488945 -0.034380615 -0.13230276
0.90681243 -0.070191622 -0.11645174
0.89572048 0.098528385 -0.07615757
0.87396044 -0.0086035728 0.050971508
0.88976645 0.092696369 -0.12598848
0.88949043 0.13393939 -0.12374258
0.85596848 -0.082010567 0.10140944
0.87525845 0.22003138 -0.056836605
0.87213248 0.2672714 -0.031189442
0.86189044 -0.021633625 -0.045692444
0.87100947 0.12868237 -0.17252159
0.84615546 -0.047445595 0.03591156
0.86463547 0.0077914 -0.11906576
0.86635143 0.1273554 -0.18482065
0.85686743 0.21539342 -0.10469055
0.85154647 0.26479238 -0.059729576
0.85170448 -0.21038765 -0.061070442
0.86167747 0.12602341 -0.19716072
0.82824445 -0.039803624 0.087446213
0.85223246 0.21422338 -0.11675453
0.82938743 0.027535379 0.027191639
0.81866843 -0.12162763 0.11913443
0.83990043 0.09471339 -0.11496639
0.81466746 -0.081026614 0.10311556
0.81284046 -0.12155765 0.11891031
0.83829343 0.1312384 -0.15373373
0.85674244 -0.31008059 -0.31441164
0.80420142 0.079199374 0.040087223
0.80565047 0.1120944 0.02726841
0.81305945 0.14461643 -0.038265705
0.79715145 -0.080826581 0.10245037
0.79897243 -0.03948158 0.086336613
0.82363343 0.25824237 -0.13179636
0.80051643 -0.0044395924 0.072681427
0.84296048 -0.30780357 -0.30276155
0.79830843 0.079255402 0.039868355
0.79974645 0.11214739 0.027048588
0.81319648 0.31263137 -0.092864513
0.83608943 -0.30667061 -0.2969594
0.80077344 0.19244438 -0.03546381
0.78878844 -0.0043196082 0.072240353
0.82923043 -0.30554157 -0.29117155
0.78793848 0.1122514 0.026610374
0.78958744 0.15056038 0.011681557
0.78575146 -0.2003656 -0.0075263977
0.78343743 0.26730639 -0.041039467
0.77120245 -0.0041456223 0.071581364
0.80873448 -0.30217761 -0.27390146
0.76625443 -0.12102157 0.11713552
0.77023345 0.11240339 0.025957584
0.77373743 0.19582838 -0.0065593719
0.77676743 0.2679804 -0.034682751
0.76687348 0.032390416 0.057143211
0.78402746 0.31210542 -0.10205841
0.80192745 -0.3010636 -0.2681756
0.76296443 0.07957238 0.038555622
0.76903045 0.22519439 -0.018203735
0.76620048 -0.19742364 0.0082736015
0.76309246 0.22523642 -0.018420696
0.75362247 -0.0039765835 0.070925236
0.75512946 0.032498419 0.056708336
0.78835344 -0.29884666 -0.25676775
0.75118947 0.079673409 0.03812027
0.75715446 0.22527838 -0.018636703
0.74338847 0.032603383 0.056272507
0.75492543 0.31656539 -0.054420471
0.75613344 0.34629142 -0.066008568
0.74228245 0.15093541 0.0099444389
0.74409944 0.1960454 -0.0076394081
0.74528044 0.22536039 -0.019067764
0.74895644 0.31660038 -0.054634571
0.73637247 0.15098041 0.0097293854
0.72714347 -0.080095589 0.099811554
0.74105543 0.26821542 -0.035973549
0.73019248 -0.0037605762 0.070054531
0.73164845 0.032705426 0.055839539
0.72552544 -0.12059158 0.11559963
0.72131443 -0.080039561 0.099593639
0.73510647 0.26825237 -0.036188602
0.73986548 0.38844538 -0.083044529
0.74153847 0.43070239 -0.099515438
0.71971047 -0.12053365 0.11538029
0.72305244 0.11278242 0.024225235
0.72455543 0.15106738 0.0092983246
0.71548545 -0.079983652 0.099377632
0.71991348 0.032805383 0.055404186
0.74793643 -0.29228562 -0.22289658
0.72040147 0.19621038 -0.0084996223
0.72624844 0.34645742 -0.067077637
0.70808047 -0.12041861 0.11494541
0.71447843 0.19624943 -0.0087146759
0.71560943 0.22555637 -0.020141602
0.70817846 -0.18876964 0.054971218
0.69958043 -0.038515627 0.082620621
0.70967746 0.2255944 -0.020354748
0.71131343 0.26839739 -0.037043571
0.71316445 0.31680542 -0.05591774
0.71430045 0.34652042 -0.067502499
0.71752244 0.43081141 -0.10036469
0.70536745 0.26843238 -0.037257671
0.70832747 0.34655142 -0.067716599
0.69358444 0.11300039 0.023150444
0.68790042 -0.038414598 0.08218956
0.68921447 -0.0034096241 0.068540573
0.70551842 0.43086439 -0.10078764
0.68646944 0.0801844 0.035747528
0.68769145 0.11304241 0.022934437
0.68471748 0.033089399 0.054111481
0.70796448 -0.28585559 -0.18954754
0.67901647 -0.12014562 0.11386251
0.68180144 0.11308342 0.022719383
0.68321145 0.15135437 0.0077972412
0.67622048 -0.038317621 0.081758499
0.68753147 0.26853442 -0.037896633
0.68931544 0.31693238 -0.056769371
0.69351643 0.43091539 -0.10120964
0.67591047 0.11312342 0.022507191
0.67730844 0.1513924 0.0075836182
0.67303646 0.19651341 -0.010210514
0.66581047 -0.0032246113 0.067681313
0.67999047 0.38873041 -0.085168362
0.68151748 0.43096539 -0.10163069
0.66368645 -0.1822136 0.090575218
0.66158646 -0.11999065 0.11321545
0.66413045 0.11320341 0.022080421
0.65140444 -0.07942158 0.09700346
0.65411144 -0.0031356215 0.06725359
0.65119946 0.080432415 0.034466267
0.65528345 0.19661838 -0.010847569
0.64954448 0.033349395 0.052827358
0.66352248 0.4310374 -0.1022625
0.65038645 0.22594339 -0.022483349
0.65355945 0.31710941 -0.058039665
0.65459347 0.3468104 -0.06962347
0.66188145 -0.27851564 -0.15128469
0.64593548 0.26875538 -0.03938055
0.64760244 0.31713742 -0.058250427
0.63753444 0.19671839 -0.011483669
0.62369245 -0.037912607 0.079835415
0.63568842 0.31719238 -0.058671474
0.62093145 -0.11965555 0.11172056
0.61647844 -0.079150617 0.095724583
0.61785948 -0.037870586 0.079624653
0.63072646 0.34691441 -0.070465565
0.66247147 -0.39330655 -0.44075251
0.62476146 0.34693938 -0.070674419
0.60932046 -0.11956757 0.11129427
0.60619247 -0.037789583 0.079200268
0.60733747 -0.0028066039 0.065553188
0.61186844 0.31729639 -0.059513569
0.61419243 0.3889994 -0.087483406
0.59938145 0.11359739 0.019750595
0.60205346 0.19690442 -0.012747765
0.59681845 0.033696413 0.050920486
0.60591543 0.31732142 -0.05972147
0.63531643 -0.3886376 -0.4173398
0.60991544 -0.27033561 -0.10838079
0.59996247 0.31734538 -0.059931755
0.58761543 0.11366141 0.019331455
0.58881545 0.15190637 0.0044093132
0.59249145 0.26900542 -0.041273594
0.59400946 0.3173694 -0.060141563
0.59494144 0.34705842 -0.071723461
0.59625947 0.38906342 -0.088110447
0.59061545 -0.26732355 -0.092511654
0.57930648 0.2262944 -0.025007725
0.57339644 0.033834398 0.050080299
0.56412244 -0.078794599 0.09382534
0.56643647 -0.0025545955 0.064081192
0.57705444 0.3471244 -0.072350502
0.56122744 -0.17411858 0.13102055
0.56289345 -0.11924165 0.10960722
0.56168944 0.033899426 0.049661636
0.56154644 0.22637039 -0.025634766
0.56281543 0.26912737 -0.04231739
0.56637746 0.38916439 -0.08915472
0.54549044 -0.11913162 0.10897923
0.54644549 0.1138674 0.017867565
0.55321145 0.34720641 -0.073183537
0.54725248 0.34722537 -0.073390484
0.54845548 0.3892194 -0.08977747
0.53704548 0.19719541 -0.015045643
0.53040445 -0.037331581 0.07647562
0.53908449 0.26921642 -0.043149471
0.53139448 -0.0023645759 0.062829494
0.54129344 0.34724438 -0.073598385
0.52987647 0.15217841 0.0023245811
0.53195447 0.2264874 -0.026673794
0.53450346 0.31758541 -0.062224388
0.52075648 -0.17386061 0.12955856
0.51971549 -0.0023065805 0.062414646
0.52855545 0.31760442 -0.06243372
0.52700049 -0.25749964 -0.040469646
0.51809448 0.15222538 0.0019102097
0.52012146 0.22653037 -0.027089596
0.52341747 0.3472994 -0.074220657
0.54181445 -0.37279063 -0.33730173
0.51028848 0.081200421 0.029431343
0.5059855 -0.078467607 0.091745377
0.51420546 0.22655141 -0.027295589
0.51440746 -0.25557357 -0.030214787
0.50341749 -0.17376155 0.12893724
0.50942749 0.26931739 -0.044185638
0.50317144 0.03418541 0.047584534
0.51071346 0.31765842 -0.063052654
0.49855548 0.081248403 0.029018402
0.49941748 0.11406642 0.016209602
0.5016045 0.19732642 -0.016287804
0.50237244 0.22659141 -0.02770853
0.50349545 0.2693364 -0.044392586
0.52207845 -0.36949259 -0.32052565
0.50185448 -0.25366062 -0.020009518
0.49147049 0.034234405 0.047171593
0.50067645 0.3893494 -0.091433525
0.48379549 -0.037107587 0.074821472
0.49054348 0.22662938 -0.028120518
0.49163648 0.26937139 -0.044804573
0.49287349 0.31770939 -0.063671589
0.50897944 -0.36731166 -0.30941057
0.48178849 0.11413139 0.015591621
0.48275349 0.15235537 0.00067138672
0.48388949 0.19738537 -0.016905785
0.47797149 -0.037082613 0.074615479
0.47590947 -0.11876065 0.10649633
0.47686249 0.15237439 0.00046539307
0.47798449 0.19740438 -0.017110348
0.47111848 -0.078305602 0.090510368
0.47301647 -0.0021005869 0.060764313
0.47392249 0.034303427 0.046554565
0.4768765 -0.24987262 0.00025033951
0.47679549 0.38940537 -0.092255592
0.46296948 -0.17355961 0.12749863
0.46431649 -0.11870855 0.10608864
0.46416047 0.11419141 0.014976501
0.46134549 -0.0020555854 0.060355186
0.46980947 0.34744042 -0.076076508
0.46314648 0.31778437 -0.064700603
0.46385449 0.34745342 -0.076282501
0.45437047 0.19747239 -0.017930508
0.45606449 0.26946741 -0.046037674
0.45790049 0.34746641 -0.076486588
0.44653448 0.11424637 0.014361382
0.4484655 0.19748843 -0.018134594
0.45194447 0.3474794 -0.076692581
0.45291749 0.38945538 -0.093075752
0.43986148 -0.17346054 0.12668419
0.43991047 0.081453383 0.026968479
0.44599047 0.34749138 -0.076896667
0.44694948 0.3894664 -0.093281746
0.43408549 -0.17343765 0.12648153
0.43404847 0.08147037 0.026765347
0.43138349 -0.036908627 0.072981358
0.43936947 0.31783742 -0.065518379
0.42976049 0.15251142 -0.0011696815
0.4263365 -0.0019376278 0.05913353
0.43408349 0.34751439 -0.077306747
0.42741248 -0.2424466 0.040180206
0.4223215 0.081502378 0.026357651
0.41973749 -0.036871612 0.072577477
0.43773249 -0.35558063 -0.24928856
0.41798547 0.15254039 -0.00157547
0.42050049 0.26954639 -0.047262669
0.43132249 -0.35453564 -0.24390554
0.4080945 -0.036837578 0.072173595
0.41711047 0.38951838 -0.094301701
0.4249225 -0.35349458 -0.2385354
0.40902647 -0.23971266 0.05495739
0.40541849 0.11435342 0.012940407
0.40375748 0.034523368 0.044111252
0.41114348 0.38952738 -0.094504356
0.39887449 0.08155942 0.025547504
0.39645249 -0.036807597 0.071769238
0.40184748 0.22685039 -0.031187534
0.39365849 -0.17330056 0.12506819
0.39444047 0.15259039 -0.00238657
0.39534649 0.1976074 -0.019966602
0.39776748 0.31791139 -0.066946507
0.38779947 0.11439037 0.012333393
0.39241248 0.3475824 -0.078733444
0.38319349 -0.11843163 0.10325432
0.38128948 0.081596375 0.024942398
0.38267049 0.15261239 -0.002790451
0.38646048 0.34759039 -0.078935623
0.3723805 -0.077987611 0.087070465
0.37994248 0.31793737 -0.067554474
0.3805095 0.34759837 -0.079139709
0.37174249 0.19764638 -0.020775795
0.36657247 -0.077975631 0.086870193
0.36734548 -0.036741614 0.070766449
0.36581448 -0.11839157 0.10265446
0.36283949 0.034608424 0.042704582
0.37409949 -0.34528965 -0.19606161
0.36002147 -0.11837965 0.10245562
0.35784447 0.081636369 0.024139404
0.35912848 0.1526494 -0.0035953522
0.3599425 0.19766343 -0.021176338
0.35115048 0.034627378 0.042304516
0.34837347 -0.23079258 0.10345221
0.34669447 0.1144554 0.0109272
0.34735948 0.15266442 -0.0039978027
0.34865147 0.22692841 -0.033004761
0.34236148 -0.22991663 0.10823727
0.34169149 -0.17318064 0.12327623
0.34147349 0.1526714 -0.0041975975
0.34346849 0.26965839 -0.04989481
0.33884048 -0.0017476082 0.056119442
0.33036149 -0.22817463 0.11777639
0.32854247 0.081673384 0.02314043
0.33044147 0.19769537 -0.022180557
0.32592949 -0.077910602 0.085479259
0.33092049 0.2269454 -0.033606529
0.32078549 -0.036672592 0.069175243
0.3185975 -0.17314762 0.1224885
0.31947649 -0.11831659 0.1010685
0.31864148 0.19770437 -0.022580624
0.31910047 0.2269544 -0.034007549
0.31977049 0.26967639 -0.050698757
0.3209945 0.34765142 -0.081159592
0.31146449 0.11448938 0.0097284317
0.31274149 0.19770741 -0.022779465
0.31319049 0.22695738 -0.03420639
0.31384647 0.26968038 -0.050896645
0.3285175 -0.44364363 -0.42429876
0.30616647 0.15269941 -0.0053944588
0.3043955 0.034676373 0.04071331
0.30864748 0.31799841 -0.069972515
0.30052647 -0.2238676 0.14142656
0.29801849 -0.0017105937 0.05473423
0.30529249 -0.33436555 -0.13901949
0.29630849 -0.11829764 0.10028362
0.29218647 -0.0017076135 0.054536343
0.30913448 -0.4403376 -0.40765476
0.29909649 -0.33339363 -0.13391161
0.28752047 0.081698418 0.021752357
0.28528848 -0.077880621 0.0841012
0.28635448 -0.0017055869 0.054340363
0.29124048 0.34766138 -0.08216238
0.27948347 -0.077878594 0.083907604
0.28101948 0.034685373 0.039925575
0.27674547 0.15270841 -0.0063867569
0.27773347 0.22696841 -0.035402775
0.27241147 -0.1731196 0.12092543
0.27314049 -0.11828965 0.099502563
0.26994148 0.081700385 0.02116251
0.27144548 0.19771838 -0.024171352
0.27182448 0.22696841 -0.035600662
0.28343749 -0.4359836 -0.38566256
0.26554447 0.19771838 -0.024369717
0.26258647 -0.036647618 0.067210197
0.26743647 0.34766239 -0.082962513
0.25626048 -0.077879608 0.083127499
0.26000449 0.22696638 -0.035998344
0.26052848 0.26968837 -0.052692413
0.25719649 -0.0017055869 0.053360462
0.25764346 0.03468442 0.039141655
0.26427248 -0.4327566 -0.36931038
0.25599846 -0.32667357 -0.098491669
0.24997248 -0.11829466 0.098725319
0.24512848 -0.036654592 0.066626549
0.24595548 0.034679413 0.038750648
0.24354549 -0.17312759 0.11995935
0.24064048 0.081691384 0.020181656
0.24144049 0.15270042 -0.0075697899
0.23970248 -0.0017135739 0.052775383
0.23777248 -0.17313164 0.11976528
0.24520048 -0.42956358 -0.35308361
0.23199749 -0.17313665 0.11957359
0.23886348 -0.42850655 -0.3477025
0.23157948 -0.3229056 -0.078520775
0.22339548 0.11448038 0.0067744255
0.22498348 0.26967341 -0.053879738
0.22578149 0.34764838 -0.084355354
0.22101249 -0.11831659 0.097760201
0.21942748 -0.32104057 -0.068608761
0.21133748 0.081667423 0.019206524
0.21359548 0.31798041 -0.073159695
0.21336348 -0.32011265 -0.063669682
0.20504448 0.034643412 0.037390232
0.20313048 -0.17317158 0.11861849
0.20363548 -0.11833864 0.097186565
0.20171349 0.3179704 -0.073554516
0.19274649 -0.036709607 0.064888477
0.19536048 0.26964641 -0.054866791
0.19335549 0.034627378 0.037002563
0.18625848 -0.11836761 0.096613407
0.18259048 0.15264142 -0.009522438
0.18294448 0.19765538 -0.02712059
0.18110448 -0.036729574 0.064505577
0.17554648 -0.001793623 0.05065155
0.17054649 0.11441243 0.0050263405
0.16997448 0.034588397 0.036233425
0.17117848 -0.31370455 -0.029427528
0.16812249 -0.22393256 0.13729858
0.16848548 -0.17323965 0.11748028
0.16445048 0.081596375 0.017658234
0.16544148 0.22688138 -0.039140701
0.16606347 0.31792939 -0.074736595
0.16236548 -0.22394663 0.13711023
0.16308548 -0.11841661 0.095854282
0.15755248 -0.078014612 0.079863548
0.15782048 -0.036778629 0.063742638
0.16358948 -0.41610259 -0.28415966
0.15292747 0.11437941 0.0044484138
0.15199947 -0.036791623 0.063551426
0.14686447 0.081560373 0.017082214
0.14795448 0.26958042 -0.05643177
0.14823548 0.31790239 -0.075325489
0.14163548 0.1975854 -0.02848053
0.14013147 -0.078059614 0.079296589
0.14035648 -0.036821604 0.063171387
0.14054748 -0.0018715858 0.049506187
0.14229248 0.31789339 -0.075519562
0.13933448 -0.22401363 0.13636351
0.13573448 0.19757342 -0.028674603
0.13453448 -0.036837578 0.062983513
0.13489948 0.03450942 0.035086632
0.13357648 -0.22403258 0.13617849
0.12942648 -0.30744857 0.0042471886
0.12781648 -0.22405165 0.13599157
0.12355947 0.1143114 0.003487587
0.12372948 0.15252638 -0.011455536
0.12424847 0.26953542 -0.057210445
0.12304348 -0.0019196272 0.048938274
0.12205848 -0.22407264 0.13580561
0.12228347 -0.17337364 0.11598158
0.11755148 0.081487417 0.016126633
0.11689748 -0.07812959 0.078541279
0.11735848 0.034461379 0.034515381
0.11108948 -0.078148603 0.078355312
0.11124349 -0.036907613 0.062227249
0.11239448 0.26951039 -0.057597637
0.11257549 0.31783742 -0.076497555
0.10606748 0.15248138 -0.012031555
0.10528048 -0.078169584 0.078167439
0.10542148 -0.036927581 0.062039375
0.10566448 0.034425378 0.034135342
0.099469483 -0.078189611 0.077981472
0.099703476 -0.0019925833 0.048183441
0.094741479 0.31779939 -0.07708168
0.088311478 0.11421138 0.0023422241
0.087949485 -0.036989629 0.061477661
0.088579476 0.2267164 -0.041658401
0.087754481 -0.1186586 0.093418598
0.082368478 0.081379414 0.014986515
0.082513481 0.15241337 -0.012796402
0.082666479 0.22670043 -0.041850567
0.082753479 0.26943839 -0.05856657
0.08195848 -0.11868256 0.093232632
0.07675048 0.22668338 -0.042043686
0.076359481 -0.0020775795 0.047430515
0.076362476 -0.29962057 0.046734333
0.076160476 -0.1187076 0.093047619
0.070796482 0.19740438 -0.030789375
0.070523478 -0.0020995736 0.047243595
0.070573479 0.03430438 0.03300333
0.070289478 -0.17358464 0.11431742
0.064772479 0.081317425 0.014419556
0.064687476 -0.0021235943 0.047056198
0.053052481 0.11409038 0.0012054443
0.053122479 0.31769341 -0.078438759
0.05295448 -0.17366964 0.11376762
0.047173481 0.19732738 -0.031552792
0.047173481 -0.00219661 0.046497345
0.041243479 0.2693184 -0.059914589
0.04122648 0.31765938 -0.07882452
0.03554948 -0.078466594 0.075941563
0.035312481 0.26929837 -0.060106754
0.035473481 0.034160376 0.031882286
0.035649478 -0.22447664 0.13306141
0.02957348 0.0811764 0.013293266
0.029331479 0.31762338 -0.079209805
0.029758479 -0.29286164 0.083758354
0.029835479 -0.17379266 0.11304045
0.023660479 0.11397243 0.00026464462
0.02381848 -0.0023046136 0.045755386
0.023382479 0.31760538 -0.079402447
0.02405348 -0.17382556 0.1128583
0.017639481 0.19721937 -0.032502651
0.01810948 -0.078556597 0.075391293
0.011823479 0.15215439 -0.015069485
0.012211479 -0.037330627 0.059067249
0.01167148 0.2264654 -0.044145584
0.012065481 0.034051418 0.03113842
0.011484481 0.31756639 -0.079785347
0.011077479 -0.39185959 -0.15765238
0.0058234781 0.1971724 -0.032880783
0.0050914809 -0.39093262 -0.15275049
0.0066474788 -0.2895506 0.1020155
0.0065794811 -0.11906165 0.090848446
-8.5521489e-05 0.19714838 -0.033069611
0.00055547804 -0.03739363 0.058699608
-0.00028152019 0.2691744 -0.061252594
0.00045948103 -0.0024235845 0.045017242
0.00036048144 0.03399241 0.030767441
0.0010674782 -0.22468954 0.13198233
-0.0059955195 0.19712341 -0.033258438
-0.0051485188 -0.078687608 0.074661255
-0.0068575218 -0.38908857 -0.14297867
-0.012005519 0.22637141 -0.044903755
-0.012316521 0.31748438 -0.080552578
-0.010637522 -0.17403966 0.11177635
-0.01737852 0.080954373 0.011800289
-0.017645519 0.15202242 -0.016008377
-0.016778518 -0.078757584 0.074297428
-0.016933519 -0.037492573 0.058150291
-0.018085521 0.26910537 -0.061822414
-0.018267523 0.31746238 -0.08074379
-0.018771518 -0.38725764 -0.13325357
-0.016338523 -0.28628558 0.12010241
-0.022594523 -0.078793585 0.07411623
-0.03658152 -0.38453466 -0.11875248
-0.040864524 0.080829382 0.011062622
-0.041228522 0.15190738 -0.016755581
-0.042076517 0.31737041 -0.081506729
-0.048029523 0.31734741 -0.08169651
-0.053702522 0.2689544 -0.062960625
-0.052336518 0.03369838 0.029112339
-0.058686521 0.11356539 -0.0023436546
-0.057755519 -0.037748575 0.05687952
-0.059378523 0.22615743 -0.046410561
-0.05819552 0.033662379 0.028929234
-0.057253521 -0.1194796 0.088868618
-0.065302521 0.2261284 -0.046598434
-0.071518525 0.26887238 -0.063527584
-0.071981519 -0.37917465 -0.090061665
-0.075507522 -0.0028836131 0.042644501
-0.074276522 -0.17450458 0.10982037
-0.083076522 0.2260384 -0.047159672
-0.08811751 0.11339241 -0.0032634735
-0.08900252 0.2260074 -0.047346592
-0.087489516 0.033472419 0.028019428
-0.093735516 0.080510378 0.0094103813
-0.09468852 0.19668639 -0.036067486
-0.09305051 -0.0030056238 0.042103291
-0.10286951 -0.51802665 -0.42662764
-0.091643512 -0.17464858 0.10929251
-0.092093512 -0.11974663 0.087801456
-0.099892512 0.1133194 -0.0036315918
-0.096998513 -0.22545356 0.12898636
-0.10474752 -0.00309062 0.041742325
-0.10709652 -0.37392455 -0.061770439
-0.10227852 -0.28098959 0.15053463
-0.11167152 0.1132434 -0.0039963722
-0.11244051 0.19658542 -0.036623478
-0.11059852 -0.003133595 0.041564465
-0.10854651 -0.22555858 0.12864065
-0.10901451 -0.17479855 0.10876846
-0.11611252 -0.038173616 0.055086613
-0.11863951 0.2258454 -0.048278809
-0.11874051 -0.37219959 -0.052428722
-0.11431952 -0.22561258 0.12846851
-0.11533052 -0.11993855 0.087096214
-0.12312552 0.080312371 0.008500576
-0.12154251 -0.079514623 0.071074486
-0.13035251 -0.3704856 -0.04312849
-0.13363151 -0.038315594 0.054552555
-0.13164452 -0.22577959 0.12795019
-0.13901952 -0.079664588 0.070545197
-0.14025252 0.033090413 0.026397228
-0.14531152 -0.038412631 0.054198265
-0.14877352 0.26846838 -0.065964699
-0.15782851 -0.50900966 -0.38033342
-0.14771552 -0.36793858 -0.029261589
-0.14438951 -0.12019664 0.086221218
-0.15115252 -0.038462579 0.054021358
-0.15198351 0.032999396 0.0260396
-0.16389352 -0.50802559 -0.37525368
-0.14832851 -0.2814576 0.1491704
-0.15880652 0.11291641 -0.0054526329
-0.15980351 0.19629037 -0.038100719
-0.16015452 0.22559541 -0.049576759
-0.15784952 0.032951415 0.02586031
-0.15925251 -0.36625558 -0.020070553
-0.15601651 -0.1203056 0.08587265
-0.16470252 0.11287338 -0.0056333542
-0.16233052 -0.079872549 0.069844246
-0.16283852 -0.038564622 0.053668499
-0.16608952 0.22555739 -0.049760342
-0.16371852 0.032904387 0.025682449
-0.15984751 -0.28158361 0.14883232
-0.16053152 -0.22607464 0.12709427
-0.17018151 0.079963386 0.0070562363
-0.16958551 0.032856405 0.025503635
-0.17795652 0.22548139 -0.05012846
-0.18807252 -0.50412458 -0.35505152
-0.18195051 0.07986939 0.0066962242
-0.18238951 0.11273938 -0.0061745644
-0.18289952 0.15102541 -0.021168709
-0.18389152 0.2254414 -0.050312519
-0.19409652 -0.50315756 -0.35003138
-0.18783851 0.079822421 0.006518364
-0.18434551 -0.17553264 0.10652542
-0.19418551 0.1126464 -0.0065355301
-0.19472252 0.15093738 -0.021531582
-0.19206151 -0.038830578 0.052791595
-0.19636552 0.26817942 -0.06744957
-0.19306351 0.032656372 0.024793625
-0.20008351 0.11259937 -0.0067157745
-0.19521451 -0.22645563 0.12607956
-0.20549953 0.079675376 0.0059814453
-0.2065455 0.15084642 -0.021893501
-0.20375451 -0.038942575 0.052441597
-0.20826951 0.26810139 -0.067819595
-0.20426953 -0.0039196014 0.038724422
-0.21245852 0.15080041 -0.022073746
-0.21313751 0.19591838 -0.039746761
-0.20898053 -0.080325544 0.068453312
-0.20754451 -0.1757856 0.10584545
-0.21727753 0.079574406 0.005625248
-0.21334752 -0.17585057 0.10567665
-0.2236855 0.11240542 -0.0074324608
-0.2290585 0.079471409 0.0052704811
-0.22958651 0.11235541 -0.0076107979
-0.22715053 -0.039173603 0.051747322
-0.23139951 0.2251094 -0.051778793
-0.22787151 -0.3563996 0.034196377
-0.22324151 -0.28233665 0.14699841
-0.2241345 -0.22679561 0.12524033
-0.2335425 -0.35559756 0.03865242
-0.24203652 0.15056241 -0.022974491
-0.24279252 0.19569242 -0.040655613
-0.23944151 -0.0042585731 0.037675381
-0.2392095 -0.35479766 0.04309845
-0.24729851 0.11220139 -0.0081467628
-0.2487255 0.19564641 -0.040835381
-0.24470553 -0.039354622 0.051228523
-0.24922752 0.22497642 -0.052325726
-0.2414965 -0.22700864 0.12474155
-0.2433055 -0.12121361 0.083295345
-0.25320253 0.11214942 -0.0083236694
-0.25517052 0.22493142 -0.052507401
-0.25495553 -0.12134761 0.082958221
-0.2622655 -0.039541602 0.050711632
-0.26356351 0.031995416 0.02268219
-0.27163151 0.15030837 -0.023870468
-0.2687695 -0.0045595765 0.036808491
-0.27976051 0.26759839 -0.070023537
-0.28943053 -0.4881596 -0.27134562
-0.27243653 -0.12155455 0.08245039
-0.28050551 -0.0046855807 0.036462307
-0.2953245 -0.48725063 -0.26652956
-0.2772105 -0.17661959 0.10383034
-0.27826452 -0.1216256 0.082283497
-0.29168552 0.26750737 -0.070389748
-0.28708753 0.031755388 0.021987438
-0.28094551 -0.28311163 0.14536238
-0.29456052 0.11176538 -0.0095624924
-0.29532152 0.15009642 -0.024581432
-0.29621851 0.19525337 -0.042277813
-0.29155052 -0.03986758 0.049854279
-0.3070915 -0.48544258 -0.25692463
-0.28988951 -0.3477276 0.08265543
-0.28883353 -0.17677063 0.10349846
-0.29980752 0.078799427 0.003156662
-0.30047151 0.1117084 -0.0097384453
-0.30666152 -0.34542066 0.095662594
-0.3052085 -0.22785658 0.12293339
-0.31499052 -0.040141582 0.049174309
-0.32412651 0.11147338 -0.010442734
-0.3274855 0.26722342 -0.071479797
-0.31790051 -0.17715961 0.10267448
-0.32931951 0.078493416 0.0022854805
-0.32581052 -0.081660569 0.065051556
-0.32337651 -0.34313864 0.10858345
-0.33595753 0.1113534 -0.010792732
-0.33781651 0.19488138 -0.043528557
-0.33166051 -0.081734598 0.064884663
-0.33942452 0.26712537 -0.07184267
-0.33336151 -0.0052825809 0.034920216
-0.32716352 -0.28379458 0.1440773
-0.34442553 0.22418839 -0.055216789
-0.34539452 0.26707542 -0.072021484
-0.33294353 -0.28388363 0.14391851
-0.35294551 0.078236401 0.0015902519
-0.35460553 0.14952439 -0.026349545
-0.35017952 -0.040572584 0.048160553
-0.35184652 0.031038404 0.020093441
-0.36549252 -0.47659761 -0.20958948
-0.3588545 0.078171372 0.0014185905
-0.35963252 0.11110437 -0.011489391
-0.3502925 -0.28415662 0.1434412
-0.3682605 0.22397041 -0.055931568
-0.3692885 0.26687038 -0.07274437
-0.35862952 -0.17773765 0.10153341
-0.35994953 -0.12269062 0.079955578
-0.37067351 0.078038394 0.0010733604
-0.36677653 -0.082196653 0.063884258
-0.37739852 0.11091137 -0.012010574
-0.36902052 -0.2288056 0.12116146
-0.37952653 -0.04095161 0.047322273
-0.38040352 -0.0058586001 0.033565521
-0.3944315 -0.47229558 -0.18633461
-0.39021951 0.14915442 -0.027401447
-0.39211053 0.22374439 -0.056643486
-0.38628751 -0.0059345961 0.033397198
-0.40019852 -0.47144455 -0.18171549
-0.39020652 -0.082519591 0.063223362
-0.39311153 0.030540407 0.018900394
-0.38417652 -0.33497864 0.15522623
-0.39079952 -0.2848236 0.14234161
-0.40702653 0.1105774 -0.012875557
-0.39806053 -0.22926956 0.12036657
-0.41519052 0.19412041 -0.045830727
-0.4098345 -0.0062416196 0.032725334
-0.42893553 -0.46723562 -0.15878439
-0.42261553 0.030166388 0.018055439
-0.4168905 -0.17863256 0.099926472
-0.43074751 0.11029941 -0.013564587
-0.43181351 0.14869642 -0.02862072
-0.43388551 0.22332841 -0.057885647
-0.42852053 0.030089378 0.017888546
-0.44038552 -0.46557361 -0.14968538
-0.43903053 0.1938684 -0.046532631
-0.4344255 0.030011415 0.017719269
-0.44609952 -0.46474856 -0.14515352
-0.42418051 -0.33447164 0.16064119
-0.42855552 -0.17882055 0.099608421
-0.43010351 -0.12372261 0.078002453
-0.45180753 -0.46392459 -0.14063168
-0.44965351 0.14849138 -0.029139519
-0.45692053 0.19367337 -0.047057629
-0.45777753 0.2230804 -0.058589458
-0.4521445 0.029774368 0.017217636
-0.44605753 -0.17910963 0.099131584
-0.46042052 0.10993838 -0.014419556
-0.45471749 -0.083466589 0.061427593
-0.45805451 0.029694378 0.017049313
-0.4473035 -0.33490855 0.16003752
-0.4653745 0.076884389 -0.0016555786
-0.45308653 -0.3350206 0.15988541
-0.45621154 -0.23026162 0.11880159
-0.47345653 0.14821041 -0.029827595
-0.47482249 0.1934734 -0.047581673
-0.46771052 -0.042193592 0.044846535
-0.47570953 0.2228874 -0.059118748
-0.46877053 -0.0070586205 0.031065464
-0.47823653 0.1097154 -0.014930725
-0.47940955 0.1481384 -0.030000687
-0.48079053 0.19340539 -0.047754765
-0.47233149 -0.083740652 0.060944557
-0.48168853 0.22282237 -0.059292793
-0.48316053 0.076650381 -0.0021624565
-0.48536453 0.1480664 -0.030171394
-0.49158952 -0.4582476 -0.10925961
-0.49365154 0.22269142 -0.059642792
-0.48761454 0.029283404 0.016216278
-0.47622952 -0.33547562 0.1592865
-0.4795005 -0.2306816 0.11818361
-0.49727651 0.14791942 -0.030515671
-0.49963453 0.22262442 -0.059817791
-0.49237451 -0.0074036121 0.030408382
-0.48201749 -0.33559161 0.1591363
-0.48356649 -0.28650957 0.13988352
-0.48532453 -0.23078865 0.11802959
-0.50323457 0.14784539 -0.030686378
-0.49453649 -0.12476557 0.076245308
-0.51160252 0.22248942 -0.060167789
-0.49862149 -0.18001956 0.097721577
-0.51282454 0.076247394 -0.0030007362
-0.51663053 0.19298738 -0.0487957
-0.51008952 -0.0076705813 0.02991724
-0.52260655 0.19291639 -0.048968792
-0.51031452 -0.18023056 0.097412586
-0.52579653 0.10909241 -0.016283512
-0.52858454 0.19284439 -0.0491395
-0.52073354 -0.043014586 0.043387413
-0.52312356 0.02876842 0.01522541
-0.53106654 -0.45271665 -0.078392506
-0.53303957 0.14746642 -0.03153944
-0.52781254 -0.0079426169 0.029429436
-0.51676953 -0.33630759 0.15824938
-0.54054552 0.19269842 -0.049486637
-0.53111953 -0.084701598 0.059344292
-0.52423555 -0.28731757 0.13883543
-0.52973753 -0.12537366 0.075301647
-0.53842854 -0.043301582 0.042904377
-0.53963655 -0.0081285834 0.029104233
-0.54089355 0.028501391 0.014733315
-0.54789656 -0.45039064 -0.065311432
-0.53004855 -0.28743654 0.13868523
-0.54960454 0.10876638 -0.01695776
-0.55353057 0.22200042 -0.061383724
-0.53779757 -0.2317906 0.11665821
-0.53956556 -0.18077165 0.096641541
-0.55440253 0.075656414 -0.0041656494
-0.57343155 0.10843039 -0.017625809
-0.56921154 -0.0086035728 0.028297424
-0.57582754 -0.44657165 -0.043707371
-0.55736452 -0.33718461 0.15722942
-0.55913657 -0.28804463 0.13794661
-0.58535153 0.10825843 -0.017959595
-0.57822955 -0.085524619 0.058084488
-0.57975554 -0.043995619 0.041787624
-0.58239657 0.02785641 0.01359129
-0.57470453 -0.18144864 0.09572649
-0.59131455 0.1081714 -0.018126488
-0.59274256 0.14666539 -0.033231735
-0.58833152 0.0277614 0.013428211
-0.62862355 -0.60207158 -0.41281462
-0.59157556 -0.044200599 0.041470528
-0.59289354 -0.0089966059 0.027655602
-0.58642852 -0.18168062 0.095422268
-0.60641056 0.1918574 -0.051368713
-0.58825254 -0.28867465 0.13721561
-0.61240554 0.19177741 -0.051539421
-0.60181457 -0.085953653 0.057459354
-0.61353052 0.22125739 -0.063109398
-0.60614055 0.02747339 0.012943268
-0.61517453 0.10781938 -0.018788338
-0.60771352 -0.08606261 0.057303429
-0.60402054 -0.18203455 0.094970226
-0.61986053 0.074666381 -0.0059785843
-0.62440157 0.19161642 -0.051878452
-0.61522853 -0.044618607 0.040839195
-0.60573757 -0.28906363 0.13678026
-0.61203355 -0.12689966 0.073133469
-0.62711352 0.10763937 -0.01911974
-0.62862253 0.14615637 -0.034238338
-0.63155556 0.22102439 -0.063623428
-0.62252456 -0.0095025897 0.026857376
-0.61375457 -0.23335856 0.11472034
-0.62845457 -0.0096055865 0.026698589
-0.62990457 0.027079403 0.012300491
-0.63126552 -0.4391486 -0.0012235641
-0.64240253 0.19137037 -0.052386761
-0.64357853 0.22086638 -0.063963413
-0.63677853 -0.43842155 0.0029745102
-0.62969857 -0.12724656 0.072675228
-0.63722956 -0.086619556 0.056530476
-0.64228857 -0.43769759 0.007162571
-0.65256953 0.14580542 -0.034905434
-0.64779055 -0.43697661 0.011338234
-0.63872552 -0.3390736 0.15523529
-0.64073855 -0.28986555 0.13591719
-0.64737755 -0.12760061 0.072220325
-0.66159457 0.073995411 -0.0071187019
-0.66296053 0.10708439 -0.020107746
-0.66642356 0.19103438 -0.053063393
-0.64888155 -0.23413056 0.11384153
-0.65099055 -0.18301564 0.093775272
-0.66259456 -0.045489609 0.039589405
-0.66558856 0.026468396 0.011339188
-0.67653853 0.14544541 -0.035568714
-0.65619153 -0.33950263 0.15481424
-0.65825754 -0.29027861 0.13549042
-0.66274655 -0.18326861 0.093480587
-0.68445456 0.19077742 -0.053568363
-0.67594153 -0.010457575 0.025436401
-0.67522556 -0.43341166 0.032087326
-0.68037957 -0.045827627 0.039124489
-0.67686653 -0.1282056 0.071466446
-0.69144654 0.073498368 -0.0079264641
-0.69648153 0.19060338 -0.05390358
-0.68452156 -0.087549627 0.055304527
-0.68782657 -0.010677576 0.02512455
-0.67366856 -0.33993858 0.15439844
-0.67578554 -0.29069859 0.13506651
-0.70249856 0.19051439 -0.054071426
-0.69536453 0.025940418 0.010546207
-0.68867254 -0.12845355 0.071167469
-0.70851552 0.19042641 -0.05423975
-0.69457656 -0.1285786 0.071018219
-0.70411152 -0.046289623 0.038508415
-0.70728356 0.025724411 0.010229588
-0.70252955 -0.42991656 0.052609444
-0.69115853 -0.34038359 0.1539855
-0.70048153 -0.12870365 0.070868492
-0.71535254 0.073088408 -0.0085697174
-0.71853554 0.14479238 -0.036725521
-0.71324557 0.025616407 0.010072231
-0.70797557 -0.42922455 0.056686401
-0.72133255 0.072984397 -0.0087285042
-0.71920854 0.025506377 0.0099153519
-0.70502853 -0.29141766 0.13436556
-0.70753157 -0.23548561 0.11240244
-0.71088254 -0.29156464 0.13422537
-0.71340454 -0.23562557 0.11225939
-0.76153755 -0.58267957 -0.3069396
-0.73114055 0.025285423 0.0096006393
-0.71673656 -0.29171163 0.13408661
-0.74079955 0.10580641 -0.022221565
-0.73380852 -0.046882629 0.037742615
-0.73710757 0.025173426 0.0094423294
-0.74679655 0.10570341 -0.022382736
-0.73102957 -0.23605162 0.11183357
-0.73339152 -0.18485659 0.09172821
-0.73594654 -0.12947458 0.069977283
-0.75670654 0.18969738 -0.05557251
-0.74904853 0.024948418 0.0091314316
-0.73690957 -0.23619562 0.11169338
-0.75164354 -0.047247589 0.037285328
-0.74278855 -0.23633963 0.11155128
-0.76662153 0.14401138 -0.038033485
-0.76922655 0.072129369 -0.010003567
-0.77263856 0.14391041 -0.038197517
-0.76354057 -0.047493577 0.036981583
-0.75676453 -0.42312664 0.092980385
-0.75189054 -0.29261559 0.1332593
-0.77680755 0.1051814 -0.023187637
-0.77865756 0.14380938 -0.038360596
-0.77118254 -0.012295604 0.022956371
-0.77294457 0.024489403 0.0085072517
-0.76043457 -0.23677856 0.11112928
-0.78121555 0.071908414 -0.01031971
-0.78281558 0.10507441 -0.023347378
-0.77544552 -0.047743618 0.036679268
-0.77146453 -0.13027459 0.069097519
-0.81273752 -0.57556063 -0.26703835
-0.79291153 0.18912739 -0.056566715
-0.78139853 -0.047869623 0.036528587
-0.76709056 -0.3424086 0.15222645
-0.81839955 -0.57478565 -0.2626586
-0.79320955 0.071685374 -0.010635376
-0.79483354 0.10486042 -0.023667812
-0.79672354 0.14350337 -0.038846493
-0.78908253 -0.012660623 0.022498608
-0.77832252 -0.4204846 0.10888433
-0.78331453 -0.13054663 0.068806648
-0.82405657 -0.57401365 -0.25828552
-0.80084455 0.10475141 -0.023826599
-0.79125655 -0.08981961 0.052606583
-0.78122455 -0.2933926 0.13257742
-0.80521053 0.071460426 -0.010950565
-0.81103456 0.18883538 -0.057060719
-0.79926854 -0.048251629 0.036078453
-0.78464657 -0.34289855 0.15182829
-0.78987557 -0.23752755 0.11043358
-0.79517156 -0.1308226 0.068515301
-0.81121457 0.071346402 -0.011107445
-0.80755854 -0.23798662 0.11002064
-0.81345552 -0.2381416 0.10988235
-0.81890357 -0.13138455 0.067937374
-0.83524156 0.07088542 -0.011735439
-0.83694756 0.10408938 -0.02478075
-0.82908654 -0.048902631 0.035331249
-0.82484156 -0.13152665 0.067793369
-0.86351556 -0.5686956 -0.22795963
-0.83688456 -0.01366359 0.02128458
-0.82790953 -0.1871596 0.08945322
-0.84102356 -0.049168587 0.035034657
-0.83671957 -0.13181359 0.067506313
-0.87474453 -0.56720358 -0.21938372
-0.84884953 -0.013921618 0.020983219
-0.83706057 -0.23876959 0.10933638
-0.86308855 0.1423344 -0.040619373
-0.83739853 -0.34441763 0.1506505
-0.86531156 0.07029438 -0.012513638
-0.86707658 0.10352039 -0.025569439
-0.86913252 0.14222437 -0.040778637
-0.84887356 -0.23908859 0.10906458
-0.85478157 -0.23924965 0.10892725
-0.85752654 -0.18792266 0.088756561
-0.85767055 -0.2955206 0.13084221
-0.87687457 -0.049983621 0.034149647
-0.85851556 -0.41094965 0.16731119
-0.86088353 -0.34511763 0.15013647
-0.88939756 0.069809377 -0.013133526
-0.88057953 -0.09189862 0.050419331
-0.86676055 -0.34529561 0.1500082
-0.87251657 -0.23973864 0.10852242
-0.88654655 -0.092042625 0.050277233
-0.88883954 -0.050260603 0.033855438
-0.89280754 0.022034407 0.0054426193
-0.86913353 -0.4097206 0.17496252
-0.89482355 -0.050400615 0.033708572
-0.89881754 0.021903396 0.0052905083
-0.87851453 -0.34565264 0.14975262
-0.88718456 -0.18870658 0.088067532
-0.90277857 -0.015117586 0.019639492
-0.88439453 -0.34583265 0.1496253
-0.89312053 -0.18886656 0.087930202
-0.90679657 -0.050682604 0.033415318
-0.91084254 0.021642387 0.004989624
-0.88668257 -0.41025561 0.17474842
-0.89304256 -0.29655355 0.13005829
-0.89618355 -0.24040061 0.10798645
-0.91954356 0.06918937 -0.013903618
-0.92359757 0.14120841 -0.042211533
-0.91043454 -0.092629611 0.049703598
-0.92965752 0.14109242 -0.042369366
-0.91641057 -0.092778623 0.049560547
-0.90484756 -0.29690558 0.12979937
-0.93350953 0.10221338 -0.027290344
-0.92477155 -0.051110625 0.032980442
-0.92836756 -0.0930776 0.049275398
-0.93279856 -0.015807629 0.018900394
-0.91987956 -0.2410776 0.10745621
-0.92601657 -0.1340676 0.065388203
-0.93434954 -0.093228638 0.049134254
-0.94093955 0.020974398 0.0042386055
-0.95166552 0.10184342 -0.027756691
-0.94033253 -0.09338063 0.048992634
-0.94481957 -0.016088605 0.018606663
-0.9557755 0.06842339 -0.014820576
-0.95083153 -0.01622963 0.018460274
-0.96377754 0.10159338 -0.028063774
-0.96786749 0.068162382 -0.015124798
