# .PCD v0.7 - Point Cloud Data file format
VERSION 0.7
FIELDS x y z
SIZE 4 4 4
TYPE F F F
COUNT 1 1 1
WIDTH 1
HEIGHT 1024
VIEWPOINT 0 0 0 1 0 0 0
POINTS 1024
DATA ascii
0.54098219 0.64894068 -0.31900072
0.53404319 0.64932275 -0.30914879
0.5517242 0.47372171 -0.54158974
0.51434922 0.6974737 -0.29335785
0.51117623 0.48624873 -0.33456755
0.50260621 0.61653876 -0.3015008
0.49878722 0.44140473 -0.3346839
0.47539321 0.54578876 -0.088748455
0.50937921 0.29526073 -0.57476854
0.48225921 0.49517971 -0.18693066
0.49929023 0.29978573 -0.52142859
0.4652842 0.62796175 -0.028945446
0.49207419 0.3539837 -0.41692591
0.47955221 0.44803271 -0.23558283
0.49445519 0.26514775 -0.5437808
0.4747172 0.6987347 -0.25425768
0.48451519 0.26987374 -0.49088478
0.4545362 0.50373769 -0.045395851
0.4567782 0.41721573 -0.1685915
0.46247721 0.69875574 -0.25438786
0.46291819 0.73293674 -0.26102686
0.45169619 0.45762771 -0.09207058
0.45646119 0.65148175 -0.25601053
0.45390221 0.36966175 -0.21697855
0.44761321 0.42064071 -0.12102556
0.45671421 0.69860172 -0.25987768
0.4348332 0.54978669 -0.016249657
0.43593919 0.62785971 -0.033365726
0.44469419 0.37344271 -0.16874552
0.45007321 0.73318672 -0.25192976
0.43421319 0.50612873 -0.0066757202
0.46051219 0.16730672 -0.51151991
0.43006721 0.62783873 -0.034249783
0.43050921 0.65945673 -0.041181564
0.4296582 0.42734873 -0.027841568
0.42777419 0.46391973 0.0016975403
0.45556921 0.13232374 -0.53380871
0.42146519 0.42995271 0.0082612038
0.43787321 0.73319072 -0.2525506
0.4219332 0.46388671 0.00081634521
0.44136721 0.17805374 -0.40748978
0.4278222 0.29682374 -0.18914366
0.41832221 0.62779671 -0.036016464
0.43643919 0.14360875 -0.42915678
0.41184121 0.58251274 -0.026972771
0.41883421 0.3010937 -0.1413126
0.4147442 0.33768272 -0.074436665
0.40597519 0.58248675 -0.027855873
0.40340021 0.3878597 0.014845371
0.40440521 0.46378371 -0.0018148422
0.43033221 0.038318694 -0.53749466
0.40122721 0.30945772 -0.04761076
0.4136042 0.73314273 -0.25593281
0.42087922 0.044687748 -0.48474979
0.40876019 0.15993375 -0.27771664
0.40469021 0.19863671 -0.20818472
0.3988632 0.6570437 -0.1086278
0.38740119 0.50587976 -0.01370573
0.39095619 0.17043173 -0.18030548
0.38306421 0.62766272 -0.041323662
0.38007319 0.38769472 0.011348248
0.38154519 0.50584769 -0.014584541
0.39781421 0.78818274 -0.30109262
0.3771832 0.62763971 -0.042208672
0.37423721 0.3876527 0.010474205
0.3894892 0.73301673 -0.26231766
0.39543819 -0.04485029 -0.48165846
0.36753821 0.31606573 0.025308132
0.3678962 0.34572273 0.018797398
0.37130219 0.62761676 -0.043093681
0.36891019 0.42961273 0.00038051605
0.38395321 0.73275572 -0.27297544
0.3799262 0.029585719 -0.31180573
0.3756122 0.075180709 -0.23215151
0.36542121 0.62759268 -0.043978691
0.36693919 0.081021726 -0.18375587
0.35482422 0.2246477 0.043626308
0.35900921 0.58227473 -0.034916878
0.35953921 0.62756974 -0.044863701
0.35445821 0.65888673 -0.061065674
0.35137519 0.42949271 -0.002248764
0.3517662 0.46345872 -0.0097064972
0.3679032 0.78792572 -0.31761265
0.35971221 -0.01777029 -0.27838755
0.34505221 0.38743573 0.006105423
0.35081419 0.70343173 -0.10571766
0.35109621 -0.011240304 -0.22935867
0.34223619 0.6591537 -0.054474831
0.34052721 0.50561172 -0.020740509
0.33205819 0.26733571 0.030727386
0.34698021 -0.056566298 -0.26901674
0.3325882 0.31576574 0.020086288
0.33337119 0.38734674 0.0043582916
0.3342022 0.46334371 -0.012340546
0.32546121 0.19491673 0.045761108
0.34776819 -0.16227227 -0.41032791
0.3384662 -0.049775302 -0.22012568
0.33129719 0.73785573 -0.073554516
0.31876719 0.1108557 0.063359261
0.3196542 0.19485372 0.044896126
0.3341302 -0.093368232 -0.25649166
0.3209292 0.31566274 0.018344402
0.31459719 0.26716775 0.028122425
0.3175202 0.54919773 -0.033872604
0.30718321 0.11071473 0.061636448
0.3080382 0.19472772 0.043166161
0.31362221 -0.029966295 -0.077488899
0.3119792 0.58204675 -0.041982651
0.31276321 0.65904272 -0.058910847
0.3149482 0.73705375 -0.10612774
0.31077021 0.46318671 -0.015851498
0.32675919 -0.20052522 -0.36132383
0.3025232 0.22411472 0.035825253
0.30183819 0.026070714 0.050893307
0.3060962 0.58201671 -0.042866707
0.30686522 0.65901971 -0.059797764
0.31340519 0.70053071 -0.2038188
0.3053312 0.50539672 -0.026019573
0.2952702 0.077355742 0.067218304
0.29989019 0.54909968 -0.036518574
0.3002122 0.58198673 -0.043750763
0.31611919 -0.26939434 -0.4009347
0.29060519 0.19453472 0.040571213
0.28902119 0.029572725 0.076851368
0.2943252 0.58195674 -0.044635773
0.2920512 0.34508574 0.0074591637
0.2928572 0.42906973 -0.011009693
0.2935892 0.50532269 -0.027780533
0.3076672 -0.26096123 -0.35020685
0.28547421 0.26687771 0.023779392
0.2828922 -0.0075122714 0.084135532
0.28886619 0.62726873 -0.055492878
0.29341722 0.7356717 -0.16185284
0.29354519 -0.16959625 -0.16485071
0.2782042 0.11035269 0.057331085
0.27856019 0.14898473 0.048832417
0.28224921 0.54899973 -0.039166451
0.29155219 0.69883174 -0.26113653
0.28145519 0.46298173 -0.020242691
0.2997852 0.82233572 -0.45757389
0.29112419 -0.24445933 -0.25092649
0.27275419 0.14891374 0.047969341
0.27666321 0.58186471 -0.047288895
0.2742562 0.31523073 0.011377335
0.27490321 0.38687474 -0.0043854713
0.28603321 0.69840169 -0.27561045
0.29446021 0.78516471 -0.48094988
0.2890332 0.8671217 -0.34870958
0.2652472 -0.0433743 0.089403152
0.26760721 0.22373575 0.030625343
0.27048221 0.54893172 -0.040932655
0.2684162 0.3151747 0.010505199
0.27117321 0.62718868 -0.058152676
0.27704021 0.73461872 -0.20423746
0.26972121 0.46289673 -0.021999836
0.2842302 0.82324874 -0.3832345
0.2800732 -0.30651432 -0.27973366
0.27503821 -0.22841734 -0.15438747
0.2591112 -0.085561275 0.097815514
0.2594752 -0.043464303 0.088548183
0.25978321 -0.0078532696 0.080711365
0.26385319 0.46285471 -0.022878647
0.2621302 -0.14035732 0.020975113
0.25571221 0.1941337 0.03537941
0.25798419 0.46281171 -0.023757458
0.26077721 0.79182971 -0.09647274
0.26633221 0.86777771 -0.24107075
0.2495182 0.14862573 0.044516087
0.24758121 -0.085750282 0.096110344
0.25089219 0.31500369 0.0078921318
0.25113821 0.34471273 0.0013513565
0.2537342 0.65880573 -0.067791462
0.2514852 0.3866747 -0.0078854561
0.25246319 0.50505471 -0.033944607
0.25532919 0.79159474 -0.11027765
0.2567302 0.90493172 -0.14758968
0.25624919 -0.28124624 -0.13479757
0.24312621 0.076654732 0.059481144
0.24370621 0.1485517 0.043652534
0.24465822 0.2664507 0.017696381
0.24244122 -0.0081163049 0.07814455
0.24693722 0.54879171 -0.044464588
0.24528922 0.34465772 0.00047922134
0.24756922 0.62707871 -0.061701775
0.25489721 0.73319376 -0.26155376
0.24985923 0.79135871 -0.12413979
0.25158319 0.8682037 -0.17115259
0.23825021 0.19392574 0.032782555
0.23943722 0.3446027 -0.00039482117
0.24166422 0.62705076 -0.062587738
0.24010022 0.42865673 -0.018903732
0.24672522 0.82544672 -0.20400572
0.24431722 0.86841375 -0.1367135
0.24387321 0.90494972 -0.12430048
0.2500872 -0.42880732 -0.29790878
0.23152521 0.076492727 0.057762146
0.23515621 0.54871976 -0.046230793
0.24204122 0.69942373 -0.2433939
0.23482022 0.50493473 -0.036588669
0.23945221 0.82587272 -0.16924572
0.24799022 -0.52536124 -0.41373777
0.24222621 -0.41939133 -0.24868488
0.22660421 0.1937837 0.031051159
0.22450522 -0.086137295 0.092702389
0.22985221 0.62699473 -0.06436348
0.23009022 0.65870571 -0.071348667
0.22016421 0.10958272 0.048716545
0.22099422 0.22320074 0.02368927
0.21930121 -0.0084762573 0.074721336
0.22188021 0.34443372 -0.0030136108
0.22394522 0.62696576 -0.065250874
0.22274321 0.46254671 -0.029032707
0.22775622 0.79040474 -0.18014669
0.22292222 -0.32453734 -0.034408569
0.21295922 -0.086335301 0.090998173
0.21325922 -0.044206262 0.081717491
0.21546721 0.26613075 0.013350487
0.21771121 0.58154172 -0.056137562
0.21803522 0.62693673 -0.066139698
0.21686421 0.46250072 -0.029912472
0.22440322 -0.49502224 -0.26331949
0.21929221 -0.3919273 -0.10507774
0.20932822 0.22306174 0.021954536
0.21234421 0.6586287 -0.074017525
0.21127921 0.50477076 -0.040115833
0.20272921 0.10934073 0.046132088
0.20218322 0.028299749 0.063991547
0.20568621 0.5485357 -0.050650597
0.20590821 0.58147371 -0.057909489
0.20621422 0.62687874 -0.067914486
0.21335922 0.73221272 -0.30179548
0.19563422 -0.086637259 0.088444233
0.20000422 0.58143973 -0.058795452
0.19825822 0.31446671 4.4345856e-05
0.20030122 0.6268487 -0.068803787
0.19872722 0.38620073 -0.015764713
0.19900322 0.42831472 -0.025047779
0.20718521 0.73224372 -0.30075359
0.19922522 0.46236271 -0.032550812
0.19950221 0.50468671 -0.0418787
0.21036622 -0.65681523 -0.4079175
0.18985721 -0.086739302 0.087593555
0.19012521 -0.044594288 0.078303337
0.19259322 0.34414375 -0.0073828697
0.19312721 0.42826471 -0.025924683
0.19334322 0.46231571 -0.03343153
0.19361222 0.50464368 -0.042761803
0.19565621 0.82656574 -0.11371469
0.18528321 0.1090917 0.043547153
0.18455622 -0.0090382695 0.069589138
0.18310522 -0.3486113 0.12152052
0.19189921 -0.55866033 -0.19329691
0.17996821 0.19319671 0.024124146
0.17876121 -0.0091342926 0.068732262
0.18274522 0.65849674 -0.078466892
0.18111922 0.38603574 -0.018393517
0.18374722 0.82654774 -0.1155138
0.19171521 -0.7257933 -0.40999889
0.18759722 -0.62376028 -0.25780964
0.17364821 0.10892373 0.041823387
0.17251621 -0.087051272 0.085037231
0.17483321 0.31421572 -0.0034446716
0.17682122 0.65846968 -0.079357624
0.17524822 0.38597971 -0.019269466
0.17549121 0.42811173 -0.028559685
0.17927821 0.7905497 -0.17317772
0.16764222 0.075552702 0.048302174
0.17028221 0.5483067 -0.055958748
0.17046621 0.58126473 -0.0632267
0.16914122 0.34390372 -0.010878563
0.17089622 0.65844274 -0.080247879
0.17115122 0.70410371 -0.090317726
0.17634621 0.73239672 -0.29555178
0.16980022 0.46212474 -0.036951542
0.17916721 -0.76882225 -0.40700054
0.17669222 -0.70262927 -0.30919075
0.17018221 -0.52860123 -0.052036762
0.16182621 0.075462699 0.047442436
0.16094922 -0.087263286 0.083334446
0.16156922 0.027654707 0.057987213
0.15927121 -0.41130823 0.15199232
0.16072622 -0.12867624 0.092468262
0.16577022 -0.5920853 -0.11392784
0.15846922 0.54822773 -0.057729721
0.15864022 0.58119273 -0.065000534
0.15725121 0.31402373 -0.0060625076
0.16402522 0.73245668 -0.29347563
0.15802121 0.46202773 -0.038713455
0.15494922 -0.12878734 0.091618538
0.15619022 -0.5092383 0.038983345
0.14959021 -0.045301259 0.07232523
0.15114522 0.26538372 0.0037813187
0.14976922 -0.0096243024 0.064454556
0.14995421 0.027463734 0.056271553
0.15234222 0.50433874 -0.048939705
0.15507121 0.79062873 -0.16918182
0.15706322 -0.73344129 -0.25699091
0.14917122 -0.12889928 0.090768337
0.14552522 0.31389272 -0.0078086853
0.14607322 0.42784873 -0.032954693
0.14623721 0.46192873 -0.040474892
0.14644122 0.50429368 -0.049822807
0.14235121 -0.3453483 0.1376543
0.14339222 -0.12901229 0.08991909
0.13780321 -0.087694287 0.079927444
0.13816321 -0.0098252892 0.062743187
0.14074221 0.54810673 -0.060385704
0.13965921 0.31382674 -0.0086817741
0.14054021 0.50424773 -0.05070591
0.14641021 -0.82874829 -0.33095551
0.14283921 -0.71068126 -0.16046762
0.13305321 0.14704269 0.027243137
0.13338521 0.22210771 0.010674477
0.13235721 -0.0099272728 0.061886311
0.13497621 0.58104575 -0.068550587
0.13379121 0.31375974 -0.009554863
0.13517721 0.62650973 -0.078584671
0.13531822 0.65827471 -0.085595608
0.13444722 0.46182871 -0.042236805
0.13182922 -0.12923926 0.088219166
0.12705322 0.10822475 0.034927368
0.12753521 0.2220307 0.0098052025
0.12771721 0.26509774 0.00029945374
0.12655121 -0.010029256 0.061030388
0.12905622 0.58100873 -0.06943655
0.12512821 -0.34575933 0.13513947
0.13218522 -0.80442327 -0.23239279
0.12900221 -0.68854827 -0.066580772
0.12122322 0.10813475 0.034065247
0.12156422 0.19241273 0.015458107
0.12042922 -0.088027298 0.07737112
0.12185822 0.26502472 -0.00057268143
0.12089422 0.026975691 0.051981449
0.12300321 0.54798371 -0.063042641
0.12332021 0.6264447 -0.08036375
0.12234522 0.38545871 -0.027159691
0.12265322 0.46172673 -0.043998718
0.12522222 -0.79251724 -0.18414783
0.11463521 -0.088139296 0.076519489
0.11583021 0.22187573 0.0080680847
0.11721422 0.58093369 -0.071212769
0.11738922 0.62641168 -0.081254482
0.11751222 0.6581887 -0.088270664
0.11646122 0.3853997 -0.028037548
0.11338822 -0.41191524 0.14800739
0.11364222 -0.34603828 0.13346243
0.12153521 -0.9092223 -0.31872749
0.11553922 -0.66702133 0.024754524
0.10883921 -0.088252306 0.075666428
0.10899422 -0.04604429 0.066345215
0.10997421 0.22179669 0.0071992874
0.11013222 0.26487774 -0.0023136139
0.10926022 0.026775718 0.050265312
0.11116922 0.54790068 -0.064814568
0.11031021 0.31348872 -0.013047695
0.11041921 0.34327275 -0.019626617
0.11278421 0.79076374 -0.16220665
0.10765322 -0.4120633 0.1471734
0.11455922 -0.89643627 -0.26927662
0.10808022 -0.29560131 0.12145424
0.10739422 -0.48278934 0.16278934
0.10385822 0.14660972 0.022920132
0.10304321 -0.088365257 0.074815273
0.10318922 -0.046153307 0.065492153
0.10411922 0.22171772 0.0063314438
0.10331322 -0.010445297 0.05760622
0.10525022 0.54785872 -0.065702915
0.10252222 -0.23846322 0.10796547
0.098016217 0.14652175 0.022054195
0.097501218 -0.010551274 0.056749344
0.099331215 0.54781568 -0.066588879
0.098660216 0.34314072 -0.02137661
0.099692218 0.65810072 -0.090948582
0.099842213 0.70382369 -0.10104847
0.10090221 -0.87140733 -0.17246675
0.096566215 -0.29587525 0.11977243
0.092172213 0.1464327 0.021189213
0.091447212 -0.088595271 0.073111534
0.092686214 0.3132807 -0.015669823
0.093038216 0.42735273 -0.04087162
0.096391216 -0.97106522 -0.28098488
0.086326212 0.14634371 0.02032423
0.085647218 -0.088711262 0.072258472
0.086668216 0.26457673 -0.0057997704
0.085872218 -0.010765254 0.055037498
0.085979216 0.026367724 0.046833515
0.087714218 0.62624574 -0.085709572
0.087806217 0.65804076 -0.09273386
0.087017216 0.38509375 -0.032427788
0.087360218 0.50382674 -0.058659554
0.085391216 -0.72445923 0.091767311
0.085212216 -0.23885828 0.10543346
0.084087215 -0.62774533 0.19135427
0.085527219 -0.13018328 0.081421375
0.080797218 0.26450074 -0.006670475
0.080154218 0.026263714 0.045974255
0.081562214 0.5476867 -0.069247723
0.081123218 0.3850317 -0.033304691
0.081237212 0.42723772 -0.04263258
0.081109218 -0.83515126 -0.0321908
0.079438217 -0.23899227 0.10458851
0.078778215 -0.48358232 0.15863609
0.075229213 0.3849687 -0.034182549
0.075335212 0.42717972 -0.043512821
0.076388218 -0.93219823 -0.13631582
0.073937215 -0.13042623 0.079721451
0.072935216 -0.52988631 0.16800213
0.069167212 0.3129977 -0.01916647
0.069892213 0.62614274 -0.088383675
0.070071213 0.70369971 -0.10552549
0.070592217 0.79089373 -0.15525866
0.066830218 -0.69677728 0.20402527
0.068010218 -0.18696827 0.091342449
0.063027218 0.19157374 0.0067844391
0.062520213 -0.046937287 0.059510231
0.063089214 0.22114772 0.00024843216
0.063437216 0.38484174 -0.035939693
0.064184219 0.73703671 -0.11379766
0.064573213 0.79091173 -0.15426588
0.061743215 -0.41328329 0.1404953
0.061883219 -0.34734124 0.12591839
0.063506216 -0.90718025 -0.043169498
0.062112212 -0.2393983 0.10205555
0.062223218 -0.18709928 0.09049511
0.061593212 -0.48407131 0.15614223
0.057223216 0.22106475 -0.00062274933
0.057538215 0.38477772 -0.036817551
0.058218215 0.73701572 -0.11469555
0.057196215 -0.89492732 0.0024580956
0.056223214 -0.2968623 0.11388636
0.056435216 -0.18723029 0.089648247
0.056544214 -0.13079828 0.077171326
0.055773214 -0.5303933 0.16551733
0.051097214 0.073644698 0.031088352
0.051155217 0.1070047 0.023710251
0.050949216 -0.01142329 0.049898148
0.050453216 -0.29700631 0.11304426
0.050553214 -0.23967427 0.10036755
0.045256216 0.073542714 0.030226231
0.045004215 -0.08954525 0.066292286
0.045069214 -0.047284305 0.056947231
0.045987215 0.54742169 -0.074574471
0.046038214 0.58045971 -0.081878662
0.045736216 0.38464874 -0.038575649
0.044825215 -0.87091428 0.091893196
0.044683214 -0.29715222 0.11220455
0.044171214 -0.62900633 0.18559217
0.044230215 -0.59079629 0.1771431
0.044394214 -0.48456925 0.15365028
0.039413214 0.073439717 0.029364109
0.039511215 0.14560771 0.013403416
0.039572217 0.19122273 0.0033135414
0.039193217 -0.089667261 0.065440178
0.040053215 0.54737675 -0.075461864
0.040098216 0.58041871 -0.082769871
0.040203214 0.65779376 -0.099883556
0.040310215 0.73695076 -0.11739159
0.041116215 -1.1465583 -0.24948359
0.038990214 -0.23995227 0.098680496
0.038659215 -0.48473734 0.15281916
0.033608217 0.10670871 0.021120548
0.033653215 0.1455127 0.012536526
0.033846214 0.3125577 -0.024414539
0.034338217 0.7369287 -0.1182909
0.033004217 -0.4140783 0.1363225
0.033435214 -0.94108933 0.054111481
0.032591216 -0.77118927 0.2153163
0.033332214 -0.13130432 0.073771477
0.027754214 0.10660875 0.020257473
0.027791213 0.14541775 0.011672497
0.027906213 0.26379073 -0.014518738
0.027953215 0.31248271 -0.025290489
0.028255213 0.62589574 -0.094629765
0.028022215 0.38445175 -0.041212559
0.028063215 0.42670473 -0.050561905
0.028137214 0.50332773 -0.067513466
0.027251214 -0.4142403 0.13548756
0.028511215 -1.1182034 -0.1532917
0.028023213 -1.0340164 -0.041405678
0.027413215 -0.92879432 0.098436356
0.026875213 -0.83608323 0.22165918
0.027470216 -0.18789834 0.085412502
0.021931216 0.14532173 0.01080513
0.021966215 0.19095272 0.00070714951
0.022267215 0.58029372 -0.085440636
0.022060215 0.31240773 -0.026165485
0.022115216 0.3843857 -0.0420928
0.022387214 0.73688471 -0.12008953
0.022174213 0.46080673 -0.059001446
0.022207215 0.50327671 -0.068399906
0.021954216 -1.0209262 0.0041770935
0.021472216 -0.91666633 0.14216232
0.016068213 0.14522475 0.0099391937
0.015999213 0.025078714 0.036528111
0.016301215 0.54719269 -0.079015732
0.016320214 0.58025169 -0.086331844
0.016182214 0.34217173 -0.033644676
0.016365215 0.65766573 -0.1034627
0.016392216 0.70346671 -0.11359882
0.016411215 0.73686272 -0.12098885
0.015966214 -1.0080142 0.049146175
0.015537214 -0.77180332 0.21287155
0.015811216 -0.29789323 0.10799932
0.010158215 0.024966717 0.035669327
0.010269214 0.31225574 -0.027916908
0.010280214 0.34209973 -0.03452158
0.010390215 0.62578672 -0.097309589
0.0098502142 -0.77201027 0.21205711
0.010033214 -0.29804426 0.10715723
0.010097214 -0.13182324 0.070370197
0.0043622144 0.26346272 -0.018008709
0.0043712147 0.31217873 -0.028791904
0.0043852143 0.3841837 -0.044730663
0.0043932144 0.42645773 -0.054087639
0.0044472143 0.70341372 -0.11539459
0.0044082142 0.50311971 -0.071059704
0.0044722143 0.7910887 -0.14438868
0.0042432146 -0.34887928 0.11753511
0.0042532142 -0.29819626 0.10631752
0.0042642145 -0.24080926 0.093614101
0.0042082146 -0.53197426 0.15806437
-0.0015297856 0.22020072 -0.0093226433
-0.0015297856 0.024740696 0.033950329
-0.0015297856 0.58012372 -0.089004517
-0.0015297856 -0.97030228 0.18051434
-0.0015297856 -0.6991083 0.19419527
-0.0015297856 -0.59227127 0.17054415
-0.0015297856 -0.53215533 0.1572361
-0.0015297856 -0.48594433 0.14700556
-0.0073837857 0.072594702 0.022469521
-0.0073517854 -0.090671241 0.058618546
-0.0074357856 0.34187871 -0.037153721
-0.0075117857 0.7367717 -0.12458944
-0.0072987857 -1.0377052 0.11990738
-0.0072087855 -0.95806426 0.22315645
-0.0073437854 -0.13222128 0.067819118
-0.013252785 0.1058917 0.014210224
-0.013267785 0.14473373 0.0056085587
-0.013192786 -0.048489273 0.048397541
-0.013453785 0.62563771 -0.10088587
-0.013376785 0.42626873 -0.056734562
-0.012843786 -0.95087332 0.24821949
-0.013023785 -0.48629826 0.14534426
-0.019253787 0.3417297 -0.038909912
-0.019462787 0.70330471 -0.11898851
-0.018881787 -0.29881424 0.10295248
-0.018945787 -0.18901128 0.078635216
-0.025071785 0.21983969 -0.012805462
-0.024891786 -0.012937307 0.038755417
-0.025350787 0.57994872 -0.092571735
-0.025410786 0.65743273 -0.10973358
-0.025198784 0.38383973 -0.04913044
-0.025513787 0.79117274 -0.13946486
-0.024443787 -0.59303528 0.16724539
-0.030850787 0.10557473 0.01161623
-0.030887786 0.14443171 0.0030093193
-0.030771784 0.024163723 0.029652119
-0.031078786 0.34157872 -0.040665627
-0.031160787 0.42607573 -0.059385777
-0.031234786 0.50279772 -0.076381683
-0.029784784 -0.9976303 0.25600624
-0.030137785 -0.63149732 0.17489815
-0.030565787 -0.18929833 0.076939106
-0.030233786 -0.5330773 0.15309525
-0.036764786 0.14432973 0.0021414757
-0.036539786 -0.048991263 0.044974327
-0.036851786 0.21965671 -0.014547825
-0.036624786 0.024046719 0.028792381
-0.037230786 0.5467627 -0.087021828
-0.036992785 0.34150273 -0.041543484
-0.037179783 0.50274271 -0.0772686
-0.037514783 0.7911427 -0.14116669
-0.035561785 -0.8918553 0.2317152
-0.035625786 -0.83667225 0.21949053
-0.036031786 -0.48701924 0.14202213
-0.042641785 0.14422774 0.0012764931
-0.042322785 -0.091457307 0.053501129
-0.042379785 -0.049119294 0.044119358
-0.042802785 0.26278174 -0.02499485
-0.042428784 -0.01330328 0.036182404
-0.042478785 0.023928702 0.027932167
-0.041157786 -0.95205933 0.24419737
-0.041313786 -0.83689827 0.21868038
-0.048460785 0.10525173 0.0090222359
-0.048591785 0.18982571 -0.0097208023
-0.049143784 0.54666376 -0.088802814
-0.048826784 0.34134972 -0.043299675
-0.049009785 0.46009672 -0.069618702
-0.046917785 -0.89232224 0.23010015
-0.047834784 -0.29960626 0.098747253
-0.048004784 -0.18973428 0.074398518
-0.048091784 -0.13317829 0.061863422
-0.047472786 -0.53364331 0.15061235
-0.054534785 0.21937674 -0.017161846
-0.054193784 0.023690701 0.026212215
-0.055161785 0.57972473 -0.097033501
-0.055296786 0.65726173 -0.11421967
-0.054820783 0.38348472 -0.053536892
-0.055434786 0.73658472 -0.13180065
-0.052494783 -0.95254332 0.24258852
-0.052932784 -0.70097131 0.18682909
-0.053822786 -0.18988127 0.073549271
-0.060285784 0.14391673 -0.001326561
-0.059829786 -0.091861308 0.050940514
-0.060515784 0.26251775 -0.027617455
-0.060830783 0.42574671 -0.063803673
-0.058164783 -0.95278829 0.2417841
-0.058280785 -0.89279431 0.22848511
-0.058387786 -0.83758432 0.21624756
-0.066086784 0.10492373 0.0064272881
-0.066267781 0.18953174 -0.012330532
-0.067026787 0.54651368 -0.09147644
-0.066526785 0.31122172 -0.039309502
-0.066589788 0.34111571 -0.045937538
-0.066769786 0.42567971 -0.064686775
-0.067360781 0.70307875 -0.12618876
-0.063963786 -0.89303225 0.2276783
-0.064517781 -0.63271326 0.16996527
-0.065579787 -0.13360029 0.059310436
-0.072055787 0.14370573 -0.0030627251
-0.071606785 -0.049767256 0.039839268
-0.071775787 0.023328722 0.023631096
-0.073247783 0.65715575 -0.11691284
-0.072888784 0.50240773 -0.082598686
-0.069508784 -0.95328027 0.24017715
-0.077846788 0.1047017 0.0046973228
-0.078957781 0.54641175 -0.093259811
-0.079041786 0.57954073 -0.10060644
-0.078547783 0.38319272 -0.057061672
-0.078739785 0.45978573 -0.074048519
-0.075990781 -0.63312823 0.16832018
-0.083833784 0.14349371 -0.004796505
-0.083193786 -0.092409313 0.04752636
-0.084037788 0.21890074 -0.021521568
-0.085014783 0.57949471 -0.10149956
-0.085224785 0.6570847 -0.11870956
-0.084597781 0.42547771 -0.067340851
-0.081342787 -0.77549523 0.19902754
-0.083081782 -0.13402933 0.05675745
-0.089942783 0.2188037 -0.022393703
-0.090296783 0.34079772 -0.049454689
-0.091122784 0.6251297 -0.11252785
-0.091215782 0.6570487 -0.11960888
-0.091604784 0.79099274 -0.14931059
-0.088286787 -0.35154027 0.10412121
-0.087268785 -0.7022683 0.18192053
-0.088753782 -0.19078225 0.068462372
-0.087753788 -0.53500324 0.14481735
-0.095391788 0.070897698 0.0095252991
-0.096864782 0.54625672 -0.095936775
-0.097207785 0.6570127 -0.12050772
-0.096358784 0.38297069 -0.059709549
-0.093208782 -0.63375932 0.16585445
-0.093327783 -0.5954383 0.1573534
-0.10138179 0.10425073 0.0012354851
-0.10166079 0.18892771 -0.017552853
-0.10175879 0.21860874 -0.024139881
-0.10111378 0.022710741 0.019328117
-0.10294578 0.57935274 -0.10418272
-0.10206179 0.3107177 -0.044576645
-0.10243879 0.42527071 -0.06999445
-0.098275788 -0.83923227 0.2105751
-0.10004778 -0.30109125 0.091172218
-0.10727178 0.10413671 0.00037050247
-0.10658378 -0.092970312 0.044110298
-0.10766979 0.21850973 -0.025011539
-0.10919879 0.65693974 -0.12230587
-0.10935879 0.70287174 -0.13249874
-0.10378879 -0.89473826 0.22202921
-0.10643879 -0.13461226 0.053352356
-0.11347278 0.18872172 -0.019295692
-0.11374179 0.26169872 -0.035491467
-0.11272378 -0.014833272 0.025883198
-0.11286078 0.022458732 0.017606258
-0.11490978 0.57925773 -0.10597181
-0.11519578 0.65690273 -0.12320566
-0.11434279 0.42513171 -0.0717659
-0.11446878 0.45940071 -0.079370499
-0.10909379 -1.0011792 0.24479055
-0.10948478 -0.89498729 0.22122335
-0.11188079 -0.24389631 0.076721191
-0.11058479 -0.59606427 0.15488052
-0.11080579 -0.53580433 0.1415062
-0.11892278 0.070420742 0.006070137
-0.11845279 -0.050843298 0.032988548
-0.11966378 0.26160574 -0.036367893
-0.12076578 0.54604673 -0.099506855
-0.12089378 0.57920873 -0.10686779
-0.11702778 -0.41861826 0.11462212
-0.11539578 -0.8399573 0.2081461
-0.11619078 -0.63461727 0.16256523
-0.11790778 -0.19155627 0.064222336
-0.12558679 0.26151174 -0.037242889
-0.12706578 0.62488174 -0.11791182
-0.12607978 0.38259071 -0.064122677
-0.12639178 0.45926973 -0.081145763
-0.12136079 -0.77712125 0.1933322
-0.13100779 0.14261973 -0.011741638
-0.13000078 -0.093544304 0.040693283
-0.13172278 0.31028473 -0.048969746
-0.13306378 0.62483972 -0.1188097
-0.13203079 0.3825137 -0.065006733
-0.12632479 -0.95582825 0.2321434
-0.12681678 -0.84044832 0.20652628
-0.12935778 -0.24439031 0.074186325
-0.12958178 -0.19187123 0.062526226
-0.12982279 -0.13520926 0.049944401
-0.13691178 0.14250672 -0.012611866
-0.13711579 0.1883027 -0.022780895
-0.13744079 0.26132172 -0.038995743
-0.13637379 0.021946728 0.01416111
-0.13832279 0.45913672 -0.082922459
-0.13313778 -0.70406526 0.17537642
-0.14191578 -0.051400304 0.029560089
-0.14225678 0.02181673 0.013298512
-0.14359778 0.31010771 -0.050726891
-0.14393379 0.38235772 -0.066773891
-0.14413078 0.42477572 -0.076194763
-0.14448878 0.50170171 -0.093278885
-0.13798578 -0.89625329 0.21718931
-0.13824278 -0.84094328 0.20490646
-0.13937679 -0.59713131 0.15075922
-0.14152479 -0.13551229 0.048240185
-0.14837378 0.069808722 0.001748085
-0.14757979 -0.093982279 0.038130283
-0.14909078 0.21780473 -0.031124592
-0.14953779 0.31001872 -0.051606655
-0.15009378 0.42470372 -0.077080727
-0.14600179 -0.41957027 0.11044931
-0.14632279 -0.35332829 0.095734119
-0.14339879 -0.95662028 0.22973442
-0.14395778 -0.84119326 0.20409632
-0.14543279 -0.53703922 0.13654041
-0.15463379 0.14216775 -0.015218735
-0.15344279 -0.094130337 0.037275314
-0.15523279 0.26103371 -0.041623592
-0.15383779 -0.01577425 0.019868374
-0.15666878 0.54572272 -0.10486889
-0.14886078 -1.0030582 0.23918819
-0.15036479 -0.70476025 0.17292213
-0.16034278 0.10307872 -0.0074276924
-0.15930879 -0.094278276 0.036420345
-0.16116878 0.26093674 -0.042500496
-0.16158178 0.33980173 -0.060023785
-0.15454978 -1.0033333 0.23838854
-0.15572579 -0.7785663 0.18845129
-0.15821679 -0.30282933 0.082755089
-0.15698878 -0.53746027 0.13488436
-0.16710478 0.26083875 -0.043376446
-0.16560079 -0.016049266 0.01815033
-0.16883178 0.57881373 -0.11403084
-0.16023779 -1.0036082 0.23758841
-0.16111578 -0.84195131 0.20166731
-0.16464078 -0.19283932 0.057432175
-0.17196578 0.069307745 -0.0017108917
-0.17464478 0.54555672 -0.10755062
-0.17483178 0.57876372 -0.11492491
-0.17396379 0.42441073 -0.080628872
-0.17415679 0.45873073 -0.088254452
-0.16652678 -0.89755327 0.21315718
-0.16683778 -0.8422063 0.20085812
-0.16987078 -0.30318826 0.081071377
-0.16799478 -0.63661629 0.15517044
-0.17872979 0.21728474 -0.035493851
-0.17898178 0.26064271 -0.045131683
-0.17926678 0.30956674 -0.056006908
-0.17223978 -0.89781827 0.21235132
-0.17398179 -0.59845024 0.14581537
-0.17634079 -0.19316822 0.055735111
-0.18377379 0.06905371 -0.003443718
-0.18325879 -0.016467273 0.015570164
-0.18637279 0.50126773 -0.099520683
-0.17759378 -0.95824128 0.22491932
-0.17952578 -0.63707334 0.15352631
-0.18039879 -0.49191529 0.12125826
-0.18937978 0.020752728 0.0064034462
-0.19188479 0.42418772 -0.083290577
-0.18736479 -0.30373424 0.07854414
-0.18772279 -0.24609429 0.065730095
-0.18804978 -0.19350129 0.054037094
-0.18840179 -0.13675731 0.041421413
-0.18590678 -0.53853124 0.13074636
-0.18619478 -0.49212533 0.12042713
-0.19558679 0.068796694 -0.0051727295
-0.19580178 0.10234469 -0.012631893
-0.19527778 0.02061671 0.0055394173
-0.19712679 0.30928969 -0.058647633
-0.19786279 0.42411172 -0.084179878
-0.18974479 -0.84324127 0.19762135
-0.19062078 -0.70642322 0.16719913
-0.19319879 -0.30391723 0.077703476
-0.20247379 0.2168597 -0.038994789
-0.20275979 0.2602427 -0.048641682
-0.20117779 0.020480692 0.0046782494
-0.20308378 0.30919671 -0.059527874
-0.19941579 -0.24644524 0.06403923
-0.19748579 -0.53896731 0.1290884
-0.20763479 0.10209471 -0.01436758
-0.20821178 0.1869927 -0.033250809
-0.20841378 0.21675169 -0.039868832
-0.20870878 0.26014072 -0.049519539
-0.21580678 0.42388371 -0.086841583
-0.20989479 -0.42175525 0.10126352
-0.20655578 -0.89943129 0.20751524
-0.20864978 -0.5998103 0.14086819
-0.21923578 0.068274736 -0.0086345673
-0.21805678 -0.095807254 0.027867317
-0.22061378 0.2599377 -0.05127573
-0.21228078 -0.89970523 0.20671034
-0.21267879 -0.84429628 0.19438314
-0.21697079 -0.2469793 0.061500549
-0.21415779 -0.63847333 0.14859533
-0.21520178 -0.49319023 0.11627436
-0.22540079 0.10171574 -0.016972542
-0.22568879 0.1407547 -0.025658607
-0.22624779 0.2164247 -0.042495728
-0.22452079 -0.017469287 0.0095462799
-0.22479679 0.019925714 0.0012254715
-0.22715078 0.33883071 -0.069731712
-0.22746378 0.38122171 -0.079161644
-0.21756278 -0.96019822 0.21930218
-0.21841578 -0.84456426 0.19357443
-0.21888278 -0.78133529 0.1795063
-0.22239979 -0.30485028 0.073489189
-0.21993579 -0.63871127 0.14777231
-0.23196879 0.18653774 -0.036743641
-0.23070578 0.019785702 0.00036239624
-0.22327879 -0.96048325 0.21850014
-0.22571479 -0.63895029 0.1469512
-0.23604779 -0.053744256 0.015834332
-0.23886478 0.30862671 -0.064817905
-0.23909779 0.33864874 -0.071498871
-0.23318179 -0.4225803 0.097922325
-0.23454179 -0.24752229 0.058961391
-0.23226678 -0.54030329 0.12412119
-0.24409778 0.21609271 -0.045123577
-0.24223278 -0.017909288 0.006963253
-0.24483378 0.30853075 -0.065699577
-0.24040179 -0.24770433 0.058114529
-0.24082178 -0.19504124 0.046391487
-0.24980779 0.18618971 -0.039368629
-0.25040579 0.25941873 -0.055670738
-0.24537678 -0.35659426 0.081468105
-0.24093178 -0.90109533 0.2026825
-0.24190079 -0.78238124 0.17625332
-0.24669379 -0.19521624 0.045541286
-0.25504678 0.1010707 -0.021315575
-0.25600579 0.21586871 -0.046876907
-0.25677881 0.30833572 -0.067459583
-0.24713078 -0.84592026 0.18953037
-0.2521278 -0.24807233 0.056420326
-0.24917379 -0.60145026 0.13510036
-0.2530438 -0.13855523 0.032036304
-0.26170781 0.1859557 -0.041117668
-0.2619628 0.21575671 -0.047753811
-0.2599608 -0.018356264 0.0043783188
-0.25649479 -0.42342228 0.09457922
-0.25405079 -0.70916027 0.15820646
-0.25464079 -0.64016134 0.14284134
-0.26662481 0.06719774 -0.015569687
-0.26726079 0.13988972 -0.031760693
-0.25761679 -0.9622243 0.21368933
-0.26043281 -0.64040726 0.14202023
-0.26076981 -0.60192925 0.13345146
-0.26129881 -0.54144627 0.11998129
-0.2714678 -0.054674268 0.010678291
-0.2721248 0.018784702 -0.0056848526
-0.26388481 -0.90223128 0.19946051
-0.2649478 -0.78344733 0.17300224
-0.26622579 -0.64065427 0.1411972
-0.26711079 -0.54167825 0.1191535
-0.27957481 0.18559974 -0.043741703
-0.2802448 0.25888669 -0.060060501
-0.26907679 -0.96281523 0.2120862
-0.26962781 -0.90252024 0.19865322
-0.27013481 -0.84702927 0.18629313
-0.27507579 -0.30658931 0.065902233
-0.2756038 -0.24881929 0.053033352
-0.27608579 -0.19610733 0.04128933
-0.28362581 -0.018962264 0.00093126297
-0.27480879 -0.96311432 0.21128416
-0.27537179 -0.90280825 0.19785023
-0.27781481 -0.64115232 0.13955545
-0.27873981 -0.54214627 0.11749649
-0.28631681 -0.35802132 0.075587273
-0.28295681 -0.71045429 0.15411854
-0.28361481 -0.64140326 0.13873339
-0.29663181 0.10014069 -0.027404785
-0.29583481 0.018196702 -0.0091414452
-0.29217181 -0.35822922 0.074748516
-0.2880238 -0.78453523 0.16975117
-0.28978881 -0.60314828 0.12932825
-0.30139479 -0.01942426 -0.0016546249
-0.29802981 -0.35843831 0.073908329
-0.2926178 -0.90368432 0.19543219
-0.29379681 -0.78481025 0.16893816
-0.30818981 0.066220701 -0.021643639
-0.30892581 0.13899469 -0.037864685
-0.30695581 -0.055630267 0.0055193901
-0.3038888 -0.35864824 0.073067188
-0.30031979 -0.71124524 0.15166616
-0.30610079 -0.1401003 0.024349213
-0.3148858 0.1388647 -0.038734913
-0.3097508 -0.35885924 0.072227478
-0.30469579 -0.84873432 0.18144131
-0.30611181 -0.71151131 0.15084839
-0.31087381 -0.24996632 0.047950268
-0.31200579 -0.14027625 0.023494244
-0.31561479 -0.35907131 0.071386337
-0.31046379 -0.84902328 0.18063211
-0.31615281 -0.30799526 0.059997559
-0.31676081 -0.25016028 0.047101498
-0.31303781 -0.60414428 0.12603045
-0.3179138 -0.14045328 0.022640228
-0.31367481 -0.5435763 0.11252642
-0.3220278 -0.30819923 0.059153557
-0.32264781 -0.25035626 0.046253204
-0.3238228 -0.1406303 0.021784306
-0.33065581 -0.056284308 0.0020771027
-0.32200179 -0.84960526 0.17901516
-0.3285358 -0.25055224 0.045406342
-0.32425281 -0.64319223 0.13297939
-0.3361108 -0.099100292 0.010730267
-0.33658481 -0.056449294 0.0012164116
-0.33740181 0.017140746 -0.015199661
-0.32715681 -0.90547234 0.19060326
-0.32929879 -0.71258932 0.14757729
-0.33354881 -0.85019225 0.17739725
-0.3351008 -0.71286231 0.14676046
-0.3396678 -0.30881923 0.056621552
-0.33631879 -0.60515827 0.12273216
-0.3409178 -0.19814223 0.031929493
-0.3393248 -0.85048825 0.17658854
-0.34005481 -0.78705829 0.16243649
-0.34090379 -0.71313626 0.14594221
-0.3444528 -0.90638632 0.18818712
-0.34584481 -0.78734523 0.16162348
-0.34670979 -0.71341127 0.14512539
-0.34922379 -0.49844223 0.097155094
-0.3525168 -0.71368724 0.14430714
-0.35333881 -0.64450628 0.1288681
-0.35379779 -0.6059323 0.12025833
-0.36669978 -0.021175265 -0.011146545
-0.36178979 -0.42741829 0.079528332
-0.35599181 -0.90700227 0.18657732
-0.35962781 -0.60619229 0.11943436
-0.36455181 -0.19890827 0.028522491
-0.36765879 -0.42765027 0.078692436
-0.3641378 -0.71424431 0.14267254
-0.3743608 -0.36124426 0.062977314
-0.36754081 -0.90762323 0.18496847
-0.3763828 -0.1992963 0.026818275
-0.37709379 -0.14226526 0.014084339
-0.3720538 -0.54605132 0.10423946
-0.38355479 -0.10050732 0.0038614273
-0.38162979 -0.25235933 0.037771225
-0.37790281 -0.54630429 0.1034112
-0.37849379 -0.49966127 0.092994213
-0.38949481 -0.10068625 0.0030064583
-0.37909579 -0.90825027 0.18335724
-0.3824738 -0.64585024 0.12475634
-0.3882198 -0.19968826 0.025113106
-0.38895479 -0.14263827 0.01237154
-0.38375279 -0.54655927 0.10258341
-0.38435379 -0.49990827 0.092162132
-0.39202279 -0.36191624 0.060452461
-0.39344981 -0.25277132 0.036074162
-0.38960579 -0.54681534 0.10175228
-0.39791581 -0.36214226 0.059610367
-0.40291181 -0.42906433 0.073671341
-0.39904681 -0.71594423 0.13776541
-0.4052808 -0.25318724 0.034374237
-0.40879381 -0.42930323 0.072832108
-0.40970579 -0.36259729 0.057927132
-0.40385979 -0.79028732 0.15349531
-0.41040578 -0.31138533 0.04648447
-0.40581879 -0.64694828 0.12146616
-0.4078148 -0.50090832 0.088833332
-0.40879181 -0.85414225 0.16688633
-0.41069978 -0.71652132 0.13613033
-0.4215048 -0.36305624 0.056242466
-0.41750479 -0.64750427 0.11982012
-0.41955879 -0.50141424 0.087167263
-0.42975581 -0.60940725 0.10953236
-0.43119481 -0.91114324 0.17611313
-0.43504679 -0.64834732 0.11735344
-0.4365038 -0.54890531 0.095116138
-0.44147179 -0.60996026 0.1078825
-0.45103779 -0.36422127 0.052032471
-0.45180979 -0.31294733 0.040562153
-0.4473348 -0.61023825 0.10705614
-0.45593181 -0.43125731 0.066131115
-0.44944981 -0.85636634 0.16122532
-0.45041981 -0.79273623 0.14699125
-0.45260879 -0.64920229 0.11488533
-0.4618338 -0.43150526 0.065293312
-0.4602108 -0.9127993 0.17209053
-0.46207979 -0.79336232 0.14536524
-0.4632408 -0.71918124 0.12876749
-0.47470379 -0.36517125 0.048662186
-0.46602181 -0.91313523 0.17128325
-0.46908981 -0.71948332 0.12794924
-0.47374979 -0.79399329 0.14373922
-0.47840181 -0.50401431 0.078837395
-0.48192081 -0.65065128 0.11076927
-0.48353779 -0.55106825 0.088478088
-0.4913758 -0.43276626 0.06110239
-0.4843798 -0.85832626 0.15637112
-0.4877888 -0.65094429 0.10994625
-0.48942679 -0.55134434 0.087648392
-0.49019581 -0.5045473 0.077171326
-0.49365979 -0.65123934 0.10912228
-0.50422579 -0.72132128 0.12303829
-0.50790578 -0.50535625 0.074670315
-0.51008981 -0.7216323 0.12222052
-0.5263688 -0.79690033 0.1364193
-0.52893478 -0.65303332 0.10418129
-0.56428879 -0.65487224 0.099239349
-0.57791579 -0.86379832 0.14342928
-0.57916981 -0.79991728 0.12909842
-0.5968098 -0.80094725 0.12665653
-0.60858381 -0.80164033 0.12502718
-0.61314178 -0.86594325 0.13857317
-0.6249038 -0.86667031 0.13695431
