# .PCD v0.7 - Point Cloud Data file format
VERSION 0.7
FIELDS x y z
SIZE 4 4 4
TYPE F F F
COUNT 1 1 1
WIDTH 1
HEIGHT 1024
VIEWPOINT 0 0 0 1 0 0 0
POINTS 1024
DATA ascii
0.36081108 0.56155789 -0.01336956
0.36110309 0.63963586 -0.018763542
0.3762151 0.74256384 -0.29779959
0.35507309 0.59441984 -0.015899658
0.35523909 0.63963783 -0.019021511
0.3553561 0.67117882 -0.021202564
0.3694841 0.74286187 -0.28636646
0.35463509 0.47540984 -0.0076775551
0.36874908 0.79885387 -0.27256536
0.34850508 0.39896387 -0.0026545525
0.36487609 0.70769584 -0.3150425
0.34878108 0.47541285 -0.0079364777
0.34250408 0.35669887 6.6757202e-06
0.33638108 0.27771884 0.0052056313
0.3365531 0.32672787 0.0018186569
0.33764809 0.63964385 -0.019797325
0.33070809 0.32673085 0.001560688
0.33095708 0.39897287 -0.0034313202
0.33110207 0.44127786 -0.006354332
0.32445109 0.20430487 0.0097594261
0.32565808 0.56157088 -0.014920712
0.32496607 0.35670686 -0.00076961517
0.32536709 0.47542286 -0.0089707375
0.32551008 0.51779485 -0.01189661
0.31832808 0.11879188 0.015412331
0.31845909 0.15813786 0.012692451
0.31925809 0.39897686 -0.0039463043
0.3195121 0.47542486 -0.0092272758
0.31249708 0.11879385 0.015152454
0.31393909 0.56157386 -0.015435696
0.31419408 0.63964885 -0.020829678
0.3142961 0.67118788 -0.023007393
0.32420808 0.79957187 -0.23318768
0.3069391 0.20431185 0.0089864731
0.30703408 0.23420984 0.0069203377
0.3083311 0.63964987 -0.021087646
0.30769607 0.44128385 -0.0073833466
0.30083409 0.11879683 0.01463747
0.30095708 0.15814286 0.011919498
0.3003411 -0.038264155 0.025490284
0.30148607 0.32673985 0.00027132034
0.30171308 0.39898086 -0.0047183037
0.30184507 0.44128484 -0.0076394081
0.31187809 0.79966187 -0.22857141
0.29500207 0.11879784 0.014381409
0.2945191 -0.038264155 0.025232315
0.29660508 0.63964987 -0.021603584
0.29623008 0.51779884 -0.013183594
0.28928807 0.15814286 0.011406422
0.2886951 -0.038264155 0.02497673
0.28892007 0.036141872 0.019835472
0.2907401 0.63964987 -0.0218606
0.29097208 0.71647686 -0.02716732
0.30005008 0.79955786 -0.23510361
0.2832371 0.08490485 0.016210556
0.28333709 0.11879784 0.013868332
0.28345409 0.15814286 0.011149406
0.28359008 0.20431286 0.0079593658
0.28309309 0.036140859 0.019578457
0.2847431 0.59443384 -0.018993378
0.28404108 0.35671383 -0.0025696754
0.28487709 0.63964987 -0.022118568
0.28497007 0.67118883 -0.024296284
0.28439209 0.47542784 -0.010771275
0.2935631 0.79973483 -0.22512865
0.2935721 0.83513987 -0.22534466
0.27750608 0.11879683 0.01361227
0.2769261 -0.081504166 0.027451515
0.27819508 0.35671288 -0.002825737
0.28010908 0.71584785 -0.048509598
0.2880151 0.74420184 -0.23714447
0.27853808 0.47542784 -0.01102829
0.2786611 0.51779884 -0.013956547
0.28749809 0.79974484 -0.22479534
0.27630708 -0.2951172 0.042212486
0.27200109 0.23420787 0.0053806305
0.27293009 0.56157386 -0.017239571
0.27234909 0.35671186 -0.0030837059
0.28188908 0.74424785 -0.23555851
0.2658411 0.11879188 0.01309967
0.26607808 0.20430785 0.0071892738
0.26528507 -0.081509173 0.026940346
0.26673609 0.44128186 -0.0091843605
0.2692551 0.71515685 -0.071900368
0.26454708 -0.34753412 0.045322418
0.2646921 -0.29512316 0.041701317
0.2648561 -0.23592418 0.037611485
0.26516709 -0.12405413 0.029880524
0.26000908 0.11878884 0.012843609
0.2594651 -0.081512153 0.026685715
0.26032209 0.23420388 0.0048685074
0.2612111 0.56157184 -0.017754555
0.2638011 0.71480882 -0.083656311
0.26097709 0.47542384 -0.01180172
0.25385708 -0.0017661452 0.020917416
0.25480908 0.35670584 -0.0038533211
0.26360708 0.79962182 -0.23287535
0.25307807 -0.29513317 0.041191578
0.25256208 -0.48971015 0.054637432
0.24856706 0.20429885 0.006421566
0.24782608 -0.081522167 0.026174545
0.24888508 0.32672787 -0.0020394325
0.24907206 0.39897084 -0.0070323944
0.24927108 0.47541884 -0.012315273
0.24938108 0.51779085 -0.01524353
0.25723308 0.79977286 -0.22440052
0.24727207 -0.29513913 0.04093647
0.24251407 0.11877686 0.012074471
0.24261308 0.15812385 0.0093564987
0.24189807 -0.12407416 0.028859615
0.23659608 0.084877849 0.014161587
0.23777507 0.56156385 -0.018784523
0.23796907 0.63964081 -0.024179459
0.23737307 0.39896387 -0.0075454712
0.24179508 0.71340382 -0.13108635
0.23824008 0.74943483 -0.031765461
0.23565607 -0.29515415 0.040426731
0.23480107 -0.64082819 0.064317703
0.23607907 -0.12408119 0.028603554
0.23505507 -0.5379222 0.057205677
0.23084807 0.11876583 0.011562347
0.23055707 -0.0017891526 0.019895554
0.23135008 0.32671684 -0.0028095245
0.23210508 0.63963884 -0.024438381
0.23218107 0.67117983 -0.026617527
0.23918007 0.79973882 -0.22702646
0.22955707 -0.41603118 0.048526287
0.22972207 -0.34757715 0.043795586
0.23026207 -0.12408918 0.028348446
0.22493607 0.084864855 0.013649464
0.22510807 0.15810686 0.0085883141
0.22521707 0.20427883 0.0053963661
0.22482108 0.036098838 0.017020702
0.22550507 0.32671183 -0.0030665398
0.22567508 0.39895582 -0.0080595016
0.23317607 0.79971987 -0.22835732
0.23343307 0.83503985 -0.23592472
0.22404207 -0.29517311 0.039917469
0.22332308 -0.6007852 0.061040401
0.21938007 0.20427185 0.0051393509
0.21872407 -0.081559122 0.024897575
0.21944807 0.23417187 0.0030736923
0.22027408 0.59441483 -0.021828651
0.21972907 0.35668182 -0.0053935051
0.21992308 0.44125783 -0.011241436
0.22855607 0.87736684 -0.27148151
0.21694708 -0.85665721 0.078473568
0.21327408 0.084848821 0.013138294
0.21299908 -0.038328171 0.021652699
0.21360707 0.23416483 0.0028176308
0.21433808 0.56155181 -0.019813538
0.21441208 0.59441185 -0.022085667
0.21458307 0.67117286 -0.027391434
0.21407007 0.44125286 -0.011497498
0.22240207 0.87738085 -0.26947832
0.21230808 -0.34761018 0.043031693
0.21089907 -0.97879213 0.086660385
0.21104108 -0.9151172 0.082259655
0.21280707 -0.1241172 0.027582645
0.20760307 0.15808386 0.0078206062
0.20786308 0.27768284 -0.00044870377
0.20803407 0.35666984 -0.0059075356
0.20871708 0.67116988 -0.027649403
0.21519907 0.79963386 -0.23389673
0.20635508 -0.41608018 0.047510624
0.20513307 -0.97881216 0.086409569
0.20699008 -0.12412816 0.027327538
0.20168507 0.11872685 0.01028347
0.20143007 -0.0018341541 0.018618584
0.20268907 0.59440482 -0.022600651
0.20218708 0.35666382 -0.0061655045
0.20227607 0.39893484 -0.0090856552
0.20252708 0.51776385 -0.017301559
0.20938808 0.79949987 -0.24183559
0.20055507 -0.4160952 0.047255516
0.20070007 -0.34763819 0.042521477
0.19976507 -0.79021209 0.073117733
0.20093507 -0.23601812 0.034806728
0.19578208 0.084820867 0.01237154
0.19544107 -0.081602156 0.023876667
0.19568208 0.036052823 0.015743732
0.19651407 0.44123685 -0.012269497
0.19667107 0.51775885 -0.017558575
0.20324308 0.79955184 -0.23899269
0.20361407 0.83486187 -0.25150728
0.20424508 0.87736386 -0.27276659
0.19373107 -0.91517812 0.081502438
0.19429307 -0.6409331 0.062543392
0.19523507 -0.18214613 0.030827522
0.19018908 0.20423186 0.00385952
0.19049308 0.35664988 -0.0066785812
0.19066107 0.44123086 -0.012525558
0.19409308 0.71343285 -0.13166428
0.18909007 -0.34766918 0.042014599
0.18820907 -0.79025418 0.072612286
0.18836308 -0.71299511 0.067271709
0.18931307 -0.23604614 0.03429842
0.18871108 -0.53803915 0.055175304
0.18379807 -0.081629097 0.023366451
0.18388107 -0.038385153 0.020376682
0.18440707 0.23412383 0.0015354156
0.18449107 0.27765083 -0.0014724731
0.18395208 -0.0018691421 0.017851353
0.18464407 0.35664284 -0.0069346428
0.19247808 0.87727785 -0.28739643
0.18328407 -0.34768611 0.041760445
0.18242908 -0.79027611 0.072360516
0.18338507 -0.29526812 0.038136482
0.18279508 -0.60090309 0.059266567
0.18371508 -0.12417918 0.026308537
0.17851107 0.20421183 0.0033473969
0.17819707 0.036016822 0.014975548
0.17918007 0.56152487 -0.021357536
0.17874007 0.32665688 -0.0051183701
0.18219008 0.74693286 -0.13260174
0.17620607 -1.0279591 0.088540554
0.17641707 -0.91525215 0.080747604
0.17652607 -0.85680419 0.076705456
0.17693007 -0.64099616 0.061784267
0.17778808 -0.18219119 0.030063629
0.17721307 -0.48988611 0.051337719
0.17251807 0.11867285 0.0090055466
0.17267308 0.20420086 0.0030913353
0.17294908 0.35662585 -0.0074477196
0.17653908 0.74663484 -0.14457035
0.17324007 0.51773584 -0.018587589
0.17075208 -0.85683113 0.076454639
0.17141607 -0.48990721 0.051084518
0.16640908 -0.038428128 0.019611359
0.16696307 0.27762187 -0.0022425652
0.16724907 0.44120285 -0.013552666
0.16730908 0.47535184 -0.015913486
0.17389408 0.79892588 -0.27606058
0.16586807 -0.34774309 0.040997505
0.16522907 -0.71309012 0.066260338
0.16553508 -0.53812414 0.054163456
0.16111808 0.27761084 -0.002497673
0.16064507 -0.0019251704 0.016831398
0.16159707 0.56150782 -0.022129536
0.16178307 0.67114186 -0.029711723
0.16006108 -0.34776312 0.040744305
0.15963307 -0.6009962 0.058255672
0.15973908 -0.53814715 0.053909302
0.15496007 0.084733844 0.010583401
0.15507907 0.15798682 0.0055174828
0.15468907 -0.08170718 0.022092342
0.15540308 0.35659784 -0.0082163811
0.15591507 0.67113787 -0.029967308
0.15547207 0.39887387 -0.011140347
0.15554108 0.44118685 -0.014066696
0.15793507 0.71394384 -0.11565065
0.16223307 0.83430785 -0.2980566
0.15425508 -0.34778517 0.040491581
0.15314607 -1.028084 0.087533474
0.15377708 -0.64109617 0.060773373
0.14912808 0.084718823 0.010326385
0.14931507 0.20415282 0.0020685196
0.14936207 0.23405784 4.7683716e-07
0.14905107 0.035943866 0.013699532
0.15373908 0.74542886 -0.19286251
0.14974107 0.47532886 -0.016685486
0.14787607 -0.71317416 0.065503597
0.14798908 -0.64112419 0.060521603
0.14870907 -0.1822812 0.028791428
0.14340608 0.15795887 0.0050053596
0.14304407 -0.081744134 0.021583557
0.14253907 -0.41629916 0.044719696
0.14169008 -0.97912115 0.083641529
0.14187407 -0.85698313 0.075194359
0.14281107 -0.23619515 0.032263279
0.13763608 0.20412582 0.0015563965
0.13728407 -0.038515151 0.018336296
0.13767907 0.23403186 -0.00051164627
0.13815407 0.56148183 -0.023157597
0.13820107 0.59434783 -0.025431633
0.13992408 0.71419686 -0.10766172
0.14222008 0.74481887 -0.21726465
0.13802907 0.47531185 -0.017199516
0.13683607 -0.3478561 0.039730549
0.13601407 -0.91547114 0.078985691
0.13609907 -0.8570171 0.074943542
0.13619508 -0.79050511 0.070343494
0.13641107 -0.6411832 0.060016632
0.13716008 -0.12432021 0.024271488
0.13173008 0.15792787 0.0044956207
0.13183607 0.23401785 -0.00076770782
0.13189608 0.27755088 -0.0037794113
0.13156107 0.035891831 0.012934685
0.13200608 0.35655487 -0.0092425346
0.13244307 0.67111886 -0.030998707
0.13212307 0.44114986 -0.015093327
0.13217108 0.47530285 -0.017455578
0.13223007 0.51768589 -0.020386696
0.13262607 0.80301988 -0.040118694
0.13110107 -0.29545611 0.035851479
0.13062108 -0.64121419 0.059764385
0.13067608 -0.60113817 0.056993484
0.13076407 -0.53828317 0.052645683
0.13083108 -0.49008411 0.049312592
0.12568007 -0.0020311475 0.015300274
0.12573107 0.03587383 0.012679577
0.12611707 0.32655984 -0.0074243546
0.12657407 0.67111385 -0.031255722
0.12621307 0.39882284 -0.012423515
0.12626907 0.44113985 -0.015349388
0.13061807 0.74420488 -0.24184561
0.12692608 0.80285883 -0.049547672
0.12522107 -0.3479082 0.039222717
0.12431808 -1.0282722 0.086278439
0.12454507 -0.85709018 0.074440479
0.12473607 -0.71330315 0.064495564
0.12536907 -0.23626512 0.031501293
0.12551807 -0.12436312 0.023762703
0.11996207 0.084633827 0.0090503693
0.12005507 0.15789586 0.0039834976
0.11975107 -0.08182615 0.02056551
0.12020707 0.27752286 -0.0042905807
0.12060808 0.59432781 -0.026203632
0.12026908 0.32654685 -0.0076804161
0.12066607 0.63955885 -0.029331684
0.12051107 0.51766789 -0.020900726
0.11855108 -1.0283141 0.086028576
0.11876807 -0.8571282 0.074188709
0.11904208 -0.64128119 0.059258461
0.11909308 -0.60120219 0.05648756
0.11436208 0.27750885 -0.0045466423
0.11474407 0.59431982 -0.026460648
0.11465207 0.51765883 -0.021158695
0.11325207 -0.64131612 0.059007645
0.10829307 0.084595859 0.0085406303
0.10833208 0.11850083 0.0061945915
0.10837708 0.15786088 0.0034723282
0.10843007 0.20404786 0.0002784729
0.10851508 0.27749383 -0.0048027039
0.10819408 -0.0020931363 0.014536381
0.10893007 0.63954586 -0.029847622
0.10865407 0.39878786 -0.013193607
0.11000007 0.71461487 -0.094373703
0.10779707 -0.34799415 0.038463593
0.10701707 -1.0284021 0.085528374
0.10798708 -0.1824432 0.027012348
0.10763407 -0.49020821 0.048300266
0.10227808 -0.081896126 0.019800663
0.10232507 -0.038642168 0.01680851
0.10240607 0.035792828 0.011659622
0.10284707 0.44109586 -0.016376495
0.11281008 0.87509286 -0.65058565
0.10191508 -0.41650218 0.042947292
0.10204607 -0.2955932 0.034583569
0.10211107 -0.2363711 0.030487537
0.10171407 -0.60130817 0.055730343
0.096625075 0.084554851 0.0080304146
0.096748076 0.20401287 -0.00023365021
0.096575074 0.035770833 0.011405468
0.096904077 0.35647684 -0.010779381
0.097227074 0.67108488 -0.032544613
0.098352075 0.80185086 -0.10836029
0.10368707 0.87619787 -0.46798468
0.096181072 -0.34805518 0.037955284
0.095658071 -0.8572951 0.07318449
0.09598507 -0.53848213 0.051131725
0.090790071 0.08453387 0.0077753067
0.090906076 0.20399386 -0.00048828125
0.090935074 0.23390585 -0.0025596619
0.091357075 0.67107785 -0.032802582
0.091209076 0.51761985 -0.022184372
0.092578076 0.80164683 -0.12024546
0.090306073 -0.41656917 0.042441368
0.084986076 0.11841983 0.0051746368
0.085091069 0.23388785 -0.0028133392
0.085130073 0.27742887 -0.0058255196
0.084911071 0.035724819 0.010895729
0.085387073 0.56140584 -0.025473595
0.085417069 0.59427989 -0.027746677
0.085202076 0.35644788 -0.011292458
0.085487075 0.67107183 -0.033059597
0.08416307 -0.79086119 0.068079472
0.084298074 -0.64150816 0.057748318
0.079119071 0.084488869 0.0072655678
0.079245076 0.23386884 -0.0030684471
0.079282075 0.27741188 -0.0060825348
0.079522073 0.56139588 -0.02573061
0.079614073 0.67106485 -0.033317566
0.079384074 0.39872086 -0.014474392
0.079449072 0.47520584 -0.019766331
0.079485074 0.51759785 -0.02270031
0.080968075 0.80123585 -0.14414549
0.079820074 0.91458887 -0.050157547
0.07817807 -1.0286472 0.084278584
0.078273073 -0.91590112 0.076476574
0.078322075 -0.85743409 0.072431564
0.078379072 -0.79090613 0.067829609
0.073400073 0.23384982 -0.0033245087
0.073245071 0.035676837 0.010386467
0.073719069 0.63950181 -0.031391621
0.073743075 0.67105782 -0.033574581
0.073563077 0.44103286 -0.017661572
0.072890073 -0.41667718 0.041683674
0.072943076 -0.34819013 0.036945343
0.072498076 -0.91595119 0.076227665
0.07283207 -0.49042612 0.046785355
0.06747207 0.11835283 0.0044083595
0.067534074 0.20391583 -0.0015115738
0.067622073 0.32641083 -0.0099864006
0.067644075 0.35640085 -0.012061596
0.06787207 0.67105085 -0.03383255
0.066640072 -1.0287561 0.083777428
0.066722073 -0.91600317 0.075976372
0.067214072 -0.23655516 0.028965473
0.06692107 -0.64163715 0.056993484
0.067254074 -0.18264514 0.025234699
0.061772075 0.32639283 -0.010242462
0.061791074 0.35638386 -0.012318611
0.061979074 0.63948584 -0.031905651
0.064070076 0.74402988 -0.2497263
0.061898079 0.51756287 -0.023470402
0.06132308 -0.3482632 0.036438465
0.060946073 -0.91605717 0.075725555
0.061358076 -0.2958222 0.032810688
0.061229076 -0.49050719 0.046280384
0.055774078 0.084391832 0.0062465668
0.055674076 -0.082116187 0.017767429
0.055891078 0.27733684 -0.0071043968
0.056062076 0.56135488 -0.026759624
0.055938076 0.35636687 -0.012574673
0.056128077 0.67103583 -0.034348488
0.055964075 0.39865983 -0.015500546
0.056010075 0.47515485 -0.020792484
0.055102076 -1.0288711 0.083278656
0.055613078 -0.18271118 0.024728298
0.055427078 -0.49054915 0.046028614
0.049936078 0.084365845 0.0059905052
0.050041076 0.27731687 -0.007361412
0.049889077 -0.002346158 0.011991501
0.050213076 0.59422284 -0.02929163
0.050083078 0.35634983 -0.012830734
0.051900078 0.74417281 -0.24415827
0.050148077 0.47514084 -0.021051407
0.049700078 -0.34834009 0.035933495
0.049460076 -0.79115516 0.066575527
0.049541079 -0.6417771 0.056238651
0.049597077 -0.53880912 0.049113274
0.044098075 0.084339857 0.0057353973
0.044156078 0.20382786 -0.0025324821
0.044039078 -0.038912177 0.014266491
0.044345077 0.59421289 -0.029547691
0.044382077 0.67101985 -0.034863472
0.043615077 -0.91622514 0.074975491
0.043675076 -0.79120916 0.066324711
0.043969076 -0.18277913 0.02422142
0.043821078 -0.49063712 0.045524597
0.038190078 -0.082211196 0.01700449
0.038342077 0.27727586 -0.0078735352
0.038240075 0.035514832 0.0088586807
0.038363077 0.32631886 -0.011267662
0.038376078 0.35631382 -0.013342381
0.038495075 0.63945085 -0.032937527
0.038049076 -0.41692013 0.040168285
0.037862077 -0.85780412 0.070679665
0.037890077 -0.79126316 0.066073418
0.032435078 0.11820287 0.0028786659
0.032362077 -0.082244098 0.016751289
0.032595076 0.56130886 -0.027786732
0.032607079 0.59419084 -0.030063629
0.032552078 0.44092885 -0.019455433
0.032564078 0.47509685 -0.021821499
0.032159075 -0.64192718 0.055485725
0.026532074 -0.082278192 0.016497612
0.026545076 -0.039007127 0.013502598
0.026641075 0.27723283 -0.0083847046
0.026556075 -0.0024671555 0.010973454
0.026656074 0.32627887 -0.011779308
0.026665075 0.35627586 -0.013854504
0.026760075 0.67099583 -0.035636425
0.027050074 0.80196983 -0.1021595
0.026431074 -0.41700917 0.039664268
0.026261074 -0.98012418 0.078635693
0.026409075 -0.49077612 0.044769287
0.020790074 0.27721083 -0.0086402893
0.020732075 0.035424829 0.0080943108
0.020830074 0.44089586 -0.01996851
0.020848075 0.51747185 -0.025269508
0.020639075 -0.34854919 0.034670353
0.020502076 -0.9164682 0.073976517
0.020551074 -0.7141251 0.059971333
0.014918075 0.15749782 -0.00061130524
0.014931076 0.23362982 -0.0058803558
0.014939076 0.27718782 -0.0088953972
0.014997075 0.59415686 -0.030834675
0.014954076 0.35623586 -0.01436758
0.015005075 0.63941181 -0.033967495
0.014961076 0.39853883 -0.017295361
0.014814076 -0.41710216 0.039159298
0.014846076 -0.23689121 0.026686668
0.0090690758 0.11809087 0.0018596649
0.0091260755 0.59414583 -0.031090736
0.0090940762 0.32621586 -0.012546539
0.0091580758 0.71599782 -0.049444675
0.0089680757 -0.71424121 0.059471607
0.0089950757 -0.49092513 0.0440135
0.0032270753 0.11806083 0.001604557
0.0032190757 -0.0025991797 0.0099563599
0.0031940753 -0.41719919 0.038655281
0.0031720756 -0.79161912 0.064573288
0.0032020754 -0.29622811 0.030281544
0.0032050756 -0.23697513 0.026180267
0.0031810754 -0.6422022 0.054228306
-0.0026179245 0.11803085 0.0013504028
-0.0026179245 -0.03918016 0.012232304
-0.0026179245 0.56123084 -0.02933073
-0.0026179245 0.59412086 -0.031605721
-0.0026179245 0.39848083 -0.018064499
-0.0026179245 0.71615684 -0.044181347
-0.0026179245 0.47500184 -0.023360729
-0.0026179245 0.51741284 -0.026296616
-0.0026179245 -0.29627317 0.030028343
-0.0026179245 -0.60215718 0.051202297
-0.0026179245 -0.18308717 0.022194386
-0.0084589245 0.084073842 0.003443718
-0.0084509244 -0.039217174 0.01197958
-0.0084529249 -0.0026691556 0.0094485283
-0.008491924 0.63936985 -0.03499651
-0.0084939245 0.67094088 -0.037182331
-0.0084779244 0.39846087 -0.01832056
-0.0084799249 0.44080684 -0.021251678
-0.0084979245 0.71623683 -0.041552544
-0.0084319245 -0.34878212 0.033408642
-0.0083909249 -1.0296052 0.080538273
-0.0084169246 -0.60221511 0.050952435
-0.0084419241 -0.18312913 0.021941662
-0.014303925 0.11796886 0.00083971024
-0.014279924 -0.082536161 0.01472044
-0.014366924 0.63935888 -0.035253525
-0.014337924 0.39844084 -0.018576622
-0.014342925 0.44078884 -0.021508694
-0.014351924 0.51738185 -0.026809692
-0.014164925 -1.0296803 0.08028841
-0.014274924 -0.12512511 0.017670631
-0.020147925 0.11793685 0.00058555603
-0.020154925 0.15732384 -0.0021414757
-0.020163925 0.20354283 -0.0053405762
-0.020119926 -0.039292157 0.011471272
-0.020168925 0.23347282 -0.0074133873
-0.020185925 0.32610184 -0.013825417
-0.020701924 0.74501783 -0.21089172
-0.020219926 0.51736581 -0.027066708
-0.019960925 -0.91694719 0.072231293
-0.019996924 -0.7145521 0.058219433
-0.020037925 -0.49119514 0.042756557
-0.025993925 0.11790383 0.00032949448
-0.025945926 -0.082617104 0.014213562
-0.025973925 0.035155833 0.0060606003
-0.026043925 0.32607687 -0.014081478
-0.026061926 0.39839888 -0.019088268
-0.026071925 0.44074985 -0.022021294
-0.025880925 -0.34893316 0.032651424
-0.025757926 -0.85851914 0.067931652
-0.025920926 -0.1832611 0.021181583
-0.025834925 -0.53949016 0.045844555
-0.031828925 0.083938837 0.0024256706
-0.031838924 0.11787087 7.6293945e-05
-0.031777926 -0.082658112 0.013960361
-0.031982925 0.59405589 -0.032893658
-0.031901926 0.32605284 -0.01433754
-0.031936925 0.44072986 -0.022277355
-0.032019924 0.71624088 -0.041352272
-0.032734923 0.74515688 -0.20536757
-0.031959925 0.51733184 -0.027580738
-0.031676926 -0.4175151 0.037143707
-0.031697925 -0.34898514 0.032399654
-0.031525925 -0.91709715 0.071732521
-0.031543925 -0.85859209 0.067681313
-0.031587925 -0.71468514 0.057718277
-0.031654924 -0.49131018 0.042253494
-0.037725922 0.23338783 -0.0081796646
-0.037741922 0.27696085 -0.01119566
-0.037640922 -0.0028561354 0.0081772804
-0.037489925 -0.41757113 0.036892414
-0.037308924 -0.91717321 0.071483612
-0.037354924 -0.79209417 0.062823296
-0.037595924 -0.12529618 0.016655445
-0.043546923 0.15719682 -0.0031604767
-0.043597922 0.27693284 -0.011451721
-0.043494925 0.035043836 0.0052967072
-0.043717925 0.56112885 -0.031130314
-0.043648925 0.39833182 -0.019857407
-0.044748925 0.74529386 -0.19985056
-0.043303922 -0.41762811 0.036640644
-0.043354925 -0.29661816 0.028262615
-0.043251924 -0.5396741 0.045091629
-0.049279924 -0.082787097 0.013199329
-0.049590923 0.56111288 -0.031387329
-0.049606923 0.59401381 -0.033664703
-0.049532924 0.44066784 -0.023046494
-0.049665924 0.71621484 -0.042125702
-0.049569923 0.51727986 -0.028351307
-0.049707923 0.80290186 -0.048120499
-0.048875924 -0.91733116 0.070986271
-0.049204923 -0.23739713 0.023904324
-0.049008925 -0.64277011 0.051973343
-0.049230922 -0.18344814 0.020170689
-0.055246923 0.15712887 -0.0036706924
-0.055311922 0.27687585 -0.011962414
-0.055159923 -0.0029771328 0.0074167252
-0.055377923 0.39828587 -0.020370483
-0.054933924 -0.41774517 0.036137581
-0.054627925 -0.98116511 0.075151443
-0.054729924 -0.79231614 0.062075615
-0.054867923 -0.53980213 0.04458952
-0.054893922 -0.49155313 0.041247368
-0.060977925 -0.039580166 0.0096936226
-0.061168924 0.27684683 -0.012217522
-0.061360922 0.59398389 -0.034179688
-0.061241925 0.39826286 -0.020626545
-0.061267924 0.44062486 -0.023560524
-0.060790922 -0.34926111 0.031139374
-0.060481925 -0.85897714 0.066435337
-0.060612924 -0.64290816 0.051474571
-0.066920929 0.11765885 -0.0014514923
-0.066977926 0.20329487 -0.0073814392
-0.06678693 -0.082923114 0.012438297
-0.067058928 0.32589483 -0.015871525
-0.067266926 0.63924986 -0.03757143
-0.066564925 -0.41786712 0.035634518
-0.066609927 -0.34932011 0.030888557
-0.066231929 -0.91757721 0.070240498
-0.066315927 -0.79247111 0.061576366
-0.066366926 -0.71511418 0.056219578
-0.06641493 -0.64298016 0.051223278
-0.066441923 -0.60285813 0.048446655
-0.072744928 0.083678842 0.00064468384
-0.072797924 0.15702385 -0.0044355392
-0.07283093 0.20326084 -0.0076375008
-0.072708927 0.034843862 0.0040273666
-0.07314793 0.63923681 -0.037830353
-0.072326928 -0.49174613 0.040494442
-0.078592926 0.08363986 0.00039052963
-0.078650929 0.15698785 -0.0046896935
-0.078744926 0.27675682 -0.012984276
-0.078554928 0.034801841 0.0037722588
-0.079029925 0.63922286 -0.038088322
-0.078198925 -0.41799217 0.035132408
-0.07771793 -1.0306072 0.077558517
-0.077964924 -0.71526712 0.055719376
-0.084299929 -0.083066165 0.011679649
-0.084603928 0.27672583 -0.013240337
-0.084366925 -0.00319314 0.006146431
-0.084844925 0.56101286 -0.03292942
-0.084975928 0.71615785 -0.043674469
-0.086483926 0.74611086 -0.16712666
-0.084073924 -0.34949917 0.030133724
-0.083538927 -0.98160416 0.073911667
-0.083698928 -0.79271215 0.060829639
-0.084168926 -0.23771816 0.022389412
-0.083825924 -0.64320117 0.050474644
-0.083859928 -0.60307413 0.047695637
-0.084263928 -0.12567717 0.014630318
-0.090354927 0.15691286 -0.0051994324
-0.090463929 0.27669382 -0.013495445
-0.090244927 0.034715831 0.0032644272
-0.090721928 0.56099486 -0.033187389
-0.09050893 0.32578087 -0.016894341
-0.089380927 -0.91792613 0.069245338
-0.089997925 -0.23777515 0.022138596
-0.096137926 0.083516836 -0.00037240982
-0.096598931 0.56097686 -0.033443451
-0.096705928 0.67077386 -0.041050434
-0.096482925 0.44048685 -0.02509737
-0.096749924 0.71613681 -0.04419136
-0.095718928 -0.3496241 0.029629707
-0.095059924 -1.0308902 0.076816559
-0.09510693 -0.98179013 0.073415279
-0.095168926 -0.91801614 0.068998337
-0.095289931 -0.79288012 0.060330391
-0.09553393 -0.5402841 0.042836666
-0.10198693 0.083473861 -0.0006275177
-0.10214093 0.23303384 -0.010987282
-0.10218493 0.27662987 -0.014006615
-0.10247793 0.56095886 -0.03370142
-0.10417192 0.74659085 -0.14791727
-0.10243293 0.51710784 -0.03066349
-0.10154193 -0.34968811 0.02937746
-0.10108592 -0.79296619 0.060082436
-0.10123993 -0.6434322 0.049724579
-0.10787493 0.11738384 -0.0032324791
-0.10765693 -0.083267152 0.010665417
-0.10822693 0.44043785 -0.025610447
-0.10826392 0.47464085 -0.027981281
-0.10729193 -0.4183231 0.033875465
-0.10662593 -1.0310872 0.076321602
-0.10667893 -0.9819811 0.072920322
-0.10704692 -0.64351219 0.049474716
-0.10709093 -0.60337716 0.046694279
-0.10761093 -0.12588614 0.013618469
-0.10715993 -0.54043216 0.042334557
-0.11354693 -0.040003181 0.0074124336
-0.11391093 0.27656287 -0.014517307
-0.11363292 0.034535825 0.0022482872
-0.11427493 0.59383988 -0.036496639
-0.11311293 -0.41839319 0.033624649
-0.11240893 -1.0311871 0.0760746
-0.11338193 -0.1840331 0.017389297
-0.11344893 -0.12594014 0.013366699
-0.11302793 -0.49223512 0.038739681
-0.11953992 0.083343863 -0.0013895035
-0.11939093 -0.040054142 0.0071582794
-0.11977392 0.27652884 -0.014771461
-0.12011793 0.56090283 -0.034473419
-0.12024993 0.67072183 -0.042081356
-0.12176393 0.74706584 -0.12881756
-0.12001292 0.47459385 -0.028493404
-0.11893293 -0.41846317 0.033372402
-0.11832893 -0.91839212 0.068006516
-0.11866093 -0.64367515 0.048974514
-0.11870993 -0.60353619 0.046194553
-0.11878593 -0.54058415 0.041834354
-0.11884393 -0.49230915 0.038488388
-0.12543492 0.11725587 -0.0039963722
-0.12517992 -0.083425105 0.009906292
-0.12579092 0.39797586 -0.023444653
-0.12584493 0.44036186 -0.026381493
-0.12594293 0.51702285 -0.031692505
-0.12484193 -0.34995311 0.02837038
-0.12411993 -0.91848916 0.06775856
-0.12419393 -0.85994118 0.06370163
-0.12427893 -0.79332215 0.059086323
-0.13134293 0.15663487 -0.0069813728
-0.13192493 0.59378684 -0.037267685
-0.13160792 0.35559684 -0.020765305
-0.13198493 0.63909286 -0.040407658
-0.13202693 0.67069483 -0.04259634
-0.13166393 0.39794785 -0.023701668
-0.13176593 0.47454584 -0.029007435
-0.12982793 -0.98238117 0.071929455
-0.13081792 -0.23819512 0.020372391
-0.13096693 -0.12610811 0.012607574
-0.13714592 0.11716884 -0.0045056343
-0.13726492 0.20285684 -0.010442734
-0.13686693 -0.083535135 0.0093994141
-0.13730693 0.23281485 -0.012516499
-0.13736793 0.27642387 -0.015539646
-0.13697793 -0.0036251545 0.0038633347
-0.13776293 0.56084383 -0.035244465
-0.13925993 0.74753684 -0.10982656
-0.13649593 -0.35009116 0.027869701
-0.13561693 -0.98248512 0.071682453
-0.13578692 -0.86013418 0.063205719
-0.13598692 -0.71610516 0.053226471
-0.13665193 -0.23825818 0.020120621
-0.13608792 -0.64392811 0.048225403
-0.13680793 -0.12616509 0.012354374
-0.14270993 -0.083590209 0.009147644
-0.14364593 0.56082386 -0.03550148
-0.14334793 0.35553384 -0.021278381
-0.14380492 0.67066681 -0.043112278
-0.14340892 0.39788985 -0.024213314
-0.14347093 0.44028184 -0.027151585
-0.14167993 -0.79360217 0.058341503
-0.14189693 -0.64401418 0.047976494
-0.14195493 -0.60386711 0.045194626
-0.14880693 0.083112836 -0.0026602745
-0.14861992 -0.040317178 0.0058922768
-0.14964692 0.63904583 -0.041180611
-0.14815193 -0.35023421 0.027366638
-0.14770693 -0.64410216 0.047728539
-0.14848992 -0.12628216 0.011847496
-0.15471493 0.11703187 -0.0052685738
-0.15458493 0.034194827 0.00047159195
-0.15553592 0.63902986 -0.04143858
-0.15558593 0.67063886 -0.043629646
-0.15665893 0.74800485 -0.090942383
-0.15298593 -0.98280412 0.070941448
-0.15308593 -0.91899711 0.066520691
-0.15328293 -0.79379612 0.057844639
-0.15424092 -0.18445712 0.015623569
-0.15375593 -0.4927761 0.036986351
-0.16063893 0.15641886 -0.008254528
-0.16043893 0.034143865 0.00021839142
-0.16091493 0.32539582 -0.019965649
-0.16096392 0.35543686 -0.02204752
-0.16110192 0.44019884 -0.027919292
-0.16122793 0.51688588 -0.033234596
-0.15897793 -0.8605352 0.062214375
-0.15989693 -0.2978521 0.023222446
-0.15999393 -0.23852116 0.019111633
-0.15939693 -0.60412711 0.044446468
-0.16017693 -0.12640315 0.011343479
-0.16657792 0.20265085 -0.011715412
-0.16670293 0.27623886 -0.016816616
-0.16718493 0.56074083 -0.036531448
-0.16820793 0.74831384 -0.07841444
-0.16521193 -0.60421616 0.044197559
-0.17229192 0.11689085 -0.0060315132
-0.17244193 0.20260787 -0.01197052
-0.17257093 0.27620083 -0.017071724
-0.17278492 0.39773786 -0.025494576
-0.17334293 0.71599084 -0.047548294
-0.17299393 0.51683784 -0.033747673
-0.17135192 -0.41914111 0.031115532
-0.17057693 -0.86074513 0.061718464
-0.17156392 -0.2979961 0.022720337
-0.17186493 -0.12652713 0.010838509
-0.17113693 -0.54132313 0.039583683
-0.17793293 -0.0040001273 0.0020895004
-0.17901693 0.59363586 -0.039328575
-0.17923893 0.71597785 -0.047807693
-0.17695692 -0.54141015 0.03933239
-0.18401393 0.11679286 -0.0065393448
-0.18385893 0.033930838 -0.00079727173
-0.18446092 0.35530084 -0.023068428
-0.18499292 0.63894582 -0.04272747
-0.18454093 0.39767385 -0.026006699
-0.18545292 0.74877483 -0.059705734
-0.18300892 -0.41930312 0.030613422
-0.18217993 -0.86095816 0.061223507
-0.18323593 -0.29814321 0.022217274
-0.18355693 -0.12665421 0.010332584
-0.18987493 0.11674285 -0.006793499
-0.19004093 0.20247585 -0.012735367
-0.18956992 -0.040718138 0.0041193962
-0.18964092 -0.0041131377 0.0015826225
-0.19033693 0.35526586 -0.023325443
-0.19088593 0.63892782 -0.042985439
-0.19103493 0.71595287 -0.048323631
-0.18774493 -0.98348218 0.069459438
-0.18811093 -0.79440719 0.056355476
-0.18826093 -0.71696514 0.05098772
-0.18840092 -0.64475018 0.045984268
-0.18847893 -0.60458416 0.043199539
-0.18929093 -0.18485421 0.014108658
-0.19533592 -0.084128201 0.0068702698
-0.19605492 0.27604187 -0.018092632
-0.19549593 -0.004171133 0.0013284683
-0.19668892 0.59357488 -0.040101528
-0.19615293 0.32517886 -0.02149868
-0.19677992 0.63891089 -0.043243408
-0.19699992 0.74898982 -0.050872326
-0.19645093 0.47425684 -0.031831741
-0.19466692 -0.41946918 0.030113697
-0.19353993 -0.98359913 0.06921339
-0.20135093 -0.0042301416 0.0010752678
-0.20142892 0.033764839 -0.0015573502
-0.20202893 0.32514083 -0.021754742
-0.20267393 0.63889289 -0.043500423
-0.20273893 0.67051685 -0.045694351
-0.20233493 0.47422785 -0.03208828
-0.20086792 -0.23901516 0.01734972
-0.20109893 -0.12685019 0.0095744133
-0.20024493 -0.54177219 0.03833437
-0.20034492 -0.49345917 0.034986496
-0.20754692 0.15604287 -0.01029253
-0.20764492 0.20233983 -0.013501644
-0.20712993 -0.040900171 0.0033593178
-0.20856893 0.63887489 -0.043758392
-0.20814793 0.43996283 -0.0299716
-0.20831093 0.51668686 -0.035290718
-0.20502892 -1.0329921 0.072127342
-0.20670992 -0.23909014 0.017097473
-0.20584993 -0.6450451 0.045236588
-0.20694792 -0.12691718 0.0093226433
-0.20606893 -0.54186517 0.038084507
-0.21325493 0.082550824 -0.0054554939
-0.21289192 -0.084321201 0.0061125755
-0.21298593 -0.040963173 0.0031065941
-0.21306592 -0.0043491721 0.00056838989
-0.21314792 0.033650875 -0.0020647049
-0.21378292 0.32506382 -0.022266388
-0.21453592 0.67048484 -0.046210289
-0.21470693 0.74895686 -0.051642418
-0.21093193 -0.98396212 0.068474293
-0.21107092 -0.9201172 0.064047337
-0.21119793 -0.8615182 0.059985638
-0.21134393 -0.79484016 0.055364609
-0.21242493 -0.29852813 0.020960331
-0.21255393 -0.23916513 0.016845703
-0.21955092 0.27587587 -0.019114494
-0.22026193 0.59349084 -0.041131496
-0.21999493 0.47414085 -0.032858372
-0.21799293 -0.4198131 0.029111385
-0.21814692 -0.35116714 0.024352551
-0.21661992 -1.0332451 0.071634293
-0.21826492 -0.29860812 0.020709515
-0.22505993 0.11643183 -0.0083203316
-0.22643793 0.71587384 -0.049875736
-0.22597992 0.51660681 -0.036061287
-0.22280993 -0.86175114 0.059491634
-0.22296393 -0.7950651 0.054868698
-0.22449993 -0.1271221 0.0085654259
-0.23084593 0.082383871 -0.0062174797
-0.23092593 0.11637783 -0.0085735321
-0.23101893 0.15584183 -0.011309624
-0.23064093 -0.0045331717 -0.00019168854
-0.23197493 0.56048882 -0.039362431
-0.23148993 0.35500884 -0.025117397
-0.23223393 0.67043483 -0.046985626
-0.23168993 0.43983486 -0.030997276
-0.23177093 0.47408086 -0.033370495
-0.23187093 0.51657987 -0.036317348
-0.22982192 -0.35133618 0.023851395
-0.22847892 -0.92048019 0.063307285
-0.22877492 -0.79517919 0.054621696
-0.22895792 -0.71770221 0.049251556
-0.23008692 -0.2393952 0.016091347
-0.23707592 0.23209083 -0.016853333
-0.23787093 0.56046385 -0.039619446
-0.23729993 0.32490486 -0.023288727
-0.23549692 -0.42008215 0.02836132
-0.23428492 -0.92060417 0.063061714
-0.23495093 -0.64556116 0.043994427
-0.23606493 -0.18542916 0.01209259
-0.23520093 -0.54234821 0.036836624
-0.24287593 0.20205188 -0.01502943
-0.24216492 -0.084658206 0.0048484802
-0.24346593 0.43976983 -0.031510353
-0.24365693 0.51652485 -0.036832333
-0.24008992 -0.9207291 0.062815666
-0.24023493 -0.86211115 0.058750629
-0.24059293 -0.71792418 0.048754692
-0.24087192 -0.60547918 0.040957451
-0.24102892 -0.5424481 0.036588669
-0.24863292 0.15568388 -0.012072563
-0.24893792 0.27565682 -0.020390511
-0.24974492 0.59337884 -0.042417526
-0.24913892 0.35489184 -0.025885582
-0.24994093 0.67038286 -0.047754288
-0.24641092 -0.71803719 0.048504353
-0.24659492 -0.64577609 0.043496609
-0.24791293 -0.12740821 0.0075554848
-0.24697992 -0.49421018 0.032987595
-0.25450492 0.15562987 -0.012328625
-0.2556439 0.59335583 -0.042675495
-0.25494492 0.32477987 -0.024055481
-0.2552439 0.43970186 -0.03202343
-0.25185493 -0.8623572 0.05825758
-0.25202891 -0.79564911 0.053631306
-0.25281292 -0.49430913 0.032737732
-0.26027292 0.11609882 -0.0098433495
-0.2605809 0.23189783 -0.017874718
-0.2615439 0.59333289 -0.042930603
-0.2576659 -0.8624832 0.058009624
-0.25784391 -0.79576916 0.053384304
-0.25916591 -0.29919213 0.018951416
-0.25824291 -0.6459952 0.042999268
-0.26657993 0.27551883 -0.021157742
-0.2670269 0.43963286 -0.032536507
-0.2634789 -0.86260921 0.057762623
-0.26434991 -0.54285818 0.035590649
-0.2644819 -0.49450916 0.032239437
-0.27157891 -0.041626155 0.0005774498
-0.27246192 0.27547187 -0.021412373
-0.2717869 0.033037841 -0.0046014786
-0.27301392 0.47386184 -0.035164356
-0.27313292 0.51638186 -0.03811264
-0.26929191 -0.86273712 0.057516575
-0.2698949 -0.64622015 0.042502403
-0.27000692 -0.6060161 0.039713383
-0.27018291 -0.54296321 0.035342693
-0.27813491 0.20174384 -0.016559601
-0.27731892 -0.085087121 0.0033335686
-0.2783449 0.27542484 -0.02166748
-0.27636391 -0.42074412 0.026609421
-0.27510491 -0.8628661 0.057270527
-0.27572191 -0.64633316 0.042253494
-0.2758359 -0.6061272 0.039465427
-0.27601591 -0.54307014 0.035092354
-0.2845819 0.39706886 -0.030357361
-0.28220493 -0.42084318 0.026360512
-0.28091991 -0.86299711 0.057023525
-0.2813389 -0.71874017 0.047019482
-0.2891739 -0.041839123 -0.00018262863
-0.28673691 -0.8631292 0.056776524
-0.28874493 -0.18614119 0.0098266602
-0.29255292 -0.86326319 0.056530476
-0.29332992 -0.60646719 0.038720608
-0.29477891 -0.1280182 0.0055375099
-0.30010992 -0.2998212 0.017195702
-0.30029392 -0.24039513 0.013073444
-0.30716392 0.081593871 -0.009516716
-0.30700991 0.032638848 -0.0061216354
-0.30579692 -0.35253018 0.02059269
-0.3040019 -0.92219812 0.060106277
-0.30650291 -0.12817818 0.0050325394
-0.31276092 -0.0054761767 -0.003736496
-0.31164691 -0.35262913 0.02034235
-0.30961192 -0.98626012 0.064294338
-0.31217992 -0.18647915 0.0088205338
-0.3123669 -0.12825912 0.0047802925
-0.31103292 -0.54373211 0.033598423
-0.31851491 -0.042209148 -0.0014467239
-0.3162989 -0.71948916 0.045534611
-0.31767091 -0.30010515 0.016441345
-0.3180429 -0.18656617 0.0085663795
-0.32424092 -0.085703194 0.0013136864
-0.3243849 -0.042285144 -0.0016975403
-0.32372391 -0.24075717 0.012067318
-0.32390392 -0.18665415 0.0083155632
-0.3240979 -0.12842518 0.0042762756
-0.32896993 -0.42167014 0.02436161
-0.32920292 -0.35293013 0.019591331
-0.3350569 -0.35303217 0.019342422
-0.33403993 -0.64753813 0.039772511
-0.34067091 -0.4218871 0.023860455
-0.33868492 -0.98701614 0.06306839
-0.33911592 -0.86437911 0.054560661
-0.34024093 -0.54431516 0.032354355
-0.3465229 -0.42199713 0.023611546
-0.34473091 -0.92322117 0.058386326
-0.3451789 -0.79773611 0.049681664
-0.35237491 -0.42210716 0.02336359
-0.3505519 -0.92337221 0.058141708
-0.35129091 -0.72028118 0.044051647
-0.35210592 -0.4961521 0.028500557
-0.35637492 -0.92352515 0.057896614
-0.36323291 -0.64818519 0.038534641
-0.36850291 -0.7983101 0.048695564
-0.36879992 -0.7206952 0.043309689
-0.3743369 -0.79845721 0.048448563
-0.37491891 -0.6484521 0.038039684
-0.3753199 -0.54505116 0.030864716
-0.38600591 -0.79875511 0.047956467
-0.38631693 -0.72111911 0.042568684
-0.39133191 -0.92447311 0.056425571
-0.39716291 -0.92463619 0.056180477
-0.40907392 -0.86621612 0.051611423
