# .PCD v0.7 - Point Cloud Data file format
VERSION 0.7
FIELDS x y z
SIZE 4 4 4
TYPE F F F
COUNT 1 1 1
WIDTH 1
HEIGHT 1024
VIEWPOINT 0 0 0 1 0 0 0
POINTS 1024
DATA ascii
0.55504322 -0.94966716 -0.50109196
0.54841918 -0.94858414 -0.49739885
0.52229917 -0.71646518 -0.40268373
0.4998042 -0.84718019 -0.43742371
0.4932732 -0.84617811 -0.4338069
0.48642319 -0.58090311 -0.33705997
0.48454419 -0.75866109 -0.39865589
0.4825922 -0.93790716 -0.46073675
0.48023421 -0.84418112 -0.42658567
0.46951619 -0.93580407 -0.45345974
0.4672232 -0.84219509 -0.419384
0.4621222 -0.63400418 -0.34359407
0.4586432 -0.75490016 -0.38438463
0.4557012 -0.6331411 -0.34007978
0.45433718 -0.57673508 -0.31955576
0.45424318 -0.84021813 -0.41219997
0.43954518 -0.48963815 -0.28152084
0.44155419 -0.57508308 -0.31258392
0.4284412 -0.28394014 -0.20360708
0.4270432 -0.2236101 -0.18168402
0.4364762 -0.63056511 -0.32956266
0.42684719 -0.48809618 -0.27463198
0.42879719 -0.57343918 -0.30562782
0.41454118 -0.22237915 -0.17500305
0.42243019 -0.57262117 -0.30215883
0.41417819 -0.48656112 -0.26775789
0.42398718 -0.92853314 -0.42814398
0.42191818 -0.83532315 -0.39431763
0.40963718 -0.28199118 -0.19352102
0.4189572 -0.70188314 -0.34589481
0.41751319 -0.92750508 -0.42454481
0.41359618 -0.74841112 -0.35958385
0.41255918 -0.70099109 -0.34238386
0.4006612 -0.15687209 -0.14501905
0.40971619 -0.57099015 -0.295228
0.39344519 -0.10948616 -0.12474203
0.40153518 -0.48503417 -0.26090097
0.40718821 -0.74749309 -0.35605669
0.3958382 -0.22054416 -0.16500664
0.3872622 -0.10894018 -0.12145901
0.38626018 -0.061672151 -0.10433006
0.38454819 0.019019842 -0.075082779
0.3896172 -0.21993512 -0.16168404
0.39822018 -0.62547415 -0.30864763
0.3810862 -0.10839611 -0.1181798
0.38009921 -0.061154127 -0.10106802
0.37927118 -0.021477103 -0.086695671
0.39813018 -0.92443818 -0.41377687
0.3860482 -0.34595507 -0.20423174
0.3712112 0.07235086 -0.049656868
0.3731302 -0.020982146 -0.083452702
0.38801119 -0.74475616 -0.34550762
0.3687512 -0.10731107 -0.11163282
0.36779618 -0.060121119 -0.094553947
0.38524419 -0.92240614 -0.40662003
0.3816312 -0.74384815 -0.34200001
0.3780522 -0.56695014 -0.2779789
0.35829118 0.10940188 -0.030165672
0.3608672 -0.019996107 -0.076974869
0.36005318 0.020906866 -0.062178612
0.38041919 -1.0021181 -0.43225002
0.36731619 -0.34392816 -0.19415379
0.3743192 -0.69569212 -0.32140303
0.35644418 -0.10623115 -0.10510206
0.3555212 -0.059094131 -0.088057041
0.3498272 0.23168486 0.017089367
0.35978618 -0.27686912 -0.16680098
0.3688952 -0.7420401 -0.33499575
0.36653119 -0.6212911 -0.29133701
0.34533918 0.15197486 -0.0087137222
0.34440118 0.20066684 0.0088853836
0.3486312 -0.019015133 -0.070511818
0.36418518 -0.82667118 -0.36241484
0.35358518 -0.27623612 -0.1634779
0.35913721 -0.56455117 -0.26767969
0.3392882 0.15237087 -0.0055499077
0.34416318 -0.10515708 -0.098582745
0.34327218 -0.05807215 -0.081573963
0.34864619 -0.34191817 -0.18411589
0.35284621 -0.56375617 -0.26425505
0.3346892 0.074987888 -0.030473709
0.3380312 -0.10462314 -0.095329762
0.3388972 -0.15120012 -0.11214781
0.34656018 -0.56296211 -0.26083279
0.32862419 0.075423896 -0.027289867
0.32631418 0.20177287 0.018315315
0.3257412 0.23309386 0.029620171
0.32957819 0.023237884 -0.046123981
0.34506619 -0.82383209 -0.35185766
0.34264418 -0.69133812 -0.30403662
0.3339262 -0.21452814 -0.13194084
0.3235032 0.023700893 -0.042924881
0.31667718 0.40374786 0.094191074
0.34181321 -0.99581307 -0.4107337
0.33003318 -0.33992213 -0.17410994
0.32777119 -0.21393508 -0.12865686
0.33501318 -0.61716312 -0.27412891
0.31587818 0.11232185 -0.0079360008
0.31884819 -0.056044102 -0.068650723
0.31204221 0.32983786 0.070500374
0.33398619 -0.91438514 -0.37817574
0.33235618 -0.82195216 -0.34484386
0.3287302 -0.61634308 -0.27069902
0.32774618 -0.56059414 -0.25059462
0.30828318 0.20287085 0.027714252
0.31207418 -0.016102135 -0.051213741
0.3176572 -0.3386001 -0.16745663
0.32453421 -0.73578411 -0.31061983
0.32245219 -0.61552614 -0.26727486
0.32148719 -0.55980915 -0.24719095
0.30747119 -0.10196918 -0.079119682
0.30600318 -0.015621126 -0.048009872
0.29960018 0.36126089 0.08777523
0.29813319 0.44758686 0.11888027
0.31523618 -0.55902618 -0.24378967
0.29710218 0.15511388 0.016503334
0.2962932 0.20359784 0.033964157
0.29993919 -0.015141129 -0.044809818
0.29366121 0.36154085 0.090843201
0.2929402 0.40478289 0.10641527
0.29222319 0.44782287 0.12191629
0.29164618 0.48238587 0.13436413
0.30758518 -0.47383314 -0.20999479
0.30629119 -0.39621812 -0.18204498
0.3162162 -0.99166518 -0.39647865
0.3133412 -0.81915015 -0.33435297
0.30321419 -0.21157807 -0.11555099
0.29452521 -0.054037154 -0.055785656
0.28905818 0.28040785 0.064599991
0.29388219 -0.0146631 -0.041614056
0.2843402 0.56908083 0.16851902
0.28702119 0.40504086 0.10946417
0.28631818 0.44805786 0.12494898
0.28575319 0.48260286 0.13738394
0.3098352 -0.9906351 -0.39292574
0.29709119 -0.21099311 -0.11228466
0.28382918 0.23552686 0.051425934
0.28180018 0.36209989 0.096968174
0.29192919 -0.26999718 -0.13046169
0.29933619 -0.73226112 -0.29678488
0.28995419 -0.14676708 -0.086122036
0.29652318 -0.55668908 -0.23361397
0.27786419 0.2358709 0.05452919
0.28114519 0.026906848 -0.02062273
0.2763612 0.3316139 0.088962078
0.27398318 0.48303688 0.14342117
0.2958332 -0.90848011 -0.35702562
0.29438621 -0.81637114 -0.32389879
0.2838642 -0.14621907 -0.082885742
0.27313119 0.15665889 0.029027939
0.27238619 0.20504189 0.046422005
0.26863819 0.44876087 0.13403416
0.26745218 0.52584291 0.16174316
0.2918222 -1.0585501 -0.40781403
0.2880832 -0.81544918 -0.32042408
0.27778119 -0.1456731 -0.07965374
0.26910019 0.027811885 -0.014282703
0.2622382 0.48346788 0.14944315
0.2754342 -0.39279717 -0.16541481
0.28317121 -0.90653211 -0.35001087
0.27454919 -0.33402818 -0.14429998
0.2617932 0.11600089 0.020394325
0.2600112 0.23689789 0.063815117
0.25934619 0.28200686 0.080016136
0.2630862 0.028262854 -0.011119843
0.25814921 0.36320889 0.10918093
0.25688121 0.44922587 0.14007521
0.27042219 -0.46947414 -0.18988371
0.26744619 -0.26754612 -0.11736107
0.25581318 0.11640388 0.023525238
0.24927117 0.57011288 0.18640614
0.26425019 -0.46875411 -0.18654585
0.26313519 -0.39144117 -0.15879107
0.27270821 -1.0553751 -0.39714193
0.26920921 -0.81269914 -0.31002283
0.26798719 -0.72790915 -0.27958298
0.26048321 -0.20751208 -0.092759609
0.24984019 0.11680686 0.026651382
0.24857618 0.20646989 0.058826923
0.26635119 -1.0543222 -0.39359379
0.26422718 -0.90362912 -0.33951998
0.2561692 -0.33209413 -0.13443089
0.2552422 -0.26633114 -0.11083174
0.26107818 -0.68028313 -0.25937366
0.24508019 0.029607892 -0.0016436577
0.24017517 0.64376986 0.12604809
0.2519272 -0.4673211 -0.17988205
0.25666121 -0.81087714 -0.30310774
0.25485018 -0.67944819 -0.25596762
0.23839419 0.081824899 0.020068169
0.25163218 -0.90170711 -0.33254766
0.24306418 -0.26512116 -0.10432005
0.24862917 -0.67861611 -0.25256491
0.24141218 -0.14242512 -0.060329914
0.24765019 -0.60588712 -0.22649002
0.23078118 0.20753086 0.068095207
0.22871718 0.36457884 0.12437534
0.23861717 -0.38875109 -0.14558697
0.23620518 -0.20522207 -0.079817772
0.23537318 -0.14188915 -0.057122707
0.22486018 0.20788389 0.071181297
0.22874618 -0.095228136 -0.037395954
0.22388518 0.28389686 0.098409176
0.22764719 -0.0094791055 -0.0066800117
0.22002818 0.60318589 0.20617628
0.22229618 0.40782887 0.14280033
0.23349018 -0.46518415 -0.16991282
0.23250118 -0.38808209 -0.14229584
0.24099018 -1.0501392 -0.37944365
0.23175018 -0.32953912 -0.12132597
0.23527318 -0.60430914 -0.21974897
0.21855818 0.23926288 0.08536911
0.22115718 0.031385899 0.010940075
0.21436118 0.60316688 0.20557117
0.21644717 0.40807885 0.14581203
0.21495318 0.52756989 0.18859434
0.23164319 -0.80726212 -0.28933191
0.22484218 -0.26331908 -0.094575882
0.22410119 -0.20408612 -0.073369026
0.22909518 -0.60352415 -0.21638298
0.21211317 0.28452086 0.10451126
0.20923218 0.032267869 0.017212391
0.20283417 0.5714649 0.21009493
0.20302418 0.60312688 0.20436096
0.20335017 0.5279479 0.19452715
0.22204018 -1.0470312 -0.36887884
0.21350318 -0.32764012 -0.11153603
0.21817218 -0.72106308 -0.25227165
0.21675918 -0.60195917 -0.20966673
0.20268118 0.08431685 0.038798332
0.20327719 0.03270787 0.020343304
0.19978218 0.3353709 0.12856531
0.19893318 0.40882385 0.15482807
0.19804418 0.48580086 0.18235302
0.20810618 -0.38542718 -0.12916899
0.21294717 -0.8045761 -0.27903986
0.20667517 -0.26153117 -0.084866047
0.19588718 0.16157085 0.06937027
0.19822118 -0.04621315 -0.0048928261
0.19449618 0.28545088 0.11364508
0.19393218 0.3356539 0.13158798
0.19358918 0.36619985 0.14250708
0.19304118 0.64524686 0.15992308
0.19653317 0.67198688 0.04883194
0.19224317 0.48600987 0.18532515
0.19176818 0.52832389 0.20044994
0.20943917 -1.0449722 -0.36185503
0.20864818 -0.97451609 -0.33667278
0.19996917 -0.20183116 -0.060512066
0.20382617 -0.54527611 -0.18326092
0.18998718 0.16194189 0.072450161
0.19276118 -0.092193186 -0.01833868
0.18912518 0.24092585 0.100667
0.18863519 0.28575885 0.11668301
0.19138817 0.033582866 0.026594162
0.18551117 0.57196486 0.21892929
0.18718618 0.64542985 0.16413498
0.19678618 -0.46096009 -0.15007877
0.20151418 -0.89411908 -0.30482483
0.19459617 -0.26034611 -0.078410625
0.18409218 0.16231185 0.075527191
0.18325618 0.24125588 0.10371637
0.18065718 0.48642588 0.19126511
0.18987618 -0.38345414 -0.11936092
0.19612017 -0.97254914 -0.32972002
0.18794018 -0.20071214 -0.054103851
0.19157618 -0.54378814 -0.17661285
0.18033718 -0.044782102 0.0045509338
0.17739218 0.2415849 0.10676432
0.17641617 0.33650088 0.14064217
0.17868517 0.67248887 0.06189394
0.17566317 0.40980786 0.16680717
0.17522518 0.45241588 0.18201637
0.17443818 0.52888489 0.20931005
0.18460117 -0.45956713 -0.1434989
0.18905018 -0.89224714 -0.29793596
0.17231917 0.16304988 0.081673145
0.17484818 -0.090693176 -0.0088558197
0.17438518 -0.044307113 0.0076932907
0.16867118 0.52907085 0.21225834
0.18282618 -0.89131409 -0.29449606
0.16718118 0.086769879 0.057404995
0.16568118 0.24224085 0.11284924
0.16249318 0.57262486 0.23066807
0.16331919 0.6029799 0.20014095
0.16364917 0.45286188 0.18795919
0.16331919 0.48704588 0.20014906
0.17170018 -0.38149613 -0.10958576
0.17113818 -0.32326716 -0.088819981
0.17377518 -0.59654611 -0.18627501
0.16128518 0.087174892 0.060495377
0.15983517 0.24256688 0.11588717
0.15895018 0.33734089 0.14966917
0.15866618 0.36779588 0.16052532
0.16090818 0.67298687 0.07490015
0.15826719 0.41053885 0.17576027
0.15787017 0.45308387 0.19092607
0.16565418 -0.38084716 -0.10633373
0.16450217 -0.25741309 -0.062335014
0.15657218 -0.042891145 0.017096043
0.15499918 0.67315185 0.079226971
0.15248019 0.41078186 0.17873716
0.15178818 0.48745587 0.20605803
0.16155118 -0.59501809 -0.17962694
0.14842618 0.21237785 0.11096811
0.15104719 -0.088712156 0.003739357
0.14632718 0.45352688 0.19685316
0.14566317 0.52980983 0.22401905
0.15357818 -0.37955409 -0.099843025
0.15800017 -0.88761014 -0.2807827
0.15250517 -0.25625008 -0.055928707
0.15607518 -0.66638619 -0.20199585
0.14511117 -0.088220179 0.0068793297
0.14472318 -0.041953146 0.023349285
0.14406118 0.037038863 0.051468372
0.14127918 0.36858487 0.16949415
0.14755018 -0.37891012 -0.096601963
0.15306118 -1.0358431 -0.33046198
0.15247318 -0.9657461 -0.30550671
0.15181018 -0.88669008 -0.27736378
0.15034318 -0.71188408 -0.215137
0.13482918 0.64705586 0.2018261
0.13731718 0.67364585 0.092181206
0.13480818 0.45396787 0.20276499
0.14152817 -0.37826711 -0.093365669
0.14745118 -1.1118391 -0.35439062
0.14326018 -0.59274107 -0.16968298
0.14281718 -0.5379141 -0.15017271
0.13068618 0.24418789 0.13102627
0.13034017 0.28879786 0.14689302
0.13259818 -0.0021991134 0.043395042
0.13228717 0.037890851 0.05765295
0.13944818 -0.88485712 -0.27053976
0.13455617 -0.25451714 -0.046346664
0.12576318 0.12502086 0.091565132
0.12734018 -0.086751163 0.016280174
0.12454118 0.28909689 0.14989805
0.12673017 0.80287486 0.045423985
0.13386518 -0.96286911 -0.29519272
0.13327718 -0.88394517 -0.26713371
0.13163318 -0.66320616 -0.18865871
0.12768118 -0.13246912 2.5272369e-05
0.12016918 0.0899809 0.082035065
0.11756818 0.45462388 0.21161413
0.12767318 -0.96191508 -0.29176283
0.12261818 -0.25336915 -0.039974689
0.12553617 -0.66241616 -0.18533278
0.12463318 -0.53574318 -0.14031887
0.11407718 0.12577987 0.097675323
0.11379817 0.16667885 0.11220217
0.11552018 -0.085778177 0.022530079
0.11466818 0.039161861 0.06690836
0.11510217 0.71691388 0.044284344
0.11131418 0.53090489 0.24157524
0.12033318 -0.79146212 -0.22812986
0.11665918 -0.25279814 -0.036795616
0.11976218 -0.70779914 -0.19841194
0.11944717 -0.66162914 -0.18201208
0.10931918 -0.039169133 0.042026043
0.10746718 0.24546885 0.143085
0.10610318 0.45505887 0.21749926
0.10875018 0.75038588 0.073097229
0.10870918 0.80339789 0.075304031
0.11531118 -0.96001512 -0.28491497
0.10263418 0.091167867 0.091218948
0.10319918 1.3887882e-05 0.058870316
0.10109218 0.34009588 0.17956018
0.10026918 0.64812088 0.22673798
0.099908181 0.53126585 0.2474041
0.10914018 -0.95906907 -0.28149605
0.10865218 -0.88031918 -0.25355005
0.10809118 -0.78975314 -0.22140884
0.10475818 -0.25166017 -0.030447006
0.10728818 -0.66006011 -0.17538166
0.10650418 -0.53359014 -0.13049984
0.09679918 0.091561854 0.094275951
0.096351177 0.16774988 0.12130117
0.097562179 -0.038250148 0.048226357
0.094534181 0.64829683 0.23087502
0.094907179 0.4131729 0.2083602
0.09953618 -0.3738181 -0.070809841
0.090546176 0.16810387 0.12432623
0.091950178 -0.083848178 0.034991264
0.08947818 0.60267889 0.19233131
0.090512179 0.67494488 0.12649918
0.088755175 0.48967686 0.23834801
0.09356118 -0.37318915 -0.067602634
0.09720318 -1.026931 -0.29940176
0.096814178 -0.95718414 -0.27467299
0.083176181 0.57285285 0.23328209
0.084697179 0.67510587 0.13076591
0.08323618 0.45592186 0.22923231
0.08305718 0.48987588 0.24126625
0.085141182 0.80384487 0.10078621
0.091431178 -1.1025651 -0.32312393
0.091028176 -1.0259542 -0.29597282
0.090661176 -0.95624512 -0.27126598
0.090248175 -0.87762409 -0.24340105
0.079156175 0.12803388 0.11592531
0.079780176 0.0017638803 0.071192265
0.077742182 0.41387886 0.21719027
0.079217181 0.75136888 0.11154032
0.081343181 -0.31416315 -0.040727615
0.083266176 -0.70296913 -0.1784687
0.083039179 -0.65694708 -0.16216469
0.08073318 -0.19090611 0.0029349327
0.08241418 -0.53074509 -0.11745691
0.073518179 0.09312588 0.106462
0.071874179 0.57279789 0.2320981
0.073526181 0.75122786 0.10588408
0.074833177 -0.19037408 0.0060720444
0.067711182 0.09351486 0.10950232
0.068271175 -0.035975099 0.063668251
0.066507176 0.37193286 0.2080493
0.066141181 0.45656386 0.23800421
0.067659177 0.80407387 0.11375999
0.07287018 -1.0995231 -0.31277704
0.070949182 -0.65540308 -0.15557861
0.068936177 -0.18984407 0.0092072487
0.068666175 -0.12742609 0.031299114
0.070640177 -0.58381218 -0.13023901
0.060567178 0.57274187 0.23091412
0.060287178 0.64934486 0.25559092
0.061510175 0.67574584 0.14780092
0.060623176 0.4145779 0.22599316
0.061934181 0.71893185 0.11036634
0.066696182 -1.098515 -0.30933571
0.065795176 -0.8740651 -0.22992563
0.062796175 -0.1269291 0.034409046
0.064627178 -0.58308214 -0.12697697
0.05676318 -0.080991149 0.053584099
0.05538018 0.29263186 0.18571424
0.054913178 0.57271385 0.23032522
0.05534818 0.6025269 0.1887393
0.055084176 0.37243789 0.21393633
0.054605179 0.64951885 0.25969505
0.056015179 0.75171685 0.12503529
0.059988178 -0.95159012 -0.25429487
0.057379179 -0.24716514 -0.0051808357
0.059055179 -0.69979209 -0.16524792
0.057163179 -0.18878907 0.015461922
0.050324179 0.094673872 0.11860132
0.050205179 0.1298849 0.1310482
0.050497182 0.043735862 0.100595
0.04925818 0.57268584 0.22973537
0.049657181 0.60250092 0.18813992
0.04948318 0.34251386 0.20620918
0.050345175 0.71911991 0.11649418
0.043929178 0.29320985 0.19164324
0.044697177 0.044144869 0.10363817
0.043601178 0.57265687 0.2291441
0.043552179 0.41527289 0.23476934
0.04821118 -1.095505 -0.29903603
0.045592178 -0.24605614 0.001101017
0.039245177 -0.079579115 0.062839031
0.038332179 0.24923289 0.178967
0.037943177 0.5726279 0.2285533
0.037602179 0.65003586 0.27197695
0.03844418 0.67637885 0.16472912
0.03885518 0.71900088 0.11241913
0.03766118 0.49144688 0.26451206
0.040043179 -0.36760408 -0.038883686
0.041848179 -1.0182321 -0.26867294
0.03970518 -0.24550408 0.0042381287
0.040482178 -0.52583915 -0.094769955
0.032682177 0.21900088 0.17115736
0.032606177 0.24954188 0.18193913
0.033209179 0.0052078962 0.095683098
0.033111177 0.044960856 0.10971832
0.032576177 0.60242087 0.18634796
0.031949177 0.65020788 0.27606201
0.031907178 0.53339291 0.28214502
0.03431318 -0.4427591 -0.062458992
0.033984177 -0.30945414 -0.015398979
0.033825178 -0.24495417 0.0073709488
0.034650177 -0.57945412 -0.11071491
0.026951179 0.21932286 0.17413521
0.027495179 -0.032841146 0.085154057
0.026790179 0.29407185 0.20051193
0.027326178 0.045366883 0.11275196
0.026364177 0.49183488 0.2702961
0.027204178 0.80440885 0.13280535
0.027859177 0.83675086 0.025617123
0.029103179 -0.77886313 -0.17809296
0.027951177 -0.24440414 0.010501385
0.028924178 -0.69586807 -0.14880562
0.028825179 -0.6500631 -0.13264275
0.021777179 -0.078179121 0.072063923
0.021692179 -0.032397151 0.08821106
0.020666178 0.65054989 0.28421926
0.020786177 0.45824987 0.26127005
0.020723179 0.49202788 0.27318335
0.020680178 0.5333569 0.28147221
0.023379177 -0.94608516 -0.23405695
0.023069177 -0.77804118 -0.174788
0.022916179 -0.69508916 -0.14552879
0.015694179 0.096964896 0.13671732
0.015505179 0.21996486 0.18008327
0.015499179 0.67700684 0.18161201
0.015065179 0.53332388 0.28089333
0.01652218 -0.4408161 -0.052880764
0.01603318 -0.12299913 0.059167385
0.0095491791 0.41664487 0.25225019
0.0094561791 0.49241287 0.27895117
0.0094511798 0.53329086 0.28031206
0.011402179 -1.0895591 -0.27854395
0.01101718 -0.77640313 -0.16818571
0.010859179 -0.64780515 -0.12286806
0.010704179 -0.52239019 -0.078670979
0.0041951789 0.097720861 0.1427331
0.0043141795 -0.03107512 0.097363949
0.0039791791 0.57244885 0.22501707
0.0040711788 0.67731887 0.19002104
0.0042591793 0.71918285 0.11827135
0.0038311789 0.49260488 0.28183126
0.0046901787 -0.43953007 -0.046514988
0.0052191792 -1.0125492 -0.24836206
0.0051551787 -0.94336611 -0.22399187
-0.0015468206 0.098096848 0.14573431
-0.0014678203 -0.030637145 0.10040808
-0.0016678208 0.29549289 0.21523714
-0.0018168204 0.65122986 0.30048227
-0.0017428203 0.41709787 0.25805426
-0.0015148204 0.7194649 0.12762117
-0.0017898204 0.49279588 0.28470707
-0.00086482055 -1.01161 -0.24498987
-0.0010108203 -0.77477509 -0.16160107
-0.0013738209 -0.18359417 0.046552181
-0.0072838208 0.098472893 0.14873409
-0.0072938208 0.13351387 0.16106796
-0.0072438205 -0.030199111 0.1034503
-0.0072558206 0.0081628561 0.11695004
-0.0073488206 0.57238787 0.22384024
-0.0073128208 0.60222685 0.18217421
-0.0072648209 0.71946388 0.12757397
-0.0072688204 0.7519089 0.13227892
-0.0072738207 0.80448788 0.13724709
-0.0069428207 -1.0106752 -0.24162197
-0.013016821 0.1743359 0.17828798
-0.013016821 0.25197887 0.20560312
-0.013016821 0.048178852 0.13390827
-0.013016821 0.60219789 0.18157816
-0.013016821 -0.43761307 -0.036988735
-0.013016821 -1.0901701 -0.28071308
-0.013016821 -1.0097411 -0.23825788
-0.013016821 -0.94066912 -0.21395969
-0.013016821 -0.77315515 -0.15502882
-0.013016821 -0.69046217 -0.12593985
-0.013016821 -0.64482313 -0.10988283
-0.013016821 -0.57375115 -0.084880829
-0.01874282 0.099219859 0.15472507
-0.018731821 0.13422889 0.16703606
-0.01871982 0.17467386 0.18125916
-0.01870482 0.22186989 0.19785404
-0.01875782 0.048576891 0.13691711
-0.01865782 0.37565589 0.25193119
-0.01869682 0.67793787 0.20675802
-0.01877882 0.71901387 0.11266136
-0.018822821 0.83721089 0.063239098
-0.019141821 -1.096529 -0.30286598
-0.01903782 -0.86190718 -0.18324089
-0.018984821 -0.68969709 -0.12268686
-0.02444182 0.13458389 0.17001629
-0.024416821 0.17501086 0.18422413
-0.024494819 0.048972845 0.13992405
-0.024423821 0.60213983 0.18038702
-0.024267821 0.41799587 0.269629
-0.024507821 0.7519089 0.13229036
-0.024221821 0.49355486 0.29618931
-0.02450682 0.80440885 0.13267899
-0.024745822 -0.36095709 -0.0041589737
-0.025052819 -0.86105615 -0.17993498
-0.024997821 -0.77154416 -0.14847374
-0.02487582 -0.57234412 -0.078457832
-0.030178819 0.099963844 0.16070414
-0.030038822 0.25287986 0.21442938
-0.03001982 0.57226086 0.22148895
-0.036104821 -0.073591113 0.10261011
-0.035703819 0.25317889 0.21736622
-0.035981819 0.80449688 0.13781214
-0.03717282 -0.93787616 -0.20350599
-0.036957819 -0.76994115 -0.14192963
-0.036306821 -0.23845917 0.04471302
-0.036856819 -0.68741816 -0.11294985
-0.041173819 0.37662488 0.26352835
-0.041769821 0.75177288 0.12696695
-0.040993821 0.49411988 0.30477238
-0.041123822 0.53297788 0.27511215
-0.044038821 -1.1223972 -0.39293003
-0.04330682 -0.94369608 -0.22518063
-0.042928822 -0.76914316 -0.13866568
-0.04262482 -0.57024819 -0.06884861
-0.046935823 0.29772788 0.23865318
-0.048141822 -0.35858816 0.008368969
-0.048658822 -0.64040917 -0.090513706
-0.048429821 -0.51563019 -0.046731949
-0.052991822 0.10143989 0.17262793
-0.052707821 0.57213086 0.21914196
-0.052140821 0.65170085 0.31190729
-0.052041821 0.68241388 0.32814503
-0.052311823 0.41910487 0.28403902
-0.05222182 0.46091488 0.29870319
-0.052149821 0.49449286 0.31047916
-0.055145822 -0.86109012 -0.17995071
-0.05371682 -0.23686713 0.053977013
-0.058596823 0.13669884 0.18783426
-0.05849782 0.17701185 0.20196533
-0.058007821 0.37734389 0.27219629
-0.057725821 0.68183589 0.31252813
-0.057904821 0.41932586 0.28691292
-0.057802822 0.46111587 0.30156326
-0.062503822 -1.0468042 -0.37178707
-0.059665821 -0.30033118 0.034625053
-0.06060582 -0.68440717 -0.10001993
-0.060494822 -0.6389541 -0.084084988
-0.064720817 -0.025890112 0.13369703
-0.064615823 0.012288868 0.14707613
-0.063628823 0.53283191 0.27280617
-0.065838821 -0.43195409 -0.0085949898
-0.065298818 -0.23581308 0.060137272
-0.06967482 0.22467089 0.22431898
-0.07020282 0.052106857 0.16387606
-0.068809822 0.72536689 0.32349396
-0.070680819 0.75131589 0.10904217
-0.073770821 -0.87789911 -0.24496603
-0.072877817 -0.77016908 -0.14263868
-0.071276821 -0.29921812 0.040819168
-0.072093822 -0.56679207 -0.052901745
-0.07192982 -0.51297611 -0.034050941
-0.07547082 0.17800087 0.21079731
-0.075312823 0.22497785 0.22724533
-0.074798822 0.3780579 0.28083992
-0.074404821 0.49523488 0.32186508
-0.076648824 0.83750987 0.088112354
-0.081861824 -0.024620116 0.14271212
-0.081091821 0.57196188 0.21621418
-0.079762824 0.60999489 0.34315205
-0.080384821 0.37829387 0.2837162
-0.080230825 0.42019987 0.29838133
-0.080296822 0.72441787 0.29213333
-0.079969823 0.49532986 0.32335711
-0.086382821 -0.88929015 -0.28899908
-0.082863823 -0.29811114 0.047002316
-0.082629822 -0.23424309 0.069353104
-0.082192823 -0.11492211 0.11111021
-0.086772822 0.57192791 0.21562815
-0.085967824 0.37853086 0.28658915
-0.086512819 0.67909789 0.23861122
-0.085833825 0.75609589 0.29843092
-0.088095821 0.80382085 0.099068165
-0.091567822 -0.78604811 -0.20696592
-0.088650823 -0.29756016 0.050089359
-0.088397823 -0.23372215 0.072419167
-0.089991823 -0.63534814 -0.068068981
-0.091881819 0.29991585 0.26188993
-0.09068682 0.57959783 0.35968733
-0.091898821 0.72345787 0.26045799
-0.096084818 -0.63858408 -0.082129955
-0.093649819 -0.11399609 0.11716318
-0.095342822 -0.51035112 -0.021422863
-0.097422823 0.64989591 0.26895905
-0.10046782 -0.3533501 0.03636837
-0.099369824 -0.11353511 0.12018538
-0.10142882 -0.56338316 -0.037035942
-0.10306782 0.30045587 0.26767206
-0.10445982 0.015111864 0.16798592
-0.10230982 0.60895687 0.32196331
-0.10268382 0.37923485 0.2951932
-0.10361582 0.72248888 0.22847128
-0.10232182 0.49516186 0.32110023
-0.10597682 -0.29591519 0.059328079
-0.10926882 -0.70248216 -0.17639875
-0.10741782 -0.56488913 -0.043821812
-0.10966782 0.10506088 0.20223331
-0.10948782 0.13980889 0.21436739
-0.10992782 0.054794848 0.18467903
-0.10781382 0.46290287 0.32719231
-0.10951782 0.72199988 0.21235895
-0.11206982 0.83692288 0.040322304
-0.11141182 -0.23165411 0.084650993
-0.11111382 -0.17409915 0.1047492
-0.11284582 -0.5084011 -0.011984825
-0.11464182 0.22710389 0.24765301
-0.11558482 0.055174887 0.18764114
-0.12520182 -0.9243961 -0.42457581
-0.12198182 -0.71268111 -0.21959496
-0.12094382 0.10577285 0.20812035
-0.12168082 -0.021695137 0.16364717
-0.11981282 0.30125988 0.27632523
-0.11862382 0.57895488 0.34801292
-0.11911582 0.42170888 0.31834936
-0.12358682 -0.35106307 0.048730373
-0.12288982 -0.23062807 0.090750217
-0.12839782 -0.71783012 -0.24139595
-0.12611882 0.18091989 0.23714209
-0.12762482 -0.066500127 0.15085602
-0.12734982 -0.021282136 0.16662407
-0.12538382 0.30152684 0.27920532
-0.12740381 0.72051787 0.16352797
-0.12935382 -0.35049516 0.051813126
-0.13657482 -0.8243441 -0.36192179
-0.12827082 -0.17264408 0.11383724
-0.13248181 -0.58331114 -0.1274209
-0.13219881 0.10648185 0.21399593
-0.13197681 0.14116687 0.22608614
-0.13330081 -0.0660671 0.15384531
-0.13251881 0.056307852 0.19650412
-0.13028681 0.49494588 0.31828499
-0.13434581 -0.22960812 0.09683609
-0.14789282 -0.73348612 -0.30765104
-0.14685082 -0.67797214 -0.25337791
-0.14291382 0.18187785 0.24587536
-0.14258683 0.22859889 0.26214695
-0.14432482 -0.020049155 0.17554522
-0.14128782 0.57780683 0.32686329
-0.14172982 0.35114688 0.30483007
-0.14854482 -0.43742317 -0.034682751
-0.15649082 -0.84131616 -0.43051481
-0.15447383 -0.73877412 -0.33001995
-0.15337782 -0.68304318 -0.27539968
-0.15169382 -0.5974471 -0.19151402
-0.14879282 0.14217585 0.23484612
-0.14816082 0.22889584 0.26503801
-0.14997382 -0.019640148 0.1785121
-0.15098982 0.75181389 0.12997007
-0.15487182 -0.44159609 -0.055341721
-0.16321582 -0.84705108 -0.45368004
-0.15994582 -0.68814713 -0.29756594
-0.15465182 0.10788786 0.22571421
-0.15595882 -0.064346135 0.16577816
-0.15360282 0.60658288 0.27377892
-0.15581281 0.67661488 0.17248631
-0.16998482 -0.85282415 -0.4769969
-0.16025183 0.10823685 0.22863722
-0.15966283 0.18282688 0.25458193
-0.15929483 0.22948587 0.27081203
-0.16161083 -0.063919127 0.16875219
-0.15871382 0.30311185 0.29642296
-0.16064683 0.058176875 0.21122313
-0.15743881 0.46464786 0.35261106
-0.17679782 -0.85863715 -0.50046778
-0.16196282 -0.10854214 0.15323114
-0.16584982 0.10858589 0.23155737
-0.16510881 0.60604787 0.26297426
-0.16326982 0.42339787 0.34101629
-0.16895182 0.71857387 0.099924088
-0.18634783 -0.97982007 -0.63824701
-0.18122682 -0.76028818 -0.42096996
-0.17114682 0.1435079 0.24649
-0.17219782 0.019829869 0.20350695
-0.17186582 0.058916867 0.21709108
-0.17563082 0.75010884 0.063010216
-0.17683983 -0.30450708 0.013565063
-0.17569782 0.26039284 0.28988504
-0.17557181 0.57606184 0.29488039
-0.17426082 0.42381486 0.34665728
-0.18079482 0.7182219 0.088521957
-0.17509282 0.49458486 0.31379604
-0.18710083 -0.46287113 -0.16059875
-0.18320782 -0.30825013 -0.0068058968
-0.18136781 -0.23514718 0.065905094
-0.18229382 0.14416885 0.25229597
-0.18150783 0.23065788 0.28232718
-0.18417083 -0.062222123 0.18062925
-0.18123482 0.26067185 0.29275131
-0.18012781 0.3824479 0.33503723
-0.18069883 0.49453786 0.31323528
-0.17984682 0.53707486 0.34573793
-0.20755482 -0.99907809 -0.71238804
-0.18786182 0.14449888 0.25519514
-0.18704982 0.23094887 0.28520107
-0.18902282 0.020985901 0.21232414
-0.18823983 0.60496986 0.24125624
-0.18590382 0.35306585 0.32758713
-0.18562582 0.38267285 0.33786297
-0.20027782 -0.47157818 -0.20364285
-0.19407283 -0.24217814 0.025668144
-0.20473982 -0.6365431 -0.36854362
-0.19375882 0.11031187 0.24611616
-0.19303782 0.18470389 0.27192497
-0.19229582 0.26122588 0.29847431
-0.19462082 0.021368861 0.21525812
-0.19690982 0.67513084 0.13328934
-0.20442382 -0.38650113 -0.13570499
-0.21404582 -0.73025018 -0.48018074
-0.21156383 -0.64157909 -0.39132166
-0.19898082 0.14515388 0.26098299
-0.20156083 -0.063673139 0.17142439
-0.20159583 0.64569688 0.17022038
-0.19544682 0.49916989 0.38368607
-0.22268683 -0.79367918 -0.56195974
-0.20300983 -0.11372513 0.12114
-0.21843182 -0.64664918 -0.41425085
-0.20364583 0.23181689 0.29380226
-0.20635282 -0.016394138 0.20257616
-0.20540182 0.061114848 0.23463011
-0.20113282 0.49881387 0.37847614
-0.22975782 -0.79937917 -0.58601284
-0.21144181 -0.18662816 0.031124115
-0.20935582 -0.11683816 0.1014142
-0.22334282 -0.58477718 -0.36987305
-0.20916782 0.2321049 0.29666424
-0.20885082 0.26205289 0.30704117
-0.21152882 0.60387987 0.21939516
-0.20756482 0.38356584 0.34914494
-0.20682782 0.49845788 0.37325716
-0.20847683 0.53544486 0.31927633
-0.22225682 -0.33122116 -0.13173103
-0.23507182 -0.74664015 -0.55117798
-0.21573982 -0.11997014 0.081567287
-0.21562582 0.14613086 0.26964808
-0.21894681 -0.021983147 0.16397333
-0.21388882 0.30569685 0.32491302
-0.21303982 0.38378787 0.35196114
-0.21258782 0.42525586 0.36632299
-0.22391683 0.017397881 0.187325
-0.21804482 0.42545986 0.36912107
-0.23313482 -0.26381916 -0.098056793
-0.24932483 -0.75775915 -0.59931469
-0.22669782 0.14677787 0.27541399
-0.22536582 0.26287287 0.31558514
-0.23026182 0.01470387 0.16799021
-0.23111582 0.64449584 0.14225626
-0.23461682 0.71661186 0.036715984
-0.22397383 0.49738288 0.35754824
-0.24233583 -0.34304911 -0.19598579
-0.23664482 0.011993885 0.14853716
-0.23513483 0.055474877 0.19288826
-0.22894482 0.42586488 0.37471294
-0.22970782 0.49702287 0.35229635
-0.24414583 0.80080688 -0.071762085
-0.24648082 -0.27122217 -0.1403389
-0.26376781 -0.76903218 -0.64809895
-0.23671383 0.23353285 0.31093931
-0.23488882 0.38466889 0.36319304
-0.23394382 0.46717286 0.39026737
-0.25069481 0.80049688 -0.08942461
-0.2532188 -0.2749601 -0.16168594
-0.24677083 0.60222489 0.18632317
-0.24895382 0.64376783 0.12536192
-0.23965682 0.46678787 0.38507032
-0.25441682 0.74776989 -0.027257919
-0.25597981 0.83552384 -0.070946693
-0.25504881 0.87733287 -0.044923782
-0.25268081 0.60194683 0.18077803
-0.24526282 0.42646888 0.38308334
-0.25881681 0.71588385 0.013427258
-0.26052582 0.74761486 -0.033177853
-0.26255882 0.83530587 -0.088605881
-0.25870383 0.10085785 0.17245722
-0.25553581 0.1827569 0.2568531
-0.25122881 0.38532388 0.37159109
-0.25274482 0.49557388 0.33119631
-0.2691718 0.83508688 -0.10635662
-0.2651698 0.098403871 0.15302515
-0.25989783 0.23123485 0.29025936
-0.2673918 0.042414844 0.095178127
-0.2685518 0.67252386 0.064987183
-0.26063383 0.53245687 0.27109098
-0.27499279 -0.14908713 -0.10267067
-0.27965879 -0.10020918 -0.069701672
-0.2631548 0.30796486 0.35034704
-0.27576882 -0.0046361089 0.029297352
-0.26210082 0.38575786 0.37718105
-0.2770828 0.71533388 -0.0041480064
-0.28178382 -0.15242916 -0.12379265
-0.27661082 0.13201785 0.15385437
-0.2747688 0.17617589 0.19971418
-0.26933381 0.30647486 0.33503199
-0.2824288 -0.0074701309 0.0089931488
-0.26695681 0.42726788 0.39421034
-0.30467281 -0.54073817 -0.54482079
-0.29779181 -0.37576813 -0.37349463
-0.28861579 -0.15579313 -0.14504385
-0.31197682 -0.71585017 -0.72667885
-0.28480279 0.090946853 0.094010353
-0.2805768 0.57066584 0.19699907
-0.27594081 0.49410987 0.30995798
-0.2944378 0.79958189 -0.14077091
-0.31200382 -0.54560608 -0.56878996
-0.3049258 -0.37998313 -0.39633799
-0.2841028 0.2558229 0.24884605
-0.2939108 0.031663895 0.014836311
-0.28835779 0.60026187 0.14731026
-0.29277581 0.67163587 0.041900158
-0.2974208 0.74667585 -0.068924904
-0.31521779 -0.45530218 -0.49353075
-0.29204279 0.22097486 0.19544315
-0.30463082 -0.060091138 -0.098743916
-0.30265981 -0.016082108 -0.052681923
-0.30159181 0.71459287 -0.027729034
-0.28996581 0.53076684 0.24400806
-0.30695382 0.79936087 -0.15303469
-0.30937481 -0.16601712 -0.20961571
-0.31394482 -0.11628908 -0.17560291
-0.2984018 0.56974185 0.18039417
-0.2925038 0.35166287 0.31547832
-0.3049548 0.67118889 0.030295372
-0.3076008 0.16492885 0.10215616
-0.3051708 0.2167809 0.1567173
-0.3036198 0.24987888 0.19154024
-0.31635579 -0.021918118 -0.094439983
-0.30436382 0.5694319 0.17483997
-0.2989288 0.3499949 0.29688215
-0.31833181 0.078196883 -0.0067920685
-0.3079198 0.29554886 0.22250605
-0.3232688 -0.024864137 -0.11551762
-0.3200908 0.71403188 -0.04552269
-0.33053079 -0.17644614 -0.27543068
-0.31845781 0.21253389 0.11751795
-0.32798982 0.017829895 -0.088431835
-0.3136138 0.52939987 0.22217894
-0.34481782 -0.32589513 -0.45200777
-0.3413358 -0.25477618 -0.37678194
-0.32231581 0.56849885 0.15812206
-0.3184348 0.34492886 0.2404213
-0.32736081 0.64054585 0.051129341
-0.3146058 0.42147788 0.32160616
-0.33248082 0.71365488 -0.057440758
-0.31955281 0.52905583 0.21669722
-0.35620782 -0.41031307 -0.56055975
-0.35219079 -0.33000308 -0.47538567
-0.3486208 -0.25860912 -0.39966869
-0.33190781 0.20823085 0.077833176
-0.34656879 -0.078793108 -0.22738361
-0.3277348 0.28993088 0.164711
-0.34192282 0.012167871 -0.13065672
-0.32831982 0.56818587 0.15253115
-0.3559508 -0.26246709 -0.42269897
-0.35209981 -0.18708807 -0.34254265
-0.34382781 0.10762388 -0.047142982
-0.35371479 -0.081983149 -0.24930477
-0.3513608 -0.036846101 -0.20117998
-0.32995179 0.37371689 0.23657036
-0.36090681 -0.08519417 -0.27136993
-0.34372482 0.23764789 0.073771
-0.35602981 0.0064328909 -0.1734128
-0.37075582 -0.27026111 -0.46921778
-0.35995981 0.062341869 -0.13196707
-0.35055381 0.23556286 0.053716183
-0.3479118 0.2842049 0.10585737
-0.3782348 -0.27420014 -0.49271965
-0.3593058 0.19946086 -0.0030078888
-0.3574228 0.23346585 0.033542156
-0.34741881 0.41407186 0.22766113
-0.36365682 0.71270585 -0.087425709
-0.38576081 -0.27816612 -0.51637077
-0.3662608 0.19723284 -0.023530006
-0.38017681 -0.049150109 -0.28906298
-0.36651382 0.66891789 -0.02835083
-0.35245281 0.48924786 0.23995209
-0.3813678 0.054178894 -0.19634867
-0.3933318 -0.15360409 -0.42088461
-0.36457682 0.56629288 0.11877632
-0.36532882 0.33273184 0.10466528
-0.35841081 0.48886687 0.23450327
-0.3614178 0.52662289 0.17806911
-0.3803018 0.19273287 -0.064962864
-0.40083382 -0.15713614 -0.44406986
-0.3948648 -0.055426121 -0.33386087
-0.3706578 0.56597388 0.11311626
-0.36493781 0.45454589 0.21872711
-0.36437881 0.48848587 0.22904634
-0.3771258 0.36211687 0.10062599
-0.37438381 0.40797889 0.15045309
-0.3734768 0.52591991 0.16694593
-0.4097468 -0.061789155 -0.37925482
-0.37634981 0.48771888 0.21810102
-0.41429982 -0.017290115 -0.35004997
-0.3889668 0.56501389 0.096076012
-0.3852908 0.45034587 0.16082335
-0.4089188 0.18355489 -0.14941692
-0.42179781 -0.020346105 -0.37277985
-0.39164281 0.52485883 0.15019417
-0.41393781 0.21618688 -0.13245678
-0.4049958 0.35525388 0.020304203
-0.42710081 0.12386388 -0.2530489
-0.4100948 0.59445286 0.033200264
-0.41207281 0.35350984 -9.5844269e-05
-0.4345378 0.12130189 -0.27516079
-0.42515281 0.26224387 -0.11948395
-0.42143279 0.31810886 -0.057778835
-0.43587482 0.20947087 -0.19690275
-0.42864281 0.31622785 -0.078657627
-0.4264378 0.63642788 -0.042604923
-0.43327379 0.71057087 -0.15436077
-0.44572482 0.17173588 -0.25805092
-0.4258858 0.56307089 0.061727047
-0.43589881 0.31433386 -0.09966898
-0.4271228 0.44170287 0.041798115
-0.42458081 0.47859588 0.082775116
-0.42214182 0.52307087 0.12207508
-0.45714182 0.11351186 -0.34236908
-0.45073581 0.20491689 -0.24056196
-0.43497881 0.59325385 0.0098900795
-0.44320279 0.31242687 -0.12082005
-0.45055079 0.31050789 -0.142097
-0.4482598 0.66587389 -0.10618877
-0.45463079 0.66563588 -0.11225271
-0.4520188 0.39039886 -0.071867943
-0.44262582 0.52008688 0.073389053
-0.46958682 0.24958187 -0.24914169
-0.45072579 0.56175888 0.038622379
-0.45376182 0.59234691 -0.0076999664
-0.46101281 0.66539687 -0.11832762
-0.45312881 0.47314087 0.0019593239
-0.47029781 0.33914489 -0.16792774
-0.45694479 0.51762688 0.033108234
-0.4802348 0.66467488 -0.13662386
-0.47897181 0.59112585 -0.03130579
-0.4956378 0.29872286 -0.27267694
-0.48666582 0.66443384 -0.14274406
-0.4853678 0.42964688 -0.12394667
-0.47876081 0.51387691 -0.028262615
-0.49310979 0.66419089 -0.14887571
-0.48982781 0.46612087 -0.10193777
-0.50427681 0.37853789 -0.22154474
-0.49730781 0.46468788 -0.12311888
-0.4980028 0.59020185 -0.04912281
-0.51193482 0.37679785 -0.24347973
-0.50483483 0.46324688 -0.14442778
-0.50451481 0.55647588 -0.057078838
-0.51604378 0.50746191 -0.13314772
-0.54682183 0.5855279 -0.14238787
