# .PCD v0.7 - Point Cloud Data file format
VERSION 0.7
FIELDS x y z
SIZE 4 4 4
TYPE F F F
COUNT 1 1 1
WIDTH 1
HEIGHT 1024
VIEWPOINT 0 0 0 1 0 0 0
POINTS 1024
DATA ascii
1.0447962 -0.11582291 0.022422791
1.0388303 -0.11572683 0.022177696
1.0471443 -0.066217899 -0.25037813
1.0621603 -0.042033851 -0.35722542
1.0030423 -0.11515784 0.020759583
1.0153912 -0.091219902 -0.11143017
1.0285293 -0.065941811 -0.25102949
1.0032343 -0.091035843 -0.11186552
0.98515928 -0.11487985 0.020083427
0.97920024 -0.11478782 0.019862652
0.96083623 -0.1070329 0.067412853
0.99751723 -0.065487862 -0.25204134
0.95041627 -0.16795588 0.056354523
0.94516927 -0.11631382 0.0054736137
0.93628722 -0.11986589 -0.018577576
0.93044227 -0.0759269 -0.019875526
0.92142123 -0.17595291 0.0037736893
0.92734528 -0.12344384 -0.042789459
0.91246128 -0.17970788 -0.020272255
0.89864224 0.015565157 0.04244566
0.90257925 -0.23000491 0.010832787
0.90586728 -0.037079871 -0.064106464
0.88611323 0.061481118 0.095621586
0.89361823 -0.28659987 0.034937859
0.90903825 -0.093274832 -0.1391592
0.89356726 -0.23394084 -0.01315546
0.89890623 -0.18539488 -0.056641579
0.88086027 0.054516137 0.04188776
0.89985025 -0.096833825 -0.16418314
0.89800423 -0.049016833 -0.14892435
0.89556724 -0.1361798 -0.12879324
0.87993628 -0.2398988 -0.049429417
0.88029927 -0.0040398836 -0.10301733
0.87282526 0.043854117 -0.040333271
0.88061923 -0.1930759 -0.10569715
0.86449122 0.046553135 -0.020760536
0.86508727 -0.29696989 -0.025796413
0.87600827 -0.19501483 -0.11806536
0.84177923 0.18852115 0.12152576
0.85555422 -0.34553683 0.0042667389
0.85590726 -0.30115891 -0.05000639
0.85461527 -0.23757386 -0.038923264
0.82679123 0.06281215 0.09869051
0.83406323 -0.28523791 0.035356522
0.83274925 -0.22237587 0.046795845
0.83155924 -0.16541481 0.057160854
0.82344127 -0.059662819 0.076422691
0.82436627 -0.10426581 0.068304539
0.81660223 -0.014384866 0.084676743
0.82331824 -0.34086287 0.025267601
0.82087523 -0.22212887 0.046874523
0.80655026 0.18899912 0.12171078
0.80912125 0.063088119 0.098791599
0.81494027 -0.22200787 0.046914577
0.80068225 0.18907714 0.12174273
0.80323225 0.063179135 0.098824501
0.80785227 -0.16494989 0.057313442
0.79890025 -0.014087856 0.084781647
0.79813623 0.023928165 0.0916996
0.80692923 -0.41377485 0.01205349
0.80307227 -0.22176683 0.046991825
0.79224527 0.024021149 0.091733456
0.79950523 -0.34032989 0.025435448
0.79600626 -0.16472185 0.057389736
0.79500526 -0.41349685 0.012139797
0.79121023 -0.22152984 0.047068596
0.77801824 0.14892513 0.11449575
0.78528023 -0.22141182 0.047106743
0.77136326 0.18945616 0.12189674
0.78654224 0.22058415 -0.020136356
0.79201227 0.24018812 -0.12818336
0.80932623 0.26975113 -0.29155016
0.82981426 0.30473316 -0.48485422
0.77115226 -0.10330486 0.068631649
0.76041925 0.14915913 0.11458874
0.76353025 -0.013514876 0.08498764
0.80310923 0.26981014 -0.29158354
0.76976824 -0.33968782 0.025635719
0.76750028 -0.22106588 0.047221661
0.75691926 0.024567127 0.091934681
0.75683123 -0.2836169 0.035874844
0.76773024 0.24042714 -0.12836027
0.78446323 0.26998615 -0.29167414
0.74515224 0.02474314 0.092000484
0.75330526 -0.41256082 0.012428761
0.75194025 -0.33931589 0.025754452
0.74080724 -0.058261871 0.076913834
0.79787725 0.30501813 -0.48492527
0.74496824 -0.28338289 0.035949707
0.73036724 0.18996114 0.1221056
0.79149222 0.30507416 -0.48493433
0.73788828 -0.22050881 0.047407627
0.72588223 0.11469316 0.10841846
0.72524828 0.14961016 0.1147728
0.72902024 -0.058074832 0.076981544
0.72820127 -0.012969851 0.085188866
0.76582426 0.27015913 -0.29174757
0.72679722 0.064295113 0.099247456
0.78510725 0.30513012 -0.48493958
0.71866226 0.19010013 0.12216377
0.72718024 -0.2830379 0.036064625
0.71415722 0.11484414 0.10847855
0.72224927 -0.33871484 0.025948524
0.70696324 0.19023615 0.12222242
0.72084725 0.22124016 -0.0206604
0.70918727 0.064536154 0.099341869
0.71532828 -0.28281391 0.036137581
0.71166325 -0.41167784 0.012709618
0.73477727 0.27043915 -0.29183435
0.69813228 0.025416136 0.0922575
0.69745028 0.06469214 0.099403858
0.75320226 0.30540311 -0.48494625
0.70034623 -0.10213089 0.069048405
0.69011724 0.15003717 0.11494875
0.72857124 0.27049416 -0.29184628
0.69158423 0.064770162 0.099435806
0.69647825 -0.21976781 0.047660828
0.68357724 0.19050217 0.12233782
0.68703526 -0.012368858 0.085416794
0.67841625 0.15017515 0.11500883
0.67773426 0.19056714 0.12236547
0.68191928 -0.057357907 0.07724762
0.68571627 -0.28226984 0.036322594
0.72769427 0.30561614 -0.48491955
0.67874724 -0.21946383 0.047767639
0.66604823 0.19069517 0.12242365
0.68890423 0.24116611 -0.12872744
0.66812927 0.065072119 0.0995574
0.67189825 -0.16255391 0.058139801
0.67089027 -0.10167682 0.069216728
0.67312723 0.22169012 -0.020896435
0.66226828 0.065146148 0.09958744
0.65559024 0.11556315 0.10877848
0.65766126 -0.011962831 0.085573673
0.66294926 -0.33759189 0.026323795
0.66204423 -0.28185284 0.036466599
0.65820128 -0.41062284 0.013052464
0.65702528 -0.33748484 0.026360512
0.63803923 0.11576617 0.10886478
0.63685328 0.19100416 0.12256145
0.64331323 -0.21888185 0.047974586
0.63164723 0.15070015 0.11523867
0.63101727 0.19106513 0.12259054
0.63488227 -0.056692839 0.077502728
0.66654825 0.27102613 -0.29185915
0.63297623 0.065505147 0.099737644
0.62712127 0.065575123 0.099765778
0.62244427 -0.011500835 0.08575964
0.62853426 -0.41007388 0.013237476
0.62545323 0.22211814 -0.021009445
0.61657828 -0.011426866 0.08578968
0.63440824 0.24164414 -0.12879038
0.62149823 -0.33686686 0.026575565
0.61970925 -0.21851289 0.048109531
0.60768127 0.19129914 0.12269974
0.64176023 0.27122915 -0.29181337
0.60956025 0.06577915 0.099852562
0.61558127 -0.33676791 0.026609421
0.62230724 0.24174613 -0.12878418
0.60428923 0.026622117 0.092745781
0.61074728 -0.40975881 0.013345718
0.60966527 -0.33666885 0.026644707
0.60791427 -0.21833384 0.048176765
0.59712124 0.11621612 0.10906458
0.59602028 0.19141316 0.12275362
0.61625725 0.24179614 -0.1287775
0.59785724 0.065912127 0.09991169
0.60482025 -0.40965581 0.013380527
0.59127825 0.11627716 0.10909271
0.60163224 0.22232312 -0.021020412
0.59257424 0.026760161 0.092804432
0.59889227 -0.40955389 0.013417721
0.59783423 -0.33647585 0.026712418
0.59702724 -0.28078592 0.036846638
0.59612024 -0.21815884 0.048240662
0.58436024 0.19152415 0.1228075
0.59567922 0.22237313 -0.021017551
0.58790624 -0.056078911 0.077748775
0.58671927 0.02682817 0.092833519
0.59112322 -0.28069484 0.036879539
0.58203924 -0.056005836 0.077778816
0.58086526 0.026895165 0.092862606
0.58704227 -0.4093529 0.013487816
0.58521926 -0.28060484 0.036913872
0.58433223 -0.21798682 0.048307419
0.58266824 -0.10044181 0.069693565
0.57375824 0.11645812 0.10917664
0.57270527 0.19163316 0.12286043
0.57554227 -0.010926843 0.085996628
0.59206426 0.24199516 -0.12873554
0.61943728 0.30646014 -0.48447847
0.57931626 -0.28051591 0.036947727
0.57782328 0.22252214 -0.020999432
0.56915724 0.027026117 0.092919827
0.57519424 -0.40915585 0.01355648
0.57176125 -0.16108584 0.058694839
0.56927228 -0.40905988 0.013590813
0.56827325 -0.33600891 0.026883602
0.55577427 0.15146714 0.11559582
0.60035723 0.30659914 -0.48434734
0.55999827 -0.16092992 0.058755875
0.55040926 0.11669016 0.10928583
0.55571127 -0.28016984 0.037077427
0.55487525 -0.21757388 0.048467636
0.54981327 -0.28008485 0.037110806
0.54212928 0.22281116 -0.020910263
0.53454524 -0.010464847 0.086200714
0.54975325 0.24232912 -0.12858629
0.56128526 0.27185214 -0.29145622
0.53721029 -0.21733785 0.048560619
0.52707225 0.11691213 0.10939169
0.52869225 -0.010401845 0.086227417
0.54371125 0.24237514 -0.12855625
0.55510026 0.27189714 -0.29141521
0.52771229 0.066652119 0.10024786
0.53132427 -0.21726084 0.04859066
0.54273224 0.27198714 -0.29132938
0.51603329 0.06676513 0.1003027
0.52033025 -0.27967882 0.037268639
0.51443529 -0.27960086 0.037299633
0.50374824 0.11712313 0.10949659
0.50332725 0.15193611 0.11583185
0.50583029 -0.055126905 0.078157425
0.51009625 -0.40815389 0.013926506
0.50921428 -0.33515382 0.027207851
0.50636625 -0.099523902 0.070080757
0.49943724 -0.010098875 0.086366653
0.50418329 -0.4080689 0.0139575
0.50331229 -0.33507383 0.027239799
0.5019033 -0.21688986 0.048742771
0.50122726 -0.16020286 0.059056759
0.49168226 0.15203315 0.11588287
0.50747526 0.24264616 -0.12834454
0.49268225 0.066984117 0.10040855
0.53045624 0.30708212 -0.48372316
0.49602124 -0.21681786 0.048772812
0.48585826 0.15208113 0.11590862
0.48539025 0.19237417 0.12324572
0.51182026 0.27220613 -0.29108047
0.48863026 0.22322017 -0.020648479
0.48240724 -0.054883838 0.078268528
0.49540025 0.24273312 -0.12825823
0.48268926 0.22326416 -0.020609379
0.48053727 -0.4077419 0.014084816
0.47971326 -0.33476388 0.027363777
0.47837925 -0.21660984 0.048861504
0.46878424 0.11742014 0.10965252
0.46977925 0.028029144 0.093387604
0.47381526 -0.3346889 0.027394772
0.47119427 -0.099146843 0.070249557
0.46435526 -0.0097598433 0.086529732
0.46600124 -0.15980887 0.05922842
0.45899525 -0.05465281 0.078379631
0.45850927 -0.0097058415 0.086555481
0.49236426 0.30732912 -0.48329115
0.45094025 0.15235412 0.11605644
0.45226225 0.028184116 0.093465805
0.45553327 -0.27887189 0.037600517
0.45361724 -0.098969817 0.070331573
0.45099527 -0.4073559 0.014240742
0.44899124 -0.21627986 0.049005508
0.45316225 0.24302816 -0.12789822
0.46240026 0.27253813 -0.29058838
0.44508925 -0.40728283 0.014269829
0.43559426 -0.054434896 0.078485489
0.44712925 0.24306911 -0.12783957
0.46698424 0.30748713 -0.48296833
0.42767426 0.15252411 0.11615562
0.42727026 0.19279414 0.12348747
0.42974526 -0.054382801 0.078511715
0.43136525 -0.2160939 0.049090862
0.43019027 -0.098744869 0.070439816
0.43506825 0.24315012 -0.12771559
0.42308226 0.028428137 0.093593597
0.42665526 -0.3341279 0.02763176
0.42493325 -0.15938985 0.059422493
0.41686925 0.067618132 0.10074043
0.44795725 0.30760217 -0.48270655
0.42022425 -0.27848089 0.037773609
0.41906926 -0.15933287 0.059450626
0.40984824 0.19290817 0.12355757
0.41177624 -0.0093018413 0.086762428
0.43153325 0.27273417 -0.29021835
0.41556725 -0.4069289 0.014419556
0.41487226 -0.33399785 0.02768755
0.40593624 -0.0092548728 0.086788654
0.40787324 -0.21585786 0.049200535
0.42893425 0.30771315 -0.4824276
0.39391726 0.028654158 0.093718529
0.42259526 0.30775017 -0.48233128
0.39786124 -0.40673089 0.014505863
0.39561826 -0.15911591 0.059557438
0.39506826 -0.098432899 0.070597649
0.38882226 -0.054036856 0.078691483
0.38842326 -0.0091178417 0.086864471
0.40684927 0.27288514 -0.28988934
0.41625625 0.30778617 -0.48223352
0.39081725 -0.27818191 0.037912846
0.38921726 -0.098383904 0.070622444
0.38297725 -0.053990841 0.078717709
0.39286926 0.24342012 -0.12722158
0.38493624 -0.27812481 0.037939548
0.37674925 -0.0090308785 0.086912632
0.38684326 0.24345815 -0.12714338
0.38015926 -0.40654182 0.014591694
0.37953424 -0.33363092 0.027856827
0.37026626 0.067949116 0.10093451
0.37217626 -0.1589129 0.059662819
0.37166524 -0.098241806 0.070700645
0.37479424 0.24353117 -0.1269846
0.36678526 -0.2154808 0.049386501
0.35960826 -0.053813815 0.07881546
0.36045924 -0.15881681 0.059711456
0.35340926 -0.0088648796 0.08701086
0.36274424 0.24360311 -0.12681437
0.35598725 -0.33340681 0.027964592
0.34658626 0.11827517 0.11015749
0.34600225 0.19328213 0.12380981
0.36367527 0.27313614 -0.28924417
0.34208524 -0.053689837 0.078888416
0.33470225 0.15310216 0.1165266
0.34026825 0.22420716 -0.019113541
0.33624524 -0.053649902 0.078912735
0.33591026 -0.008748889 0.087081432
0.35923424 0.30809814 -0.48126936
0.32914826 0.11837417 0.11022663
0.32980025 0.029087126 0.093981743
0.35290027 0.30813116 -0.48115444
0.33244824 -0.33319986 0.028069496
0.32369524 0.068237126 0.10112047
0.34656826 0.30816412 -0.48103714
0.32656425 -0.33314991 0.028096676
0.31872824 -0.053534865 0.07898283
0.33285424 0.27330512 -0.28872824
0.31787625 0.068270147 0.10114384
0.31985724 -0.21510482 0.049589634
0.31903726 -0.097858906 0.070919514
0.31147826 0.15322214 0.11661577
0.31258324 -0.0086038709 0.087175846
0.31399325 -0.2150619 0.049613476
0.30675325 -0.0085698366 0.087198734
0.29986826 0.15327811 0.11665964
0.32124525 0.30829114 -0.48054647
0.30350927 -0.40583384 0.014939785
0.30189827 -0.1583879 0.059958458
0.29509225 -0.008502841 0.087244511
0.29761627 -0.40578687 0.014964581
0.29715326 -0.33291781 0.028222561
0.28847626 0.11858112 0.1103797
0.28826126 0.15333116 0.11670256
0.30204627 0.27346617 -0.28816414
0.28878725 0.068424165 0.10125542
0.29127327 -0.33287489 0.028247833
0.28221527 0.19358516 0.12404776
0.28320727 0.029347122 0.094162464
0.30225927 0.30838317 -0.48016119
0.28505725 -0.27730691 0.038374424
0.28468126 -0.21486187 0.049734592
0.27685827 0.11863512 0.11042356
0.27738327 0.029377162 0.094183445
0.28960326 0.30844212 -0.47989655
0.27295727 -0.21478784 0.049781799
0.26505125 0.15343112 0.11678648
0.26574025 0.029433131 0.094228745
0.26709726 -0.21475291 0.049804688
0.26324627 0.22463316 -0.0178442
0.26643226 0.24413013 -0.12519217
0.27695125 0.30850112 -0.47962236
0.26060426 -0.097511888 0.07115078
0.25453126 -0.0531739 0.079233646
0.27062526 0.30852914 -0.47948217
0.25508127 -0.15810788 0.060143471
0.24807727 0.068610132 0.10140562
0.24164727 0.19374013 0.12419081
0.24548227 0.22472316 -0.017506599
0.24226327 0.068634152 0.10142565
0.25797525 0.30858612 -0.47919941
0.24423827 -0.33256483 0.028437614
0.24396527 -0.27705085 0.038538456
0.23604527 0.15354216 0.11688948
0.23585427 0.19376016 0.12421179
0.23681627 -0.0082168579 0.087462425
0.25165126 0.30861312 -0.4790554
0.23248427 -0.33249784 0.028483868
0.23168027 -0.15798891 0.060232639
0.23431127 0.27379012 -0.28676558
0.22482227 0.068702161 0.10148954
0.21879427 0.11886317 0.11063147
0.21864527 0.15360117 0.11695147
0.23268026 0.30869412 -0.47860956
0.22104126 -0.40527487 0.015278816
0.22022326 -0.2145009 0.049985409
0.21972127 -0.097317815 0.071303844
0.21831927 0.24436116 -0.12420034
0.22200227 0.27384412 -0.28648853
0.20786826 -0.05297184 0.079405785
0.21584927 0.27387112 -0.28634548
0.20804426 -0.097269893 0.071345806
0.20186627 -0.0080808401 0.087588787
0.20243727 -0.15785885 0.060339451
0.19545026 0.15367115 0.11703062
0.19620427 -0.052928805 0.079446793
0.19722427 -0.33231986 0.028618813
0.20107427 0.30882317 -0.47783232
0.19093727 -0.21437383 0.050092697
0.19052827 -0.097203851 0.071408749
0.18528926 -0.2767688 0.038757801
0.18489327 -0.15779185 0.06040144
0.17236327 0.11899912 0.11078882
0.17288126 -0.052852869 0.079526424
0.17394426 -0.4050498 0.015453815
0.17319827 -0.15775084 0.060443401
0.16681527 0.029797137 0.094578743
0.16785027 -0.33219981 0.028723717
0.16769126 -0.27670288 0.038820744
0.16075826 0.11902612 0.11082649
0.16055526 0.19396412 0.12446451
0.16263527 0.22510111 -0.01570034
0.16110127 -0.0079558492 0.087726593
0.16663326 0.27407312 -0.28514242
0.16099927 0.029812157 0.094597816
0.16197626 -0.33217883 0.028744698
0.15495627 0.11903912 0.11084652
0.15476526 0.19397616 0.12448263
0.15539226 -0.052803874 0.079585552
0.15565926 -0.15769684 0.060503483
0.14945626 -0.0079268813 0.087766647
0.15221027 0.24464113 -0.12263918
0.14927326 0.068923116 0.10174656
0.14335026 0.11906314 0.11088371
0.14373226 -0.052774906 0.079623699
0.13747726 0.15380317 0.11722183
0.14019527 0.24468815 -0.12233019
0.13848026 -0.3321048 0.02882576
0.13588627 0.27418715 -0.28433132
0.13274527 -0.40490985 0.015595436
0.13250126 -0.2765969 0.038939476
0.13238226 -0.21418881 0.050293446
0.12588526 0.15382212 0.1172576
0.12581526 0.19402516 0.12457561
0.12715326 0.22524214 -0.014813423
0.12818226 0.24473315 -0.12201643
0.12610127 0.02988714 0.094713688
0.12603326 0.068968117 0.10182142
0.13158026 0.30907714 -0.47596359
0.12642926 -0.15762389 0.060601711
0.12632327 -0.097025871 0.071624756
0.12359126 0.27423114 -0.28399324
0.12526527 0.30909812 -0.4757843
0.12086126 -0.33206081 0.028883457
0.11744326 0.27425212 -0.28382349
0.11446926 0.02990514 0.094747543
0.11481826 -0.21415091 0.050350666
0.11473726 -0.15760183 0.060637474
0.11016426 0.24479812 -0.12152958
0.11129627 0.27427316 -0.28364944
0.10865426 0.029914141 0.094766617
0.10889226 -0.15759087 0.060656548
0.10881527 -0.096993804 0.071680546
0.10274027 0.11912513 0.11101055
0.10270126 0.15385216 0.11732864
0.10293126 -0.052698851 0.079754829
0.10283926 0.029922128 0.094783783
0.10324126 -0.33202481 0.028940678
0.10318026 -0.27653491 0.039035797
0.097594261 0.22535014 -0.01402235
0.10000826 0.30917913 -0.4750433
0.097203262 -0.15757287 0.060694695
0.091109261 0.15386415 0.11736345
0.091356263 -0.15756583 0.060711861
0.079559267 0.069024146 0.10196447
0.079750262 -0.33199084 0.029013634
0.079694264 -0.21409988 0.050460815
0.079667263 -0.15755284 0.060747623
0.073711261 0.19407713 0.12473249
0.074422263 0.27439213 -0.28257132
0.073763266 0.029950142 0.094873428
0.073751263 0.069028139 0.10198164
0.073823266 -0.15754783 0.060766697
0.06792926 0.15387917 0.11743355
0.068445265 0.30927211 -0.47407818
0.067978263 -0.1575439 0.060782433
0.062132265 -0.0078058839 0.088038445
0.055822264 0.30930811 -0.47367954
0.050503265 0.029959142 0.094941616
0.050406262 -0.27648485 0.039195538
0.050426263 -0.21408284 0.0505476
0.044671264 -0.0078018308 0.088089466
0.044573262 -0.21408188 0.050564766
0.038820263 -0.052657843 0.079946518
0.038792264 -0.096941829 0.071890831
0.033188261 0.19408417 0.12485075
0.033028264 -0.007802844 0.088121414
0.030580264 0.30937415 -0.47286129
0.032909263 -0.15753686 0.060883522
0.020777263 0.22559017 -0.011740208
0.020122264 0.24507713 -0.11884117
0.019133262 0.27454716 -0.28083038
0.015823264 0.19407815 0.12489748
0.014122263 0.24509317 -0.11864758
0.015614264 0.029952168 0.095039845
0.015225265 -0.27649486 0.03929472
0.0098542646 0.069027126 0.1021657
0.0041252635 0.11914515 0.11129761
0.0042442642 0.19407111 0.12492943
0.0030562654 0.22563714 -0.011169434
0.0039232634 -0.0078188777 0.088202477
0.0040452629 0.069023132 0.10218048
0.0035962649 -0.21410286 0.05067873
0.0037822649 -0.096959829 0.071988583
-0.0016757362 0.11914015 0.11131382
-0.0015447326 0.19406712 0.12494659
-0.0019757338 -0.05268085 0.080058575
-0.0023667328 -0.27651286 0.03934145
-0.0074757375 0.11913514 0.1113286
-0.0074097328 0.15386212 0.11764574
-0.0098757334 0.24515313 -0.11785316
-0.0076457374 0.029932141 0.095103741
-0.0083357356 -0.33200991 0.029262543
-0.013206739 0.15385616 0.11766243
-0.020243738 -0.40484583 0.01604557
-0.019958738 -0.27653885 0.039387703
-0.019819733 -0.21413481 0.050739765
-0.025289733 -0.052711844 0.080120564
-0.025182735 -0.0078528523 0.088279724
-0.024999734 0.068991125 0.10225868
-0.030681733 0.11910713 0.11139059
-0.03100374 -0.0078628659 0.08829546
-0.036131736 0.27467513 -0.27893829
-0.031230737 -0.097007871 0.072079659
-0.036824737 -0.0078718662 0.088309765
-0.042071734 0.19402117 0.12505341
-0.044185739 0.22574717 -0.0095591545
-0.042776737 -0.052742839 0.080165863
-0.045867737 0.24523312 -0.11660242
-0.051418733 0.30955416 -0.47000122
-0.043415736 -0.27658784 0.0394454
-0.047981735 0.15380913 0.11775255
-0.048469733 -0.0078938603 0.088339806
-0.048237737 0.068953156 0.10231781
-0.057724733 0.30956614 -0.46976852
-0.049280737 -0.27660286 0.039459705
-0.048738737 -0.097042918 0.072122574
-0.054433737 -0.052767873 0.08019352
-0.054291736 -0.0079068542 0.088354588
-0.060686734 0.27472311 -0.27805138
-0.054574739 -0.097055912 0.072138786
-0.060113739 -0.0079188347 0.088368416
-0.059987735 0.029847145 0.095237732
-0.060410734 -0.09706986 0.072152615
-0.065231726 0.19398212 0.12511253
-0.069856733 0.24527913 -0.11573219
-0.06624873 -0.09708488 0.072166443
-0.071021736 0.19397116 0.12512779
-0.071621731 0.029820144 0.095266819
-0.072305739 -0.15770483 0.06115675
-0.077581733 -0.0079628825 0.088410854
-0.078817725 -0.33218789 0.02943182
-0.07836774 -0.21427786 0.050881863
-0.078152731 -0.15772188 0.061169624
-0.091375738 0.27477616 -0.27690029
-0.083099738 0.068876147 0.10240364
-0.084691733 -0.33220983 0.029444695
-0.089412734 -0.052859902 0.080277443
-0.089227736 -0.0079948306 0.088437557
-0.093839735 0.24531913 -0.1148324
-0.090078726 -0.21431792 0.050906658
-0.095051736 -0.0080118775 0.088451862
-0.09488973 0.029758155 0.095321655
-0.10816173 0.30964613 -0.46784544
-0.095433727 -0.097171903 0.072233677
-0.10031073 0.11896217 0.11156368
-0.099977732 0.19390512 0.12519884
-0.10321774 0.22585416 -0.0073771477
-0.10978673 0.27480316 -0.27618647
-0.10070774 0.029740155 0.09533453
-0.10264073 -0.40511084 0.016234875
-0.10127173 -0.097191811 0.072246552
-0.11592273 0.27481216 -0.27594519
-0.10634473 0.068811119 0.10245848
-0.11323573 -0.15784585 0.061246872
-0.11755173 0.15364712 0.11792374
-0.11856873 -0.052958846 0.080343723
-0.12030274 -0.40519583 0.01626873
-0.12352674 0.11889315 0.11161947
-0.12581973 -0.3323878 0.029531479
-0.12493274 -0.1578939 0.061270714
-0.12933074 0.11887413 0.11163044
-0.14046773 0.27484316 -0.27496147
-0.14597973 0.30969316 -0.46632624
-0.14180073 0.24538416 -0.11294127
-0.13561773 0.029621124 0.095414639
-0.15228173 0.30970013 -0.46606731
-0.14313973 -0.27696991 0.039661407
-0.16488673 0.30971211 -0.46554232
-0.15211274 0.19375116 0.12531853
-0.15356274 -0.053103805 0.080416679
-0.15978374 0.24540311 -0.11220121
-0.15307674 0.029552162 0.095450401
-0.15487874 -0.27703285 0.039683819
-0.15451173 -0.21460187 0.051039696
-0.17748973 0.30972314 -0.4650116
-0.16036974 -0.21463287 0.051050663
-0.15966274 -0.097435832 0.072370529
-0.16522874 -0.053157806 0.080439568
-0.16495073 -0.0082788467 0.08860445
-0.16447473 0.068600118 0.1025877
-0.16550373 -0.097464919 0.072381496
-0.16949673 0.19368917 0.12535763
-0.17106473 -0.053186893 0.080452442
-0.17029074 0.068575144 0.10259962
-0.19009374 0.30973315 -0.46447229
-0.17134573 -0.097494841 0.072392464
-0.17689873 -0.053215861 0.080463409
-0.18218173 0.029421151 0.095510483
-0.18192074 0.068523169 0.10262346
-0.20269574 0.30974114 -0.46392727
-0.18380973 -0.21476781 0.051094532
-0.18343273 -0.15818691 0.061386585
-0.18715674 0.15339714 0.11807871
-0.18826072 -0.0083918571 0.088650703
-0.19574372 0.24543113 -0.11066914
-0.20181473 0.27489614 -0.27237225
-0.19964872 0.029335141 0.095544815
-0.20607574 -0.053373814 0.080517769
-0.22789873 0.30975413 -0.46281433
-0.21036972 0.15329313 0.11812449
-0.21006872 0.19352317 0.1254425
-0.21157674 -0.0085168481 0.088693619
-0.21454273 -0.4058069 0.016429424
-0.21399872 -0.33293784 0.029682636
-0.21311773 -0.21495581 0.051143646
-0.23248275 0.27491015 -0.27100849
-0.24679972 0.30976015 -0.46196032
-0.22942473 -0.053513885 0.080559731
-0.23164572 -0.33307481 0.029708862
-0.23070873 -0.21508086 0.051172733
-0.23892473 0.22596717 -0.0016365051
-0.24368472 0.24545014 -0.10852242
-0.25939876 0.30976313 -0.46138334
-0.23968072 0.11839217 0.1118598
-0.24110173 -0.053588867 0.080578804
-0.24967574 0.24545115 -0.10824537
-0.26569876 0.30976313 -0.46109152
-0.24243574 -0.21516788 0.051190853
-0.24196874 -0.15856791 0.06148386
-0.24146773 -0.097914815 0.072517872
-0.24549274 0.11836016 0.11187267
-0.24486174 0.19335914 0.1255126
-0.25072074 0.22596812 -0.0010905266
-0.24929474 -0.33322084 0.029732704
-0.24882673 -0.27767789 0.039835453
-0.25662073 0.22596812 -0.00081443787
-0.26928276 0.27491516 -0.26931238
-0.27829975 0.30976415 -0.46050215
-0.25470376 -0.27772582 0.039843559
-0.25316176 -0.097996831 0.072535515
-0.26170075 -0.40621591 0.016489506
-0.26003274 -0.21530581 0.051214695
-0.25953874 -0.15869892 0.061511517
-0.25900874 -0.098038912 0.072544575
-0.26293173 0.11826015 0.11190462
-0.26262176 0.15302515 0.11822653
-0.26842976 0.15299112 0.11823654
-0.29719675 0.30976212 -0.45960617
-0.27283475 -0.33343089 0.029761791
-0.27233174 -0.27787781 0.039866447
-0.27456075 0.11819112 0.11192369
-0.27573174 -0.0089228749 0.088804722
-0.27502275 0.068010151 0.10279751
-0.27939373 -0.40638781 0.016507626
-0.28198674 -0.053875804 0.080644608
-0.29994574 0.27491015 -0.26784849
-0.30979675 0.30975914 -0.45899916
-0.28529176 -0.40644681 0.016514778
-0.28460875 -0.33354092 0.02977562
-0.28350174 -0.21550286 0.051245689
-0.29200974 0.22596115 0.00088262558
-0.29760975 0.24544412 -0.10596323
-0.29049575 -0.3335979 0.029781818
-0.28996575 -0.27803791 0.039888859
-0.29127774 0.19310611 0.12559986
-0.29790774 0.22595912 0.0011725426
-0.30380574 0.22595614 0.0014648438
-0.31834176 0.27490312 -0.26694822
-0.30288774 0.19303715 0.12561941
-0.30760476 -0.27820683 0.039907455
-0.30869275 0.19300115 0.12563086
-0.31560174 0.22595012 0.002052784
-0.33060774 0.27489716 -0.2663393
-0.31036475 0.028635144 0.09573555
-0.30996576 0.067771137 0.10285473
-0.31527376 0.11792713 0.11199141
-0.31449875 0.19296515 0.12564087
-0.31936574 -0.27832389 0.039920807
-0.32739675 0.22594213 0.0026488304
-0.34287074 0.27489012 -0.26572132
-0.32161775 0.067686141 0.10287142
-0.32659474 -0.40689087 0.016551495
-0.32459176 -0.2158829 0.05129385
-0.32336175 -0.098555803 0.072635651
-0.32826376 -0.0093218684 0.088882446
-0.34900275 0.27488512 -0.26541042
-0.32786176 0.028501153 0.095761776
-0.33572575 -0.15935683 0.061609745
-0.33855075 0.11776215 0.1120286
-0.34043875 -0.05435288 0.080724716
-0.33953074 0.02840817 0.095777512
-0.34350675 -0.33415592 0.02983284
-0.34289676 -0.27857089 0.039942741
-0.34221175 -0.2160598 0.051312447
-0.34578675 -0.0094688535 0.088905811
-0.35751975 0.24540514 -0.10294151
-0.34536573 0.028360128 0.095786572
-0.34934574 0.19273716 0.12569857
-0.35213473 -0.054457903 0.080739498
-0.38538474 0.30971515 -0.4552083
-0.35798573 -0.054511905 0.080746651
-0.35747173 -0.009570837 0.088921547
-0.36183774 0.11758614 0.11206579
-0.36096776 0.19265616 0.12571764
-0.39192775 0.27484614 -0.26318026
-0.37158874 -0.21637189 0.05134058
-0.38047576 0.22589016 0.0054254532
-0.38747475 0.24537313 -0.10135937
-0.41058075 0.30969012 -0.45388746
-0.37887374 -0.33457386 0.029858589
-0.37746575 -0.21643782 0.051344872
-0.37930974 0.11744714 0.11208963
-0.38477075 -0.33464682 0.02986145
-0.39309675 -0.054849863 0.080786705
-0.39656776 -0.33479691 0.029867649
-0.41143873 0.24534112 -0.10006046
-0.40246674 -0.33487284 0.02987051
-0.40176776 -0.27925587 0.039987564
-0.40165976 0.19235414 0.12578058
-0.41586176 0.22583914 0.0073628426
-0.44837576 0.30964214 -0.45185041
-0.41426775 -0.33502889 0.029876709
-0.41123375 -0.099421859 0.072728634
-0.41381875 0.15196413 0.11846781
-0.42016876 -0.3351078 0.029878616
-0.41911075 0.19221616 0.12580442
-0.42765674 0.22581911 0.0080246925
-0.42076474 0.066852152 0.10300446
-0.42296076 -0.099551916 0.072738647
-0.43294775 -0.40827692 0.016604424
-0.42963675 -0.1603719 0.061694622
-0.43409073 -0.055280805 0.080824852
-0.43348274 -0.010304868 0.08900547
-0.43627876 -0.21714187 0.051384449
-0.43469074 -0.099684834 0.072748661
-0.43759575 0.11694312 0.1121645
-0.43995172 -0.055345893 0.080830574
-0.47987276 0.30959314 -0.45010424
-0.44478077 -0.40845287 0.016606808
-0.44581175 -0.055411816 0.080834866
-0.44518876 -0.010428846 0.089015484
-0.48617172 0.30958313 -0.44974947
-0.44891673 -0.27987385 0.040009499
-0.45661473 -0.40863287 0.016607761
-0.45229375 -0.099889874 0.072761536
-0.45403075 0.19192314 0.12585163
-0.47134876 0.24523711 -0.096679211
-0.49877077 0.30956012 -0.44903421
-0.45902175 -0.16073489 0.061711788
-0.45985472 0.19187313 0.12585974
-0.46894175 0.22574013 0.010398865
-0.50507176 0.30954915 -0.44867325
-0.46845275 -0.40881681 0.016608715
-0.46490276 -0.16080987 0.061714649
-0.46626174 0.15149915 0.11853266
-0.46567774 0.19182116 0.12586641
-0.49617672 0.27468115 -0.25738621
-0.47331578 -0.33586884 0.029892445
-0.47260177 0.11660916 0.1122036
-0.47333777 0.066330135 0.10306072
-0.47922474 -0.33595788 0.029893398
-0.47840977 -0.28029191 0.040017605
-0.47577375 -0.10017586 0.072776794
-0.48663473 0.22570014 0.011443615
-0.49531478 0.24518615 -0.095273495
-0.47918272 0.066268146 0.10306549
-0.48621476 -0.40910184 0.016606808
-0.48427677 0.11649215 0.11221552
-0.48315275 0.19166315 0.12588882
-0.48685372 -0.055892825 0.080863476
-0.49021173 -0.28046584 0.040019512
-0.49843174 0.22567213 0.012150764
-0.49272174 -0.055964828 0.080867767
-0.50729877 0.24515814 -0.094560146
-0.49806178 -0.40929687 0.016606808
-0.49695772 -0.3362329 0.029893398
-0.49542373 0.15121812 0.11856556
-0.50432974 0.22565812 0.012508869
-0.54287177 0.30947113 -0.44647646
-0.50063574 0.19150013 0.12590885
-0.50445676 -0.056110859 0.080875874
-0.53297472 0.27459913 -0.25521421
-0.50317776 0.026799142 0.095954418
-0.50792372 -0.2807349 0.04002285
-0.50695777 -0.21810985 0.051411629
-0.50763774 0.11625111 0.11223984
-0.51032573 -0.056184888 0.080879688
-0.53910774 0.27458513 -0.25484514
-0.55547273 0.30944312 -0.4457283
-0.51293272 0.15104216 0.11858368
-0.51619774 -0.056259871 0.080882549
-0.53126675 0.24509913 -0.093109131
-0.51876974 0.15098214 0.1185894
-0.51812774 0.19133115 0.12592745
-0.53725874 0.24508315 -0.092742443
-0.52769274 -0.40980387 0.016598701
-0.52395976 0.19127417 0.1259346
-0.53382277 0.22558016 0.014317513
-0.57437575 0.30939811 -0.44459248
-0.53362173 -0.40990889 0.016596794
-0.53955072 -0.41001391 0.01659441
-0.53552175 -0.16178191 0.061740398
-0.53685874 0.11593515 0.11226463
-0.53628677 0.15079916 0.11860752
-0.53894776 -0.011532843 0.089084625
-0.53768277 0.065614164 0.1031146
-0.54146177 0.19109815 0.12595177
-0.56122875 0.24501711 -0.091253281
-0.57591176 0.27448916 -0.25259447
-0.58204573 0.27447212 -0.25221252
-0.55005074 0.02623415 0.095986843
-0.55414677 -0.21882892 0.051416874
-0.56004876 -0.21892285 0.051416874
-0.55806375 -0.10128081 0.07281065
-0.59431374 0.27443713 -0.25144339
-0.56796873 -0.33742487 0.029880524
-0.56595176 -0.21901786 0.05141449
-0.56610376 0.11560214 0.11229086
-0.56480974 0.19085515 0.12597561
-0.56829578 -0.011917889 0.0890975
-0.60045075 0.27441913 -0.25105715
-0.57515174 -0.41067183 0.016575813
-0.57195473 0.11553413 0.11229372
-0.57064974 0.19079316 0.12598085
-0.60658473 0.27440012 -0.25066757
-0.57677776 -0.16240788 0.06174469
-0.58304375 0.15028214 0.11864662
-0.58671075 -0.057223916 0.080908775
-0.60317975 0.24488711 -0.088575363
-0.63739473 0.30922717 -0.44069242
-0.58957773 -0.21940792 0.051411629
-0.59871572 0.22537816 0.01846981
-0.59259373 -0.057308912 0.080910683
-0.64369774 0.30920815 -0.44029331
-0.59474373 0.15014613 0.11865568
-0.59698474 0.025623143 0.096009731
-0.65000176 0.30918813 -0.43989038
-0.59927875 -0.10189486 0.072818756
-0.61051673 0.22533715 0.01925087
-0.60436273 -0.057482839 0.08091259
-0.62116176 0.24482715 -0.087400436
-0.60730773 -0.21970987 0.051408768
-0.62715572 0.24480611 -0.087003231
-0.64339674 0.27428216 -0.24829435
-0.60800773 0.064737141 0.10315561
-0.61436772 -0.28253186 0.040000439
-0.61613375 -0.057659864 0.08091259
-0.61530077 -0.012573838 0.089113712
-0.61880475 0.11496216 0.11232471
-0.68152076 0.30908716 -0.43785429
-0.63456476 -0.41185486 0.016530514
-0.63318872 -0.33864892 0.029845715
-0.64002174 0.22522813 0.021232605
-0.68782574 0.30906612 -0.43744326
-0.63687778 -0.22023189 0.0513978
-0.63494974 0.19006914 0.12603378
-0.63735276 0.064341128 0.10316849
-0.64506072 -0.33888483 0.029834747
-0.64157975 0.14957815 0.11868668
-0.64398175 0.024964154 0.09602356
-0.64992177 -0.28320086 0.039981842
-0.64761674 -0.16358185 0.061733723
-0.64644176 -0.10264683 0.072816849
-0.66912174 0.24465013 -0.084180355
-0.64909875 0.064178169 0.10317278
-0.66362774 0.22513413 0.022854805
-0.65737176 -0.058302879 0.080914497
-0.65497273 0.064096153 0.10317469
-0.65916276 0.14935511 0.11869669
-0.66237575 -0.013277888 0.089119434
-0.66162473 0.024705112 0.096028805
-0.66572076 0.11434811 0.11234665
-0.66826373 -0.013369858 0.089120865
-0.70476776 0.27405912 -0.24418831
-0.66750777 0.024617136 0.096028805
-0.66672474 0.063928127 0.10317659
-0.67126375 -0.16400182 0.06172657
-0.67004973 -0.10304284 0.072811604
-0.67007774 0.18964416 0.12605667
-0.71090674 0.27403516 -0.24376822
-0.68070376 -0.33961689 0.02980566
-0.67718077 -0.16410887 0.061723709
-0.67595673 -0.10314488 0.07281065
-0.67593575 0.18957114 0.12606049
-0.68004674 -0.013554871 0.089119434
-0.67927772 0.024439156 0.096030712
-0.68593973 -0.013648868 0.089120865
-0.69259375 -0.33986986 0.029793739
-0.69276077 -0.058885813 0.080910683
-0.71109474 0.24447715 -0.081262589
-0.69435573 0.14889115 0.11871386
-0.75719076 0.30881011 -0.43278217
-0.70200974 0.06340915 0.1031847
-0.76349974 0.30878514 -0.43234634
-0.71675372 0.22490317 0.026613712
-0.71047175 -0.059188843 0.080904484
-0.74774176 0.27388316 -0.24120331
-0.71638876 -0.34038782 0.02976656
-0.71270972 0.11369115 0.11236286
-0.71637774 -0.059290886 0.08090353
-0.75388074 0.27385616 -0.24076939
-0.72389477 -0.41383588 0.016426563
-0.72234076 -0.34051883 0.029760838
-0.72131974 -0.014227867 0.08911562
-0.76002073 0.27382916 -0.24033546
-0.72446972 0.11352015 0.11236477
-0.73446673 0.22482014 0.027902603
-0.73169273 -0.22205985 0.051338673
-0.74627572 0.22476315 0.028770447
-0.74098873 -0.1043129 0.072782516
-0.75083673 -0.014732838 0.089108467
-0.75683773 -0.28542686 0.039881706
-0.76403874 -0.34147286 0.029706478
-0.77165073 -0.41499388 0.016353607
-0.77000076 -0.34161282 0.029696465
-0.76604778 -0.16582489 0.061664581
-0.76566577 0.11290014 0.11236954
-0.80915475 0.27360213 -0.23678017
-0.77198178 -0.16594589 0.061660767
-0.77059877 -0.1048789 0.072764874
-0.77155572 0.11280912 0.11236954
-0.77075672 0.14780712 0.11873484
-0.78170973 0.22458315 0.031422615
-0.77447474 -0.015149832 0.089101791
-0.77270776 0.062295139 0.10318375
-0.78192872 -0.34189689 0.029679775
-0.77744675 0.11271715 0.11237049
-0.78038675 -0.015255868 0.089098454
-0.78630173 -0.015362859 0.089095592
-0.78841877 0.14754117 0.1187377
-0.79326975 -0.060695887 0.080868721
-0.79041177 0.062000155 0.10318184
-0.80154175 -0.41575384 0.016299725
-0.79852772 -0.28637981 0.039827824
-0.79335773 0.18798316 0.12610769
-0.80533874 0.22445613 0.033228874
-0.83987272 0.27344912 -0.2344985
-0.80448776 -0.28651989 0.039819717
-0.79924172 0.18789715 0.12610865
-0.81124574 0.22442311 0.033686638
-0.87077773 0.30830616 -0.42468452
-0.81177175 -0.3426249 0.029632568
-0.80617374 -0.10558486 0.072739601
-0.80609274 0.14727014 0.11873865
-0.80512875 0.18781012 0.12611055
-0.81104672 -0.061039805 0.080857754
-0.83108872 0.24389112 -0.072411537
-0.81356174 -0.16682291 0.061620712
-0.82306272 0.22435713 0.034604549
-0.82237977 -0.28694582 0.039792538
-0.84309375 0.24382412 -0.071484566
-0.82834673 -0.28708982 0.039782524
-0.82462776 0.11195916 0.11236858
-0.82883376 -0.061390877 0.080843449
-0.84909678 0.24379116 -0.071017265
-0.83567274 -0.34322691 0.02959156
-0.83431375 -0.2872349 0.039774418
-0.83140177 -0.16721189 0.061600685
-0.84078872 0.22425413 0.035995483
-0.83272976 0.021856129 0.096000671
-0.83176672 0.061288118 0.10316944
-0.90234977 0.30814713 -0.42232752
-0.84625477 -0.28752887 0.039755821
-0.84234375 0.11166316 0.11236477
-0.91498274 0.30808115 -0.42137337
-0.85222673 -0.28767681 0.039745808
-0.85066777 -0.22468686 0.051200867
-0.85851973 0.22414917 0.037406445
-0.85257173 -0.061870813 0.080825806
-0.85520875 -0.1677438 0.061571598
-0.86116374 -0.16787887 0.061564445
-0.86007273 0.11136115 0.11236048
-0.85816377 0.18700516 0.12611675
-0.86234474 0.021302164 0.095983505
-0.87156677 -0.34416091 0.029525757
-0.86856276 -0.22511387 0.051173687
-0.86924076 -0.016942859 0.089045525
-0.87613076 -0.28827989 0.0397048
-0.87453073 -0.22525787 0.051163673
-0.87100172 0.14622515 0.11873484
-0.91978073 0.27301115 -0.22834444
-0.88049972 -0.22540283 0.05115366
-0.87903976 -0.1682899 0.061540604
-0.88807476 0.22396713 0.039795399
-0.90314174 0.24347216 -0.066732407
-0.88012975 0.020960152 0.095970631
-0.88282174 0.14602613 0.11873245
-0.88177073 0.18663114 0.1261158
-0.88822073 -0.062615871 0.080791473
-0.90914774 0.24343514 -0.06624651
-0.88767773 0.18653613 0.1261158
-0.89990073 0.22389114 0.040765762
-0.89692873 -0.1687088 0.061515808
-0.89464873 0.14582515 0.11872864
-0.90581274 0.22385311 0.041252613
-0.90282476 0.059984148 0.10313749
-0.90648073 0.14562213 0.11872578
-0.91950774 -0.34546483 0.029425621
-0.91797274 -0.063258886 0.080759525
-0.91676277 -0.017914832 0.089003563
-0.91574377 0.020256162 0.095946789
-0.92401177 -0.28953385 0.039614677
-0.91916776 -0.10802484 0.072618484
-0.91926277 0.11031115 0.1123395
-0.91831976 0.14541614 0.11872244
-0.91722876 0.18605214 0.12611151
-0.92168373 0.020136118 0.09594059
