# .PCD v0.7 - Point Cloud Data file format
VERSION 0.7
FIELDS x y z
SIZE 4 4 4
TYPE F F F
COUNT 1 1 1
WIDTH 1
HEIGHT 1024
VIEWPOINT 0 0 0 1 0 0 0
POINTS 1024
DATA ascii
0.84851491 0.31352991 -0.069058418
0.83265191 0.34722292 -0.039152145
0.8150869 0.11280292 0.054029465
0.80892193 0.11309493 0.055722713
0.78314191 0.41105592 0.21836948
0.79856491 0.1117239 0.042927742
0.81055295 0.31507593 -0.056134224
0.80908191 0.34706092 -0.043982506
0.77805692 0.41064394 0.21239376
0.8086859 0.43438491 -0.04071331
0.77164692 0.20752692 0.11924648
0.79128993 0.3161059 -0.046716213
0.78939492 0.34836394 -0.030708313
0.7921989 0.46871492 -0.054402351
0.76589191 0.11511391 0.067558765
0.7644549 0.2034409 0.079880714
0.75250494 0.40856493 0.18237782
0.76110291 0.47966594 0.10863066
0.75976092 0.11539894 0.069244862
0.76052892 0.15467292 0.062606812
0.73760092 0.36898094 0.21057367
0.75072092 0.47893491 0.096315861
0.75002491 0.0787099 0.050573826
0.7456069 0.1578899 0.089352608
0.75354493 0.19718593 0.019687653
0.73707294 0.40730494 0.16425562
0.7438879 0.079005897 0.052265644
0.74750191 0.024945915 0.020301819
0.72650993 0.3389619 0.20598841
0.73653692 0.44616494 0.11728764
0.7450369 0.51836991 0.04210043
0.73775494 0.079301953 0.053958416
0.7400859 0.22930193 0.033181667
0.73132992 0.2015509 0.058300495
0.73452795 0.51769495 0.029564857
0.72027791 0.15993893 0.10463858
0.72391295 0.20306295 0.071717739
0.72926295 0.51735497 0.023258686
0.71118391 0.40518391 0.1338625
0.71326393 0.080474913 0.060709476
0.70917195 0.20606595 0.098384857
0.71944195 -0.015807092 0.0038466454
0.71273994 0.27182692 0.010530472
0.7134099 0.51633191 0.0043144226
0.69600093 0.1609869 0.11126661
0.70711392 -0.015155077 0.007276535
0.69954491 0.32798195 0.078103542
0.69210494 0.23586994 0.092511654
0.69574594 0.3262639 0.058159828
0.70279694 0.51564491 -0.0083651543
0.68884194 0.081632912 0.067434788
0.68944794 0.44258893 0.061673641
0.6827479 0.081920922 0.069112778
0.68865693 -0.014184058 0.012411594
0.70030594 0.58939993 -0.09936142
0.6836499 0.44254592 0.060455799
0.67031193 0.24013793 0.13217449
0.69491291 0.58911294 -0.10587931
0.66756493 0.40746295 0.15875483
0.66574895 0.16227895 0.11951542
0.66274792 0.2119419 0.14880276
0.67767894 0.32158393 0.0030727386
0.68146193 0.51426196 -0.033846378
0.6644879 0.082777917 0.074134827
0.68409991 0.58853793 -0.11894846
0.67032093 0.32284993 0.016711712
0.64764595 0.16304392 0.12444687
0.6428529 0.24452394 0.17246485
0.66984791 0.55571496 -0.097988129
0.65569395 0.32536495 0.043822765
0.64842695 0.3266139 0.057291508
0.6758219 0.66422689 -0.21961832
0.65156192 0.47498092 0.025596619
0.65998095 0.51286393 -0.059495449
0.6355989 0.16355091 0.12772751
0.63089591 0.24497294 0.17569065
0.63388491 0.28543293 0.14521265
0.65900791 0.55508196 -0.11101723
0.66702592 0.63231397 -0.19279337
0.65427095 0.51270592 -0.06270647
0.63413793 0.084187925 0.082478523
0.63201994 0.1211859 0.10426664
0.62674594 0.21336091 0.15855169
0.64813095 0.55444396 -0.12408924
0.65143591 0.5867939 -0.15841436
0.66398394 0.70961994 -0.28873348
0.63176095 0.47644591 0.045915604
0.61477596 0.21382695 0.16178942
0.62969995 -0.051891088 0.0053696632
0.60879791 0.21405995 0.1634078
0.62357491 -0.051564097 0.0070776939
0.61685193 0.35898691 0.078204632
0.64500093 0.63129193 -0.21958733
0.60313791 0.41293693 0.22327566
0.61161894 0.44823691 0.1335578
0.65283394 0.70923996 -0.30245018
0.63025695 0.55433095 -0.12791824
0.59677094 0.41347694 0.2296567
0.60515493 0.44874594 0.14012146
0.64724493 0.70904893 -0.30932856
0.60910994 -0.010076046 0.034510612
0.62351793 0.55474192 -0.12080622
0.60074693 0.032263935 0.060920715
0.5913589 0.33640593 0.1630888
0.59226692 0.44975892 0.15321255
0.62591892 0.66215897 -0.28061438
0.58584392 0.45026392 0.15973663
0.58578891 0.086399913 0.095745564
0.57896394 0.21521091 0.17147064
0.59559494 -0.098671079 -0.013053417
0.57976395 0.086671948 0.097398758
0.58691293 -0.049624085 0.017289639
0.5713439 0.24717492 0.19173241
0.57043791 0.33998895 0.20188379
0.57441193 0.36592793 0.15736055
0.57303894 0.45126891 0.17274761
0.56352192 0.34117293 0.21471071
0.60910791 0.66145897 -0.3011632
0.58132792 0.51763189 0.013210773
0.56772292 0.087214947 0.10069656
0.57262892 -0.0082350969 0.044622421
0.5604949 0.36820191 0.18332052
0.54976892 0.34352595 0.24021578
0.56023592 0.48171493 0.11936665
0.57013994 0.55798495 -0.064438343
0.57660693 0.58801496 -0.13987017
0.54758793 0.45326293 0.19861364
0.55889493 -0.096659064 -0.002790451
0.5523569 0.034582913 0.074260712
0.54741192 0.48265591 0.13254452
0.54187793 0.12509394 0.1288805
0.5310269 0.3452419 0.2580986
0.52758992 0.41931295 0.29902983
0.54101795 0.48312393 0.13911581
0.53769392 0.088555932 0.10891962
0.53383291 0.1677289 0.15538168
0.55659091 0.58912694 -0.11849642
0.53463995 0.48359191 0.14567041
0.53427494 0.035437942 0.079238415
0.52235091 0.45523593 0.22427464
0.51807493 0.2490989 0.20605659
0.55188894 0.63204288 -0.20966339
0.53670794 0.59022892 -0.097260475
0.50615692 0.37687391 0.28245068
0.50411493 0.42014295 0.30782986
0.5155859 0.48498592 0.16525841
0.52233791 -0.094684124 0.0074167252
0.51622695 0.03628391 0.084204674
0.49830988 0.42029691 0.30935574
0.50355893 0.45670092 0.24338961
0.4973599 0.41565394 0.24925566
0.50178593 0.090136945 0.1187377
0.50011092 0.12685394 0.14025545
0.51119292 0.56154794 -0.0021481514
0.51695293 0.59132093 -0.07615757
0.4900929 0.34649295 0.26897573
0.50411493 -0.093711019 0.012497425
0.4863269 0.16961694 0.16825247
0.49824789 0.56232792 0.011538506
0.50385392 0.59204495 -0.062160492
0.4772929 0.41869593 0.28701973
0.47868589 0.45863694 0.26869869
0.50019091 -0.14150906 -0.014001369
0.48226589 0.1275959 0.14510965
0.49198392 -0.093068123 0.015877724
0.50512993 0.63429797 -0.1589632
0.4715859 0.48819491 0.21051645
0.49089989 -0.20709503 -0.049386501
0.4703899 0.12808692 0.14833975
0.4685739 0.17031294 0.17305851
0.47425291 0.038227916 0.095737457
0.4789359 0.56348896 0.03195858
0.45778191 0.42136192 0.32002258
0.47194189 0.52495492 0.1271987
0.48193589 -0.14049911 -0.0088891983
0.45730591 0.29672992 0.24851179
0.47252589 0.56387389 0.038737774
0.45383888 0.37836695 0.29629183
0.49066189 0.66511989 -0.21120644
0.45913291 0.48910093 0.22333145
0.4585259 0.12857491 0.15156364
0.47135589 0.59383595 -0.02742815
0.44933489 0.3477149 0.27979183
0.48400691 0.66540593 -0.20391226
0.44788191 0.46102694 0.3000598
0.46172491 -0.091478109 0.024299622
0.4580459 -0.0026381016 0.07627058
0.44225091 0.37869292 0.29935265
0.45304391 0.52621192 0.14690971
0.44667891 0.1290589 0.15478182
0.4416599 0.25178093 0.22655964
0.45337689 0.56502295 0.058993816
0.45845589 0.59454489 -0.01363945
0.43772191 0.34805894 0.28287077
0.4364619 0.37885493 0.30088377
0.44677189 0.52662891 0.15345144
0.46035391 -0.20531511 -0.04078722
0.44223788 0.092703938 0.13499069
0.44964889 -0.090849042 0.027656555
0.44606489 -0.002069056 0.07957077
0.4641349 0.66625988 -0.18212938
0.43484589 0.12953991 0.15799475
0.43316591 0.17168391 0.18263245
0.42232189 0.2978549 0.25783968
0.43434891 0.56616193 0.079126835
0.42207691 0.49178892 0.26147747
0.42302591 0.13001895 0.16120386
0.43156189 -0.089914083 0.032682419
0.42968789 -0.041640103 0.060892582
0.4218109 0.52828491 0.17949867
0.4378399 0.66738689 -0.15329933
0.4098269 0.49267492 0.27409458
0.41560289 0.52869594 0.18597651
0.40963191 0.17258292 0.18898964
0.40180391 0.37981695 0.31003666
0.43818989 0.71125191 -0.25263357
0.42617089 -0.26530302 -0.066777229
0.41020688 -0.00038409233 0.089437485
0.40865889 0.041191936 0.1137166
0.40916491 0.56766689 0.10577965
0.39603791 0.3799749 0.31155777
0.4177509 -0.20287204 -0.028811455
0.39788491 0.17302793 0.19215965
0.42494088 0.71172094 -0.23788452
0.41167989 -0.20252812 -0.027106285
0.39486191 0.094697952 0.14789152
0.39974588 -0.040182054 0.069159508
0.39665291 0.5684129 0.11902285
0.4073149 0.63898289 -0.052832127
0.40785891 -0.26420808 -0.061608315
0.38615289 0.1734699 0.19532442
0.39376891 -0.039893091 0.070808411
0.37876591 0.38044691 0.31611586
0.4052929 0.66877794 -0.11760616
0.3785919 0.42169094 0.31894541
0.38588691 0.52962589 0.19967651
0.38029289 0.1736899 0.19690561
0.37409389 0.34991193 0.29972458
0.3758449 0.45927691 0.27068853
0.4051789 0.71241993 -0.21588421
0.38051191 0.5292629 0.19327354
0.3821899 0.59871995 0.067935467
0.37448189 0.00126791 0.099251747
0.37592191 0.59906197 0.074642658
0.36152089 0.38091493 0.32066679
0.38593289 0.66960293 -0.096369267
0.3627089 0.42032593 0.30037165
0.3920739 0.71288294 -0.20129442
0.36972991 0.52853394 0.18042755
0.36536691 0.095916927 0.15591049
0.36693791 0.56901991 0.12866163
0.35577989 0.3810699 0.32218266
0.3774139 -0.26240611 -0.053017139
0.3500419 0.38122493 0.32369661
0.35105088 0.48831993 0.20456743
0.36110088 -0.13401902 0.024817467
0.3436349 0.22377694 0.23478985
0.35356688 -0.08596909 0.054303646
0.35073489 0.0023499131 0.10576677
0.34940588 0.043792903 0.12991476
0.33908489 0.38075292 0.31745768
0.3354069 0.30057091 0.28096676
0.3469539 0.59880793 0.06776762
0.33376491 0.38025993 0.31127977
0.34023789 0.48751491 0.19177485
0.3552939 -0.32977104 -0.086242199
0.3348299 0.13350391 0.18509054
0.34162289 -0.085377097 0.057607651
0.34013191 -0.037337065 0.085587502
0.34143591 0.59850097 0.061116695
0.34401289 0.64185894 0.012755871
0.33068189 0.41756392 0.26293278
0.33295789 0.45585892 0.22021866
0.33481589 0.48710993 0.18536186
0.34919488 -0.32939613 -0.084515572
0.3262119 0.22437495 0.23945475
0.3230969 0.37926894 0.29889154
0.32755288 0.45542693 0.21385765
0.33167991 0.52595389 0.13511276
0.3231279 0.13395494 0.18825388
0.3328689 0.64132094 -0.00077438354
0.3370069 -0.32865202 -0.081066132
0.32373089 -0.084497094 0.062553406
0.31235591 0.30127192 0.28708887
0.31238788 0.37827295 0.28645945
0.32728189 0.64105093 -0.0075583458
0.3207159 0.52520794 0.12205648
0.31925789 0.59726596 0.034384727
0.3152189 0.52483392 0.11551285
0.32105589 -0.19750011 -0.0017294884
0.31045589 -0.035951078 0.093748569
0.30586991 -0.083627105 0.067485809
0.30452991 -0.035677075 0.095376492
0.30340791 0.0044709444 0.11872768
0.30225289 0.045811951 0.14277458
0.31045491 0.64023691 -0.02798748
0.3071999 -0.13124311 0.039788723
0.28935689 0.30196393 0.29319286
0.29637489 0.046059906 0.14437675
0.30645689 0.67075092 -0.069415569
0.2928679 0.41428691 0.2187438
0.29490891 0.45280993 0.17545843
0.29657489 0.48424894 0.14013577
0.2986649 0.52370393 0.095804691
0.30122891 -0.13094008 0.041443825
0.28810489 0.13529092 0.19771147
0.2939809 -0.083051085 0.070766449
0.28482988 0.25699294 0.26847076
0.29691088 0.59601593 0.0074515343
0.29918489 0.63968992 -0.041669369
0.30311888 0.71527094 -0.12668133
0.3054449 0.7479099 -0.17692757
0.29312691 0.52332592 0.089211464
0.28227991 0.13551092 0.19928455
0.2790679 0.25717694 0.27000666
0.28462788 0.04655391 0.14757586
0.29129788 0.59570193 0.00068759918
0.29908788 0.74807096 -0.17087126
0.2875779 0.52294695 0.082606792
0.28086591 -0.034589052 0.10187244
0.27982789 0.005509913 0.12517643
0.28567389 0.59538692 -0.0060882568
0.27325588 0.34799695 0.27275181
0.27103791 0.41238791 0.19324446
0.28592891 0.7146579 -0.14781237
0.27650991 0.63858795 -0.069193363
0.26742488 0.45059791 0.14314175
0.26895091 0.48217392 0.10747766
0.27086589 0.52180195 0.062716484
0.27628389 -0.3250041 -0.063901424
0.2730509 -0.19492304 0.011663437
0.26217589 0.0062789321 0.12999868
0.27081388 0.63831091 -0.076105595
0.26527488 0.52141893 0.056063652
0.26160291 0.56257689 0.0023736954
0.2630679 0.59411794 -0.033326149
0.25278288 0.3727029 0.21729088
0.25635889 0.44970492 0.13013363
0.2686379 0.71403891 -0.16906548
0.2551049 -0.19397604 0.016661644
0.24351992 0.40998495 0.16111183
0.2520929 -0.32358003 -0.057080269
0.24912991 -0.19366205 0.018323421
0.23377891 0.22745991 0.26416588
0.23776792 0.048495948 0.16031885
0.24452992 -0.25483704 -0.015694141
0.23473491 -0.080234051 0.087086678
0.23893492 0.56117892 -0.02478838
0.24028592 0.59283495 -0.060771465
0.2434939 0.66801691 -0.14623117
0.2324409 0.40901494 0.14817667
0.23852991 -0.25450706 -0.014016151
0.22528291 0.3701179 0.18539762
0.22850992 0.44745094 0.097400665
0.23149891 0.5190959 0.015874863
0.22110291 0.0080429316 0.14120483
0.22882691 0.59218788 -0.074573517
0.23062791 0.63634694 -0.1248765
0.22583091 0.51870596 0.0091314316
0.2279579 -0.3221761 -0.050284386
0.22653891 -0.25384903 -0.010662556
0.21702491 -0.07940805 0.091955662
0.21016592 0.25933594 0.28834963
0.21856192 0.47836691 0.04792881
0.20591091 0.29785091 0.24682665
0.20939791 0.0085389018 0.14439487
0.2144639 0.51792091 -0.004389286
0.20455691 0.40656793 0.11562967
0.20857991 -0.25287306 -0.0056443214
0.19359191 0.22875494 0.27488184
0.1993439 -0.078591108 0.096812725
0.19652191 0.34043092 0.18417645
0.20741391 0.63520896 -0.15304136
0.20856991 0.66648996 -0.18882751
0.2050209 -0.38195002 -0.078947544
0.19258891 -0.030645072 0.12604475
0.20158191 0.63492191 -0.16011715
0.19473691 0.44470692 0.0577178
0.19588591 0.47664592 0.021141529
0.19897792 -0.38158906 -0.077240467
0.19431891 -0.12566411 0.071005821
0.18436991 0.10302192 0.20490742
0.18602391 0.0095199347 0.15075779
0.18529691 0.050615907 0.17455673
0.1968369 0.66597593 -0.20313644
0.18169291 -0.077783108 0.10165548
0.17981592 0.33877295 0.16490555
0.18205792 0.40458691 0.08937645
0.18339291 0.44378293 0.044392586
0.18585192 -0.31976902 -0.038452148
0.17422591 0.33821791 0.15845966
0.17770492 0.44331893 0.037710667
0.16917092 -0.029628098 0.13244057
0.17074192 0.40358794 0.076174736
0.17200391 0.44285291 0.031015873
0.17274891 -0.25095105 0.0043506622
0.16123791 0.10388291 0.21114063
0.16269991 0.010486901 0.15710068
0.16986091 0.55689293 -0.10752916
0.17085791 0.58890194 -0.14438152
0.16301291 0.33710295 0.14552784
0.16729291 0.47446793 -0.012628555
0.17007591 -0.4605931 -0.11547422
0.1688109 -0.37980103 -0.068727493
0.16678891 -0.25063503 0.0060114861
0.16582991 -0.18938804 0.0414505
0.15546291 0.10409594 0.21269655
0.15410791 0.22776091 0.2644186
0.15489991 0.25397092 0.23421144
0.15687691 0.010726929 0.15868378
0.15938491 0.4025839 0.062925816
0.16154091 0.47402892 -0.019421577
0.16275792 0.5143379 -0.065879345
0.15990391 -0.18909109 0.043091774
0.14916292 0.14035791 0.2351017
0.15912591 0.58823395 -0.15850639
0.15175891 0.33598095 0.13254976
0.14391991 0.1045199 0.21580362
0.14580192 -0.028627098 0.13881445
0.14486991 0.29133195 0.17696381
0.1471419 -0.12342608 0.083997726
0.13815391 0.1047309 0.21735764
0.13996792 -0.028379083 0.14040375
0.13886692 0.052442908 0.18712854
0.1464709 0.55543292 -0.13553524
0.14120391 0.36215591 0.087953568
0.14856592 0.63230789 -0.22442722
0.14531791 0.51312494 -0.086613178
0.14297891 -0.24938202 0.012639523
0.1397839 -0.45871711 -0.10688114
0.12702191 0.25079894 0.20253658
0.13470592 0.55469692 -0.14962053
0.12980992 0.36106992 0.074756622
0.13373591 -0.45834613 -0.10516548
0.1327199 -0.37770009 -0.058563232
0.1310939 -0.24876213 0.015944481
0.12043791 0.14135993 0.24280453
0.12141491 0.25015992 0.19616747
0.12200192 0.012144923 0.16815376
0.1288069 0.55432796 -0.15668344
0.12504491 0.39953995 0.022879601
0.11470091 0.14155793 0.24434185
0.11721091 -0.074895084 0.11931658
0.11579591 0.24951893 0.18978643
0.12020391 0.43860891 -0.029806137
0.12000792 -0.31610811 -0.020009518
0.11921991 -0.24814713 0.019245625
0.10896792 0.14175493 0.2458787
0.11084092 -0.027152061 0.14833784
0.11439291 0.43813092 -0.036627293
0.11602092 0.51107991 -0.12143517
0.11560991 -0.45724106 -0.10003328
0.1147159 -0.37666607 -0.053501129
0.10323791 0.14195192 0.24741173
0.10460391 0.012842953 0.17287064
0.10417091 0.053777933 0.19650364
0.10671291 -0.1864661 0.057796478
0.097510912 0.14214694 0.24894571
0.099689908 -0.074128091 0.1241045
0.098878913 0.24758595 0.17057467
0.098810911 0.013073921 0.17444086
0.10354291 -0.45651102 -0.096618176
0.10273091 -0.37598407 -0.050136566
0.10016491 -0.12125504 0.096901417
0.091784909 0.14234293 0.2504797
0.091923907 0.18008995 0.24210882
0.093853913 -0.073874056 0.12569857
0.093968913 0.28585792 0.11875153
0.094828911 0.33028591 0.066933632
0.095359914 0.35777795 0.034864426
0.098300911 0.50983989 -0.1424942
0.096159913 -0.31481409 -0.013348579
0.087059908 0.21981591 0.18861675
0.093153909 0.55208993 -0.19935942
0.093748912 0.58449394 -0.23719549
0.092371911 0.50942391 -0.14953947
0.089590915 -0.24663007 0.027469635
0.080652907 0.10679793 0.23281384
0.081862912 0.24563795 0.15125561
0.085158914 0.43572193 -0.070936203
0.075986914 -0.025710046 0.1578145
0.08117491 0.55133593 -0.21369553
0.079444908 -0.45506907 -0.089810371
0.072362915 -0.31353903 -0.006711483
0.064111911 0.01443994 0.18383741
0.068531908 0.50774992 -0.17786551
0.066847913 -0.37396812 -0.040073395
0.066419914 -0.31322408 -0.0050563812
0.057671912 0.14166194 0.24431562
0.058666915 0.2164309 0.15654087
0.061561912 0.43377194 -0.098622322
0.061403908 -0.45400107 -0.084720135
0.059639908 -0.18420708 0.070777416
0.053765908 0.28150892 0.072802544
0.057067908 0.54981494 -0.24254131
0.055141911 0.39330494 -0.058591366
0.05563391 0.43328092 -0.10557747
0.05491291 -0.37330604 -0.036731243
0.053769909 -0.18393004 0.072392464
0.05337891 -0.11914802 0.10972357
0.046289913 0.10800093 0.24203157
0.046774909 0.17439693 0.19147444
0.047534913 0.24169391 0.11229563
0.048613913 -0.31228411 -9.6321106e-05
0.042923912 0.35274094 -0.025821209
0.043329909 0.39224595 -0.072353363
0.043392912 -0.45294511 -0.07964325
0.035377912 0.17295492 0.17869663
0.02999991 0.21300095 0.12416887
0.030219911 0.23969895 0.092652798
0.031141909 0.35160494 -0.039451122
0.030832911 -0.31135511 0.0048484802
0.023479911 0.1078999 0.24104166
0.02604791 0.46359894 -0.17931032
0.025407908 -0.4519031 -0.074581146
0.025920911 -0.59779406 -0.15855742
0.01827191 -0.070662081 0.14630079
0.019560909 0.39011091 -0.10003757
0.020013908 0.46313092 -0.18642759
0.01985891 -0.59740806 -0.15683126
0.012155909 0.057192922 0.2213006
0.013238909 0.32205391 -0.027023315
0.01338291 0.34988892 -0.059992313
0.013078909 -0.31043708 0.0097837448
0.013651909 -0.53891611 -0.12167549
0.006430909 0.10555291 0.22215557
0.00658991 -0.022924066 0.17663479
0.0067789089 -0.11710513 0.12245941
0.00070490874 0.057604909 0.22437859
0.0010649096 -0.18148005 0.086880684
-0.0047700908 0.20882493 0.084923744
-0.0044810912 0.34815991 -0.080651283
-0.0047160909 -0.24196506 0.053551674
-0.0043600909 -0.59587812 -0.14994431
-0.010489091 0.31964391 -0.054331303
-0.010419091 0.38740891 -0.1349473
-0.010343091 0.46076894 -0.22222137
-0.010615091 -0.18094707 0.090083599
-0.016453091 0.13182992 0.16176081
-0.016453091 0.16637093 0.1206255
-0.016453091 0.42728391 -0.19011116
-0.016453091 -0.18068206 0.091685772
-0.022230091 -0.068998098 0.15730762
-0.022456091 0.34641594 -0.10143423
-0.02253909 0.42677593 -0.19724655
-0.02242009 -0.44918108 -0.06114912
-0.027960092 0.10080391 0.18407583
-0.028004091 -0.068764091 0.1588726
-0.027957091 -0.0215801 0.18598175
-0.02847109 0.34583193 -0.10838747
-0.028385092 -0.44884706 -0.059477329
-0.02847309 -0.53637803 -0.10976315
-0.033705093 -0.021359086 0.18753386
-0.034269091 0.27191293 -0.02772522
-0.033646092 0.018142939 0.21022177
-0.034750089 0.42575493 -0.21155834
-0.034227088 -0.36850405 -0.011851311
-0.033943091 -0.17989409 0.096478462
-0.033846091 -0.11537004 0.13353872
-0.039514091 0.099203944 0.17128754
-0.039547093 -0.068299055 0.16200352
-0.040308088 -0.44818211 -0.056136131
-0.040148091 -0.3681941 -0.010204315
-0.03989109 -0.24029112 0.063242435
-0.039640091 -0.11512613 0.13511562
-0.045307092 0.09840095 0.16487551
-0.045643091 0.16264492 0.087941647
-0.045999091 0.23086691 0.0062394142
-0.046207093 0.2706039 -0.041350365
-0.046591088 0.34406894 -0.1293335
-0.046800092 0.3841179 -0.17729521
-0.04606409 -0.36788511 -0.008559227
-0.046820089 -0.66976011 -0.18186951
-0.045592092 -0.1793741 0.099665642
-0.051515087 0.1618939 0.081367493
-0.051774092 0.20315194 0.031903744
-0.051217094 -0.11464107 0.13826656
-0.052655093 -0.5928911 -0.13624334
-0.052480094 -0.5349611 -0.10299158
-0.056838088 -0.067609072 0.16669178
-0.059026092 0.3830089 -0.19152355
-0.063295089 0.16038591 0.068183422
-0.062407091 -0.020267069 0.19528246
-0.063796088 -0.36696613 -0.0036315918
-0.063554093 -0.30658412 0.031012535
-0.063284092 -0.23919606 0.069674492
-0.062783092 -0.11416006 0.14141369
-0.064698093 -0.59216011 -0.13283539
-0.069203094 0.15962893 0.061571598
-0.068196088 0.053013921 0.18982077
-0.070924088 0.34169692 -0.15745354
-0.069431089 -0.30629611 0.032636642
-0.068564087 -0.11392009 0.14298677
-0.070456088 -0.53391206 -0.097928524
-0.074444093 0.094353914 0.13264179
-0.073673092 0.019597948 0.22099686
-0.075303093 -0.30600905 0.034258842
-0.074663088 -0.17809212 0.10761786
-0.082424089 -0.53322113 -0.094561577
-0.087863088 0.2259829 -0.041183472
-0.085235089 0.018038929 0.20980263
-0.08788009 -0.44557905 -0.042836189
-0.092951089 0.15657991 0.035002708
-0.092467092 -0.23785412 0.077688694
-0.095576093 -0.71592307 -0.19630241
-0.097094089 -0.066030085 0.17758846
-0.099747092 -0.44494104 -0.039525509
-0.10434109 0.12005991 0.064008713
-0.10555509 0.19662392 -0.028717518
-0.10248109 -0.018776059 0.20608473
-0.10268209 0.015386939 0.19077444
-0.10462509 -0.30459213 0.042348862
-0.10770409 -0.71514606 -0.19284725
-0.10366709 -0.17683709 0.11553574
-0.10978809 0.089425921 0.093562603
-0.10857209 -0.065587103 0.18069267
-0.11467309 0.37794292 -0.25625944
-0.11684609 -0.36427712 0.011078835
-0.11963909 -0.018339097 0.20937443
-0.12640809 0.33626294 -0.22154331
-0.12344509 -0.44368207 -0.032920361
-0.12158209 -0.23653805 0.085669518
-0.12046009 -0.11181307 0.15707541
-0.12893109 0.15194494 -0.0052342415
-0.1297721 0.19367194 -0.055999279
-0.1303241 0.2210049 -0.089254379
-0.12610409 0.011817932 0.16523886
-0.1326371 0.33565092 -0.2287364
-0.1334551 0.3762269 -0.27810144
-0.13192709 -0.71361005 -0.18595457
-0.1307371 -0.58824205 -0.11419535
-0.13422209 0.11603194 0.030806541
-0.1364391 0.22028691 -0.09617424
-0.13196409 -0.11135507 0.16019249
-0.1361471 -0.53017807 -0.079482555
-0.1402341 0.11521995 0.024127483
-0.13718709 -0.021109104 0.19035673
-0.14449608 0.30591691 -0.20840454
-0.14708509 0.14959991 -0.025528431
-0.14806509 0.19143593 -0.076601505
-0.14306208 -0.022038102 0.18399048
-0.15073408 0.30527294 -0.21557045
-0.15155908 0.083577931 0.047407627
-0.1531601 0.1488139 -0.032318592
-0.15418708 0.19068694 -0.08349514
-0.16102509 0.21739191 -0.1239953
-0.1620611 0.25781095 -0.17345142
-0.15564109 0.0073039532 0.13305044
-0.15643409 -0.23499703 0.095203876
-0.1621431 -0.71172607 -0.17737341
-0.16720308 0.21666294 -0.13098526
-0.16307008 -0.30184603 0.058430672
-0.16817808 -0.71135509 -0.17566252
-0.16581209 -0.063429058 0.19613886
-0.16845009 0.038280904 0.079871655
-0.16641609 -0.11000502 0.16951561
-0.17258708 -0.58584213 -0.10243225
-0.17758709 0.1456489 -0.059612274
-0.17880309 0.18766993 -0.11120558
-0.17260009 -0.026716053 0.15199852
-0.17959909 0.21519995 -0.14500523
-0.17660908 -0.44092607 -0.018144131
-0.17778009 -0.52789104 -0.067835331
-0.18175609 0.079332948 0.014062405
-0.1849881 0.18691093 -0.1181674
-0.1858151 0.21446592 -0.15203714
-0.1804691 0.036502898 0.066703796
-0.18250309 -0.44062603 -0.016509533
-0.17961809 -0.23399007 0.10153484
-0.18558308 -0.66120911 -0.14252234
-0.18783209 0.078476906 0.0073547363
-0.18987408 0.14405292 -0.073340416
-0.18335409 -0.065275073 0.18424273
-0.19204409 0.2137289 -0.15908146
-0.19475409 0.30071694 -0.26612854
-0.18540809 -0.23374212 0.10311365
-0.18453608 -0.1734581 0.13754368
-0.18360908 -0.10934305 0.17416477
-0.19959809 0.25363195 -0.21621037
-0.18933509 -0.10912502 0.17570877
-0.19558209 -0.52693105 -0.062866211
-0.20590109 0.2529279 -0.2233882
-0.19894309 -0.36029208 0.033739567
-0.20357609 -0.6601541 -0.13745213
-0.20840208 0.14164394 -0.094033241
-0.21382008 0.29873693 -0.28801727
-0.20605409 -0.43944013 -0.0099854469
-0.20956808 -0.65980613 -0.13576412
-0.20078109 -0.10869002 0.17879963
-0.2096431 -0.29973209 0.071201801
-0.21636209 -0.70843709 -0.16202831
-0.22388209 -0.79722404 -0.21119213
-0.21330009 -0.1723001 0.1453476
-0.22569509 0.10361791 -0.070737362
-0.2299341 -0.79684603 -0.20947313
-0.22126108 -0.29921603 0.074381828
-0.23189509 0.10277194 -0.077613354
-0.23601709 0.2085169 -0.2087965
-0.23112009 -0.52505004 -0.052967548
-0.23810509 0.10192394 -0.08450222
-0.24235108 0.20776391 -0.21595335
-0.23515609 0.02838695 0.0068254471
-0.23809209 -0.58221602 -0.084093571
-0.24580109 0.1367659 -0.13578415
-0.24755208 0.17920291 -0.18855238
-0.23992708 -0.0056580901 0.041300774
-0.23980509 -0.35838902 0.04497385
-0.23626909 -0.17139208 0.15156841
-0.24403109 -0.58189511 -0.082434177
-0.24469909 -0.0381971 0.073984623
-0.24563208 -0.35812211 0.046573639
-0.25144011 -0.65741003 -0.12399721
-0.25078711 -0.0391711 0.067401409
-0.26143509 0.20549291 -0.23751926
-0.25303608 -0.43713105 0.0030007362
-0.25145909 -0.35785604 0.048170567
-0.26015711 -0.79498112 -0.20090246
-0.25741309 -0.65707302 -0.12232256
-0.2547611 -0.5238241 -0.046396255
-0.26307911 0.098508954 -0.11219645
-0.25362611 -0.11315811 0.15189981
-0.26795709 0.067139924 -0.081039429
-0.2618511 -0.29744303 0.08547163
-0.2703681 -0.70527709 -0.14681244
-0.26738012 -0.079201102 0.093969822
-0.26912111 -0.042107046 0.047580719
-0.28257009 0.24433595 -0.31065845
-0.27825812 -0.79388213 -0.19577837
-0.26764011 -0.29719412 0.087050438
-0.27525809 -0.043090045 0.040948868
-0.2870681 0.20243591 -0.26647615
-0.27473509 -0.35680509 0.054551601
-0.28428611 -0.79351902 -0.1940732
-0.27196512 -0.23013902 0.12666273
-0.28234109 -0.70459211 -0.14344645
-0.2706511 -0.17006111 0.16086578
-0.2823211 -0.43572903 0.011072636
-0.2763741 -0.16984212 0.16241169
-0.27780011 -0.11732805 0.12612486
-0.2964001 0.13013595 -0.19223928
-0.29855311 -0.88972604 -0.2458272
-0.28209409 -0.16962504 0.16395664
-0.3049911 0.1720829 -0.25312138
-0.30856609 0.24140793 -0.34023046
-0.2892141 -0.22944808 0.1313405
-0.28996012 -0.11943007 0.11316347
-0.29737711 -0.57907212 -0.067574501
-0.30509609 -0.65443909 -0.10897636
-0.2935271 -0.16919303 0.16704464
-0.29605812 -0.12048507 0.10666466
-0.30329111 -0.57876503 -0.065930367
-0.3007021 -0.2289921 0.13445282
-0.3092061 -0.5784601 -0.064288139
-0.3102881 -0.086360097 0.047931671
-0.31409711 -0.017160058 -0.03932333
-0.32040909 -0.79137707 -0.18387938
-0.3284601 0.12591791 -0.22798824
-0.31646711 -0.087394118 0.041302681
-0.33245611 0.19700295 -0.31773043
-0.32224411 0.015365899 -0.088418484
-0.32293811 -0.65347612 -0.10399437
-0.33491209 0.12506795 -0.23517942
-0.32117909 -0.35476005 0.067251682
-0.32057512 -0.12473309 0.08054781
-0.32692909 -0.57755303 -0.059369564
-0.34389812 0.16723692 -0.29682827
-0.32673511 -0.12580204 0.073985577
-0.33488509 -0.43328702 0.025519848
-0.32938209 -0.22787106 0.14221382
-0.35698012 0.16560292 -0.31151915
-0.34759411 0.011553943 -0.11611557
-0.3430711 -0.51942313 -0.02195549
-0.35912812 -0.88599408 -0.22865248
-0.35397911 -0.70061409 -0.12338543
-0.3452931 -0.12902713 0.054226875
-0.3631281 0.053551912 -0.1858902
-0.3538101 -0.093654037 0.0012698174
-0.3484461 -0.29383206 0.10903358
-0.34840611 -0.17904806 0.10983753
-0.3564221 -0.57607007 -0.051198483
-0.37157711 0.083573937 -0.2323904
-0.37670809 0.16313595 -0.33367014
-0.36843511 -0.78861308 -0.17037439
-0.35228711 -0.22699308 0.14840269
-0.36747912 -0.35279107 0.079871655
-0.36693209 -0.18242705 0.090299606
-0.3740921 -0.57519805 -0.046312332
-0.38640511 -0.78760409 -0.16533422
-0.37145409 -0.29291213 0.11527157
-0.38372812 -0.69902313 -0.11508751
-0.37313309 -0.18355906 0.083764553
-0.37997711 -0.57491004 -0.044686317
-0.37824911 -0.51774812 -0.012262344
-0.38789511 -0.061259091 -0.080656528
-0.40204909 0.04795891 -0.22872639
-0.38726711 -0.43094802 0.039862633
-0.39409509 -0.64976013 -0.084201336
-0.3885881 -0.23194504 0.12173271
-0.41513211 0.046073914 -0.24312019
-0.41740212 0.077217937 -0.28309917
-0.40432709 -0.1021601 -0.052843571
-0.40943611 -0.032072067 -0.14280748
-0.41033509 -0.78628206 -0.15863657
-0.3947821 -0.23312604 0.11526155
-0.40748709 -0.69777906 -0.10847855
-0.39806211 -0.18811905 0.057491779
-0.40211311 -0.35136509 0.08928442
-0.41935211 -0.69716513 -0.10518026
-0.41060311 -0.19041705 0.044279575
-0.41334811 -0.5161221 -0.0026183128
-0.43486512 0.043226898 -0.26482534
-0.4314701 -0.0011260509 -0.20768452
-0.4116371 -0.29134512 0.12614346
-0.4380191 -0.0021200776 -0.21482849
-0.4231981 -0.19272804 0.031014442
-0.43087012 -0.5153271 0.0021867752
-0.45472512 0.040355921 -0.28666115
-0.45723709 0.071671903 -0.3271513
-0.43221509 -0.2402761 0.076171875
-0.44135311 -0.64740205 -0.071120262
-0.43981311 -0.14554513 -0.046303272
-0.45855811 -0.96468508 -0.24920559
-0.46803811 0.038428903 -0.30129623
-0.47063211 0.069801927 -0.34196138
-0.45884112 -0.07280606 -0.15712547
-0.4424251 -0.34975302 0.10021448
-0.44837311 -0.51454508 0.0069794655
-0.47471511 0.037460923 -0.30863619
-0.4549101 -0.19855809 -0.0023694038
-0.45325512 -0.29411411 0.11353064
-0.4574281 -0.2451061 0.049861431
-0.48129511 -0.043402076 -0.22069836
-0.4596701 -0.34908009 0.10488081
-0.4855561 -1.0383561 -0.28484726
-0.47264209 -0.69448209 -0.090415478
-0.46585509 -0.51377404 0.011759758
-0.4740971 -0.20209408 -0.022556305
-0.49164009 -0.078170061 -0.19244814
-0.47210911 -0.29788804 0.0940485
-0.4825941 -0.64541709 -0.059746265
-0.48051912 -0.20328009 -0.029314518
-0.47969711 -0.57022905 -0.017252445
-0.47750211 -0.51326704 0.014940739
-0.50832409 0.032581925 -0.34556723
-0.50084907 -0.96224904 -0.23731136
-0.4784191 -0.29915202 0.087530613
-0.51509011 0.031597912 -0.35300016
-0.50485808 -0.080337048 -0.20667744
-0.50785011 -0.047607064 -0.24946022
-0.48574311 -0.42680907 0.066676617
-0.49340311 -0.20565903 -0.042864323
-0.5218721 0.030610919 -0.36044931
-0.51771307 -0.0142681 -0.30171156
-0.48837611 -0.34798205 0.11263466
-0.51553708 -0.8771131 -0.18473434
-0.49742809 -0.30296707 0.06789875
-0.50611407 -0.64431512 -0.053277493
-0.5249691 -0.96089613 -0.23054743
-0.5175851 -0.78065312 -0.12878847
-0.50379109 -0.30424511 0.061330795
-0.51198912 -0.64404309 -0.051661491
-0.53796309 -0.017368078 -0.32377148
-0.51016611 -0.30552709 0.054748535
-0.51655507 -0.30681205 0.048155785
-0.52585405 -0.21166611 -0.076980591
-0.51819909 -0.51153409 0.026036739
-0.54104906 -0.12538803 -0.19905043
-0.55153906 -0.019450068 -0.33855724
-0.52036405 -0.42543304 0.076057434
-0.5353961 -0.77976608 -0.12385941
-0.52960408 -0.64323604 -0.046827316
-0.54771405 -0.12652802 -0.20616722
-0.55157608 -0.088015079 -0.25694656
-0.5250541 -0.35246408 0.091712475
-0.54545009 -0.87553906 -0.17640924
-0.52981007 -0.51105106 0.029195786
-0.56165606 -0.056161046 -0.3077035
-0.53188807 -0.4249841 0.079175472
-0.53142405 -0.3537941 0.085194588
-0.53580308 -0.31068802 0.02829361
-0.54343605 -0.69109607 -0.070903301
-0.55059105 -0.16509402 -0.16389942
-0.54734308 -0.26242602 -0.043857574
-0.54420608 -0.35646307 0.07212162
-0.55306208 -0.64218104 -0.040400505
-0.5586521 -0.21775413 -0.11143732
-0.57859308 -0.092469096 -0.2859993
-0.55061609 -0.35780406 0.065564632
-0.56109005 -0.69028413 -0.066054344
-0.58538407 -0.093591094 -0.2932992
-0.55703908 -0.35914707 0.058996677
-0.57724708 -0.1698271 -0.19216156
-0.59219009 -0.094715118 -0.30061531
-0.58512509 -0.95764208 -0.21375132
-0.60644108 -0.02789408 -0.3983202
-0.58724308 -0.87340713 -0.16481256
-0.59320706 -0.87311006 -0.16316128
-0.58234107 -0.64089406 -0.032395363
-0.59180105 -0.22392702 -0.14624357
-0.5877251 -0.32117903 -0.025242329
-0.59330505 -0.27133608 -0.091696262
-0.6151641 -0.13810003 -0.27816343
-0.60512608 -0.87251902 -0.15986538
-0.59046108 -0.56547308 0.012966633
-0.58947909 -0.42299902 0.093782425
-0.61108309 -0.87222707 -0.15821934
-0.60084206 -0.32383704 -0.038758278
-0.60656309 -0.27391207 -0.10548735
-0.59353405 -0.50848711 0.046480656
-0.62883407 -0.14045405 -0.29274416
-0.61987907 -0.27650309 -0.11933613
-0.61157507 -0.63964403 -0.024422169
-0.62325609 -0.63915408 -0.021243572
-0.65635008 -0.14520013 -0.32208633
-0.66513705 -0.072722077 -0.41958046
-0.63598907 -0.77501309 -0.09616518
-0.63153809 -0.68717003 -0.046784401
-0.6455881 -0.23398006 -0.20267153
-0.62530208 -0.56407404 0.022415638
-0.67216206 -0.073852062 -0.42716742
-0.62832206 -0.43153107 0.05454874
-0.64189106 -0.77474713 -0.094548225
-0.67020309 -0.14759409 -0.33685255
-0.64076507 -0.63843012 -0.0164814
-0.63690209 -0.56361806 0.025555611
-0.67715108 -0.14879513 -0.3442564
-0.64137709 -0.43440604 0.041368484
-0.66600209 -0.23780811 -0.22407341
-0.64269906 -0.56339312 0.027124405
-0.68907809 -0.11079407 -0.40468359
-0.66461605 -0.86966908 -0.14346552
-0.65242809 -0.63795507 -0.013314247
-0.64849406 -0.56316912 0.028691769
-0.64551407 -0.50650811 0.060515404
-0.68622309 -0.18929303 -0.3075633
-0.66008109 -0.56272411 0.031822681
-0.71023905 -0.11432302 -0.42739248
-0.67500508 -0.38396311 -0.061467171
-0.66587108 -0.56250405 0.033385754
-0.68155807 -0.63679206 -0.0054183006
-0.70723307 -0.2455591 -0.26727533
-0.69492006 -0.77243102 -0.080059528
-0.7333051 -0.15853107 -0.40407658
-0.70183909 -0.38964403 -0.088825226
-0.6931991 -0.63633609 -0.0022673607
-0.74039507 -0.1597631 -0.41162539
-0.70668507 -0.77193308 -0.076853275
-0.73512405 -0.19808602 -0.35928154
-0.72146606 -0.34842408 -0.16287518
-0.70058006 -0.56121111 0.042740822
-0.7546261 -0.16223907 -0.4267745
-0.72211808 -0.39394605 -0.10949135
-0.71064806 -0.63566303 0.0024495125
-0.70636106 -0.56100106 0.044295788
-0.72088706 -0.45198309 -0.038810253
-0.73516208 -0.3512311 -0.1769495
-0.71646106 -0.63544309 0.0040187836
-0.74901807 -0.2534411 -0.31102657
-0.75632006 -0.20190811 -0.38168335
-0.71213806 -0.56079102 0.045850754
-0.74203205 -0.35264111 -0.18400526
-0.7222721 -0.63522208 0.0055866241
-0.71791404 -0.56058311 0.047402859
-0.72808206 -0.63500404 0.007153511
-0.78327805 -0.16723204 -0.45726538
-0.74194407 -0.77047908 -0.067269325
-0.75462306 -0.45947802 -0.072788239
-0.78426808 -0.26011109 -0.34791136
-0.75423008 -0.68223608 -0.013503551
-0.78357208 -0.36118102 -0.22666454
-0.76005507 -0.68201804 -0.011932373
-0.75710809 -0.63393307 0.014972687
-0.80633605 -0.21095312 -0.43451929
-0.75330704 -0.56091106 0.04968071
-0.75913507 -0.52245104 -0.003531456
-0.79055005 -0.36261809 -0.23382521
-0.79836607 -0.31151712 -0.30461931
-0.77714705 -0.76908004 -0.057730198
-0.78872508 -0.46707511 -0.10710955
-0.81991708 -0.2668761 -0.38519049
-0.78030306 -0.63310206 0.021205425
-0.83527809 -0.21620309 -0.46507454
-0.81153709 -0.41300106 -0.20051336
-0.82674909 -0.31713212 -0.33402729
-0.83274007 -0.37132502 -0.27710915
-0.80029207 -0.57216704 0.0033364296
-0.83982706 -0.37279105 -0.28437519
-0.84820706 -0.3213861 -0.35625029
-0.80347508 -0.63229406 0.027418613
-0.81336808 -0.53509808 -0.057436466
-0.83957106 -0.41900313 -0.22901726
-0.8632341 -0.27512109 -0.43045616
-0.8536821 -0.42202902 -0.24335814
-0.86118406 -0.37721205 -0.30627155
-0.86076105 -0.4235481 -0.25055027
-0.82984304 -0.67950702 0.0068268776
-0.88511908 -0.27929711 -0.45331526
-0.85805905 -0.48258507 -0.17680836
-0.8924461 -0.28069711 -0.46096754
-0.84774506 -0.54314411 -0.091572285
-0.84798706 -0.58363712 -0.043656349
-0.88988608 -0.38316512 -0.33568144
-0.84622109 -0.63515711 0.019941807
-0.9071551 -0.28350902 -0.47632217
-0.88923609 -0.42966902 -0.27947426
-0.90614706 -0.33290505 -0.41621542
-0.85302806 -0.63685513 0.013308525
-0.91453409 -0.28492105 -0.48402739
-0.90357006 -0.43275511 -0.29402733
-0.86668605 -0.64026606 -4.7683716e-07
-0.91076106 -0.43430412 -0.30132723
-0.92613208 -0.39070213 -0.37280035
-0.89650905 -0.55459511 -0.13994932
-0.94290406 -0.34023905 -0.45422459
-0.88205409 -0.6777631 0.020785809
-0.88728607 -0.64541602 -0.0200634
-0.94074607 -0.39374602 -0.38775921
-0.88840306 -0.67859602 0.01802969
-0.92894709 -0.4985311 -0.24796629
-0.96516407 -0.34469008 -0.4772315
-0.96279407 -0.39834511 -0.41032028
-0.93180507 -0.56291103 -0.17493248
-0.95052606 -0.50340307 -0.26960945
-0.98757809 -0.34917903 -0.50038958
