# .PCD v0.7 - Point Cloud Data file format
VERSION 0.7
FIELDS x y z
SIZE 4 4 4
TYPE F F F
COUNT 1 1 1
WIDTH 1
HEIGHT 1024
VIEWPOINT 0 0 0 1 0 0 0
POINTS 1024
DATA ascii
0.56288689 -0.9710573 -0.095707417
0.5475719 -0.95922124 -0.054091454
0.55223489 -0.91369927 -0.11333942
0.5369519 -0.90219629 -0.071513176
0.51750791 -0.93599832 0.027618885
0.51931888 -0.8330543 -0.076230526
0.50274992 -0.92460525 0.067733765
0.50694489 -0.87962627 0.010617733
0.51754987 -0.76589823 -0.13379622
0.4954389 -0.91896224 0.087609768
0.49955791 -0.87407327 0.03083849
0.50432491 -0.82212627 -0.03485918
0.48816893 -0.91335332 0.10737276
0.49495593 -0.75005031 -0.070871353
0.4776639 -0.85762024 0.090777874
0.50004691 -0.60146427 -0.22930717
0.4704549 -0.85220528 0.11051464
0.47767892 -0.6765573 -0.080938339
0.48044491 -0.64382923 -0.12151051
0.46042791 -0.79015827 0.086283684
0.45822191 -0.72430325 0.031459808
0.46983093 -0.58219624 -0.14332533
0.47065791 -0.47455633 -0.24823332
0.43504891 -0.82562423 0.20747185
0.4509339 -0.62434232 -0.038170338
0.45817593 -0.5325793 -0.15015554
0.43671292 -0.70923924 0.091389656
0.42962992 -0.70428228 0.11112356
0.44036192 -0.56341922 -0.059453487
0.42258993 -0.69935429 0.13074255
0.43310791 -0.55880034 -0.038808346
0.43609393 -0.51890624 -0.086931229
0.44488692 -0.29586828 -0.32873011
0.41977793 -0.63749933 0.081798553
0.43027893 -0.38969231 -0.1893754
0.4335649 -0.34416127 -0.24388218
0.43733391 -0.29192626 -0.30641031
0.41273692 -0.63275433 0.10159159
0.42982793 -0.28800929 -0.28422642
0.40573692 -0.62803733 0.12127256
0.42237091 -0.28411925 -0.26218653
0.39877993 -0.62335134 0.14083052
0.40437591 -0.43536127 -0.05670929
0.38395792 -0.7345643 0.29741144
0.39723891 -0.43114531 -0.03608036
0.37113893 -0.82380426 0.42355347
0.37724993 -0.72969329 0.31593847
0.40759891 -0.27641523 -0.2185235
0.3849909 -0.61406529 0.17960072
0.39050692 -0.53168929 0.082471848
0.40938291 -0.13398731 -0.35971737
0.40027991 -0.27259934 -0.19689131
0.40447691 -0.090758324 -0.38377142
0.40666592 -0.056773305 -0.42354631
0.38309193 -0.42279029 0.0048089027
0.36073491 -0.76992524 0.41106272
0.38969493 -0.32026827 -0.11517429
0.39607292 -0.22123933 -0.23107052
0.39942193 -0.16924226 -0.29192209
0.39699793 -0.087454319 -0.36110353
0.40138292 -0.018011272 -0.44207048
0.35281593 -0.81490326 0.45469761
0.39165992 -0.050369263 -0.37784529
0.37267092 -0.35716224 -0.021459103
0.35079992 -0.71049929 0.38899565
0.36566791 -0.35321224 -0.0010442734
0.37146792 -0.25758529 -0.11171913
0.35616693 -0.50986123 0.18025684
0.38358891 0.069444716 -0.4635911
0.35870591 -0.34928524 0.019253731
0.3378019 -0.70107126 0.42490673
0.34941891 -0.5055753 0.1994729
0.36755693 -0.074451327 -0.27185345
0.35436893 -0.30105126 -0.01151228
0.34271291 -0.50131524 0.21857166
0.36421791 -0.0027422905 -0.3283205
0.32535192 -0.75835633 0.45240068
0.34743291 -0.29728127 0.0088405609
0.3503229 -0.24657428 -0.049203396
0.33143392 -0.57803333 0.33022547
0.33321491 -0.54676926 0.29443789
0.35591093 -0.14851034 -0.1614604
0.36584091 0.16003674 -0.48825026
0.36747092 0.18925071 -0.52157021
0.35595092 0.11806673 -0.41433525
0.34596193 -0.064920306 -0.20638227
0.36230892 0.23454672 -0.5467062
0.31450191 -0.75923634 0.4485836
0.31842992 -0.56929326 0.3668108
0.33898592 -0.19272125 -0.061144352
0.3449029 0.051487744 -0.31309414
0.34660393 0.083342731 -0.34916735
0.35251993 0.1941247 -0.47460842
0.34062591 -0.028608263 -0.22240019
0.33204693 -0.18925929 -0.040489197
0.34129491 0.12332469 -0.36875534
0.3353309 0.0091147423 -0.23989725
0.30364192 -0.7601223 0.44476366
0.30552891 -0.63063526 0.40399647
0.3097679 -0.4804033 0.31242085
0.33403793 0.12592775 -0.34618521
0.3264569 -0.022572279 -0.17923832
0.32822391 0.012030721 -0.21813822
0.34240791 0.28987974 -0.53050518
0.3111459 -0.32248223 0.15793753
0.31829792 -0.18239927 0.00044775009
0.31779692 -0.052499294 -0.12098217
0.33647493 0.32188672 -0.54038048
0.31813291 -1.0435482 -0.12852526
0.29360992 -0.70124424 0.42211151
0.3066889 -0.27514529 0.12843847
0.31400192 -0.12856531 -0.035768509
0.31632391 0.062626719 -0.22505236
0.31965992 0.13108373 -0.30146837
0.33112693 0.3663637 -0.56409836
0.28732991 -0.76146328 0.43902874
0.30003792 -0.27153528 0.14796257
0.30716392 -0.12531328 -0.01526022
0.3107869 0.096787691 -0.23833752
0.31254092 0.1336357 -0.2793231
0.31598592 0.20602369 -0.35984135
0.30553091 -0.013661265 -0.11548138
0.30716392 0.020666718 -0.15366411
0.32574692 0.41112572 -0.58797455
0.29342893 -0.26794827 0.1673665
0.30375892 0.09942472 -0.21658754
0.29534692 -0.081652284 -0.015881538
0.29864192 -0.010730267 -0.094492435
0.3219749 0.49152973 -0.65119028
0.2891629 -0.21476626 0.13166189
0.29535893 0.070792735 -0.16045523
0.3144969 0.49300671 -0.62678909
0.2717669 -0.70298731 0.41441679
0.30907792 0.53999072 -0.6526413
0.30360991 0.41628075 -0.51648331
0.3070659 0.49447373 -0.60254431
0.26629791 -0.70342624 0.41249275
0.26718393 -0.6335603 0.39044571
0.27601492 -0.20793533 0.17055368
0.28159693 0.076149702 -0.1180501
0.27822691 -0.0020442605 -0.032285213
0.2978169 0.45255071 -0.53088522
0.29968691 0.49592972 -0.57846355
0.26585591 -0.29841423 0.28258371
0.2600849 -0.76372433 0.42946053
0.2608279 -0.70386624 0.41056681
0.27941993 0.18930072 -0.21781731
0.2701489 -0.03150928 0.023524761
0.28060591 0.21753675 -0.24868011
0.29425493 0.54261172 -0.60398149
0.29569691 0.57694173 -0.64150333
0.28909293 0.41965973 -0.46959734
0.26096091 -0.25033724 0.2626996
0.26492992 -0.15580022 0.15937281
0.25867692 -0.43039823 0.3221488
0.27075291 0.14860469 -0.14932632
0.27251193 0.19163674 -0.19619751
0.26196191 -0.066365242 0.08481884
0.27535692 0.26119572 -0.27196026
0.26620692 0.037445724 -0.028252125
0.28831592 0.57813168 -0.61716747
0.28330991 0.45569873 -0.48381329
0.26639792 -1.0156373 -0.033323288
0.2565859 -0.19784832 0.22802973
0.25843692 -0.15256727 0.17870951
0.25952691 0.040180743 -0.0077953339
0.27144092 0.33952272 -0.33271217
0.27309191 0.38099372 -0.37772655
0.2778379 0.50024068 -0.50716209
0.2600359 -1.0122312 -0.02168417
0.2437039 -0.76509833 0.42371082
0.2496659 -0.25054634 0.26113081
0.25576991 0.1174137 -0.068060398
0.25034192 -0.022793293 0.083604813
0.25369591 -1.0088443 -0.010104179
0.2420159 -0.43152428 0.31621552
0.2424079 -0.057418287 0.1438098
0.2462859 0.045599699 0.032755852
0.25749192 0.34330171 -0.28816509
0.26824093 0.62883174 -0.59596634
0.2379109 -0.30012131 0.27257061
0.2473799 -1.0054762 0.0014138222
0.2349259 -0.57053423 0.35806561
0.2437489 0.15826672 -0.065311432
0.2453059 0.20083171 -0.11103916
0.2505849 0.34517169 -0.26610756
0.25361192 0.4279117 -0.35499525
0.25641191 0.5044657 -0.43723631
0.2323129 -0.3004663 0.27056551
0.2267299 -0.81894433 0.43454552
0.2334379 -0.19605625 0.23754263
0.2347479 0.094369709 0.02632761
0.24104591 0.27169174 -0.16352415
0.25093991 0.55026376 -0.46177912
0.2493629 0.50585473 -0.41423321
0.2231839 -0.63698232 0.3749156
0.22780789 -0.1963743 0.2355175
0.2242569 -0.53472531 0.34256458
0.24388289 0.55150974 -0.43861055
0.2423569 0.50723469 -0.39136839
0.21580291 -0.8199023 0.43072367
0.21833991 -0.57178128 0.35219955
0.21871389 -0.53513229 0.34060144
0.2202799 0.056234717 0.11240482
0.23286191 0.43273371 -0.2879715
0.2103359 -0.82038331 0.4288125
0.2108589 -0.76788628 0.41219378
0.2121519 -0.63785231 0.37102652
0.21653791 -0.19701326 0.23146486
0.2137439 -0.47784328 0.32037067
0.21418589 -0.43342531 0.30630875
0.2162509 0.13220674 0.054276466
0.22711991 0.46787873 -0.30148125
0.2053739 -0.76835525 0.41027164
0.20595489 -0.70834827 0.39126873
0.2076229 -0.53595233 0.33667183
0.2113899 -0.14658225 0.21336365
0.2088569 0.10442674 0.10612965
0.21222889 0.21199971 -0.0074982643
0.2166919 0.35434371 -0.15785313
0.2216129 0.51132071 -0.32366514
0.2011099 -0.63872623 0.36713457
0.2026149 -0.47863531 0.31641865
0.2161119 0.55640972 -0.34743547
0.19558491 -0.63916528 0.36518764
0.1996119 -0.19798028 0.22537851
0.19618391 -0.57346332 0.3443675
0.1966649 0.10701972 0.1265626
0.1962499 0.06016171 0.14141464
0.2025969 0.32963175 -0.085790157
0.20460691 0.3982237 -0.15775824
0.1884359 -0.82232428 0.4211607
0.1900539 -0.63960624 0.36323881
0.1914719 -0.47943127 0.31246471
0.1909299 0.10677874 0.12447166
0.19168191 0.17687172 0.096701622
0.1895639 -0.052501261 0.17497969
0.2034229 0.59179676 -0.33720112
0.1991429 0.44056171 -0.17904854
0.1845219 -0.64004827 0.36129045
0.1887459 -0.14782131 0.20520544
0.18627889 -0.43535626 0.2963829
0.18546391 0.1392197 0.11201477
0.1957439 0.56000072 -0.28055716
0.1987699 0.67088068 -0.39612627
0.18353289 -0.093220234 0.18574476
0.18031789 -0.48023331 0.30850649
0.1794509 0.10629469 0.1202898
0.1785019 -0.011846304 0.15777588
0.1819029 0.28975672 0.023418903
0.1890399 0.56118172 -0.25854731
0.1868159 0.47660172 -0.17068338
0.1755279 0.29170173 0.043570518
0.1732839 -0.96640325 0.13540649
0.1673619 -0.71156931 0.37771845
0.17215391 -0.093817234 0.18163681
0.1702919 0.33879173 0.016993523
0.1776529 0.64144576 -0.29535532
0.1719369 0.40642971 -0.052811146
0.1747119 0.52054775 -0.17058516
0.16099291 -0.82478333 0.41157866
0.1631289 -0.5392803 0.32092667
0.1664599 -0.094117284 0.17958164
0.1635619 -0.48144531 0.30256367
0.16220391 0.10556173 0.11400747
0.1627149 0.17636472 0.091519833
0.16993789 0.59717572 -0.22676039
0.1672219 0.48083773 -0.10709047
0.1681789 0.52183175 -0.14925814
0.1757239 0.80985671 -0.48173046
0.1568139 -0.64227927 0.3515358
0.15728889 -0.57645631 0.33062983
0.1572509 0.22097772 0.075163841
0.15807991 0.3405987 0.037159443
0.1650849 0.67505372 -0.28385448
0.1591469 0.4096387 -0.011726379
0.1600419 0.44962773 -0.052725315
0.16077091 0.48223171 -0.086153507
0.1531589 -0.36927629 0.26270056
0.1499939 -0.82577729 0.40774059
0.15077589 -0.71297026 0.37190056
0.1543289 -0.20060134 0.20910883
0.1517199 -0.57688928 0.32866383
0.1550629 -0.094720244 0.17546749
0.1514609 0.2207647 0.073044777
0.14962789 -0.054522276 0.16053867
0.1516549 0.24988872 0.063786507
0.1503779 0.05810672 0.1247406
0.1561439 0.56697369 -0.15053415
0.1568359 0.59927869 -0.1835494
0.1524539 0.36987674 0.025655746
0.1577979 0.64420569 -0.2294631
0.15847591 0.67587173 -0.26182556
0.1528099 0.41122872 0.0086326599
0.15523291 0.52437568 -0.10700035
0.1624219 0.81040674 -0.45020056
0.14795589 -0.30576622 0.24038982
0.1492549 -0.95391631 0.17837763
0.1493589 -0.095023274 0.17340851
0.1453799 0.17568672 0.085187435
0.1443949 0.021453738 0.1342206
0.1446279 0.057846725 0.12265158
0.1496859 0.5681107 -0.12932539
0.1512599 0.64511371 -0.20776844
0.14798591 0.48499373 -0.04465723
0.14004689 0.24947673 0.059533596
0.1438949 0.60135573 -0.14086437
0.14059991 0.34006172 0.030724525
0.1407799 0.36953473 0.021350861
0.1447659 0.64601672 -0.18621254
0.13347191 -0.82728028 0.40197945
0.13416091 -0.71438527 0.36607456
0.13695189 -0.25733924 0.22071886
0.1333929 0.10432673 0.10351658
0.13406891 0.22012174 0.066678524
0.13246191 -0.055402279 0.15433264
0.1342379 0.24927074 0.057404518
0.1331189 0.057322741 0.11847067
0.1368909 0.57036072 -0.087312222
0.1388929 0.67829472 -0.19655323
0.1351819 0.41104674 0.0059366226
0.13610691 0.52813071 -0.044570446
0.1430219 0.81090373 -0.42183733
0.1286169 -0.71485925 0.36413288
0.1312819 -0.25768924 0.21868849
0.13160791 -0.20193624 0.20095158
0.1319049 -0.15098727 0.1847415
0.12780291 0.13685274 0.090984821
0.1289299 0.3397007 0.026430607
0.1332469 0.72448772 -0.2208662
0.12554191 -0.94168627 0.22054052
0.1224419 -0.82829022 0.39813662
0.1245999 -0.43970931 0.27447176
0.1212179 -0.014649272 0.1370306
0.1215959 0.05679673 0.11428452
0.1236849 0.45259973 -0.011717319
0.12679391 0.72514373 -0.19922447
0.1196719 -0.30758834 0.23028564
0.1207859 -0.096550226 0.16310358
0.1170029 0.2912277 0.037451744
0.1184089 0.57225668 -0.052039146
0.1196729 0.68067169 -0.13248825
0.1175999 0.41056675 -0.00055217743
0.1179789 0.48634973 -0.024685383
0.1181899 0.52853471 -0.038117409
0.1140059 -0.30795527 0.2282629
0.1116619 -0.77656424 0.3774929
0.1119629 -0.71629131 0.35829878
0.1145309 -0.20294833 0.19482374
0.1102819 0.10332471 0.095105648
0.1095259 -0.056587279 0.14604759
0.1111689 0.29103172 0.035310745
0.1113959 0.33915573 0.019979477
0.1115359 0.36867273 0.010577679
0.1061209 -0.77706027 0.37555885
0.1067389 -0.64638126 0.33392763
0.1085689 -0.2591033 0.21055984
0.1044959 0.1030727 0.093000889
0.1046419 0.13588673 0.08254385
0.1053309 0.29083371 0.033168793
0.1070719 0.6821897 -0.091537476
0.1008459 -0.71725333 0.35440588
0.1031309 -0.20362723 0.19073343
0.099489897 0.29063672 0.031024456
0.1052079 0.84780574 -0.40582657
0.096986897 -0.30906522 0.22218752
0.093362898 0.2185967 0.051785469
0.0927279 0.055465698 0.10380363
0.095168903 0.68203175 -0.09598732
0.094108902 0.40991873 -0.0092201233
0.095528901 0.76115674 -0.12548828
0.090546899 -0.92380834 0.28231859
0.089272901 -0.83135533 0.38658476
0.090244904 -0.58173823 0.30698967
0.092128903 -0.098101258 0.15277147
0.0906149 -0.4868263 0.27672482
0.088812903 0.57169175 -0.063044548
0.089096904 0.65013576 -0.088066101
0.084779903 -0.92088127 0.29244661
0.083733901 -0.83187127 0.38465881
0.083924897 -0.77905929 0.36781263
0.084142901 -0.71870625 0.34856081
0.081313901 0.10205573 0.084567547
0.080916904 -0.0166623 0.12244749
0.081155904 0.05492872 0.099603653
0.082882904 0.57157773 -0.065249443
0.083250903 0.68187171 -0.10044146
0.083404899 0.72770071 -0.11506224
0.078367904 -0.77956331 0.36587477
0.078804903 -0.64870727 0.32412052
0.080100901 -0.2608943 0.20037746
0.076948904 0.5714637 -0.067453384
0.077286899 0.68179172 -0.10266829
0.076580904 0.45140272 -0.029132366
0.0775299 0.76109874 -0.12798119
0.076814897 0.52764869 -0.053468227
0.077696897 0.81569874 -0.14540434
0.074049897 -0.37467933 0.23454189
0.073300906 -0.91507328 0.31256676
0.072645903 -0.83290827 0.38080168
0.072807901 -0.78006828 0.36393452
0.069702901 0.10154271 0.080344677
0.069371901 -0.017245293 0.11827183
0.069570899 0.054387748 0.095399857
0.0706769 0.45125073 -0.031314373
0.071539901 0.76104271 -0.13022852
0.070771903 0.48523173 -0.042164326
0.070888899 0.5275197 -0.055665493
0.0738599 0.8479287 -0.39604425
0.067588903 -0.91219127 0.32255554
0.067244902 -0.78057528 0.3619957
0.0676089 -0.64964831 0.32019186
0.068690903 -0.26161826 0.19629765
0.0691429 -0.099359274 0.14449072
0.064180903 0.21748871 0.041116714
0.064556904 0.3672657 -0.0067224503
0.065460905 0.7275027 -0.1217804
0.062978901 -0.26198232 0.19425583
0.062408902 -0.48895228 0.26674891
0.058148902 0.13391775 0.065606594
0.0583339 0.21726471 0.03897953
0.057717901 -0.059307277 0.12734365
0.058399901 0.24652672 0.029628754
0.058494899 0.2892347 0.015983582
0.057969902 0.053842723 0.091190815
0.058761902 0.4089337 -0.022260189
0.059025902 0.52726269 -0.060065269
0.056215901 -0.9064703 0.34239769
0.055987902 -0.83447528 0.37500858
0.056628902 -0.54751623 0.28332567
0.056757901 -0.48938131 0.26475143
0.051943902 -0.059614301 0.12525988
0.052092902 0.017008722 0.10077047
0.052164901 0.053569734 0.089085579
0.0527189 0.33730173 -0.0015964508
0.053327899 0.64959371 -0.1014061
0.053689901 0.81543773 -0.16066742
0.0516559 -0.20673728 0.17228079
0.0509899 -0.54796326 0.28133774
0.046489902 0.13341773 0.06136179
0.046553902 0.17172474 0.049114704
0.046749901 0.28882974 0.011676788
0.046294902 0.016723692 0.098670483
0.046880901 0.36672872 -0.01322937
0.047020901 0.45063972 -0.040055275
0.047148902 0.52700371 -0.064470291
0.0476759 0.81535971 -0.16522026
0.045348901 -0.54841125 0.27935076
0.046005901 -0.15592027 0.15386677
0.0454459 -0.49024332 0.26075268
0.045520902 -0.44546223 0.24643564
0.040607903 0.10024571 0.069765568
0.040653903 0.13316673 0.059238434
0.040383901 -0.060230255 0.12108946
0.041418903 0.68130672 -0.1160655
0.041482903 0.72723675 -0.13075542
0.0346459 -0.019015253 0.10571766
0.034988903 0.28842074 0.0073628426
0.0346849 0.016150713 0.09446764
0.035303902 0.57065368 -0.082928181
0.035122901 0.40826672 -0.030978203
0.033732902 -0.83658624 0.36727667
0.033791903 -0.78364623 0.35033846
0.033858903 -0.72314429 0.33098364
0.033937901 -0.65250432 0.3083849
0.034052901 -0.54931128 0.2753706
0.0341179 -0.49110925 0.25675154
0.028972901 0.13266271 0.054986477
0.029042903 0.21613669 0.028272629
0.028845903 -0.019313276 0.10362148
0.029143903 0.33654469 -0.010261536
0.029203903 0.4080987 -0.033161163
0.029238902 0.45017672 -0.046626568
0.029302903 0.52661169 -0.071088314
0.028598901 -0.31360328 0.1978035
0.0286409 -0.26418626 0.18198872
0.0284499 -0.49154532 0.25474787
0.023190901 0.2452237 0.01674366
0.023082901 0.052190721 0.078538895
0.023371901 0.57041872 -0.087362289
0.023241902 0.33635372 -0.012430191
0.023433901 0.68106073 -0.12278318
0.023478903 0.76059371 -0.14824438
0.023479901 -1.0997733 -0.14921045
0.022552902 -0.89511824 0.38180161
0.022687901 -0.6534673 0.30444288
0.022803903 -0.44715023 0.23839474
0.017268902 0.099194705 0.061284542
0.017288901 0.17052072 0.038443565
0.017255902 0.051912725 0.076425552
0.017400902 0.57030171 -0.08958149
0.017431902 0.68097872 -0.12502432
0.017443903 0.72696674 -0.13975048
0.011422901 -0.020212293 0.097327709
0.011422901 0.57018268 -0.091800213
0.011422901 0.4075917 -0.039717197
0.011422901 0.72689873 -0.14200544
0.011422901 0.48379672 -0.064127445
0.011422901 0.81488669 -0.19266748
0.011422901 -1.0931183 -0.12663126
0.011422901 -0.20921326 0.15787172
0.011422901 -0.49285924 0.2487359
0.0055559017 0.17003471 0.034166813
0.0055229017 0.2873897 -0.0034413338
0.0051799016 0.84792274 -0.39678955
0.0056779017 -0.26567733 0.17378855
0.0057679014 -0.58861125 0.2772727
0.0057409015 -0.49329925 0.24673176
0.0057289018 -0.44842923 0.23235178
-0.0002290979 0.014412701 0.081832886
-0.00053909793 0.56994569 -0.096245289
-0.00044809841 0.40725172 -0.044093132
-0.00047209859 0.44939572 -0.057602406
-0.00062709861 0.72676271 -0.14651537
-8.0987811e-06 -0.37990224 0.20823145
-0.0001630988 -0.10322332 0.11954165
-0.0061910981 0.1695447 0.029884815
-0.0062530981 0.24412072 0.0059714317
-0.0060910983 0.05079174 0.0679636
-0.0065270988 0.56982672 -0.098469257
-0.0068090977 0.81464773 -0.2064743
-0.0073360978 0.84779274 -0.40746927
-0.0054980991 -0.65589929 0.29457283
-0.0058250977 -0.26643026 0.16968346
-0.0055530975 -0.58955133 0.27329683
-0.0059150988 -0.15898728 0.13523149
-0.012071098 0.16929871 0.027740479
-0.012122097 0.21452773 0.013233662
-0.011811099 -0.063049257 0.10226965
-0.012155098 0.24389774 0.0038137436
-0.012203098 0.28676373 -0.0099372864
-0.012337099 0.4069097 -0.048475266
-0.012695099 0.72662574 -0.15103054
-0.011527098 -0.31632733 0.18351364
-0.011583098 -0.26680732 0.16762972
-0.017687097 -0.02172929 0.08681345
-0.018561099 0.60273468 -0.11355925
-0.018453099 0.52555072 -0.088793278
-0.017274097 -0.31672025 0.18146753
-0.016539097 -0.84142828 0.34983158
-0.017422099 -0.21101332 0.14754963
-0.0170241 -0.49507523 0.23869658
-0.025117099 0.81440675 -0.2203393
-0.0225631 -0.59097123 0.26732445
-0.022724099 -0.49552226 0.23668671
-0.029274099 -0.064005256 0.095978737
-0.0298771 0.24322569 -0.0026683807
-0.030430101 0.52528173 -0.093231201
-0.031235099 0.81432569 -0.22497416
-0.0287771 -0.31751132 0.17737579
-0.027747098 -0.84252131 0.34594679
-0.0289841 -0.21174133 0.14341354
-0.029194098 -0.10487425 0.10910177
-0.028427098 -0.49597025 0.23467684
-0.035792097 0.24300075 -0.0048313141
-0.036329098 0.48261672 -0.081793308
-0.036425099 0.52514571 -0.095454216
-0.0373611 0.81424475 -0.22961426
-0.034390099 -0.38238132 0.19603586
-0.0345341 -0.31790829 0.17532778
-0.033357099 -0.84307027 0.34400368
-0.0347711 -0.21210623 0.14134359
-0.034235097 -0.45145833 0.21822166
-0.0413431 0.096512735 0.039997578
-0.041131098 0.012345731 0.067040443
-0.0426201 0.60229468 -0.12250853
-0.042933099 0.72627872 -0.16234446
-0.045092098 0.84742773 -0.4372344
-0.0402961 -0.31830633 0.17327785
-0.0488621 0.68005472 -0.14977741
-0.0496401 0.81408274 -0.23891735
-0.044587098 -0.84417331 0.34011364
-0.0451051 -0.6593653 0.2807169
-0.045560099 -0.49732327 0.22863579
-0.052964099 0.048509717 0.050984859
-0.053844102 0.33382374 -0.040746212
-0.054302096 0.48216772 -0.088441372
-0.054434098 0.52473772 -0.10212851
-0.057771102 0.84727371 -0.44980335
-0.050558098 -0.7308073 0.30154181
-0.050983101 -0.59336424 0.25735188
-0.059241101 0.16730672 0.010557652
-0.0596371 0.28506774 -0.027317524
-0.058716096 0.011446714 0.060683727
-0.060593098 0.56873775 -0.1185503
-0.061951101 0.81391972 -0.24824333
-0.057601102 -0.31950724 0.16712475
-0.056009099 -0.79210424 0.3191185
-0.065156102 0.1670537 0.0084037781
-0.065321103 0.21241075 -0.0061893463
-0.064586103 0.011145711 0.058562756
-0.0647211 0.047930717 0.046727657
-0.067196101 0.7259987 -0.17142248
-0.066305101 0.48186573 -0.092879295
-0.065081097 -1.0515393 0.014950752
-0.0625121 -0.55717528 0.24140358
-0.070921101 0.12825674 0.01865387
-0.0703201 -0.024516284 0.067819595
-0.071536101 0.28463775 -0.031675339
-0.070459098 0.010843694 0.05644083
-0.072963096 0.6476177 -0.14849234
-0.073090099 0.6797117 -0.15882254
-0.0720101 0.40516675 -0.070465565
-0.072479099 0.52432668 -0.10881519
-0.069776103 -0.16284728 0.11233854
-0.069995098 -0.1072253 0.094438553
-0.068454102 -0.49914527 0.22056866
-0.068631098 -0.45410323 0.20607376
-0.076491103 0.047348738 0.042467594
-0.078827098 0.60162473 -0.13597536
-0.0779991 0.40498972 -0.072672367
-0.075150102 -0.27103627 0.14496565
-0.075839102 -0.10756528 0.092339516
-0.082919098 0.16629273 0.0019345284
-0.083256096 0.2411747 -0.022181511
-0.083668098 0.33282471 -0.051695347
-0.083991103 0.40481174 -0.074879169
-0.0807271 -0.32112527 0.1589036
-0.0781001 -0.9052763 0.34702587
-0.078360096 -0.84751928 0.32842445
-0.080950096 -0.27142727 0.14289856
-0.081204101 -0.21506727 0.12474966
-0.087933101 -0.025461257 0.061467648
-0.089412101 0.2839877 -0.038221359
-0.088102102 0.0099317431 0.050065517
-0.0882781 0.046763718 0.038200855
-0.090929098 0.60139871 -0.14047623
-0.086208098 -0.38618124 0.17767382
-0.084001102 -0.8480823 0.32647467
-0.087025099 -0.2154423 0.12267065
-0.094782099 0.16578174 -0.0023841858
-0.096987098 0.6012857 -0.14272833
-0.099087097 0.81342471 -0.27638149
-0.091986097 -0.38660932 0.17562771
-0.089917101 -0.79537725 0.30735683
-0.090225101 -0.73449826 0.28773689
-0.093111098 -0.16428125 0.10398149
-0.0998841 0.0093197227 0.045810699
-0.1037131 0.72557074 -0.18508434
-0.1026331 0.52363169 -0.11998749
-0.097765103 -0.38703823 0.17358065
-0.096285097 -0.66392434 0.26283884
-0.098954096 -0.16464329 0.10188866
-0.097154096 -0.50145233 0.21046352
-0.1064431 0.12664872 0.0057458878
-0.1066601 0.16526669 -0.0067071915
-0.1075991 0.33201474 -0.06047821
-0.1115321 0.81325769 -0.28581238
-0.1025751 -0.56052732 0.22733879
-0.1031591 -0.45679533 0.19388962
-0.1121801 0.093189716 0.014296532
-0.1126051 0.16500872 -0.0088715553
-0.1114711 -0.026734293 0.052982807
-0.11447109 0.48064071 -0.1106863
-0.1097191 -0.32317424 0.14860582
-0.1106491 -1.0273213 0.097846508
-0.1062601 -0.90819228 0.3373189
-0.1072771 -0.73610222 0.2818079
-0.1100131 -0.27340031 0.13255072
-0.1080921 -0.59825623 0.23734188
-0.1188371 0.21023774 -0.025715351
-0.11710709 -0.068912268 0.06436348
-0.11758611 0.0083947182 0.039417744
-0.1212571 0.60082871 -0.15175152
-0.1197741 0.36148673 -0.074520111
-0.1202991 0.44615373 -0.1018424
-0.1162701 -1.0243623 0.10799789
-0.1119041 -0.90878034 0.33537579
-0.1125931 -0.79759133 0.29949665
-0.1129701 -0.73664033 0.27982855
-0.1138251 -0.59875333 0.23533487
-0.1165081 -0.16573226 0.09560585
-0.1146991 -0.45770228 0.18981981
-0.12711909 0.56736875 -0.14324856
-0.1273351 0.60071373 -0.1540122
-0.1263321 0.44598672 -0.10406733
-0.1265551 0.48032972 -0.11515331
-0.11955909 -0.59925127 0.23332644
-0.1223661 -0.16609728 0.093509674
-0.1299791 0.092340708 0.0078434944
-0.13319109 0.56724173 -0.14550257
-0.1337281 0.64663374 -0.17113733
-0.1342591 0.7252087 -0.19651031
-0.13652711 0.8129217 -0.30475712
-0.13510209 0.84985369 -0.23676109
-0.1235911 -0.85207129 0.31279373
-0.12749709 -0.27459729 0.1263299
-0.1282281 -0.16646433 0.091410637
-0.1347771 -0.069919229 0.058010578
-0.1350721 -0.028021276 0.044475555
-0.1372591 0.28222573 -0.055736542
-0.1403811 0.72513568 -0.19879913
-0.1427961 0.81283772 -0.30951118
-0.1340941 -0.16683125 0.089312553
-0.14186309 0.091770709 0.0035357475
-0.1423901 0.16370672 -0.019708157
-0.1429411 0.2388317 -0.043981552
-0.1461661 0.67865771 -0.18609619
-0.1441451 0.40300775 -0.097030163
-0.1383301 -0.39007926 0.1592288
-0.1385821 -1.0126853 0.14811373
-0.13577309 -0.73880625 0.27190781
-0.13705909 -0.56345332 0.21524763
-0.1465781 -0.070595264 0.053767681
-0.1474501 0.043784738 0.016796589
-0.1516881 0.60025072 -0.16306734
-0.1498621 0.3605057 -0.08557415
-0.15018409 0.4028247 -0.099253178
-0.1446351 -0.32567227 0.13621473
-0.1441211 -1.0098013 0.15803289
-0.1401711 -0.91174626 0.32564449
-0.1546941 0.20875871 -0.038788319
-0.1552691 0.2815547 -0.062327385
-0.15309609 0.0065207481 0.026599884
-0.14964309 -1.0069343 0.16790056
-0.1462931 -0.85438526 0.30495644
-0.15171809 -0.16794026 0.083008766
-0.14940611 -0.4604553 0.17758846
-0.16068409 0.20850873 -0.040973186
-0.16361611 0.56660271 -0.15679455
-0.16389009 0.60001671 -0.16760254
-0.1719391 0.89125073 -0.48560143
-0.1557731 -0.39140129 0.15306187
-0.1551491 -1.0040812 0.17772579
-0.15483309 -0.50616527 0.19018078
-0.1666791 0.2082597 -0.043158531
-0.1643071 -0.071617246 0.047395706
-0.16496409 0.0058887005 0.02231884
-0.1679631 0.35990971 -0.092223167
-0.17105509 0.72476768 -0.21027231
-0.17774309 0.8913697 -0.46569157
-0.16214409 -0.32693624 0.1300025
-0.1702271 -0.071959257 0.045268536
-0.1709061 0.005571723 0.020174503
-0.1737451 0.32973874 -0.0847435
-0.17679709 0.67820776 -0.19752741
-0.1747511 0.44463271 -0.12192822
-0.1750531 0.47906873 -0.13307428
-0.1835171 0.89148873 -0.44587421
-0.1679901 -0.32736027 0.12792969
-0.16335911 -0.85613823 0.29907084
-0.16937611 -0.16905725 0.076694489
-0.17791811 0.12334871 -0.020204544
-0.1768501 0.0052537322 0.018030643
-0.17978209 0.32952875 -0.086956501
-0.1808221 0.44446173 -0.1241684
-0.18335611 0.72461873 -0.21487236
-0.18113311 0.47890973 -0.13532114
-0.1869341 0.81224072 -0.34297323
-0.16853011 -0.91475427 0.31589365
-0.1695381 -0.80323625 0.27978754
-0.17480209 -0.22119725 0.091346741
-0.1752701 -0.16943228 0.074586868
-0.1839001 0.12306869 -0.022375107
-0.1868971 0.44428971 -0.12640953
-0.1908991 0.84948874 -0.26533413
-0.1887501 0.0046147108 0.013738632
-0.19414809 0.56595576 -0.16812325
-0.1921591 0.35910773 -0.10111046
-0.1949141 0.6456207 -0.19393253
-0.2012811 0.7539407 -0.40846729
-0.1933081 0.47858873 -0.13981819
-0.1798991 -0.9159683 0.31198645
-0.18602709 -0.27866232 0.10551262
-0.19743609 0.27996671 -0.07775116
-0.20026711 0.56582475 -0.17039442
-0.20105609 0.64551771 -0.19622135
-0.19940209 0.47842771 -0.14206934
-0.20345511 0.8493697 -0.27474451
-0.1873001 -0.74377131 0.2540288
-0.1919011 -0.27907431 0.10342646
-0.1896241 -0.50905824 0.17796087
-0.20226909 0.16104573 -0.041481495
-0.1998781 -0.073685288 0.034617901
-0.20397709 0.32868171 -0.095828533
-0.20550109 0.47826672 -0.14432335
-0.2097481 0.84930974 -0.27946043
-0.1918761 -0.85909331 0.28924179
-0.19304509 -0.74433124 0.25203657
-0.19377311 -0.67285931 0.22886658
-0.1944561 -0.60585833 0.20714569
-0.19888709 -0.17094123 0.066147804
-0.2087581 0.2064907 -0.058490276
-0.20663311 0.0036497116 0.0072908401
-0.21205311 0.52104974 -0.16050339
-0.2031391 -0.32992923 0.11547184
-0.2012531 -0.51003325 0.17387867
-0.20172811 -0.46467328 0.15916967
-0.2122191 -0.032307267 0.016698837
-0.2186511 0.56543076 -0.17721415
-0.2190121 0.59894872 -0.18808746
-0.2164221 0.35829669 -0.1100173
-0.2168791 0.40077472 -0.12379837
-0.2173381 0.4434227 -0.13763428
-0.2203601 0.7241677 -0.22870922
-0.22412311 0.92986673 -0.34215546
-0.2083111 -0.39543426 0.13450146
-0.20901109 -0.33036125 0.11339045
-0.2040101 -0.97905123 0.26415968
-0.20268311 -0.91841829 0.3041625
-0.2095501 -0.28031933 0.097156525
-0.20643809 -0.56945729 0.19095659
-0.21857511 0.0030017495 0.0029854774
-0.22216611 0.32803971 -0.10249519
-0.2318421 0.75446671 -0.38666534
-0.2297111 0.81254375 -0.32409716
-0.2285921 0.89241469 -0.29122639
-0.20903011 -0.86088526 0.28333378
-0.2096221 -0.80728233 0.26593971
-0.21606711 -0.22396731 0.07664156
-0.21224409 -0.56996632 0.18892574
-0.22551709 0.087688744 -0.0267663
-0.2309301 0.56516576 -0.18176842
-0.2327311 0.72401571 -0.23333454
-0.23464011 0.8924337 -0.28801155
-0.2140981 -0.9196533 0.30024576
-0.22256809 -0.1724683 0.057688713
-0.2315231 0.087391734 -0.028940201
-0.23096611 0.039470732 -0.01337719
-0.2204871 -0.86208832 0.27939177
-0.2238711 -0.57098925 0.18485975
-0.23839509 0.1594137 -0.054608345
-0.23894109 0.20520574 -0.069484234
-0.2355931 -0.075789332 0.02179575
-0.23696309 0.039155722 -0.015544415
-0.24322511 0.56489968 -0.18632936
-0.24075411 0.3574757 -0.11894846
-0.2417701 0.44272071 -0.1466403
-0.24218111 0.47728872 -0.15786934
-0.24269409 0.52030873 -0.17184353
-0.2325401 -0.3321023 0.10505867
-0.2351011 -0.11711633 0.035220623
-0.24354811 0.086793721 -0.033292294
-0.24498911 0.2049467 -0.071686268
-0.24296309 0.038840711 -0.017709255
-0.24937911 0.56476569 -0.18861151
-0.2478881 0.44254473 -0.14889526
-0.2483101 0.47712371 -0.16013241
-0.2488351 0.52015972 -0.17411613
-0.23423409 -0.67666423 0.21479654
-0.23973711 -0.22557425 0.068212509
-0.23505309 -0.60951626 0.19297647
-0.24956711 0.086493731 -0.035470486
-0.2499841 0.11993569 -0.046341419
-0.25141409 0.23444474 -0.083564281
-0.25444308 0.47695872 -0.16239643
-0.24351411 -0.39817929 0.1220789
-0.24003009 -0.67721331 0.21278286
-0.24133711 -0.57253432 0.17875481
-0.24264209 -0.46802723 0.1447835
-0.2540471 -0.034681261 0.0016536713
-0.25959307 0.3994357 -0.13950825
-0.24939711 -0.39864123 0.1200037
-0.24344511 -0.86451423 0.27149343
-0.25087109 -0.28326631 0.082486629
-0.25298008 -0.11822224 0.028818607
-0.2609911 0.037888706 -0.024217129
-0.26627108 0.44201073 -0.15567112
-0.26994908 0.72355372 -0.24725151
-0.2667231 0.47662771 -0.1669302
-0.25528207 -0.39910424 0.1179285
-0.25613508 -0.33386326 0.096706867
-0.2525121 -0.61110532 0.18688869
-0.25300309 -0.57357132 0.17467976
-0.25821307 -0.17478931 0.044962883
-0.2676501 0.08558774 -0.042013168
-0.2665121 0.00037372112 -0.014285564
-0.27126709 0.35643774 -0.13014555
-0.2803731 0.75529474 -0.3520484
-0.27286908 0.47646073 -0.16920042
-0.25566408 -0.8120023 0.25005484
-0.27368608 0.08528471 -0.044196129
-0.27203509 -0.035712302 -0.0048122406
-0.27630007 0.27693373 -0.10657835
-0.27697107 0.32608074 -0.12257624
-0.28802809 0.7193377 -0.38638735
-0.26706508 -0.40003431 0.11377573
-0.26143607 -0.8125993 0.24806547
-0.26417109 -0.61217225 0.18282461
-0.26549008 -0.51549232 0.1513567
-0.28137708 0.20337671 -0.084933281
-0.28796908 0.67653471 -0.23899937
-0.28517708 0.47612673 -0.17374229
-0.28577808 0.51925373 -0.18778515
-0.28987309 0.81320471 -0.28349638
-0.26807007 -0.75174522 0.22606277
-0.27536708 -0.22801828 0.055533886
-0.27609208 -0.17596424 0.038584709
-0.28577209 0.084674716 -0.048568249
-0.2868031 0.15719372 -0.072189331
-0.28849909 0.27645773 -0.11103535
-0.28455907 -0.00062727928 -0.020784378
-0.30014208 0.71958375 -0.37770224
-0.29195008 0.51910174 -0.19006824
-0.29613209 0.8131597 -0.28584433
-0.28050908 -0.28540528 0.071973801
-0.2772221 -0.51650333 0.14724684
-0.29397309 0.2326777 -0.099079132
-0.29637608 0.3982687 -0.1530323
-0.30447307 0.75570273 -0.33486223
-0.28477108 -0.40143931 0.10753489
-0.29962808 0.20258272 -0.091574192
-0.30071408 0.27597874 -0.11549711
-0.29661009 -0.0012983084 -0.025123119
-0.30188909 0.35538471 -0.14137936
-0.30315608 0.44093072 -0.16926241
-0.3036691 0.47562173 -0.18056822
-0.30430809 0.51879573 -0.19464016
-0.29068109 -0.40191031 0.10545158
-0.29400808 -0.1771493 0.032193661
-0.28897008 -0.51751924 0.14313269
-0.30443707 0.11730075 -0.06607151
-0.30682808 0.2757377 -0.11773109
-0.31117007 0.56340873 -0.21152449
-0.30802709 0.35517269 -0.1436305
-0.30867109 0.39787471 -0.15755224
-0.3104941 0.51864171 -0.19692945
-0.2965951 -0.40238225 0.10336876
-0.29395607 -0.57724726 0.16038275
-0.2955381 -0.47243631 0.12621069
-0.30868107 -0.0019732714 -0.029466152
-0.30251509 -0.40285623 0.10128355
-0.3059741 -0.1779443 0.027926445
-0.30143708 -0.47293234 0.12414074
-0.3134971 -0.080469251 -0.0061411858
-0.32031709 0.35474575 -0.14813709
-0.32484108 0.64339876 -0.24231434
-0.32288107 0.51833272 -0.20151043
-0.30843708 -0.40333128 0.099197865
-0.31196308 -0.17834425 0.025792599
-0.32450309 0.23139471 -0.11020231
-0.3251991 0.27501273 -0.12443924
-0.32076707 -0.0026533008 -0.033816338
-0.32598609 0.32429874 -0.14052534
-0.33159807 0.67586172 -0.25526714
-0.3278361 0.44020072 -0.17835331
-0.32839108 0.47494173 -0.18969154
-0.31540909 -0.3383503 0.07574749
-0.31324407 -0.47393024 0.11999846
-0.32820708 0.082514703 -0.063910484
-0.33062208 0.23113573 -0.11243343
-0.3274231 0.034329712 -0.04817915
-0.33213308 0.32407373 -0.14277554
-0.3352851 0.51802272 -0.20609713
-0.33484408 0.11580771 -0.077084541
-0.33227909 -0.039212286 -0.026454449
-0.34149608 0.51786673 -0.20839453
-0.34037209 0.081889749 -0.0683074
-0.33761308 -0.081943274 -0.014781475
-0.33956009 0.033671737 -0.052553177
-0.34903309 0.59634876 -0.23638439
-0.34981808 0.64296073 -0.25161219
-0.34698009 0.47442672 -0.19655132
-0.34770909 0.51771069 -0.21069241
-0.33327308 -0.33972132 0.06943655
-0.33691409 -0.12350833 -0.0012011528
-0.34365308 -0.082314253 -0.016944408
-0.34563407 0.033340693 -0.054742336
-0.35663208 0.67547071 -0.26460028
-0.36030009 0.72079575 -0.3345871
-0.35318607 0.47425473 -0.19884014
-0.33923608 -0.34017932 0.067334652
-0.34969708 -0.082686305 -0.019109249
-0.35676709 0.3231647 -0.15179348
-0.34707808 -0.23302925 0.030042648
-0.35865009 0.080946743 -0.074911118
-0.35924608 0.11459869 -0.085917473
-0.35779509 0.032676697 -0.059125423
-0.36917707 0.67527372 -0.26927948
-0.36689609 0.19961172 -0.11604118
-0.3632111 -0.0050593019 -0.049082279
-0.37487009 0.64251769 -0.26093626
-0.3678571 -0.083808303 -0.025611401
-0.3796711 0.56187171 -0.23691511
-0.38174209 0.6750747 -0.27396441
-0.37884909 0.51692373 -0.22220612
-0.3769711 0.079994738 -0.08152914
-0.37832609 0.15289873 -0.10539436
-0.38283509 0.39546674 -0.18480539
-0.38509008 0.51676476 -0.22451353
-0.38446307 0.15260571 -0.10762024
-0.38533607 0.19878572 -0.12274551
-0.38590208 0.22877574 -0.1325655
-0.38217407 0.031337738 -0.067907333
-0.38823509 0.3523587 -0.17303514
-0.39370808 0.64218271 -0.26794624
-0.39051709 0.47320873 -0.21261215
-0.39149109 0.19850874 -0.12498236
-0.38687009 -0.042444289 -0.046040535
-0.39206707 0.22850972 -0.13480949
-0.38827908 0.031000733 -0.070106506
-0.39845109 0.56144369 -0.24387646
-0.39385509 0.32178372 -0.16536427
-0.39675507 0.47303373 -0.21491241
-0.39533308 0.079035699 -0.088159561
-0.39909109 0.27204973 -0.15141153
-0.39439109 0.030663729 -0.072303295
-0.40384609 0.51628572 -0.23144722
-0.40441209 0.22797573 -0.13930225
-0.4116661 0.59505671 -0.25963545
-0.40685707 0.3516947 -0.17985916
-0.41259107 0.64184475 -0.27497435
-0.41416907 0.72171175 -0.30115128
-0.4075951 0.078393698 -0.092579365
-0.41059008 0.22770774 -0.14155149
-0.41637209 0.51596373 -0.23607731
-0.4242501 0.59479475 -0.2643075
-0.41867509 0.32085073 -0.17444324
-0.43175107 0.35080171 -0.18897915
-0.43783608 0.64138973 -0.28436756
-0.43355608 0.43700773 -0.21727753
-0.43519908 0.51547873 -0.24303627
-0.44148409 0.51531571 -0.24535847
-0.44874507 0.56028771 -0.26250839
-0.45048609 0.64115971 -0.28907347
-0.45141008 0.39318973 -0.20998049
-0.45235407 0.43642971 -0.22419214
-0.4621211 0.59399772 -0.27836132
-0.46315908 0.64092875 -0.29378843
-0.46844909 0.59386373 -0.28070927
-0.47046009 0.67353773 -0.31020355
-0.4656961 0.47106773 -0.24032354
-0.47478309 0.59372973 -0.28305817
-0.48112109 0.59359473 -0.28540611
