# .PCD v0.7 - Point Cloud Data file format
VERSION 0.7
FIELDS x y z
SIZE 4 4 4
TYPE F F F
COUNT 1 1 1
WIDTH 1
HEIGHT 1024
VIEWPOINT 0 0 0 1 0 0 0
POINTS 1024
DATA ascii
0.77513134 0.015666306 0.22916031
0.78013837 -0.032297671 0.14435196
0.76439434 0.015116334 0.22378302
0.78060138 0.035062313 0.094582081
0.75612134 -0.073751688 0.15170288
0.74826437 0.014282286 0.21568727
0.76456833 0.11080128 0.03508234
0.74288237 0.014002323 0.21297932
0.75095236 0.11285233 0.050693035
0.73210937 0.013438284 0.20755625
0.72018838 0.063874304 0.30678701
0.74416935 0.1138733 0.05847311
0.74861532 0.19027632 -0.02849102
0.70762134 0.065525293 0.31786728
0.74570835 0.21801531 -0.054155827
0.70192337 0.065705299 0.31856823
0.72392637 0.11691731 0.081686974
0.72894633 0.15127629 0.038631916
0.73491538 0.19213629 -0.012567997
0.70997536 0.012946308 0.20134926
0.69661433 0.065442324 0.31594801
0.70593333 -0.067623675 0.18686914
0.73196334 0.21980929 -0.038104057
0.70375538 0.013640285 0.20569324
0.70870233 -0.17093867 0.16293812
0.70710135 -0.11122674 0.17677021
0.70632535 0.089730322 0.13356495
0.70086235 -0.11043471 0.1811471
0.68727833 0.22059029 0.25006294
0.69348437 -0.066111684 0.19559097
0.69093734 0.24631733 0.21794224
0.69134635 0.015023291 0.21435928
0.67829937 0.17914033 0.27933121
0.68727434 -0.065358698 0.1999402
0.68612337 -0.021329701 0.21011925
0.67536235 0.064366281 0.30531216
0.69142234 -0.22406369 0.16325092
0.66566634 0.18066829 0.29143429
0.67488134 -0.063857675 0.20862198
0.67651433 0.28663433 0.19395494
0.67599738 -0.10728568 0.198596
0.67728436 0.12391233 0.13520527
0.65849733 0.18233532 0.30537415
0.66994333 0.2874403 0.20169115
0.66980636 -0.10650474 0.20293903
0.67068738 0.12490028 0.14278221
0.65480238 0.22498429 0.28782892
0.66142035 -0.018475711 0.2273941
0.65405637 0.063275337 0.2946372
0.66807133 -0.28182572 0.16666698
0.66512334 -0.16510171 0.19358492
0.66410738 0.12588429 0.15034008
0.65636635 -0.061621666 0.22158909
0.65526837 -0.017766714 0.23169708
0.65021235 -0.060879707 0.22590113
0.65564936 -0.27999073 0.17544031
0.65128636 -0.10417074 0.21592999
0.64718133 0.098918319 0.20108032
0.64795035 -0.21796268 0.19388008
0.64069134 0.099924326 0.20849419
0.62650734 0.18690532 0.34231615
0.63244534 0.25392431 0.28629112
0.63734537 0.29143029 0.24006319
0.64517635 -0.33356971 0.16616821
0.64177936 -0.21709973 0.19822788
0.63898838 -0.10262471 0.22455835
0.63421637 0.10092729 0.21588993
0.63641834 0.33501732 0.19494629
0.63978338 -0.33407575 0.1629262
0.62946433 -0.21538073 0.20690298
0.62672734 -0.10108668 0.23315811
0.60415435 0.12375933 0.39667892
0.62898237 -0.33509272 0.15642595
0.62476438 -0.27544469 0.19724798
0.62331933 -0.21452373 0.21123314
0.60368735 0.23187631 0.3472929
0.61246437 -0.012853682 0.26162195
0.61160237 0.023839295 0.27004004
0.62270337 0.36161828 0.1616931
0.61718434 -0.21367067 0.21555424
0.59200937 0.1252473 0.40741634
0.60440135 0.14271331 0.28542614
0.60553336 0.02450633 0.27427721
0.61479235 0.36347431 0.1831212
0.61816734 -0.33611864 0.14989901
0.60840434 -0.098793685 0.24600792
0.60401535 0.33869433 0.23340702
0.60231638 -0.098033726 0.250278
0.59525234 -0.054288685 0.26438618
0.58786237 0.25969732 0.33842325
0.58191937 0.18740231 0.34214211
0.58919233 -0.053565681 0.26862812
0.59016436 -0.096518695 0.25880003
0.58216733 -0.0093986988 0.2828002
0.57526934 0.26132333 0.35314989
0.57970536 0.29845631 0.30790997
0.59648538 -0.33819574 0.13676929
0.56827533 0.23444331 0.36790514
0.57709938 -0.052124679 0.27709389
0.59105533 -0.33872074 0.13347006
0.57935536 -0.15373975 0.25387192
0.55928636 0.12518233 0.40365791
0.56930935 0.028467298 0.29956102
0.57450438 -0.20775372 0.24561024
0.57329935 -0.15294367 0.25812817
0.56307137 0.14567029 0.30617523
0.55967933 0.18760031 0.34173107
0.55808735 0.23353928 0.35841703
0.56870437 0.36920029 0.24713516
0.56597334 -0.093512714 0.27576208
0.55193937 0.2627303 0.3647089
0.55934137 0.3437413 0.28640127
0.55209535 -0.0059866905 0.30381632
0.54824233 0.3022753 0.34495735
0.55131835 0.03042531 0.31211519
0.53821033 0.12412232 0.39313698
0.54725236 0.14459431 0.29566526
0.54319334 0.18751532 0.33942223
0.54971433 0.37118733 0.26912832
0.56383836 -0.3413747 0.11687613
0.55031633 -0.20441967 0.26264
0.54792535 -0.091277659 0.288414
0.54120433 0.14523333 0.30046606
0.53775936 0.18740529 0.337955
0.54103237 -0.047847688 0.30233908
0.53521335 0.2629863 0.36566925
0.53858137 0.069326282 0.32901621
0.52765137 0.12358731 0.38785505
0.53270638 0.1868183 0.33230925
0.52998435 0.26268429 0.36222124
0.53108835 0.30291533 0.35008335
0.53262836 0.069943309 0.33316422
0.53593636 -0.089797676 0.29681921
0.51499736 0.16536731 0.46697426
0.52525437 0.23330432 0.35316992
0.52583838 0.30263728 0.34668922
0.53213233 0.37196833 0.27686214
0.53226835 -0.20194072 0.27534389
0.52995533 -0.089059711 0.30101109
0.50907737 0.16605532 0.47221708
0.51996833 0.23303831 0.35019112
0.52312034 -0.045732677 0.31487417
0.52151036 0.033656299 0.33291531
0.52074933 0.071174324 0.34144115
0.54198635 -0.34353667 0.10348129
0.52516633 -0.14664668 0.29194307
0.51482236 0.071787298 0.34557009
0.52049237 0.37243533 0.28141499
0.51802135 -0.087590694 0.30937624
0.50649136 0.12250429 0.37725735
0.49768937 0.16684932 0.47787094
0.50964737 0.034936309 0.34119225
0.51160634 0.34697729 0.31879807
0.51549435 -0.25955373 0.27435732
0.51430136 -0.19948167 0.28799105
0.50119334 0.1222313 0.37460089
0.49247336 0.16659528 0.47528219
0.50668836 0.34634131 0.31115103
0.49589133 0.1219573 0.37193918
0.50084335 0.18508333 0.31418514
0.49852335 4.6312809e-05 0.34124613
0.49864537 0.2606833 0.33982134
0.50011837 0.30055833 0.3226409
0.50236833 -0.19785267 0.2963891
0.50131333 -0.14354664 0.30869818
0.49499035 0.18550134 0.31737089
0.49120134 0.07422328 0.36202621
0.49695033 0.34492832 0.29427624
0.48440635 0.12270331 0.37696218
0.47680235 0.16582829 0.46751499
0.48829436 0.2312513 0.33066034
0.48900938 0.30060232 0.32215214
0.49212235 0.34415329 0.28507614
0.49188638 -0.25672764 0.28788996
0.48082137 0.0020263195 0.35361004
0.48014337 0.038110316 0.36177397
0.48453337 -0.19542474 0.30893898
0.47573537 -0.040172696 0.34802914
0.47880936 0.29958433 0.31064129
0.47357535 0.076034307 0.37430429
0.48268634 0.34231931 0.26347733
0.46100038 0.12496632 0.39323616
0.46319836 0.0039913058 0.36591911
0.46186733 0.077234328 0.38245821
0.48141837 0.36084032 0.13946724
0.47051334 -0.25874966 0.27500391
0.46203035 0.2293933 0.31106329
0.46356535 0.25607932 0.29177523
0.47213936 0.3353923 0.18403101
0.48152536 -0.34966165 0.066082001
0.44536936 0.16426629 0.45186901
0.45778835 0.25636029 0.29407501
0.47600234 -0.35023171 0.062643051
0.45498136 -0.19141871 0.32973289
0.44501936 0.041866302 0.386271
0.44436735 0.079022288 0.39464521
0.44713834 -0.078931689 0.35904408
0.44055635 -0.036075711 0.37263823
0.44624835 0.25692028 0.29867125
0.43919536 0.04248631 0.39033318
0.45617935 0.3635273 0.16959906
0.46494037 -0.35137767 0.05573988
0.45940137 -0.35195464 0.052277088
0.43544334 -0.077513695 0.36723709
0.42817634 0.0078783035 0.39037609
0.42035836 0.12887329 0.42149019
0.43136737 0.29637629 0.27334213
0.43293735 -0.26236564 0.25221109
0.42474437 -0.13368469 0.36246014
0.42378235 -0.076103687 0.37540531
0.42522734 0.29711133 0.28057909
0.42755234 -0.26288968 0.24892807
0.41376236 0.23514628 0.36140108
0.42497736 0.3668403 0.20684528
0.43720236 -0.35428375 0.038359165
0.41215536 -0.0746997 0.38354921
0.40985736 0.26128328 0.33872223
0.43163836 -0.35487169 0.034860134
0.39679435 0.1638633 0.44485807
0.38987535 0.21197432 0.54257727
0.40380734 0.26205128 0.34581327
0.42607135 -0.35546166 0.031357288
0.40232337 -0.1843347 0.36677027
0.39777035 0.26281732 0.35288906
0.39289436 0.047393322 0.422616
0.39651436 -0.18355769 0.3708539
0.38769636 0.012338281 0.41863823
0.39474636 0.30075431 0.31654024
0.39816636 0.34319329 0.26700115
0.40028337 0.36945528 0.23633718
0.38011834 0.1327123 0.44945621
0.38373336 0.23910433 0.39643002
0.38259235 -0.029383719 0.41317034
0.38194636 0.012969315 0.42265129
0.38869336 0.30147731 0.32368422
0.38083935 0.085464299 0.43887901
0.39206237 0.34387028 0.27425289
0.40934137 -0.35724467 0.020800114
0.37390935 0.16594833 0.46074295
0.37776837 0.23988932 0.40338898
0.37683934 -0.028723717 0.41719294
0.37511235 0.086041331 0.44286633
0.38802534 0.37075132 0.25097704
0.38972136 -0.26661772 0.22577333
0.37181935 0.24067134 0.41033125
0.37662834 0.30291533 0.3379221
0.38191834 0.3713963 0.25827217
0.38429835 -0.26715869 0.22243929
0.37335935 -0.18046874 0.38713408
0.37171736 -0.069842696 0.4118681
0.35868135 0.2104643 0.52714205
0.36588335 0.24145234 0.41726017
0.36759236 -0.17970175 0.39119005
0.35682935 0.1674993 0.47259617
0.36974937 0.37268031 0.27280903
0.35391435 -0.026101708 0.433218
0.36175635 0.34722632 0.31028605
0.34593835 0.13594931 0.47320604
0.34820336 -0.025449693 0.43721104
0.34998336 0.26886231 0.40892029
0.34711334 0.052203298 0.45452929
0.36034134 0.4111093 0.2442832
0.34027034 0.13648432 0.47714424
0.33781135 0.20943832 0.51678133
0.34227535 0.24455029 0.44481993
0.34142736 0.052797318 0.45849323
0.34973437 0.34855431 0.32458496
0.35711136 -0.26989168 0.20567226
0.34460035 -0.17665166 0.40735197
0.33277035 0.20883429 0.51114511
0.33680534 -0.024151683 0.44517708
0.34077635 0.30717933 0.38024712
0.34558237 0.37522632 0.30167818
0.36450234 -0.36210269 -0.0076727867
0.33887234 -0.17589372 0.41137791
0.33814734 -0.12270373 0.42322588
0.33229235 0.2710923 0.42967129
0.32958636 0.090604305 0.47455311
0.33957636 0.37585831 0.30885601
0.33243936 -0.12198573 0.42722988
0.32471135 0.24685133 0.46533012
0.32642135 0.27183229 0.4365592
0.32392934 0.091168284 0.47849131
0.35324034 -0.36333972 -0.014866829
0.32755136 -0.17471069 0.41753435
0.31921837 0.019803286 0.46642828
0.33009234 0.41406929 0.28065825
0.33527437 -0.27211672 0.19213533
0.32030535 -0.063723683 0.44785833
0.31488335 0.2730183 0.44749212
0.32408637 0.41465631 0.28788233
0.30639136 0.17128032 0.50118113
0.31545535 0.23370934 0.34155893
0.30791634 0.021026313 0.47431517
0.30892736 0.19174528 0.35929108
0.30183837 0.056916296 0.48607826
0.30138534 0.093410313 0.4941783
0.30809736 0.35314429 0.37412405
0.30403337 0.23445433 0.34790897
0.29664436 0.022242308 0.48217916
0.30531237 0.30206329 0.32467794
0.30383137 0.3796103 0.351583
0.31335735 -0.27437371 0.17849112
0.29835334 -0.11771971 0.45113707
0.29059735 0.058079302 0.49391127
0.30019936 0.41698632 0.31662512
0.30786636 -0.27494365 0.17506409
0.29064536 0.12618929 0.39166307
0.29314137 0.26265132 0.34482288
0.28498936 0.058659315 0.49781895
0.29426336 0.4175643 0.32376814
0.28499237 0.12661529 0.39478731
0.28619134 0.19331831 0.3719039
0.27979636 0.024055302 0.49393225
0.28897837 0.34834331 0.31871796
0.29686734 -0.27608865 0.1681881
0.27934337 0.12704128 0.39790916
0.28052136 0.1937083 0.37504911
0.27419335 0.024656296 0.49783993
0.28245935 0.30340028 0.3374362
0.29135936 -0.27666467 0.16473913
0.27423635 0.15825433 0.39047527
0.26860034 0.025256336 0.50174332
0.26806736 0.12788934 0.4041419
0.26920336 0.19448733 0.38132906
0.26992235 0.2366693 0.36687994
0.26347336 -0.01587069 0.49641705
0.27231535 0.3770023 0.31881094
0.26454735 -0.11351675 0.47484112
0.26392734 -0.057085693 0.48730993
0.25743636 0.02645129 0.50952816
0.26672137 0.37709934 0.31969213
0.25681436 0.12873334 0.41036224
0.26927835 -0.27898973 0.15087414
0.25227034 0.19564831 0.39072609
0.24673435 -0.013997674 0.50811005
0.25339034 0.2651183 0.3669672
0.24993634 0.050967336 0.44020796
0.25545534 0.34888428 0.32316923
0.24716234 -0.055126667 0.49903917
0.24558637 0.12957329 0.41657019
0.24663836 0.1960333 0.39385223
0.24489036 0.085533321 0.43162203
0.24045834 0.16068429 0.40918207
0.24101236 0.19641829 0.39697409
0.24779734 0.45254532 0.24756002
0.23672935 0.23717928 0.37009335
0.23269835 0.019607306 0.46059895
0.23848835 0.30294728 0.33059311
0.23967335 0.34725332 0.30398226
0.24040234 0.37451333 0.28761005
0.24247736 0.4520973 0.24102592
0.25665036 -0.37423867 -0.07722187
0.23101735 -0.10937768 0.4983449
0.23149836 0.23653233 0.36380196
0.22713834 0.020080328 0.46365404
0.23322636 0.3023603 0.32422304
0.23510736 0.37399131 0.28115511
0.22491434 -0.05253768 0.51460028
0.22158635 0.020551324 0.46670532
0.22694835 0.2626273 0.34140301
0.24517936 -0.37556571 -0.08470583
0.21834037 0.12951332 0.41488504
0.21548936 -0.017564714 0.48290825
0.21650735 0.053707302 0.4586091
0.23943636 -0.37623364 -0.088459969
0.21435234 -0.10733169 0.51002312
0.21387035 0.15861028 0.39068413
0.21575037 0.23458129 0.34486008
0.21125937 0.053143322 0.45429802
0.21848536 0.34505832 0.2782259
0.21916234 0.37241828 0.26172209
0.22486335 -0.28374273 0.12280798
0.20881334 -0.10665268 0.513906
0.20948035 0.19275331 0.36338329
0.21382535 0.37189132 0.25521803
0.21571437 0.44983831 0.20816898
0.21928534 -0.28434664 0.11926508
0.20339236 0.15716434 0.37817526
0.19924736 -0.0173527 0.48366213
0.20782834 0.34395128 0.26527214
0.20847934 0.37136233 0.248703
0.21370435 -0.2849527 0.11571932
0.20477736 -0.18658167 0.3429203
0.19775435 -0.10530072 0.52165604
0.19744335 0.12651628 0.39001131
0.19323136 -0.054670691 0.49964619
0.19367035 0.19067031 0.34444523
0.19460936 0.2319563 0.31943703
0.18974735 0.018187284 0.44892597
0.19713035 0.34283829 0.25227118
0.19864036 0.40924233 0.21206093
0.21063134 -0.37960774 -0.10734701
0.19077235 0.29760534 0.27284193
0.18524635 0.049047291 0.423563
0.20485236 -0.38028973 -0.11114597
0.17851035 -0.020881712 0.45933104
0.18541735 0.29700333 0.26636314
0.19906735 -0.38097471 -0.11495781
0.17638436 0.12348628 0.36495018
0.17702135 0.15351629 0.34670115
0.17776535 0.18856931 0.32539892
0.17921636 0.25693232 0.28385496
0.18158835 0.3686983 0.21593809
0.19327636 -0.38166171 -0.11877489
0.17773536 -0.18929464 0.32625628
0.17171736 0.15278131 0.34037018
0.17560735 0.3405953 0.22611713
0.16579436 0.12195933 0.35234928
0.17154735 0.40674728 0.17893124
0.16048235 0.12119329 0.34603024
0.15898035 0.044897318 0.39254332
0.16609536 0.40624428 0.1722641
0.15516235 0.12042433 0.33969927
0.15641436 0.18574333 0.29983616
0.15721135 0.22729433 0.2744751
0.15308635 0.012181282 0.40576029
0.15849036 0.2939713 0.2337842
0.15988235 0.36654031 0.18949699
0.16063336 0.40573931 0.16558599
0.17005235 -0.38443571 -0.13412809
0.15039435 0.14981931 0.3149271
0.15182735 0.22662133 0.26800394
0.14902535 0.076522291 0.35971022
0.16423136 -0.38513571 -0.13798666
0.14503735 0.14907432 0.30853796
0.14643236 0.22594631 0.26151991
0.14692536 0.25305831 0.24493694
0.14310035 0.042381287 0.37379313
0.14117135 -0.063904703 0.43880033
0.13913736 0.11810631 0.32063818
0.13967036 0.14832634 0.30213404
0.13655935 -0.028053701 0.41012907
0.14150636 0.25240731 0.23840809
0.13837536 0.074897289 0.34709311
0.13489535 0.1828863 0.27407408
0.13675535 0.2915163 0.20749235
0.13303235 0.074081302 0.340765
0.12948935 0.18216729 0.2676053
0.13018236 0.22391033 0.241992
0.12659435 0.0078232884 0.3745842
0.13129535 0.29089832 0.2008872
0.13250536 0.36381131 0.15616131
0.12452935 -0.11657971 0.45090914
0.12535736 -0.066722691 0.42032528
0.12407336 0.18144631 0.26112127
0.12178135 0.038994312 0.34862614
0.12325336 -0.19486767 0.29242897
0.12006536 -0.067666709 0.41414404
0.11864536 0.18072331 0.25462627
0.11592636 0.0060642958 0.36203003
0.11972035 0.24978232 0.21216011
0.12362336 -0.29495066 0.057954311
0.11424536 0.24912131 0.20556307
0.11105835 0.037287295 0.33596897
0.12330735 -0.39010471 -0.16523075
0.11794336 -0.29559475 0.054279327
0.11229035 -0.19600672 0.28558397
0.10869935 -0.11954969 0.43251324
0.10724135 0.14380032 0.26345491
0.10521536 0.0042943358 0.34942818
0.10680136 -0.19657868 0.28215122
0.095350355 0.068309307 0.29614496
0.099287361 0.36048532 0.11571026
0.10086936 -0.29754072 0.043211937
0.095805347 -0.19772869 0.27526331
0.089071348 0.0016233325 0.33043718
0.089489356 0.033845305 0.31051588
0.095165357 -0.29819363 0.039509296
0.088100359 -0.073385715 0.37681389
0.083196357 -0.037234664 0.347579
0.083667353 0.00072830915 0.3240819
0.093885347 -0.39373165 -0.18494272
0.079922348 0.13997132 0.23087931
0.077802345 -0.038166702 0.341259
0.082525358 0.35880131 0.095300198
0.08299835 0.3985303 0.070683002
0.083739355 -0.29950768 0.032073975
0.076762348 -0.12556273 0.39541006
0.074831352 0.1748693 0.20219898
0.075310349 0.21700233 0.17606401
0.076079354 0.28462428 0.13411713
0.073198348 0.031239331 0.2912941
0.078017354 -0.30016774 0.028347015
0.07197535 -0.0762797 0.35799122
0.068918347 0.13842529 0.21776009
0.066983357 -0.040036678 0.32858419
0.070496351 0.28398728 0.12736702
0.068112344 0.064119279 0.26390409
0.072289348 -0.30082971 0.02461195
0.063766345 0.17338532 0.18896389
0.061949354 -0.0028777122 0.29854012
0.065370351 0.32900631 0.092232227
0.065660357 0.35710329 0.074767113
0.066553354 -0.30149466 0.020867348
0.060653348 -0.12860471 0.37670135
0.061172348 -0.078222692 0.34538221
0.05786835 0.13687128 0.20458794
0.056120347 -0.041917682 0.31585789
0.059740353 0.32841033 0.085397243
0.060813349 -0.30216163 0.017115116
0.057140347 -0.20181865 0.25094128
0.055263352 -0.12962466 0.37044096
0.052044351 0.10542232 0.21709108
0.050673347 -0.042862713 0.30947828
0.051638354 0.061578333 0.24440813
0.054728348 0.39588833 0.036139011
0.046775352 0.13530833 0.1913662
0.04521535 -0.043808699 0.30308533
0.045831349 0.026849329 0.25901413
0.052420352 -0.39891773 -0.21290302
0.040961351 0.10379833 0.20391989
0.040602352 0.059872329 0.23134804
0.035401348 0.10298228 0.19731522
0.036234353 0.2120533 0.12913513
0.034265351 -0.045710683 0.29026031
0.035065349 0.059015334 0.22479725
0.037787352 -0.30485374 0.0020313263
0.031416353 0.32540429 0.051012039
0.024250347 0.1013453 0.1840663
0.02468935 0.16812831 0.14222813
0.023273353 -0.047621667 0.27738905
0.02541535 0.27882934 0.072886944
0.026165348 0.39320832 0.0012412071
0.019728351 0.27817732 0.066016197
0.01818835 0.02240032 0.22641897
0.013224348 0.13056833 0.15138292
0.013807349 0.23691732 0.084611893
0.014437351 0.35192633 0.012420177
0.01661535 -0.40346664 -0.23721075
0.014660351 -0.30758375 -0.013180733
0.0074383505 0.098871291 0.16409302
0.0075913519 0.12977028 0.14467096
0.0067013502 -0.050507665 0.25798702
0.0085443519 0.32296932 0.023251057
0.0013243519 -0.012993693 0.22728014
0.0016173497 0.053829312 0.18523216
0.00076635182 -0.13997167 0.30718088
-0.0031396486 0.27554733 0.038383007
-0.0098426491 -0.014865696 0.21415997
-0.0087336488 0.32112432 0.0022830963
-0.01009465 -0.091103733 0.26223803
-0.015551649 -0.054393709 0.23194122
-0.015444649 -0.015805721 0.20757818
-0.014397649 -0.31104964 -0.032380104
-0.02066265 0.1619963 0.088007927
-0.02105665 -0.016748667 0.200984
-0.02050665 0.23271233 0.043313026
-0.02098465 0.01606828 0.18024302
-0.02122565 -0.093125641 0.249259
-0.02649565 0.093863308 0.12379122
-0.02668065 -0.017693698 0.19437933
-0.026266649 0.2320053 0.036383152
-0.026891651 -0.14524966 0.27509212
-0.026806649 -0.094140708 0.24275208
-0.032240652 0.048556328 0.1451931
-0.032399651 -0.095158637 0.23623228
-0.037862651 0.15966129 0.067451
-0.037823651 0.23058534 0.022481918
-0.037774649 0.31801629 -0.032954693
-0.037969649 -0.21217364 0.19042492
-0.038032651 -0.14738172 0.26216888
-0.043621648 0.15887928 0.060569286
-0.043621648 -0.059309721 0.19909334
-0.043621648 0.22987133 0.015508175
-0.04935265 0.090478301 0.096650124
-0.04929065 -0.02149868 0.16782331
-0.049452651 0.27020031 -0.01756382
-0.049683649 -0.41205972 -0.282619
-0.04948565 -0.31528872 -0.055687904
-0.049219649 -0.14952475 0.2491951
-0.049248651 -0.098228633 0.21659231
-0.055096649 0.089626312 0.089832306
-0.05517165 0.15730733 0.046766281
-0.055250648 0.22843933 0.0015182495
-0.055296652 0.26952332 -0.024622917
-0.055379651 0.34481633 -0.072526932
-0.05482965 -0.15060073 0.24269009
-0.06103665 0.19963133 0.012381077
-0.06066465 -0.023417711 0.15446615
-0.062673651 -0.55077463 -0.61276579
-0.060450651 -0.15167969 0.2361722
-0.066621646 0.087915301 0.076152325
-0.066690654 0.11919934 0.056199074
-0.066930652 0.22699732 -0.012535095
-0.066285647 -0.21533567 0.17222309
-0.072087646 -0.025346696 0.14105415
-0.072788648 0.22627431 -0.019580841
-0.074009649 -0.41526765 -0.29940796
-0.071729645 -0.15384573 0.22309399
-0.071872652 -0.10236174 0.19022512
-0.078297645 0.11753929 0.04238224
-0.077926651 0.0068103075 0.11315632
-0.077655651 -0.21661574 0.16488934
-0.083996654 0.085331321 0.05552721
-0.084262654 0.15334028 0.012010098
-0.083555654 -0.027285695 0.12759113
-0.084541649 0.22482133 -0.033718109
-0.084702648 0.2661103 -0.060135841
-0.083685651 0.0058702826 0.10637426
-0.084998652 0.34178329 -0.10855389
-0.086215645 -0.4168877 -0.30785894
-0.084819645 -0.31961673 -0.079298019
-0.08305265 -0.15602368 0.20996809
-0.08325465 -0.10444564 0.17696428
-0.089812651 0.084464312 0.048624992
-0.090310648 0.19586533 -0.022727013
-0.090831652 0.31231129 -0.097317696
-0.090960652 0.34117132 -0.11580372
-0.092330649 -0.41770273 -0.31209803
-0.089051649 -0.21790367 0.15752602
-0.088962644 -0.10549074 0.17031431
-0.095642649 0.083595335 0.041705132
-0.095073655 -0.029236674 0.11406994
-0.096790649 0.31166834 -0.10454607
-0.098454654 -0.41851968 -0.31634808
-0.094423652 -0.15821475 0.19678831
-0.10165865 0.11419129 0.014572144
-0.10103665 0.0030353069 0.085941315
-0.10123065 0.037747324 0.063652992
-0.10775664 0.15012628 -0.016055107
-0.10639665 -0.070364714 0.12567329
-0.10663766 -0.031197667 0.10049725
-0.10684365 0.0020853281 0.079102993
-0.11366165 0.14931732 -0.023107052
-0.11266264 0.0011323094 0.072249889
-0.11289665 0.035911322 0.049870968
-0.11445865 -0.32329267 -0.099207878
-0.11957964 0.14850533 -0.030175686
-0.12040865 0.26195133 -0.10324812
-0.12096564 0.33808631 -0.15229273
-0.12407665 -0.03415972 0.080030918
-0.12700465 0.33746433 -0.15963602
-0.12305565 -0.16374165 0.16360903
-0.13206065 0.21892732 -0.090864658
-0.13534865 -0.42348474 -0.34204578
-0.13232765 -0.32552868 -0.11125994
-0.13576265 -0.036147714 0.066319942
-0.13843365 0.25984532 -0.12500668
-0.13505965 -0.11396271 0.11662388
-0.14337465 0.14523733 -0.058591843
-0.14194565 -0.0036717057 0.037777901
-0.14980265 0.18817228 -0.094074726
-0.15495265 0.10651928 -0.048845768
-0.15535066 0.14359033 -0.07288599
-0.15612864 0.21593028 -0.11980104
-0.15657865 0.2577213 -0.14690781
-0.15374565 -0.0056126714 0.023890018
-0.16057666 0.073878288 -0.035330772
-0.16093665 0.10565531 -0.0559659
-0.16185465 0.18660831 -0.10852289
-0.15928365 -0.040157676 0.03872633
-0.16265266 0.25700933 -0.1542387
-0.15839864 -0.11826974 0.08945322
-0.16519465 -0.041166663 0.031793118
-0.16873965 0.25629532 -0.16158485
-0.16965364 0.3330583 -0.21148586
-0.16426365 -0.11935371 0.082627296
-0.17112064 -0.042179704 0.024843216
-0.17197965 0.0265733 -0.019908905
-0.17580165 0.3324213 -0.21895981
-0.16948864 -0.17274565 0.10982704
-0.17896965 0.10304731 -0.077416897
-0.18003164 0.18424433 -0.13031387
-0.18157765 0.30247331 -0.20734978
-0.17603165 -0.12153071 0.068929195
-0.18457064 0.0702703 -0.063783646
-0.18246365 -0.083868682 0.036776066
-0.18346664 -0.010510683 -0.011081696
-0.18773365 0.30180234 -0.21481276
-0.19122064 -0.43112665 -0.38125181
-0.18119165 -0.22853273 0.097498894
-0.18193464 -0.12262374 0.062057972
-0.19105564 0.10129631 -0.09179306
-0.18896765 -0.045232713 0.003911972
-0.19262464 0.21137029 -0.16367006
-0.19435264 -0.085989714 0.02288723
-0.19937764 0.25269532 -0.1985569
-0.19544265 -0.012489676 -0.025173664
-0.20372364 -0.43285674 -0.39007187
-0.19299765 -0.17732173 0.082609177
-0.20445365 0.18106133 -0.15958691
-0.20145264 -0.013483703 -0.032243729
-0.20998965 -0.43372673 -0.39449883
-0.20446965 -0.33470374 -0.16025782
-0.21059164 0.18025929 -0.16694403
-0.20629364 -0.088121712 0.0089421272
-0.21626164 -0.4345997 -0.39893579
-0.20567064 -0.12702674 0.034439087
-0.21294464 -0.049344718 -0.024199963
-0.21034865 -0.23197263 0.078322887
-0.22095165 0.064781308 -0.1069169
-0.22290964 0.17865032 -0.181705
-0.22340564 0.20751131 -0.20066166
-0.22413264 0.24977732 -0.22842598
-0.22016264 0.018913329 -0.076785088
-0.22883065 -0.43635374 -0.40783691
-0.22501065 -0.051417708 -0.03834486
-0.22875965 -0.33784574 -0.17688084
-0.23446664 0.1326493 -0.16731167
-0.23581564 0.20595133 -0.21557283
-0.23233965 0.01697129 -0.09115696
-0.25076264 -0.57904273 -0.75071001
-0.24143565 -0.43812066 -0.4167819
-0.22960965 -0.13147873 0.0065898895
-0.23462264 -0.18545467 0.034434319
-0.25005266 0.29498732 -0.29033709
-0.24705765 -0.34023064 -0.18944407
-0.25317365 -0.34103066 -0.19364977
-0.25848365 0.091489315 -0.17195702
-0.25611365 -0.022551715 -0.0965271
-0.27729365 -0.58317167 -0.77049875
-0.26674366 -0.44169074 -0.43479586
-0.26902166 0.2929033 -0.31332207
-0.27309164 -0.44259065 -0.43932486
-0.27174965 0.12746131 -0.21179104
-0.27430966 0.24383932 -0.28895092
-0.27715665 0.08876133 -0.19414997
-0.27801165 0.12658828 -0.21925974
-0.27288964 -0.10006875 -0.068809986
-0.28064466 0.24308729 -0.29659081
-0.29728964 -0.58630675 -0.78546572
-0.28581366 -0.44439965 -0.4484129
-0.28265867 0.055424333 -0.18003702
-0.28428966 0.12571234 -0.22674799
-0.27687564 -0.19374675 -0.014442921
-0.28890365 0.054474294 -0.1874361
-0.28967667 0.086928308 -0.20902967
-0.28517064 -0.10228068 -0.08314085
-0.29335967 0.24157733 -0.31192207
-0.29003665 -0.34588975 -0.21908808
-0.28423166 -0.1416797 -0.056925774
-0.29869264 0.19801831 -0.29110575
-0.29315466 -0.028726697 -0.14007187
-0.29402965 0.0070943236 -0.16393185
-0.30496365 -0.4471367 -0.46212578
-0.29620865 -0.34670967 -0.22336388
-0.28786564 -0.24524075 0.004160881
-0.30505764 0.19721228 -0.29874992
-0.30613065 0.2400583 -0.32732391
-0.30734766 0.28868228 -0.35974884
-0.29517865 -0.19734973 -0.035609722
-0.29651564 -0.14398068 -0.071203709
-0.30772364 0.051606297 -0.2097311
-0.31068665 0.16712028 -0.28685808
-0.31706366 0.1662783 -0.29449606
-0.31095666 -0.066260695 -0.13905001
-0.32024166 0.28725833 -0.37536907
-0.31477463 -0.34918469 -0.236238
-0.30744964 -0.19976968 -0.049794674
-0.32121864 0.082302332 -0.24651003
-0.31719664 -0.067343712 -0.14635897
-0.31227964 -0.25026864 -0.023926735
-0.31504264 -0.14745873 -0.092736721
-0.32667166 0.048713326 -0.23217487
-0.32861865 0.11951029 -0.27961302
-0.32124564 -0.14862472 -0.099945068
-0.34350064 -0.45269674 -0.48984671
-0.33341464 -0.35168475 -0.24920273
-0.32595363 -0.20342368 -0.071185112
-0.32746166 -0.14979368 -0.10716677
-0.34031564 0.079494298 -0.26919794
-0.34141466 0.1177153 -0.29486895
-0.33483464 -0.11125475 -0.14108181
-0.34670964 0.078552306 -0.27679205
-0.34588465 -0.35336572 -0.25789499
-0.33690664 -0.25535375 -0.052252769
-0.35311866 0.077608287 -0.28440475
-0.35073066 -0.0020387173 -0.23078775
-0.36289164 -0.45551866 -0.50385189
-0.35213163 -0.35420972 -0.26225471
-0.36432964 0.23311234 -0.39748669
-0.36717764 0.11409432 -0.32558107
-0.36951765 0.18902332 -0.37614584
-0.37087065 0.23232931 -0.40537167
-0.36235464 -0.040323675 -0.22137785
-0.36348563 -0.0040996671 -0.24581766
-0.39176464 -0.60137564 -0.85679483
-0.37586364 -0.45741671 -0.51324511
-0.36762565 -0.076119721 -0.20540667
-0.36174965 -0.26049668 -0.080821037
-0.36333266 -0.21082669 -0.11438274
-0.37512165 -0.04247272 -0.2363739
-0.36799464 -0.26179165 -0.087999821
-0.38152564 -0.043551683 -0.24389505
-0.41226465 -0.6047017 -0.8724041
-0.37590164 -0.2133227 -0.12890482
-0.39187765 0.071886301 -0.33043575
-0.38538563 -0.1204347 -0.2000289
-0.38676864 -0.079462707 -0.22781372
-0.39718765 0.22917432 -0.43708992
-0.38794464 -0.044632673 -0.2514329
-0.40128663 0.15511429 -0.39532566
-0.40230864 0.18483829 -0.41550493
-0.39437965 -0.04571867 -0.25899076
-0.39039165 -0.16166872 -0.18026495
-0.40627065 0.10858232 -0.37217283
-0.40786964 0.15423733 -0.40320492
-0.39816666 -0.12276369 -0.2149291
-0.40891165 0.18399429 -0.42343187
-0.40082765 -0.046806693 -0.26656199
-0.41500565 -0.46318871 -0.54169083
-0.39311364 -0.26700765 -0.11687565
-0.39486265 -0.21709365 -0.1508069
-0.40729064 -0.047897696 -0.27415085
-0.40314665 -0.16408473 -0.19507599
-0.41681266 0.034878314 -0.33889198
-0.41942066 0.10672331 -0.38784266
-0.41100463 -0.12510473 -0.22989082
-0.40757266 -0.2196247 -0.16548586
-0.42601866 0.10579032 -0.39570379
-0.42025965 -0.050088704 -0.28937292
-0.45354566 -0.61145669 -0.90397072
-0.43263364 0.10485333 -0.40358686
-0.42390165 -0.12746066 -0.24492311
-0.43548065 0.18059129 -0.45531368
-0.42676866 -0.051189721 -0.2970109
-0.42777863 -0.36456865 -0.31536484
-0.42034164 -0.22217065 -0.18023205
-0.42238766 -0.16773468 -0.21741295
-0.43777764 0.065082312 -0.38492966
-0.44383666 0.22356129 -0.49329996
-0.42482865 -0.27361268 -0.15332174
-0.42674664 -0.22344965 -0.18762684
-0.44439563 0.064099312 -0.39278603
-0.44769263 0.14892429 -0.45085907
-0.43846264 -0.088519692 -0.2883029
-0.45056266 0.22275031 -0.50140381
-0.45256665 0.10202831 -0.42733479
-0.43761364 -0.27627975 -0.16800976
-0.43960065 -0.2260167 -0.20246792
-0.45767665 0.062123299 -0.40854883
-0.46109164 0.14713234 -0.46688986
-0.44986963 -0.13221067 -0.27518082
-0.46229765 0.1771493 -0.48749065
-0.45294663 -0.055624664 -0.32773781
-0.44402763 -0.27761966 -0.17537785
-0.44604966 -0.22730666 -0.20991182
-0.49520963 -0.61835474 -0.93601799
-0.45045763 -0.27896374 -0.18276501
-0.45251465 -0.22859973 -0.21737385
-0.46963564 0.026715279 -0.4013958
-0.45899266 -0.22989672 -0.22485065
-0.47125363 -0.094287694 -0.32665873
-0.48257864 0.17453933 -0.51182175
-0.46548465 -0.23119766 -0.23234606
-0.48299465 0.024645329 -0.4171977
-0.49125963 0.21783131 -0.55042791
-0.47936866 -0.060111701 -0.35874701
-0.48969963 0.023605287 -0.42512894
-0.50099969 -0.47610468 -0.60473776
-0.48536065 -0.37261564 -0.3561697
-0.50167167 0.14169133 -0.51543379
-0.49111065 -0.097788751 -0.34987593
-0.50768363 -0.4771207 -0.60966778
-0.50849068 0.14077532 -0.52359009
-0.49589366 -0.14065975 -0.32879305
-0.49776065 -0.098961651 -0.3576498
-0.50100464 -0.026485682 -0.40781593
-0.49825865 -0.37443668 -0.36535311
-0.50442463 -0.10013968 -0.3654418
-0.50603664 -0.064651668 -0.39003611
-0.49817365 -0.23775774 -0.27006769
-0.52003467 0.092428327 -0.507689
-0.52120268 -0.029797673 -0.43159485
-0.55844462 -0.62897164 -0.98500395
-0.53452164 -0.48122472 -0.62951374
-0.51767766 -0.37719065 -0.37921095
-0.50897968 -0.29123169 -0.24996376
-0.53593266 0.13708329 -0.55640793
-0.52620268 -0.068092704 -0.41369295
-0.54643965 0.21113431 -0.61688089
-0.52725768 -0.18774372 -0.33908796
-0.54747367 0.088507295 -0.54035997
-0.55341166 0.21028531 -0.62527609
-0.54154164 -0.033138692 -0.45553589
-0.53718066 -0.37997264 -0.39316511
-0.55074662 0.014106333 -0.49732065
-0.55242068 0.047964334 -0.5209589
-0.55437565 0.087519288 -0.54857683
-0.56040263 0.20943433 -0.63369179
-0.53790069 -0.24575669 -0.31589508
-0.55760962 0.013035297 -0.5054369
-0.55930865 0.0469293 -0.52912998
-0.56363863 0.13334632 -0.5895381
-0.56516767 0.16386628 -0.61087084
-0.59397167 -0.63501471 -1.0127087
-0.54735667 -0.19160074 -0.36239481
-0.57443166 0.20772529 -0.65058279
-0.60111165 -0.63623565 -1.018292
-0.54866767 -0.29958969 -0.29551506
-0.55126566 -0.24845368 -0.33130789
-0.55408663 -0.19289368 -0.37019682
-0.57517666 0.084539294 -0.57333803
-0.57759064 0.13146132 -0.60621786
-0.56295067 -0.15303069 -0.40685892
-0.56511962 -0.11089271 -0.43638706
-0.58147162 0.20686632 -0.65905905
-0.60826266 -0.63746065 -1.0238891
-0.57381266 -0.076238692 -0.46952486
-0.61542565 -0.63869065 -1.029501
-0.58869463 -0.48959965 -0.66979265
-0.56201965 -0.30240768 -0.31083393
-0.56469166 -0.25116664 -0.34678888
-0.58702862 0.04276228 -0.56200409
-0.58912963 0.082538307 -0.58994484
-0.59560567 0.20514029 -0.67607498
-0.56872064 -0.30382365 -0.31852198
-0.59613067 0.0815323 -0.59827805
-0.60098767 0.040660322 -0.57855511
-0.60570264 0.12765628 -0.63982391
-0.59021765 -0.15808266 -0.43859005
-0.58962363 -0.38752967 -0.4308629
-0.58216566 -0.30666667 -0.3339448
-0.61603767 -0.4938727 -0.69022989
-0.61501664 0.038544297 -0.59518909
-0.60394967 -0.16063064 -0.45456696
-0.60630566 -0.1182217 -0.48450708
-0.61322767 -0.11945671 -0.49259281
-0.61737967 -0.045647681 -0.54476976
-0.62911266 0.036417305 -0.6118989
-0.61774564 -0.16319364 -0.47061586
-0.60924762 -0.31240267 -0.36500502
-0.61218762 -0.26078969 -0.4015398
-0.63849664 0.075436294 -0.64869404
-0.65045965 -0.49929672 -0.71605968
-0.65275866 0.073378325 -0.66566372
-0.65556365 0.12088633 -0.69941473
-0.63856363 -0.16706771 -0.49483299
-0.64322162 -0.088173687 -0.55088568
-0.65991563 0.072345316 -0.67417669
-0.64553666 -0.16836673 -0.50294399
-0.65251964 -0.051470697 -0.58609867
-0.63968164 -0.26637775 -0.43322277
-0.64304662 -0.21005267 -0.47328901
-0.65510863 -0.12693971 -0.54150677
-0.64659566 -0.26778466 -0.44118881
-0.67719567 0.11794031 -0.72526503
-0.66214764 -0.12819964 -0.54972696
-0.66047567 -0.2706117 -0.45717812
-0.68403065 -0.0068047047 -0.65483093
-0.66950166 -0.39924771 -0.48877287
-0.69596666 0.067132294 -0.717062
-0.70096564 0.1461553 -0.77363205
-0.69842166 -0.0090757012 -0.67182779
-0.70063865 0.0255813 -0.69667196
-0.70629364 0.11397028 -0.76002693
-0.70564467 -0.010216713 -0.68035984
-0.70788866 0.024480283 -0.70526075
-0.71051162 0.06502533 -0.73435974
-0.72095263 0.11196631 -0.77753878
-0.72299963 0.14326429 -0.80003071
-0.72014862 -0.51042265 -0.76869869
-0.69546467 -0.27775472 -0.49747896
-0.69918066 -0.22094768 -0.53830004
-0.71686167 -0.062175691 -0.66174793
-0.72717965 -0.51155573 -0.77403402
-0.71679664 -0.40630275 -0.52333069
-0.72051066 -0.22509974 -0.56299591
-0.75049067 0.10792232 -0.81281996
-0.73600566 -0.10423571 -0.65957785
-0.72765768 -0.2264927 -0.57126904
-0.75792164 0.10690331 -0.82169485
-0.73773766 -0.18561167 -0.61013794
-0.73040766 -0.40834874 -0.5333147
-0.73087966 -0.28500372 -0.53825474
-0.73482066 -0.22788972 -0.5795598
-0.75671268 -0.018302679 -0.7406621
-0.75915164 0.016672313 -0.76599073
-0.76200163 0.057545304 -0.79558897
-0.76251465 -0.51727968 -0.80091906
-0.73801363 -0.28646666 -0.54646873
-0.76943064 0.056463301 -0.8044219
-0.75218368 -0.1883257 -0.62692595
-0.76055765 -0.069476664 -0.71310282
-0.75090563 -0.4114427 -0.5483799
-0.79011166 0.1344263 -0.88041496
-0.78885162 0.012135327 -0.80116606
-0.77398866 -0.19242674 -0.65226078
-0.77715164 -0.14889175 -0.68395185
-0.78265262 -0.073177695 -0.73906469
-0.79099762 -0.52192968 -0.82267284
-0.78721166 -0.1131497 -0.71953201
-0.79005462 -0.074418664 -0.74776077
-0.77816862 -0.23635966 -0.62972784
-0.78861463 -0.19518167 -0.66925287
-0.79459965 -0.11443871 -0.72818089
-0.79171365 -0.35138971 -0.57405996
-0.82370365 -0.028956711 -0.81973791
-0.83715767 0.046575308 -0.88492775
-0.84092963 0.095483303 -0.92080784
-0.81808764 -0.20074266 -0.70348883
-0.85107863 0.12635928 -0.95341301
-0.83486062 -0.081947684 -0.80039501
-0.81301165 -0.42091268 -0.59424686
-0.84916466 0.0028902888 -0.87258005
-0.83932763 -0.12225765 -0.78052807
-0.81997162 -0.42198366 -0.5994091
-0.82956564 -0.24643868 -0.6891861
-0.82814467 -0.35924274 -0.6157589
-0.83237863 -0.30589265 -0.65504789
-0.83698165 -0.24789673 -0.69776392
-0.86776465 0.042090297 -0.92129898
-0.85438663 -0.12489575 -0.79814911
-0.83392167 -0.42413372 -0.6097641
-0.87978864 -0.0018196702 -0.90883112
-0.87272662 -0.088328719 -0.84486294
-0.84792167 -0.42629868 -0.62017488
-0.87712264 -0.12888473 -0.8247509
-0.85493767 -0.4273867 -0.62539768
-0.86203265 -0.31202573 -0.68915176
-0.89224964 -0.039912701 -0.90061378
-0.86196667 -0.4284777 -0.63063383
-0.89996362 -0.041149676 -0.90971279
-0.89237565 -0.13156372 -0.84259176
-0.87697065 -0.31512064 -0.70632887
-0.87991464 -0.37043673 -0.67498493
-0.89729166 -0.4339897 -0.65701675
-0.91745764 -0.37858075 -0.71791887
-0.92745167 -0.26574165 -0.8023591
-0.93511564 -0.2672587 -0.81121588
-0.94020963 -0.38352674 -0.74393177
-0.95761764 -0.44770068 -0.72550011
-0.96313864 -0.38852066 -0.77014399
