# .PCD v0.7 - Point Cloud Data file format
VERSION 0.7
FIELDS x y z
SIZE 4 4 4
TYPE F F F
COUNT 1 1 1
WIDTH 1
HEIGHT 1024
VIEWPOINT 0 0 0 1 0 0 0
POINTS 1024
DATA ascii
1.083073 -0.028547049 -0.57147741
1.076486 -0.028322041 -0.5706563
1.043593 -0.027207017 -0.56654835
1.037024 -0.026986003 -0.56572437
1.030457 -0.026766002 -0.56489944
1.0238941 -0.026546001 -0.56407452
1.006085 -0.062964022 -0.52557039
0.99959803 -0.062776029 -0.52502251
0.97749501 0.079120994 -0.45057726
0.97607803 -0.022918046 -0.5424304
0.95966601 0.078202963 -0.4605093
0.95455599 0.12584698 -0.41858721
0.97028399 -0.06536907 -0.54760933
0.94776398 0.03401798 -0.52048349
0.95024902 -0.15228802 -0.54132414
0.95153403 -0.10605603 -0.55209923
0.94672203 -0.067467034 -0.56576014
0.92749602 0.12188298 -0.45691729
0.93131399 0.03133595 -0.54406118
0.91006398 0.047532976 -0.4158864
0.90346503 0.18275899 -0.35885954
0.927926 -0.10824805 -0.57026339
0.928985 -0.069054067 -0.57942247
0.92076403 -0.15514797 -0.5639782
0.89502001 0.21681398 -0.33976316
0.898983 -0.0068670511 -0.4292655
0.88548803 0.13273495 -0.36574125
0.907722 -0.20186001 -0.56240416
0.87867302 0.13338697 -0.36074352
0.87394303 0.089626968 -0.37441826
0.88471699 -0.14072198 -0.47123718
0.88705003 -0.19058806 -0.49219513
0.86712998 0.090312958 -0.36941051
0.86267298 0.18641299 -0.32904434
0.87780201 -0.13983899 -0.46608019
0.87149298 -0.0037920475 -0.4089365
0.86209303 0.052587986 -0.38053131
0.86032701 0.090996981 -0.3644104
0.86858803 -0.088709056 -0.43984127
0.864649 -0.0030280352 -0.40387535
0.87318701 -0.18873805 -0.48182821
0.85528404 0.053302944 -0.37551451
0.849163 0.18761897 -0.31916523
0.861718 -0.087873995 -0.43473434
0.85979801 -0.045741022 -0.41706038
0.86534101 -0.319166 -0.52694035
0.83998299 0.093037963 -0.34945536
0.86692101 0.29276097 -0.60151625
0.833224 0.093714952 -0.34448814
0.83126301 0.13790298 -0.32598925
0.83163798 0.25926 -0.38864231
0.84452498 -0.31608003 -0.5112524
0.83872402 -0.184156 -0.45606136
0.81973803 0.095063984 -0.33457613
0.83186501 -0.18324703 -0.45093441
0.81890601 0.25957197 -0.38669443
0.84092498 0.29315495 -0.59976149
0.80629301 0.09640497 -0.32469845
0.80142701 0.22421199 -0.27720451
0.83447701 0.293212 -0.59977722
0.80714703 -0.081273019 -0.3941865
0.80354303 0.0037559867 -0.35870838
0.82545102 0.32313997 -0.63818836
0.80738598 -0.24743503 -0.4587822
0.80453902 -0.17963403 -0.43051147
0.78779 0.060347974 -0.32579756
0.79568303 -0.12942404 -0.40487623
0.793612 -0.079643071 -0.38413334
0.80319303 -0.30997998 -0.48011541
0.77772403 0.14296395 -0.28675652
0.77561498 0.19413996 -0.2654295
0.79959303 0.30161399 -0.50780058
0.812159 0.32353199 -0.63481712
0.77108002 0.14358997 -0.28188515
0.780123 -0.078023016 -0.37411356
0.76775098 0.062425971 -0.31104231
0.76391602 0.22516698 -0.27157116
0.78667098 0.30190599 -0.50575018
0.75294 0.10170299 -0.28550243
0.74918401 0.19646496 -0.24612856
0.75831801 -0.034005046 -0.34186745
0.75661701 0.0089249611 -0.32403755
0.76387703 -0.17428499 -0.40013027
0.74260199 0.19704199 -0.24132252
0.74117702 0.065171957 -0.29148054
0.73896003 0.22579396 -0.26779938
0.74330503 0.010383964 -0.31420422
0.729469 0.19819295 -0.23173237
0.73990798 -0.073211968 -0.34425354
0.72795099 0.066533983 -0.28174353
0.73954302 -0.23799402 -0.40789318
0.72844499 -0.120992 -0.35480118
0.72026902 0.22625798 -0.2649622
0.74152702 0.30291396 -0.49854946
0.72610402 -0.23613507 -0.39781857
0.72865599 0.30319697 -0.49648619
0.72919303 0.32923698 -0.57432318
0.710262 -0.16728204 -0.36009216
0.700068 -0.068476021 -0.31468439
0.71579301 0.30347896 -0.49442053
0.70829099 -0.29611403 -0.40867329
0.68917102 0.22702396 -0.26021338
0.69199002 -0.026432037 -0.29275751
0.68198699 0.071246982 -0.24792051
0.70969701 0.32964498 -0.57113647
0.67884803 -0.024941027 -0.28303337
0.68822902 -0.29320902 -0.39358234
0.69010103 0.30403799 -0.49028015
0.679398 -0.22970504 -0.36281157
0.65967602 0.15397799 -0.20029259
0.66433799 0.22762799 -0.25640154
0.69022501 0.33004999 -0.56793833
0.67276698 -0.22879606 -0.3578434
0.65321302 0.15457499 -0.19556236
0.65921003 -0.022719026 -0.26849842
0.67059898 -0.35953206 -0.40702534
0.64945698 0.074561 -0.22398853
0.65126801 0.020390987 -0.24625349
0.68651301 0.367737 -0.67957926
0.661623 -0.28937 -0.37357235
0.66430199 0.33058298 -0.56367159
0.65063703 -0.35649902 -0.39195538
0.64634699 -0.22518307 -0.33805037
0.62884998 0.11385697 -0.1943922
0.62768501 0.20467097 -0.17959356
0.63180101 0.022488952 -0.23188734
0.65782803 0.33071595 -0.56260157
0.64400399 -0.35549301 -0.38694715
0.63762403 -0.157888 -0.30588436
0.62156099 0.20482194 -0.17865753
0.63552499 0.26388496 -0.35809851
0.625332 0.023184955 -0.22711658
0.651357 0.33084798 -0.5615325
0.644889 0.33097899 -0.56046247
0.62664002 -0.22249907 -0.32329035
0.60958201 0.115722 -0.18025637
0.60931802 0.20512199 -0.17678547
0.62416601 -0.35249108 -0.37197256
0.62008899 -0.22160798 -0.31838512
0.61802602 -0.15537208 -0.29126644
0.61003202 -0.10635406 -0.26669455
0.61667901 0.26430899 -0.35510254
0.62606102 0.30540496 -0.47987652
0.64049202 0.36861795 -0.67180014
0.603549 -0.10556108 -0.2618742
0.619672 0.30553895 -0.47883129
0.59151798 0.080421984 -0.18137026
0.61904198 0.33150095 -0.55617237
0.58486402 0.20571595 -0.17302847
0.620812 0.36898899 -0.66845846
0.59203702 -0.15204805 -0.2718854
0.61425602 0.36911196 -0.66734219
0.57773399 0.22968 -0.24294519
0.58100301 -0.21631497 -0.28912449
0.56654704 0.20615596 -0.17020035
0.57156605 0.22982299 -0.24197721
0.56874204 -0.01257205 -0.20158625
0.57628304 -0.27716607 -0.30943346
0.55742401 0.16334796 -0.12547636
0.56044704 0.20630199 -0.16925621
0.56117404 0.03004396 -0.17979431
0.59460801 0.36947799 -0.66399336
0.566203 -0.14875799 -0.25262547
0.55111402 0.163921 -0.12086344
0.554811 0.030719995 -0.17509937
0.57501805 0.30646598 -0.47150135
0.55976903 -0.14794105 -0.24783039
0.54597902 0.12183595 -0.13360834
0.54825103 0.20659196 -0.16736412
0.54960203 -0.010444999 -0.18743849
0.55869704 -0.34265405 -0.3225832
0.54215699 0.20673597 -0.16641855
0.54433501 -0.05024904 -0.1992054
0.54691803 0.23039097 -0.23809814
0.55402303 0.265692 -0.34506226
0.54211199 0.032068968 -0.16573048
0.58273101 0.40833896 -0.77728939
0.55385 -0.40258199 -0.34245729
0.53223801 0.16563195 -0.10705853
0.53796804 -0.049514055 -0.19448757
0.54777104 0.26582795 -0.34405327
0.53689003 -0.0090360045 -0.17804337
0.57609099 0.40845299 -0.77612734
0.53287601 -0.096967995 -0.20934343
0.54152203 0.26596296 -0.34304523
0.52945203 0.033408999 -0.15639544
0.53746301 -0.271671 -0.28027821
0.52388901 0.20716697 -0.1635704
0.52650702 -0.096198022 -0.20461226
0.52845705 0.23081195 -0.23517942
0.53527302 0.26609796 -0.34203434
0.52421403 -0.0076340437 -0.16867638
0.54319602 0.30711496 -0.46624231
0.53435904 -0.39953905 -0.32770443
0.52774101 -0.14388603 -0.22396231
0.51892102 -0.047319055 -0.18037844
0.54175103 0.33302498 -0.54324436
0.55618304 0.40879196 -0.77263737
0.52136505 -0.14308101 -0.21921015
0.51616204 0.23108995 -0.23322916
0.530487 0.30737197 -0.46413517
0.53532702 0.33314896 -0.54216242
0.50292301 0.089272976 -0.11626339
0.50096202 0.16845298 -0.084191322
0.50424105 0.036069989 -0.13781357
0.52890605 0.33327299 -0.54108143
0.51495802 -0.39652008 -0.31302357
0.51177502 -0.26805502 -0.26099443
0.50863999 -0.141478 -0.20973158
0.50703305 -0.33496708 -0.28363848
0.50537801 -0.26715702 -0.25619316
0.51143903 0.30775297 -0.46096849
0.50207001 -0.39452106 -0.30327559
0.495951 -0.13988405 -0.20028114
0.48849902 -0.091625035 -0.1763792
0.49159801 0.23163998 -0.22931957
0.50509501 0.30787998 -0.45990944
0.47610399 0.17068398 -0.066021442
0.48134401 0.20815396 -0.15689754
0.483302 -0.13829702 -0.19085932
0.47590402 -0.090116084 -0.16702747
0.476991 -0.13750702 -0.18616056
0.46920702 0.20843196 -0.15498114
0.479743 0.30838096 -0.45567322
0.49022001 0.37136996 -0.64603519
0.46868601 -0.32930499 -0.25474834
0.46439502 -0.13593203 -0.17678118
0.45708001 0.20870697 -0.15306234
0.45708001 -0.087867081 -0.15305138
0.46671 0.26755196 -0.33087015
0.48371801 0.37148499 -0.64490747
0.445299 0.17329895 -0.044714451
0.45082399 -0.087121069 -0.14840746
0.44980001 -0.039416015 -0.12919617
0.44074202 0.095402956 -0.070599556
0.443571 -0.038709044 -0.12458658
0.44870001 0.23258597 -0.22244215
0.45427501 0.26780999 -0.3288312
0.44964102 -0.32650703 -0.24040556
0.45843402 0.33460695 -0.52912712
0.44455501 -0.38565201 -0.25979853
0.44065702 -0.19759303 -0.18416643
0.42741799 0.17372096 -0.041929245
0.43646201 0.23285198 -0.22046757
0.457735 0.37194097 -0.6403923
0.43821201 -0.38467902 -0.25500536
0.42413801 0.0033259988 -0.094747543
0.429335 -0.256558 -0.19914722
0.42075202 0.20952296 -0.14728546
0.41715202 0.045168996 -0.073658466
0.42437699 -0.32280904 -0.22138357
0.42060101 -0.130485 -0.14418125
0.409982 0.098409951 -0.048019409
0.43288201 0.33507997 -0.52475929
0.419236 -0.38177603 -0.24067116
0.41679001 -0.25482303 -0.18974113
0.40360701 0.17427695 -0.038204193
0.41179901 -0.32097501 -0.2119174
0.40938801 -0.19348401 -0.16080427
0.401095 -0.081223071 -0.11150122
0.410822 0.26870096 -0.32166433
0.41653201 0.30960399 -0.44502926
0.42012101 0.33531296 -0.52257347
0.39980599 0.233639 -0.21452856
0.39804199 -0.25223702 -0.17568731
0.39053801 0.21019095 -0.14244223
0.39073601 -0.19104403 -0.14687443
0.38760301 0.23389798 -0.21254253
0.40588802 0.372832 -0.63133049
0.387795 -0.37698799 -0.21692657
0.38675299 -0.31733507 -0.19307137
0.384534 -0.19023508 -0.14224339
0.374286 -0.31552905 -0.18369246
0.373169 -0.24882108 -0.15704727
0.371086 -0.12437898 -0.10734653
0.36640501 0.21071595 -0.13855457
0.38648802 0.37315995 -0.62792253
0.368065 -0.31462902 -0.1790123
0.35608301 0.17536497 -0.030705452
0.363226 0.23440999 -0.20855713
0.36748001 0.26956999 -0.31445742
0.37242299 0.31043398 -0.43753433
0.35713801 0.23453695 -0.20755816
0.36917001 0.33623195 -0.51379442
0.35460702 -0.24628097 -0.14314127
0.34449801 0.011905968 -0.035979271
0.359842 0.31066799 -0.43538618
0.36281201 0.33634496 -0.51269341
0.350364 -0.37132305 -0.1886735
0.34653902 -0.12137204 -0.089091301
0.33972701 -0.074018061 -0.065981388
0.34327 -0.31105405 -0.16036558
0.34138101 -0.18462902 -0.11002731
0.33888501 0.23491395 -0.20455933
0.34727001 0.31089997 -0.43323421
0.32500401 0.10662895 0.014325619
0.32755601 -0.07259804 -0.056956291
0.336588 0.27017796 -0.30928326
0.326325 0.01384598 -0.022575378
0.34375 0.33668196 -0.50938749
0.34774801 0.373806 -0.6210885
0.33176801 -0.36852306 -0.17464256
0.32912803 -0.18304497 -0.10088539
0.318499 0.14314699 0.033015728
0.32083201 -0.024932027 -0.033789158
0.32672501 0.23516399 -0.20255423
0.33470502 0.31112999 -0.43108034
0.32558802 -0.36759406 -0.16997957
0.32212901 -0.11839598 -0.070944309
0.31251401 0.14369595 0.037394524
0.31460702 0.176292 -0.024094582
0.313703 0.055789948 0.0024776459
0.31691203 -0.18146998 -0.091770172
0.306537 0.144243 0.041766644
0.31807902 0.27053696 -0.30617046
0.32215101 0.31135798 -0.42892313
0.30102602 0.10892397 0.031907558
0.302212 0.016409993 -0.0047955513
0.318367 0.33712494 -0.50497055
0.32197002 0.374228 -0.6165204
0.303911 -0.11618406 -0.057405472
0.30020902 0.21212196 -0.1277833
0.297856 -0.11545104 -0.052906513
0.29636502 0.23578 -0.19752645
0.30569002 0.33734399 -0.5027585
0.28522602 -0.067689002 -0.025584221
0.299355 0.33745295 -0.50165033
0.28799301 -0.30314308 -0.11881733
0.28577 -0.11398906 -0.043927193
0.28423601 0.23602295 -0.19551039
0.28727302 0.27112699 -0.30096436
0.29302201 0.33756095 -0.50054216
0.28046402 -0.17679304 -0.064585209
0.289801 0.37474698 -0.6107955
0.27731001 -0.43781 -0.16360331
0.27645302 -0.36025208 -0.13292933
0.268381 -0.17524904 -0.055574417
0.25938103 0.112885 0.062435627
0.26142201 0.17744899 -0.015520573
0.260333 0.020832956 0.02607584
0.25991502 0.061228991 0.042030811
0.262353 -0.17448097 -0.051081181
0.25346401 0.11344498 0.066770554
0.25398001 0.061825991 0.046395779
0.25817001 -0.35753804 -0.11914921
0.25651902 0.27170497 -0.29573822
0.24805102 0.062421978 0.05075264
0.25950903 0.31247497 -0.41809225
0.261388 0.33809799 -0.49499035
0.26410601 0.37515497 -0.60620451
0.25283602 -0.43396205 -0.14506817
0.24789402 0.23674095 -0.18943644
0.25506902 0.33820397 -0.49387741
0.24674001 -0.43300599 -0.14045429
0.24700701 0.312693 -0.4159174
0.23943803 -0.29626304 -0.082350254
0.22987401 0.11567098 0.084057808
0.23340601 -0.29541308 -0.077821255
0.22399703 0.11622399 0.088362694
0.22421002 0.14886898 0.078198433
0.22507402 -0.014407039 0.036953449
0.22738302 -0.29456502 -0.073299408
0.22583503 -0.10679108 0.00059652328
0.22229201 0.21371096 -0.11490726
0.22581702 0.27227294 -0.29049253
0.21853101 0.06537497 0.072447777
0.232039 0.37565696 -0.60045052
0.21988502 -0.10608107 0.0050158501
0.212264 0.11732596 0.096957684
0.21258801 0.14912099 0.080074787
0.216313 0.21382999 -0.1139102
0.21766502 0.23732799 -0.18435144
0.21295503 0.02579397 0.060979843
0.21265203 0.065960944 0.076767445
0.22350201 0.33872795 -0.48830414
0.21486601 -0.22745007 -0.038561344
0.20768201 -0.058800042 0.031844616
0.20706901 0.026406944 0.06531477
0.217195 0.33883196 -0.48718739
0.21922901 0.37585497 -0.59814358
0.20936102 -0.29203397 -0.059772491
0.208891 -0.22665602 -0.034095287
0.20056401 0.11842197 0.10552788
0.20429701 -0.42638606 -0.10834217
0.20251901 -0.16690105 -0.0064902306
0.19472402 0.11896795 0.10980463
0.19517101 0.14949596 0.082892418
0.19826601 -0.42545003 -0.10378122
0.19241202 0.21430194 -0.10991335
0.19516602 0.27282995 -0.28522444
0.18356901 0.14974296 0.084778786
0.18487102 0.179052 -0.0029973984
0.18644202 0.21441799 -0.10891247
0.18904302 0.27294099 -0.28416634
0.18336801 0.068869948 0.09828186
0.17899601 0.17917198 -0.0020251274
0.17775401 0.029447973 0.086901665
0.184623 0.31375998 -0.40499449
0.18723902 0.37634295 -0.59236813
0.17450801 0.21464998 -0.10690737
0.17235002 -0.054797053 0.057993412
0.17211302 -0.0086710453 0.076046467
0.17939901 0.33944499 -0.48047256
0.17258401 -0.10046905 0.040119648
0.16724902 0.17940998 -8.3446503e-05
0.17068201 0.27326798 -0.28099442
0.17310502 0.33954597 -0.47934914
0.16728501 -0.22115606 -0.0029993057
0.16670501 -0.099775016 0.044480801
0.15985402 0.12221599 0.13533974
0.16038501 0.15023196 0.088561535
0.16025801 0.031254947 0.099783421
0.16594702 0.31407195 -0.40170336
0.16681501 0.339647 -0.47822714
0.16225801 -0.41988403 -0.076556206
0.16191901 -0.34340805 -0.046667576
0.161374 -0.22037798 0.0014176369
0.154594 0.15035295 0.089508533
0.14880502 0.15047395 0.09045887
0.15066102 0.21510899 -0.10288334
0.14895001 -0.052161038 0.075305462
0.15133402 0.23857796 -0.17308521
0.15234002 0.273592 -0.27781153
0.14848402 0.072312951 0.12390184
0.15003502 -0.34168297 -0.037725449
0.14301701 0.150594 0.091407776
0.14283201 0.033046961 0.11260843
0.14368701 -0.21805698 0.014629841
0.13715501 -0.0049210191 0.10183573
0.13703701 0.033641994 0.11687469
0.13691501 0.073448002 0.13239574
0.14107502 0.31448197 -0.39730215
0.13818102 -0.339966 -0.028808117
0.13780501 -0.217287 0.019021511
0.13328402 0.23890996 -0.1699934
0.13177401 -0.15805501 0.046197414
0.12684202 0.21555996 -0.098844528
0.12567301 -0.049552023 0.092521667
0.12654102 -0.41440398 -0.049568176
0.11951701 0.12594199 0.16486359
0.12034001 0.18034595 0.007730484
0.12089302 0.21567196 -0.097832203
0.12061702 -0.41349906 -0.045093536
0.11448301 0.18046099 0.0087137222
0.11408001 -0.048257053 0.10109472
0.11570501 0.27422798 -0.27142715
0.11393701 0.036004961 0.1338706
0.11415701 -0.093612015 0.083451748
0.10829502 -0.047613025 0.10537052
0.10960701 0.274333 -0.27036047
0.10818101 0.03659296 0.13810682
0.10351001 0.27443695 -0.26929235
0.10256401 -0.09226197 0.092046738
0.096646011 0.12691396 0.17257166
0.09677501 0.151537 0.099048615
0.096927017 0.180803 0.011662483
0.097111017 0.21611398 -0.093775272
0.097233012 0.23956096 -0.16378546
0.096995011 -0.40990108 -0.027254581
0.096944012 -0.33402604 0.0022025108
0.096822016 -0.15373403 0.072205544
0.091065012 -0.27565199 0.028930664
0.09104301 -0.21119899 0.053935528
0.091023013 -0.15302008 0.076518536
0.085230015 0.00059998035 0.14012575
0.085230015 0.038925946 0.15498877
0.085230015 -0.274854 0.033300877
0.085230015 -0.21044499 0.058278561
0.07940501 -0.274059 0.03766346
0.079427011 -0.20969504 0.062610626
0.079447016 -0.15159804 0.085128784
0.073743016 -0.043778002 0.13091183
0.073800012 0.040083945 0.16339445
0.066969015 0.27505195 -0.26286745
0.068136014 0.080143988 0.18287277
0.062397014 0.041235983 0.17177868
0.062061012 -0.20745498 0.07556963
0.062223013 -0.087589085 0.12194252
0.054274015 0.31586599 -0.38180542
0.055956014 -0.40369302 0.0037226677
0.049633015 0.216977 -0.085614204
0.050856013 -0.041254044 0.14782381
0.050948013 0.0042099953 0.16538954
0.047690015 0.34147894 -0.4567585
0.050124012 -0.40281504 0.0081214905
0.050640013 -0.14807397 0.10654974
0.039788015 0.082874 0.20366669
0.035193015 0.34166396 -0.45448351
0.039169014 -0.14667708 0.11507654
0.033904012 0.0059949756 0.17794752
0.033268012 -0.20375901 0.097048759
0.02270101 0.34184599 -0.45220613
0.026872013 -0.39932698 0.025661469
0.027726013 -0.14528698 0.12358141
0.020017013 0.217502 -0.08048439
0.022719011 0.045221984 0.20094776
0.021078013 -0.39845997 0.030030727
0.021567017 -0.26621801 0.080967426
0.017237015 0.085033953 0.22020149
0.016082011 -0.20156497 0.1098628
0.0093720108 0.18244898 0.02655077
0.011279017 0.0083539486 0.1946125
0.0046120137 0.15333295 0.11452961
0.00014601648 0.27614099 -0.25100422
0.0040920153 -0.32084304 0.071951866
0.0033550113 -0.47752398 0.011706829
-0.00017598271 0.12885499 0.18867254
-0.0011339858 0.15344095 0.11550665
-0.0022729859 0.18265998 0.028550625
-0.0020249858 -0.39501601 0.047448635
-0.0016479865 -0.32003802 0.076258659
-0.0024359897 -0.47661 0.016093731
-0.01197999 0.27633297 -0.24883747
-0.013664983 0.31689698 -0.36952019
-0.0077819899 -0.39416105 0.051787853
-0.0064249858 -0.14116007 0.14895582
-0.0060959831 -0.079770029 0.17253447
-0.01546599 0.21811599 -0.074296474
-0.011014983 0.048582971 0.22573376
-0.010791987 0.087701976 0.24074888
-0.01310499 -0.31843203 0.084857464
-0.013994984 -0.47478801 0.024850845
-0.019728988 0.18297398 0.031560421
-0.017113984 -0.03383404 0.19801855
-0.016841985 0.011268973 0.21532059
-0.027184986 0.34256297 -0.44306231
-0.018098988 -0.19722599 0.13534164
-0.01775299 -0.13979799 0.15736961
-0.017382987 -0.078489006 0.18088961
-0.022891983 0.12929195 0.19250584
-0.036210984 0.27671295 -0.24449253
-0.034239985 0.12950695 0.19442987
-0.035578988 0.15407997 0.12138748
-0.035933986 -0.31524402 0.1019845
-0.037027985 -0.47117299 0.042285442
-0.039871983 -0.075949013 0.19752884
-0.047048993 0.15428895 0.12335682
-0.048789985 0.18348795 0.036598682
-0.05089099 0.21871495 -0.068071365
-0.045134984 -0.030809045 0.21869755
-0.044789992 0.014146984 0.23589182
-0.052285992 0.24210399 -0.13756418
-0.05678498 0.31752795 -0.36165237
-0.049743988 0.091381967 0.26929283
-0.062936984 0.31761599 -0.36052513
-0.051562987 -0.13575405 0.18247366
-0.056918986 0.12993199 0.19828987
-0.059268989 -0.38656002 0.090576649
-0.058176987 -0.25556999 0.14061451
-0.06495399 -0.38572603 0.094856739
-0.064308994 -0.31130606 0.12326479
-0.076110981 0.242486 -0.13331556
-0.078550987 0.27736098 -0.23685217
-0.075694986 0.15480399 0.12829685
-0.078099988 0.017552972 0.26040173
-0.087141983 0.15500695 0.13027954
-0.09214399 0.21939296 -0.060767174
-0.096668981 0.27763295 -0.23356533
-0.099815987 0.31813896 -0.35374641
-0.087621979 -0.38241297 0.11192274
-0.086881988 -0.308191 0.14018679
-0.098032989 0.21948797 -0.059720516
-0.10270699 0.27772295 -0.23246813
-0.093272991 -0.381589 0.11617565
-0.10100199 0.18438399 0.045729637
-0.094664983 0.019235969 0.27258682
-0.098127984 -0.30664498 0.14861774
-0.097529985 -0.25038809 0.17001963
-0.10679499 0.18448097 0.046748638
-0.099337988 0.096017957 0.30561447
-0.11001999 0.15540695 0.1342597
-0.11773898 0.24313599 -0.12584639
-0.10525099 0.057832003 0.29492378
-0.12436899 0.318479 -0.34920931
-0.11837699 0.18467396 0.048790455
-0.11073399 0.058363974 0.29894686
-0.11039599 0.096554995 0.31000376
-0.11579999 -0.37831801 0.13312578
-0.11290199 -0.12849802 0.22799063
-0.11219799 -0.067868054 0.2510128
-0.11673399 -0.45881003 0.10256386
-0.11916398 0.13106096 0.20899487
-0.12144998 0.15560395 0.13625765
-0.11665798 0.02146095 0.28875875
-0.13663498 0.31864697 -0.34693623
-0.12053398 -0.30357701 0.1654067
-0.11986499 -0.24746805 0.18670082
-0.11843798 -0.12784904 0.23209476
-0.12237499 -0.45794398 0.10682774
-0.13889199 0.27825195 -0.22586536
-0.13046199 0.13125998 0.21095562
-0.133634 -0.45621902 0.11533451
-0.13858297 0.15589595 0.13925982
-0.133656 -0.021382034 0.28397751
-0.15094 0.27842498 -0.22365952
-0.13259998 0.060477972 0.31498766
-0.13263997 0.096962988 0.31381464
-0.13654399 -0.24529797 0.19915247
-0.141756 0.13145697 0.21292067
-0.14429298 0.15599197 0.14026165
-0.14730799 0.18514895 0.053915501
-0.15696299 0.27851099 -0.22255325
-0.14209199 -0.24457806 0.2032938
-0.14999998 0.15608799 0.14126587
-0.15495998 -0.37267298 0.16257477
-0.15393898 -0.29903501 0.19042349
-0.16464698 0.18542898 0.057002544
-0.17951301 0.31922197 -0.33895636
-0.15700099 -0.12334901 0.26068687
-0.16160798 -0.062428057 0.2875185
-0.16575798 0.02638495 0.32485056
-0.16795999 -0.12207705 0.26880884
-0.178399 -0.44940501 0.1491375
-0.18123499 0.13213199 0.21983242
-0.17728299 -0.016811013 0.31612158
-0.17659798 0.027463973 0.33281469
-0.17706299 0.097756982 0.32149172
-0.20397899 0.31954098 -0.33437729
-0.18272799 -0.36870307 0.1834445
-0.18159199 -0.29530305 0.21112061
-0.18396398 -0.44856304 0.15333986
-0.19560498 0.15683895 0.14933586
-0.18812698 -0.015683055 0.32410765
-0.206687 0.24445999 -0.10968256
-0.18815601 0.097950995 0.32342148
-0.18883198 -0.059459031 0.30762053
-0.209593 0.22121096 -0.039636135
-0.19931 -0.36634606 0.19590044
-0.19524398 -0.11892802 0.28902483
-0.22310001 0.27942896 -0.21033716
-0.19758201 0.066690981 0.36263466
-0.20482299 -0.36556405 0.20004177
-0.20508799 -0.057696044 0.31962252
-0.23034701 0.24479598 -0.10533714
-0.21032301 0.098331988 0.32729673
-0.21153599 -0.11705703 0.30109072
-0.23301199 0.22155398 -0.035363197
-0.217949 -0.17254597 0.28403664
-0.22681299 -0.36245507 0.21656084
-0.224498 -0.23400098 0.26476288
-0.221288 -0.055947006 0.33157873
-0.22918901 -0.494304 0.16708469
-0.23189598 0.13296598 0.22879982
-0.225068 0.032251954 0.36841345
-0.230955 -0.28870398 0.24804354
-0.22777298 -0.11520106 0.31311464
-0.23374999 -0.44108301 0.19089746
-0.23124298 -0.011227012 0.35585165
-0.23042199 0.032776952 0.37234354
-0.22973299 0.069726944 0.38619375
-0.23640698 -0.28798002 0.25211954
-0.235374 -0.23262101 0.27286863
-0.243141 0.13314599 0.23080349
-0.243238 -0.36014599 0.22888947
-0.25248501 0.15773594 0.15952063
-0.24111399 0.033823967 0.38019371
-0.27108398 0.280065 -0.2013855
-0.24869898 -0.35938007 0.23298883
-0.24503198 -0.16929406 0.30415058
-0.25816599 0.15782398 0.16054678
-0.26809499 0.22205496 -0.028925419
-0.25415498 -0.35861605 0.23708153
-0.24816298 -0.053060055 0.35140562
-0.25999498 0.13341296 0.23381853
-0.263845 0.15790999 0.16157055
-0.28306401 0.28021997 -0.19913721
-0.25104401 0.071725965 0.40180588
-0.25582099 -0.16800505 0.31216145
-0.26222 -0.48920006 0.19205761
-0.279778 0.22221798 -0.026771545
-0.25710198 0.035382986 0.39192772
-0.263574 -0.28438908 0.27242565
-0.261206 -0.16736299 0.31615973
-0.26242098 0.03590095 0.39583063
-0.28940099 0.24560797 -0.094404221
-0.26166499 0.072717965 0.40958261
-0.291457 0.22237998 -0.02461338
-0.27079499 -0.11032003 0.34495687
-0.26955199 -0.050777018 0.36718273
-0.27396598 -0.0068600178 0.38728666
-0.273038 0.036930978 0.40362263
-0.30708799 0.24584299 -0.091107368
-0.282686 -0.16481203 0.33210182
-0.29789299 0.15842098 0.16774559
-0.28775099 0.099605978 0.34100485
-0.29327399 0.099693 0.34199142
-0.29338899 -0.16354603 0.3400445
-0.30046499 -0.48334402 0.22095156
-0.29931501 -0.43137604 0.24030256
-0.294184 0.073816001 0.41943455
-0.31049198 0.134188 0.24292564
-0.30280298 -0.10672504 0.36863375
-0.31081599 -0.22315902 0.32905865
-0.31675899 -0.48086697 0.23325586
-0.326233 0.15883297 0.17292166
-0.33811501 0.22300899 -0.015940189
-0.31001198 0.040496945 0.4307456
-0.34885898 0.28104198 -0.18671417
-0.317442 -0.27734405 0.31265688
-0.31342599 -0.10553807 0.37648773
-0.35483199 0.28111398 -0.1855793
-0.320041 -0.16040903 0.35981369
-0.32759199 -0.47922605 0.24143267
-0.32636499 -0.42742008 0.26066685
-0.36080301 0.28118598 -0.18444443
-0.32987198 -0.34812504 0.29386187
-0.32813999 -0.27595705 0.32064247
-0.322602 -0.045172036 0.40628672
-0.32682699 -0.0015270114 0.42615271
-0.32576799 0.042005956 0.44229841
-0.326884 0.074335992 0.42527485
-0.33348098 -0.27526599 0.32462883
-0.34059 -0.34665698 0.30189276
-0.338815 -0.27457708 0.32860947
-0.360293 0.18831295 0.092633724
-0.344145 -0.27388901 0.33258677
-0.341254 -0.15792805 0.37554359
-0.33987498 -0.10259908 0.39603949
-0.38467598 0.28147 -0.17989254
-0.348088 -0.21855408 0.35679054
-0.343656 -0.042970002 0.4217968
-0.35326099 -0.423513 0.28090858
-0.37175301 0.18846595 0.09476757
-0.35338798 -0.21790308 0.36073256
-0.377482 0.18854195 0.095835686
-0.353037 0.0010889769 0.44541359
-0.38946998 0.246889 -0.075601578
-0.39660299 0.281609 -0.17761135
-0.35410199 0.07475698 0.43017483
-0.35943401 0.10070395 0.35393381
-0.36530998 -0.47354907 0.26989269
-0.36397699 -0.42196506 0.28896666
-0.35826299 0.0016089678 0.44925261
-0.36728099 -0.34302002 0.32188368
-0.38281599 0.15962499 0.18335485
-0.38893598 0.18869299 0.097976685
-0.36348099 0.0021259785 0.45308685
-0.37603301 -0.47194606 0.27797651
-0.40709001 0.24710298 -0.072255135
-0.37594798 0.10094595 0.35694456
-0.37453198 -0.21531504 0.37645578
-0.36984301 -0.04024905 0.44108152
-0.40794298 0.22390097 -0.0028133392
-0.375857 0.075083971 0.43411541
-0.38322198 -0.34086007 0.33381844
-0.38506898 -0.21403104 0.38428879
-0.40541598 0.15992796 0.1875577
-0.38430101 0.0041849613 0.46837854
-0.417548 0.189062 0.10334349
-0.39911199 -0.33871704 0.34571075
-0.39710599 -0.26711208 0.37208366
-0.402733 -0.46797401 0.29810381
-0.40129399 -0.41660899 0.3170228
-0.43117899 0.22418398 0.0015945435
-0.43643099 0.24744999 -0.066658497
-0.40996599 -0.53466302 0.27727842
-0.44229501 0.24751896 -0.065535545
-0.409675 -0.33729798 0.35361576
-0.40107799 -0.037029028 0.46407461
-0.44815898 0.24758595 -0.064412117
-0.408456 0.075560987 0.44006348
-0.41444099 0.10149395 0.36401463
-0.43363798 0.16029799 0.19283772
-0.410198 0.0067279935 0.48739386
-0.41408598 0.050339997 0.50701284
-0.45988101 0.24772096 -0.062162399
-0.42542797 0.10164595 0.36604357
-0.42336798 -0.26378804 0.39165449
-0.42176598 -0.20959002 0.41155672
-0.44491899 0.16044199 0.19495678
-0.42860299 -0.26312906 0.39555359
-0.425174 -0.14825803 0.43771362
-0.46599501 0.22459596 0.0082378387
-0.43598199 -0.33378106 0.37329388
-0.46326697 0.18962997 0.11198664
-0.42964697 0.051526964 0.51658964
-0.43740898 -0.20770997 0.42317581
-0.48338801 0.22479695 0.011572838
-0.44780797 -0.20646602 0.43089771
-0.49501902 0.24811399 -0.055389404
-0.452999 -0.20584601 0.43475151
-0.46305901 -0.52649099 0.31740856
-0.45134497 0.010729969 0.51758862
-0.45108998 0.051830947 0.52053356
-0.466214 -0.45865005 0.34591341
-0.47811002 0.13649696 0.27393341
-0.48436701 0.16093397 0.20240974
-0.46336597 -0.204611 0.44244862
-0.45782197 -0.031254053 0.50581741
-0.483679 0.136567 0.27498484
-0.48999798 0.16100198 0.20347786
-0.50656199 0.22505796 0.016032696
-0.46811801 0.076389968 0.45107985
-0.47506797 -0.40618497 0.37242365
-0.50320798 0.19010299 0.11960649
-0.47546601 -0.25726908 0.43044949
-0.47174197 -0.14299101 0.4721756
-0.48413402 -0.52328104 0.33332443
-0.52426898 0.248429 -0.049719334
-0.47887397 -0.20277005 0.4539566
-0.489389 -0.522484 0.33729076
-0.51461101 0.19023395 0.12179041
-0.47787201 0.052198946 0.52548981
-0.48203099 -0.14183706 0.47978544
-0.480223 -0.087364972 0.49965143
-0.49242002 -0.45485097 0.36563063
-0.52971697 0.22531199 0.02050972
-0.48322499 0.052270949 0.52648544
-0.53596097 0.24855298 -0.047442436
-0.49674398 0.10258895 0.37935448
-0.493361 -0.326204 0.41617441
-0.49098802 -0.25534505 0.44200277
-0.52600801 0.19036394 0.12398243
-0.487064 0.014163971 0.54378557
-0.49229699 -0.14068907 0.48737764
-0.50286299 -0.453345 0.37348366
-0.53170502 0.19042796 0.12507963
-0.49392802 0.052414 0.52847767
-0.49722302 0.015133977 0.55123472
-0.50602001 0.076887965 0.4581666
-0.50889301 -0.32417399 0.42777443
-0.51328397 -0.45184702 0.38131952
-0.51153898 -0.40111405 0.3997798
-0.55285501 0.225559 0.02500248
-0.50974399 -0.19913203 0.47685862
-0.54062802 0.16159797 0.21314859
-0.55863601 0.22561997 0.026128769
-0.52412599 0.10293096 0.38452673
-0.51486999 -0.19853097 0.48065948
-0.517869 -0.13784605 0.50628185
-0.51390898 -0.025641024 0.54703856
-0.560175 0.19074196 0.13057947
-0.52765501 0.077160954 0.46224165
-0.53507102 0.103064 0.38660383
-0.53642601 -0.51540202 0.37278366
-0.52103698 -0.08305198 0.52973652
-0.53213799 -0.25029105 0.47260761
-0.54315901 -0.55733198 0.36120987
-0.58175099 0.22585899 0.030642509
-0.538468 0.077294946 0.46428776
-0.52909499 -0.02413702 0.55819273
-0.56154299 0.13749498 0.28981972
-0.57724398 0.190925 0.13389254
-0.54494202 -0.31950098 0.45468378
-0.54041898 -0.19555002 0.49960279
-0.53823197 -0.13559705 0.52132988
-0.60018498 0.24920195 -0.034857273
-0.550071 -0.31883997 0.45850849
-0.54747999 -0.24842209 0.48401356
-0.53919202 -0.023141026 0.5656085
-0.57265097 0.13762099 0.29195547
-0.57994902 0.162036 0.22073364
-0.58861899 0.19104499 0.13610744
-0.54738897 0.05309999 0.53852272
-0.56394702 -0.55414802 0.3769145
-0.56236601 -0.51153904 0.39233971
-0.54637599 -0.080401003 0.54840469
-0.54423398 -0.022645056 0.56931067
-0.558034 -0.39472908 0.43462276
-0.61184901 0.24931496 -0.032556534
-0.56788599 0.10345298 0.39286375
-0.55768299 -0.24718398 0.49159765
-0.56505901 -0.44447201 0.42022276
-0.55851001 -0.13337201 0.53630877
-0.56830597 -0.39333004 0.44231462
-0.60239398 0.16227597 0.2250905
-0.57634598 -0.31691903 0.47085953
-0.56991601 -0.08357805 0.53152466
-0.600402 0.13792598 0.2973218
-0.58974302 0.10370296 0.39705944
-0.57963902 -0.19774002 0.49159956
-0.60594898 0.13798594 0.29839659
-0.57941902 0.053487003 0.54460764
-0.58463699 -0.14076704 0.49618578
-0.63946497 0.22642696 0.041998863
-0.59297901 -0.20193201 0.46991682
-0.63407397 0.19150698 0.14500761
-0.64523101 0.22648096 0.043138504
-0.59238702 0.050583959 0.52565145
-0.597866 0.077996969 0.47562265
-0.60862797 -0.51606804 0.37735367
-0.65099698 0.22653496 0.044282436
-0.60026401 0.0064839721 0.50381184
-0.60794902 -0.25906307 0.43419981
-0.60694897 0.0047670007 0.49302864
-0.60570502 0.047316968 0.50420141
-0.66428 0.24980098 -0.02215147
-0.61704201 0.10400397 0.40233374
-0.616759 -0.33096498 0.40487051
-0.60817802 -0.03728801 0.48198652
-0.63366997 0.13827699 0.30379486
-0.65110499 0.19167298 0.14836264
-0.6124 0.045672953 0.49341869
-0.62152302 -0.26353103 0.41209078
-0.61819601 -0.15078408 0.44174576
-0.630431 -0.33572501 0.38254642
-0.62676299 -0.212565 0.41499472
-0.65284097 0.16279095 0.23496056
-0.66245198 0.19178098 0.15060472
-0.62586498 0.042365968 0.47173071
-0.63340998 0.10417897 0.40551043
-0.63730502 -0.33811897 0.37132168
-0.65844297 0.16284597 0.23606586
-0.66812599 0.19183499 0.15172672
-0.642075 -0.27030307 0.37861347
-0.64651901 -0.41671604 0.33990955
-0.69337296 0.25005597 -0.016336441
-0.66964 0.16295397 0.23827362
-0.69132197 0.22690099 0.052306652
-0.64889699 -0.048233032 0.41619587
-0.66200697 -0.47219402 0.30374861
-0.66044998 -0.42186004 0.31709766
-0.675237 0.16300797 0.23937845
-0.69707799 0.22695196 0.053458691
-0.66118097 -0.22342104 0.35903454
-0.70283502 0.22700197 0.054610729
-0.66132802 -0.0092329979 0.40530062
-0.71081799 0.25020498 -0.012834549
-0.71662998 0.25025296 -0.011665344
-0.67684698 -0.28178102 0.32196951
-0.67513198 -0.22782809 0.33635283
-0.68315697 -0.48029608 0.26904964
-0.68351102 0.13877296 0.3135848
-0.69202602 0.16316599 0.24270344
-0.702142 0.19214696 0.1584878
-0.71434397 0.22710097 0.056917667
-0.672616 0.067047954 0.40428066
-0.68615901 -0.35516804 0.29153585
-0.68214601 -0.23004502 0.32494783
-0.68863297 -0.43227905 0.2709446
-0.69457597 0.13887799 0.31577158
-0.68527597 0.10161197 0.39206743
-0.700109 0.13892996 0.31686878
-0.71913898 0.192298 0.16188383
-0.69756997 -0.061351001 0.33754587
-0.71173799 -0.49125999 0.22215986
-0.72480202 0.19234699 0.16301584
-0.711169 0.13903296 0.31906271
-0.71998698 0.16342098 0.24826765
-0.74309999 0.227341 0.062702656
-0.70879102 0.021934986 0.33814955
-0.71762097 -0.24127203 0.26726341
-0.71669698 0.13908297 0.32016277
-0.72557598 0.16346997 0.24938154
-0.72479701 -0.24354607 0.25559378
-0.722718 -0.18211597 0.27216673
-0.720837 -0.12654406 0.28715849
-0.718826 -0.067091048 0.30319643
-0.72596502 -0.069021046 0.29165983
-0.739003 -0.45094305 0.18844986
-0.73313397 -0.070959985 0.28007364
-0.753106 0.19258595 0.16870165
-0.74840701 -0.30547506 0.20538187
-0.74032801 -0.072906077 0.26844788
-0.74009001 0.13802695 0.31460667
-0.75825697 -0.380418 0.17377377
-0.74755001 -0.074860036 0.25677776
-0.76101398 -0.45911497 0.15239477
-0.74726099 0.13648796 0.30310488
-0.777578 0.22761595 0.069678783
-0.75446099 0.13494295 0.29155588
-0.75909698 0.16375798 0.25610161
-0.76622897 -0.195216 0.20155954
-0.76208001 -0.078795016 0.23329353
-0.76485902 0.045153975 0.25587177
-0.76346797 0.083838999 0.26643562
-0.78043801 -0.38820702 0.13753748
-0.775819 -0.25974005 0.17261744
-0.76893997 0.13183296 0.26833153
-0.77350497 0.0059209466 0.23388863
-0.77804101 0.080517948 0.24301958
-0.79269499 0.19290298 0.17670679
-0.80628496 0.22783297 0.075521469
-0.80287999 -0.396097 0.10087442
-0.79580301 -0.20413798 0.15356588
-0.791475 -0.086764991 0.18578482
-0.79558098 0.00044494867 0.19832087
-0.79417801 0.038170993 0.20869541
-0.80560601 -0.26921505 0.12417364
-0.79693997 0.16016597 0.23087645
-0.80011398 0.075481951 0.20754957
-0.81214398 -0.048297048 0.16194582
-0.81173199 0.15711498 0.20717764
-0.81963497 -0.050246 0.14985561
-0.81917399 0.15557897 0.1952548
-0.82541901 -0.0069670081 0.15024376
-0.82395798 0.031066954 0.16077471
-0.83803499 -0.33528608 0.059326649
-0.831231 -0.15821308 0.10835981
-0.84070802 0.22807997 0.082568645
-0.83550698 0.117504 0.16155148
-0.84051502 -0.010721028 0.12591982
-0.83748102 0.066944003 0.14750242
-0.85339099 -0.34040803 0.03429842
-0.84644598 -0.16259307 0.083713531
-0.84166801 0.15093297 0.15921259
-0.84007198 0.191468 0.1704998
-0.85217398 0.22815895 0.084926605
-0.86111498 -0.34298605 0.021709442
-0.85887998 -0.28619903 0.037518501
-0.85061997 0.11424398 0.1373086
-0.84922498 0.14937097 0.14710474
-0.857907 0.22819799 0.086106777
-0.85754001 -0.060118973 0.088680744
-0.85933 -0.10521108 0.076105595
-0.86521399 -0.06212002 0.076296806
-0.86949998 -0.169236 0.046368599
-0.86443198 0.14622599 0.12273979
-0.86790997 0.059977949 0.098600864
-0.87724501 -0.17146903 0.033821583
-0.87351602 0.10929996 0.10057688
-0.88064897 -0.066147983 0.051382542
-0.87878299 -0.020252049 0.064252853
-0.87721401 0.018333972 0.075070858
-0.89232701 -0.35341305 -0.029163361
-0.881208 0.10763699 0.088236809
-0.88494402 0.016483963 0.062632561
-0.89283001 -0.17596608 0.0085735321
-0.89809197 -0.11577708 0.01344347
-0.89349598 0.18097299 0.085018635
-0.904037 -0.072256982 0.013632774
-0.90049797 0.012756944 0.03759861
-0.92405099 -0.36402708 -0.080872536
-0.91644698 -0.182787 -0.029687405
