# .PCD v0.7 - Point Cloud Data file format
VERSION 0.7
FIELDS x y z
SIZE 4 4 4
TYPE F F F
COUNT 1 1 1
WIDTH 1
HEIGHT 1024
VIEWPOINT 0 0 0 1 0 0 0
POINTS 1024
DATA ascii
0.9164232 0.017150104 0.17591
0.92972523 -0.045831919 -0.0086331367
0.92591923 -0.092633963 -0.024853706
0.91516519 -0.04279393 0.010785103
0.9007802 0.0096080899 0.11859989
0.9113372 -0.089444876 -0.0053400993
0.90791923 -0.041282892 0.020450115
0.9040792 -0.087857962 0.0043730736
0.88931823 0.0095270872 0.11648989
0.90922719 0.027537107 -0.034729958
0.90743822 -0.13557291 -0.021141052
0.8721292 0.0093960762 0.11329317
0.88605624 0.033182085 0.0053200722
0.88570523 -0.13060892 0.0080361366
0.8644132 0.17201406 0.12771606
0.87202221 -0.0338099 0.068318844
0.8785072 -0.12896597 0.017700195
0.87132823 -0.12732887 0.027336121
0.84934324 0.17523408 0.15433407
0.85493821 0.0092530847 0.11004925
0.86317021 0.038752079 0.044883251
0.86417419 -0.12569797 0.036940098
0.83523023 0.14401108 0.22039127
0.84902424 0.0094060898 0.11042404
0.82697922 0.18000907 0.19383001
0.8366732 -0.0264709 0.11544895
0.83461922 0.012611091 0.13205719
0.8405652 0.044249058 0.083972931
0.84707022 -0.18554091 0.031380177
0.82745522 0.014205098 0.14281607
0.8115992 0.11143208 0.22504616
0.82031524 0.015791059 0.15353632
0.83287323 -0.18211687 0.050520897
0.8017332 0.14908707 0.25898886
0.83394122 -0.30809295 -0.007171154
0.82966024 -0.24089396 0.028207302
0.82580721 -0.18041396 0.060048103
0.80004221 0.11164808 0.2253871
0.8053062 0.22474808 0.1815629
0.81175423 -0.067751944 0.12788725
0.80878222 -0.020693898 0.1526289
0.80629224 0.018738091 0.17336226
0.82681423 -0.30618191 0.0025262833
0.8187632 -0.1787169 0.069542885
0.81470323 -0.11444497 0.10333729
0.79323423 0.11284107 0.23420095
0.79794723 0.22623211 0.19467592
0.81173921 -0.17702591 0.079012871
0.78317922 0.15073109 0.27059793
0.79062021 0.22771007 0.20773029
0.79557323 0.2529251 0.16588211
0.79252219 0.021469057 0.19166422
0.80847323 -0.23551989 0.056891918
0.80473822 -0.17534196 0.088450909
0.77097219 0.19019806 0.27730322
0.77606022 0.23064208 0.23366213
0.76882219 0.23210007 0.24656296
0.77438724 -0.013586938 0.19847298
0.75884223 0.078189075 0.33281708
0.7616182 0.23355007 0.25939512
0.78052521 -0.22844386 0.094724178
0.77694422 -0.16866291 0.1259141
0.7549752 0.23449206 0.26750612
0.75911421 0.25999308 0.2311821
0.77359223 -0.22669089 0.10410786
0.75213122 0.1144191 0.24215603
0.75399822 -0.0093829036 0.22564411
0.74225223 0.078009069 0.32954216
0.75944221 -0.10192597 0.17748308
0.74276221 0.23539007 0.27458525
0.75632119 -0.16371691 0.15370703
0.75262821 -0.1003859 0.18662405
0.7431792 -0.052909911 0.21958685
0.73890322 0.2629531 0.25801516
0.74583322 -0.098850965 0.19574118
0.73223722 0.18948805 0.26662731
0.73094022 0.2359311 0.27837324
0.74267322 -0.16044796 0.17210007
0.73007423 0.11374509 0.2342639
0.7270022 0.15050709 0.26231909
0.72644722 0.26404607 0.26738596
0.7313332 0.30226105 0.22277403
0.7201252 0.077750087 0.3251152
0.74296719 -0.28378093 0.11654615
0.72300524 -0.048559904 0.24655819
0.71459222 0.077683091 0.32399702
0.71479619 0.19004208 0.2696209
0.71161222 0.037454069 0.29917526
0.72928721 -0.28013992 0.13514185
0.72235423 -0.15558887 0.19947386
0.70971119 0.23463607 0.26386309
0.71335322 0.30311406 0.22978401
0.70613521 0.14856809 0.24378014
0.70487922 0.18857908 0.25563097
0.70050323 0.0016130805 0.29691792
0.70580721 0.2621851 0.24687529
0.70887619 0.30202907 0.21791601
0.69840419 0.04005307 0.31672096
0.7156902 -0.2765249 0.1536231
0.7054922 -0.089756966 0.24984789
0.69390422 0.0029661059 0.30570698
0.69987422 0.26245606 0.248909
0.73340422 -0.37193286 -0.07010603
0.70539522 -0.20950186 0.19638491
0.70221919 -0.15078092 0.22660017
0.68732524 0.004314065 0.3144722
0.69810623 0.30148208 0.21103716
0.68527323 0.04263407 0.33416319
0.72173023 -0.37229097 -0.0732131
0.6888932 -0.14760387 0.24454784
0.68345523 0.23258507 0.24181795
0.68397224 0.26138908 0.23677206
0.68825221 0.30005008 0.19499588
0.67019022 0.084515095 0.3712883
0.71589321 -0.37247491 -0.074782848
0.6771822 0.18795907 0.24727297
0.6773622 0.23304307 0.245502
0.6700682 -0.03717792 0.31731224
0.71005619 -0.37266088 -0.07636404
0.67241621 -0.082323909 0.29419804
0.66192722 0.12801111 0.34203005
0.6611982 0.0096610785 0.3492713
0.6572172 0.086992085 0.38881207
0.65510821 0.12957507 0.35394192
0.65944821 0.15708107 0.31046629
0.6682952 0.23062408 0.22182798
0.65277421 0.049010098 0.37732697
0.65077722 0.088199079 0.39733887
0.67220223 0.29347408 0.12437916
0.6443572 0.089401066 0.40584087
0.69253719 -0.37323689 -0.081161976
0.64155322 0.13268209 0.37762117
0.6457842 0.16010106 0.33446789
0.64405924 -0.031604946 0.35206318
0.64180022 0.013623059 0.3751049
0.63990623 0.051530063 0.39441586
0.6463002 -0.076469898 0.32920599
0.63481522 0.1342271 0.38939524
0.63537222 0.014934063 0.38366413
0.63157219 0.091792107 0.42276812
0.64286721 -0.13665795 0.30653095
0.6281032 0.13576406 0.40112209
0.63222623 0.16309708 0.35829496
0.64287019 0.23364609 0.2477622
0.62711322 0.054032087 0.41140413
0.61885822 0.094168067 0.43960094
0.62988722 -0.1335789 0.32400894
0.6147542 0.13882011 0.42444324
0.6161952 0.018841088 0.4091959
0.6328482 0.26152009 0.23302794
0.61252922 0.095349073 0.44797897
0.6292522 -0.25364292 0.2710681
0.62618721 -0.18965888 0.30350208
0.6234262 -0.13204789 0.33270693
0.60811919 0.14033806 0.43603611
0.61196822 -0.024746895 0.39493322
0.60542321 0.16901207 0.40539885
0.61002922 0.20098209 0.35575008
0.61913121 0.26415807 0.25763416
0.61056024 -0.1290009 0.35002804
0.59718323 0.022709072 0.43450689
0.59544224 0.060214102 0.4534502
0.59088123 0.023989081 0.44289494
0.6107102 0.30362809 0.22501898
0.58884019 0.097921073 0.46532202
0.59496623 -0.065001905 0.39800596
0.5857082 0.17322606 0.43894196
0.59529024 0.24314409 0.33262825
0.58662421 -0.019343913 0.42878485
0.59875619 0.26807106 0.29417086
0.59399319 -0.18163288 0.3470211
0.59706622 0.30609906 0.2496891
0.59225821 0.076587081 0.30356121
0.60285223 0.34820706 0.18485689
0.58530623 0.27065206 0.31829023
0.58609223 0.077428102 0.30940485
0.59599221 0.34936309 0.19737196
0.58405519 -0.24174488 0.33244705
0.5709902 0.2083751 0.41748095
0.57767123 -0.24006891 0.341115
0.5755862 0.15680707 0.30034924
0.5610162 0.028037071 0.46858025
0.57297319 0.043605089 0.33052206
0.56610119 -0.11849988 0.40986586
0.56347424 -0.057992935 0.44020224
0.56870723 0.12569207 0.3146863
0.56209123 0.24975806 0.39186096
0.55534422 -0.012693942 0.47055626
0.57010019 0.31097507 0.29843807
0.56685323 0.044473112 0.3363142
0.56766224 0.079939067 0.32686901
0.56496221 -0.23673391 0.35837126
0.56225824 -0.17374396 0.38991213
0.56257623 0.12648106 0.32050705
0.55634224 0.25003606 0.39397907
0.56074423 0.045339108 0.34209394
0.55596524 -0.17218292 0.39841604
0.55716521 0.15908307 0.31786489
0.55677319 0.31338209 0.32252693
0.55034822 0.12805307 0.33211899
0.54692423 -0.027115941 0.37332201
0.55015022 0.31457806 0.33450031
0.55192924 0.3831051 0.24453402
0.54207224 0.35842907 0.29569387
0.5327732 0.16209006 0.34105921
0.5288012 -0.024338901 0.39042187
0.53037721 0.049634099 0.37083626
0.52476722 -0.16445386 0.44056702
0.52195519 -0.062708914 0.40649605
0.52231222 0.24367207 0.33142185
0.51760823 0.017490089 0.39120007
0.52374923 0.31274509 0.3131671
0.52228421 0.36175007 0.33178425
0.51460218 0.16432309 0.35833788
0.5153572 0.2010901 0.348629
0.51078123 -0.021583915 0.40742731
0.5520522 -0.37879288 -0.12287903
0.5101912 0.24500406 0.34298706
0.5055272 0.31454509 0.33060217
0.50671721 0.38929707 0.31496
0.54030824 -0.3793329 -0.12662697
0.50243622 -0.23347497 0.37124109
0.49811518 0.24632907 0.35451031
0.49365419 0.020991087 0.41384506
0.49501619 0.089781106 0.39573002
0.48880318 -0.15743995 0.47835207
0.49599919 0.38876009 0.30773306
0.48511419 -0.11012697 0.45419931
0.48313817 0.0549891 0.40615225
0.49063119 0.38849008 0.30411625
0.48113018 0.20237505 0.35738516
0.47418818 -0.1101799 0.45307302
0.47579718 0.20201409 0.35381794
0.47181317 0.02058506 0.40939617
0.47331619 0.089029074 0.38842916
0.47925919 0.35971808 0.30550909
0.47388318 0.35943305 0.3018899
0.46122119 0.019687057 0.40237331
0.45953619 -0.058866918 0.42646313
0.45591718 0.019237101 0.39885616
0.46371117 0.38713211 0.28597832
0.4587552 -0.23535192 0.35775423
0.4536472 0.16395009 0.35076618
0.45441318 0.20056111 0.33952522
0.45531517 0.24365008 0.32629585
0.45675519 0.31245106 0.30517101
0.44764417 0.13209409 0.35686302
0.44447118 -0.021374941 0.4040122
0.48148519 -0.38220894 -0.14599371
0.44257218 -0.1132499 0.43223715
0.44229618 0.13169509 0.35330009
0.44368818 0.19983006 0.33235693
0.43916219 -0.021847904 0.40049791
0.4755922 -0.38251293 -0.14798975
0.43628418 -0.16276896 0.44381618
0.43836617 -0.060823917 0.41247892
0.43757817 0.16279811 0.34004307
0.43464819 0.017424107 0.38475704
0.43603218 0.086097062 0.36363506
0.4368732 -0.23634887 0.35080194
0.42852619 -0.022795916 0.39346218
0.4360922 0.35741508 0.27645826
0.4297632 0.31088907 0.28704023
0.42464218 0.050198078 0.36731386
0.4192932 0.04975611 0.3637619
0.42579418 0.38520211 0.26042509
0.45199919 -0.38376093 -0.15608311
0.41608319 -0.11584187 0.41478395
0.41678119 0.1979841 0.31437588
0.41760817 0.24122006 0.30104685
0.4125312 -0.024227917 0.38288116
0.41329318 0.015594065 0.37060499
0.4460952 -0.38407886 -0.15812969
0.41273019 0.26895511 0.288764
0.4135032 0.30994207 0.27612114
0.40924019 0.083972096 0.3458252
0.41491219 0.38464409 0.25309324
0.44018918 -0.38440192 -0.16019011
0.40947917 -0.23765087 0.34191227
0.40452319 -0.16602993 0.42294025
0.4054502 -0.11688793 0.40778208
0.40645218 -0.063794911 0.39140415
0.40529719 0.1604681 0.3185091
0.40598118 0.19724005 0.3071599
0.40678617 0.24051809 0.29380417
0.40386617 0.083543062 0.3422513
0.39722019 0.014209092 0.35995531
0.3944912 0.15968406 0.31130314
0.39113018 -0.026153922 0.36872721
0.39246318 0.047530055 0.34595919
0.38908118 0.15929008 0.30769396
0.39051017 0.2394591 0.28290796
0.39101219 0.26760006 0.27420712
0.38770819 0.082252085 0.33151293
0.3925702 0.35506606 0.24717903
0.3841202 -0.11899495 0.39373398
0.38169318 0.046632111 0.3388133
0.3871052 0.35476911 0.24350214
0.37888017 0.1953631 0.28905725
0.37502217 -0.027610898 0.35807514
0.3808302 0.30802709 0.25418329
0.37342218 -0.12005687 0.38669109
0.3696422 -0.028097928 0.35451889
0.3753652 0.3077051 0.25051498
0.3766422 0.3826701 0.22731209
0.36425617 -0.028586924 0.35095787
0.36920419 0.26623106 0.25959396
0.37067518 0.35387307 0.23244905
0.39285317 -0.38708997 -0.1770668
0.36554217 -0.23986387 0.32722092
0.3614212 0.12558711 0.29943609
0.35952717 0.010938108 0.33498716
0.36565819 0.38210011 0.21991205
0.38099518 -0.38779294 -0.18139696
0.35233718 0.23695606 0.25736332
0.3480652 -0.030061901 0.34025621
0.37506017 -0.3881489 -0.18357897
0.34559518 0.15610605 0.27870131
0.3479552 0.3060841 0.23211718
0.34382218 0.043453097 0.31369209
0.34119919 -0.12327194 0.3654809
0.34013417 0.15570307 0.27506018
0.3436192 0.38095111 0.20506907
0.33523118 0.19231111 0.2599082
0.33589318 0.23587006 0.24636221
0.33295217 0.042535067 0.30648613
0.3324962 -0.24162996 0.31582403
0.3308222 0.26380408 0.23387909
0.32750818 0.042074084 0.30287409
0.32097018 -0.032543898 0.32234907
0.31980419 0.26310307 0.22650003
0.32107317 0.35114706 0.19908714
0.32148618 0.37979108 0.19016504
0.31419417 -0.12598789 0.34771299
0.31274319 0.15367711 0.25680494
0.31326818 0.1907621 0.24524403
0.31066218 0.0066490769 0.30263519
0.31553319 0.35084009 0.19536018
0.31593817 0.37949908 0.18642902
0.33344817 -0.39072692 -0.19915771
0.31041619 -0.24285686 0.3080411
0.30680519 0.12138808 0.26308632
0.30836919 0.23404306 0.2279501
0.30520418 0.0061670542 0.2990222
0.30409819 -0.073498964 0.32386923
0.30225119 0.18998206 0.23789024
0.30068719 0.075204074 0.2737112
0.30482417 0.3789131 0.17894506
0.2982502 0.30311608 0.198771
0.31556919 -0.39187896 -0.20600271
0.29320517 -0.07454586 0.31668711
0.28826919 -0.035561919 0.30074596
0.28879619 0.0047130585 0.28816414
0.28829518 -0.24412596 0.30011225
0.28479719 0.11968011 0.24844313
0.28279918 -0.036068916 0.29713297
0.28229117 -0.075598955 0.30949116
0.27968118 0.15121108 0.23477411
0.27732119 -0.03657794 0.29351616
0.27870318 0.073398054 0.25911522
0.27375719 0.11881906 0.24109888
0.27415019 0.15079707 0.23109007
0.2751472 0.23182011 0.20572996
0.27275619 0.037403107 0.26658201
0.26635221 -0.037597895 0.286273
0.2652292 -0.13095987 0.31551313
0.26085919 -0.038110912 0.28264618
0.26484919 0.30110008 0.17636395
0.2617372 0.036455095 0.2592802
0.26058421 -0.24576986 0.2899909
0.25795218 0.18682307 0.20832729
0.25582519 0.0017721057 0.26634932
0.2587842 0.25918406 0.18563986
0.2592622 0.3007611 0.17261505
0.25621819 0.035980105 0.25562286
0.25160819 0.1170851 0.226367
0.24947821 -0.24644494 0.28587723
0.2488042 -0.13264191 0.30471611
0.2404992 0.11621207 0.21898031
0.2392592 0.00028610229 0.25539303
0.23493519 0.1157741 0.2152791
0.2356592 0.18522006 0.19345331
0.2368492 0.29939711 0.15758419
0.23232821 -0.13433588 0.29388618
0.22853421 0.033584058 0.23728323
0.2268222 -0.13490295 0.29026794
0.2237892 0.11489409 0.2078681
0.2229802 0.033101082 0.23360395
0.2185162 0.14659709 0.19403696
0.21708921 -0.0017129183 0.24073124
0.21742021 0.032617092 0.22992229
0.2126192 0.11401111 0.20044231
0.2132702 0.18360209 0.1785183
0.2136822 0.22766006 0.16463995
0.21052019 -0.24889195 0.2711792
0.2098082 -0.18663192 0.29515409
0.2059692 -0.0027199388 0.23337889
0.20831721 0.25589907 0.15187025
0.2047482 -0.13718593 0.27576399
0.2014242 0.11312211 0.19300032
0.2017072 0.14531606 0.18284607
0.2020372 0.18278706 0.17102718
0.19969019 -0.083661914 0.25506401
0.1958182 0.1126771 0.18927193
0.19114719 0.2261191 0.14958286
0.1913842 0.2547881 0.14053917
0.1917302 0.29662806 0.12732887
0.1895272 0.03018111 0.21145201
0.19212119 0.34389907 0.11240292
0.1851452 0.18155706 0.15976191
0.1825982 -0.25071788 0.26039314
0.18257719 -0.13949192 0.26120186
0.1798422 0.22534311 0.1420331
0.17774621 -0.045945942 0.22779322
0.1800632 0.25404209 0.13296509
0.1807522 0.3432501 0.10476494
0.1766312 -0.19024491 0.27341318
0.1770182 -0.14007187 0.25755119
0.17385121 0.18073207 0.15223122
0.1714052 -0.25146687 0.25601101
0.1676932 0.11043209 0.17057991
0.16851319 0.22456408 0.13446617
0.1668552 -0.0062819123 0.20752287
0.16902021 0.29522306 0.11210394
0.1655252 -0.19145989 0.26613712
0.1662752 -0.086968899 0.23306322
0.1628392 0.22417206 0.13067532
0.1630372 0.25291711 0.12157202
0.16365521 0.34226906 0.093278885
0.16020019 -0.25222588 0.25159121
0.15996321 -0.19206989 0.26249313
0.1606852 -0.087524891 0.22938299
0.15686519 0.17948711 0.14090729
0.1553542 -0.048083901 0.21302414
0.1560932 0.063147068 0.17777395
0.1545932 -0.25260997 0.24936724
0.1509492 0.14141911 0.1490612
0.1514712 0.22338706 0.12308121
0.1489802 -0.25299597 0.24713421
0.14881919 -0.19329488 0.25519514
0.14508121 0.10861605 0.1555562
0.1455082 0.17865109 0.13333511
0.14577819 0.22299206 0.11927795
0.1441202 -0.049160898 0.20561504
0.1462092 0.29380506 0.096814156
0.1433662 -0.2533859 0.24488688
0.13941319 0.10815907 0.15179014
0.1396012 0.14054108 0.14150906
0.1402462 0.25140411 0.10632801
0.1404912 0.29344809 0.092982292
0.13286319 -0.050242901 0.19819307
0.1330892 -0.0093839169 0.18521309
0.1320592 -0.19514287 0.24422026
0.1323382 -0.14476192 0.22821617
0.1280562 0.10724211 0.1442461
0.12842619 0.17739111 0.1219492
0.1274382 -0.0099059343 0.18147993
0.1288112 0.25064206 0.098678112
0.1267242 -0.14535487 0.22453308
0.12701219 -0.090889931 0.20722008
0.11755119 0.2920121 0.077609062
0.11628519 0.023704112 0.16297531
0.11128719 0.17612106 0.11052608
0.1114852 0.2206071 0.096373081
0.11060719 0.023198068 0.15921926
0.10962519 -0.19762695 0.22953415
0.10586719 0.24910706 0.083334923
0.1039622 -0.25618494 0.22889805
0.10400219 -0.19825196 0.22585297
0.0996802 0.13743609 0.11495018
0.1001142 0.24872106 0.079488277
0.1002782 0.2909261 0.066032887
0.098370194 -0.19887888 0.22216606
0.094089195 0.17484307 0.099070072
0.094355196 0.24833411 0.075636864
0.092917189 -0.14894092 0.20234919
0.093115196 -0.094302893 0.18492031
0.088493198 0.21899706 0.081019878
0.087017193 -0.25742495 0.22189808
0.082376197 0.10353106 0.11390591
0.082476199 0.13608909 0.103508
0.082947195 0.28983206 0.054422855
0.083094195 0.33759707 0.039172173
0.081362195 -0.25784397 0.21954393
0.076194197 -0.055732906 0.16083908
0.0760822 -0.09602797 0.17371607
0.070595197 -0.015188932 0.14393902
0.070682198 0.019616067 0.13281107
0.070773199 0.055836082 0.12123108
0.064783201 -0.056846917 0.15332127
0.065034196 0.055339098 0.1174283
0.059662197 0.24599206 0.052442074
0.059288196 0.054841101 0.11362219
0.058883198 -0.1525799 0.18002415
0.047841199 0.10069907 0.090978146
0.047940195 0.17138708 0.068331242
0.047676198 -0.017338932 0.12880993
0.049628198 -0.41208994 -0.31846905
0.047343194 -0.26041496 0.20520926
0.041931197 -0.017879903 0.12501907
0.042272195 0.28724808 0.027176857
0.036435194 0.28687507 0.023268223
0.036476195 0.33485508 0.007874012
0.037345197 -0.41315997 -0.32413673
0.035975195 -0.26149988 0.19921732
0.030486196 0.099268079 0.079458237
0.030505195 0.13198709 0.068952084
0.030526197 0.17007309 0.056733131
0.030440196 0.015974104 0.10620403
0.030618196 0.33450806 0.0039410591
0.024602197 -0.20716095 0.17390919
0.024617197 -0.15627086 0.15755701
0.018881196 0.16919208 0.048977852
0.013050197 0.16875011 0.045094967
0.013017196 0.28537506 0.0075850487
0.012717197 -0.41534293 -0.33562803
0.0072511965 0.097343087 0.064038277
0.0072111962 0.16830707 0.041208267
0.0071461964 0.28499806 0.0036540031
0.0072981967 0.013865054 0.090907097
0.0071191965 0.33311409 -0.01183176
0.0073641967 -0.10305595 0.12854004
0.0003741961 -0.41645491 -0.34144878
-0.0042738039 -0.022251904 0.094530106
-0.0043548029 0.049282074 0.071475983
-0.0058068037 -0.41701686 -0.3443799
-0.0040628035 -0.21041691 0.1551671
-0.0041198041 -0.15938795 0.1387229
-0.010409804 0.21197706 0.015007019
-0.010079803 -0.022804916 0.090699196
-0.010128804 0.01226908 0.079390049
-0.010179803 0.048769057 0.067620277
-0.0097358041 -0.26694191 0.16941404
-0.0098148044 -0.21107292 0.15140724
-0.018180802 -0.41814888 -0.3502779
-0.015573803 -0.21172988 0.14764309
-0.021779805 0.011199057 0.071691036
-0.024375804 -0.41872096 -0.35324478
-0.021228805 -0.26831889 0.16192389
-0.021338802 -0.21238887 0.14387608
-0.021548804 -0.10604489 0.10954285
-0.027442802 -0.06595391 0.09258604
-0.027615804 0.010662079 0.067836285
-0.030575804 -0.41929591 -0.35622597
-0.027110804 -0.21304893 0.14010286
-0.039746802 0.16472208 0.0099449158
-0.039092805 -0.067117929 0.084918022
-0.040077802 0.28194606 -0.027961731
-0.039308805 0.0095850825 0.060110092
-0.045527805 0.12590408 0.01843214
-0.045055803 -0.026147902 0.067630291
-0.045878801 0.23875606 -0.018083096
-0.045278806 0.045666099 0.044390202
-0.050441805 -0.16445494 0.10837603
-0.050629806 -0.10906994 0.090442181
-0.055868801 -0.27248991 0.13935328
-0.056263801 -0.16509497 0.10456419
-0.056467805 -0.10967886 0.086607933
-0.063857809 0.28039706 -0.043879986
-0.075461805 0.20727807 -0.028386116
-0.074391797 -0.028970897 0.048287868
-0.074717805 0.043046057 0.024910927
-0.080278799 -0.029539943 0.044406891
-0.079613805 -0.16767097 0.089272976
-0.079880804 -0.11213195 0.071233273
-0.087151811 0.16106707 -0.021602154
-0.090750799 -0.27672088 0.11663628
-0.099072799 0.16014206 -0.029533863
-0.099330798 0.20553809 -0.04430294
-0.097985804 -0.031254888 0.032736301
-0.09949781 0.23501807 -0.053894997
-0.096907809 -0.22109997 0.094512939
-0.1054918 0.23459709 -0.057894707
-0.1057488 0.27765107 -0.071911812
-0.1043328 0.040394068 0.0053200722
-0.1024318 -0.27814496 0.1090312
-0.1100478 0.0030070543 0.013393879
-0.10895979 -0.17092597 0.070063114
-0.11484879 -0.17158186 0.066207886
-0.1152138 -0.11585486 0.048040867
-0.1216938 -0.033559918 0.017111301
-0.1238118 0.27646011 -0.083995819
-0.12074579 -0.17223895 0.062349319
-0.1211268 -0.11648095 0.044159889
-0.1273398 -0.076023936 0.026866913
-0.1276378 -0.034139931 0.013194084
-0.1281528 0.038249075 -0.01043272
-0.1266498 -0.17289793 0.058485985
-0.1353498 0.20289606 -0.068316936
-0.1358888 0.27566111 -0.092076778
-0.1431518 -0.43025494 -0.41214085
-0.13175879 -0.28173494 0.089941025
-0.1321768 -0.22521389 0.071487904
-0.1407308 0.1181491 -0.044788837
-0.1380818 -0.22590494 0.067635059
-0.1384798 -0.17422092 0.05074501
-0.1470518 0.15639806 -0.061448097
-0.1460948 0.036627054 -0.022295952
-0.14485081 -0.11899889 0.028594017
-0.15275981 0.11715806 -0.052774906
-0.15308081 0.1559251 -0.065456867
-0.1517828 -0.00091892481 -0.01415205
-0.1621038 -0.43219495 -0.42188311
-0.15850081 0.083337069 -0.045866013
-0.1591188 0.15545011 -0.06947279
-0.1574688 -0.037059903 -0.006456852
-0.16621681 0.27364606 -0.11236382
-0.16377281 -0.0020529032 -0.022064686
-0.1622228 -0.17688489 0.035211086
-0.1811118 -0.43416786 -0.43174601
-0.1686898 -0.1215409 0.012955189
-0.1777088 0.19976509 -0.09654808
-0.1783988 0.27283311 -0.12051201
-0.1731118 -0.28683388 0.063035965
-0.1840788 0.22903806 -0.1103549
-0.1938148 -0.43550193 -0.43839169
-0.18010581 -0.17889988 0.023515224
-0.18987779 0.19886011 -0.10465813
-0.18748081 -0.040015936 -0.02622509
-0.18783879 -0.0043368936 -0.037942886
-0.18664379 -0.12346387 0.001180172
-0.1955018 0.15258008 -0.093663692
-0.1930718 -0.08276391 -0.016341686
-0.1909418 -0.28904498 0.051440239
-0.1926448 -0.12410891 -0.0027546883
-0.20117781 0.11314607 -0.084907055
-0.20557781 -0.041806936 -0.038140774
-0.20405179 -0.18160987 0.0078558922
-0.2046648 -0.1254009 -0.010635853
-0.21335579 0.11213106 -0.092987061
-0.2190728 0.078100085 -0.085993767
-0.2204358 0.19658011 -0.12501812
-0.2171938 -0.085258961 -0.0321908
-0.22077879 0.22641206 -0.13484287
-0.21547081 -0.23504591 0.017154217
-0.2160698 -0.18297493 0
-0.22517081 0.077570081 -0.090033054
-0.2232428 -0.085885882 -0.036163807
-0.2274358 0.26954311 -0.15330172
-0.2208018 -0.29276693 0.03202486
-0.22275279 -0.12735188 -0.022495747
-0.23271079 0.19566005 -0.13319588
-0.24489681 -0.44098794 -0.46553373
-0.2281158 -0.18434596 -0.007874012
-0.23350279 -0.23719597 0.0053958893
-0.2435108 0.075970054 -0.10217905
-0.24393679 0.10957211 -0.1132741
-0.24443279 0.14868706 -0.12618876
-0.24539681 0.22464007 -0.15126801
-0.24594979 0.26829207 -0.16568089
-0.24289979 0.027774096 -0.086265087
-0.25773582 -0.44239795 -0.47246408
-0.25007781 0.10905606 -0.11734676
-0.25118381 0.1942721 -0.14550114
-0.24806379 -0.046035945 -0.066108704
-0.24697481 -0.12997591 -0.03837204
-0.25622383 0.1085391 -0.12142372
-0.25775382 0.22374809 -0.15951014
-0.27060381 -0.44382191 -0.47944975
-0.25160483 -0.23936093 -0.0064020157
-0.25229782 -0.18710792 -0.02367878
-0.25912982 -0.13129687 -0.046339035
-0.26972482 0.19287306 -0.15784979
-0.26579583 -0.090321898 -0.06411171
-0.26638481 -0.047869921 -0.078166962
-0.27074781 0.26661009 -0.18225813
-0.26291382 -0.29805195 0.0046539307
-0.26521882 -0.13195992 -0.050326824
-0.27592281 0.1924051 -0.16197681
-0.27634782 0.22240108 -0.17191172
-0.27301881 -0.012506902 -0.094108105
-0.26977283 -0.24154294 -0.018242836
-0.27051482 -0.18919694 -0.035583973
-0.27802381 -0.091602921 -0.072142124
-0.27915981 -0.013100922 -0.098155975
-0.27660182 -0.18989694 -0.039558887
-0.2876558 0.14521909 -0.15491009
-0.28414881 -0.092245936 -0.076161861
-0.28477681 -0.049717903 -0.090269089
-0.28942981 0.26533806 -0.19474411
-0.28107482 -0.30034494 -0.0071439743
-0.2826958 -0.19059789 -0.043540955
-0.28353283 -0.13395786 -0.062326908
-0.29275981 0.071646094 -0.13478374
-0.29386082 0.14471906 -0.15903091
-0.29455882 0.19099307 -0.17438698
-0.29028082 -0.092889905 -0.080187798
-0.29092181 -0.050336897 -0.09431076
-0.29202983 0.023217082 -0.1187129
-0.29895082 0.071100056 -0.13888073
-0.30515182 0.070552111 -0.14298582
-0.30629781 0.14371407 -0.16729307
-0.30702382 0.19004506 -0.18268776
-0.29930383 -0.30265391 -0.018983841
-0.30191582 -0.13597095 -0.074369907
-0.31374782 0.2196781 -0.19685268
-0.31444982 0.26362711 -0.21146393
-0.32886681 -0.45042396 -0.51160097
-0.31812382 0.10330206 -0.16246605
-0.31876481 0.14270508 -0.17557383
-0.32379583 0.068902075 -0.15532494
-0.32500982 0.1421991 -0.17972279
-0.32627881 0.21876109 -0.20520782
-0.33059981 0.10223907 -0.17073774
-0.3320488 0.18813705 -0.19934797
-0.3279618 -0.054081917 -0.11867571
-0.33255783 0.21830106 -0.20939493
-0.34842381 -0.45269597 -0.52258587
-0.32653481 -0.13867795 -0.090494156
-0.3354308 0.019157112 -0.147367
-0.35495681 -0.45345986 -0.52627373
-0.32983682 -0.30653989 -0.038811684
-0.33082581 -0.2489289 -0.058012962
-0.33270881 -0.13935888 -0.094535828
-0.34379682 0.14067209 -0.19219971
-0.34513682 0.21737808 -0.21778202
-0.34100381 -0.019123912 -0.13890791
-0.3614988 -0.45422995 -0.52998209
-0.33596581 -0.30732191 -0.042789936
-0.33888981 -0.14004087 -0.098583698
-0.35007381 0.14016008 -0.19637012
-0.3522228 0.26103008 -0.23670292
-0.3680478 -0.4550029 -0.5337019
-0.35564482 0.10009807 -0.18733692
-0.35635981 0.13964808 -0.20054293
-0.35346681 -0.020345926 -0.14712
-0.3648808 0.26015508 -0.2451601
-0.35643581 -0.19914794 -0.091692924
-0.35748482 -0.1420989 -0.11075878
-0.36758181 0.065002084 -0.18429613
-0.3652848 -0.057879925 -0.14320993
-0.36596382 -0.021573901 -0.15534973
-0.3666698 0.016214073 -0.16798306
-0.36263081 -0.1998719 -0.09573698
-0.36883381 -0.20059693 -0.099786758
-0.38082182 0.097935081 -0.20402193
-0.37922183 0.015027106 -0.17626715
-0.38791382 0.13706607 -0.22149372
-0.38882983 0.18377507 -0.2371397
-0.40751481 -0.4597249 -0.55634594
-0.39278182 0.062744081 -0.20096588
-0.39032882 -0.060443938 -0.15967369
-0.39666882 0.25795108 -0.26639414
-0.39180782 0.013834059 -0.18456984
-0.38528582 -0.31365192 -0.074800014
-0.38749382 -0.20278394 -0.11196375
-0.38863382 -0.14555991 -0.13114691
-0.39979181 0.096300066 -0.21658993
-0.39573982 -0.10408795 -0.14938688
-0.40305081 0.25750709 -0.27065611
-0.39811182 0.013235092 -0.18872976
-0.4028978 -0.061734915 -0.16793585
-0.40364581 -0.025292933 -0.18016577
-0.40442482 0.012636065 -0.19289494
-0.3988848 -0.25726092 -0.102314
-0.41176683 0.06103611 -0.21352005
-0.4124788 0.095203102 -0.22499275
-0.4158408 0.2566151 -0.27919769
-0.43399081 -0.46295488 -0.57174969
-0.40741882 -0.14765787 -0.14343977
-0.41013581 -0.31686294 -0.090919971
-0.41136381 -0.25879896 -0.11043406
-0.42771381 0.2112661 -0.27281713
-0.41636783 -0.31767094 -0.094963074
-0.4187538 -0.20646489 -0.13235998
-0.4324398 0.13339806 -0.25105095
-0.42813781 -0.064336896 -0.18452215
-0.4297598 0.010221064 -0.20960569
-0.42260781 -0.3184799 -0.099009991
-0.43719882 0.058740079 -0.23033714
-0.44357681 0.058162093 -0.23455381
-0.4416258 -0.029067934 -0.20516872
-0.44247681 0.0090050697 -0.21799374
-0.43760583 -0.20869386 -0.14465714
-0.43889281 -0.15118694 -0.16403198
-0.4461748 -0.10951686 -0.18244982
-0.4471558 -0.066303909 -0.19701672
-0.45340881 0.20934606 -0.28993607
-0.4563618 0.057002068 -0.24300671
-0.45806882 0.1312741 -0.26805878
-0.45915082 0.17831308 -0.28392506
-0.45435283 -0.03033793 -0.21354675
-0.48065183 -0.46876597 -0.59930992
-0.45154181 -0.1526109 -0.17230511
-0.46276581 0.056420088 -0.24724007
-0.46072882 -0.030974925 -0.21774197
-0.47204682 0.17730409 -0.29250193
-0.46624681 -0.068285942 -0.20955801
-0.46711281 -0.031613946 -0.22194195
-0.47850981 0.17679709 -0.29680109
-0.47350681 -0.032254934 -0.22615194
-0.48203084 0.054666102 -0.25997305
-0.47796783 -0.11296487 -0.20328712
-0.48083481 0.0053200722 -0.24328709
-0.47693682 -0.15547895 -0.18891382
-0.48631784 -0.033540905 -0.23458004
-0.4872568 0.0047010779 -0.24752092
-0.51424479 -0.47304392 -0.61947489
-0.49491581 0.053490102 -0.26848888
-0.49273583 -0.034185946 -0.23880291
-0.50325078 0.12750709 -0.29803514
-0.49714282 -0.11505294 -0.21585274
-0.50521278 0.2054491 -0.32444286
-0.5063408 0.25025105 -0.33962202
-0.52774477 -0.4747839 -0.62765408
-0.50871778 0.086803079 -0.28872585
-0.51094681 0.17424709 -0.31837082
-0.49962679 -0.26978087 -0.16783094
-0.50448179 -0.32918286 -0.15208387
-0.50887078 -0.15910387 -0.20979309
-0.52169478 0.0856601 -0.29731607
-0.52398181 0.17321807 -0.32703972
-0.51639777 -0.11715686 -0.22846603
-0.51753378 -0.073641896 -0.24323797
-0.52478576 0.20396811 -0.33747768
-0.5123688 -0.27137995 -0.1761117
-0.51528281 -0.15983391 -0.21398401
-0.52495879 -0.037435889 -0.26000071
-0.53705579 0.17218411 -0.33573008
-0.53787881 0.20297509 -0.3461957
-0.56166178 -0.47921097 -0.64838791
-0.53572977 -0.11927593 -0.24112892
-0.54443878 0.20247608 -0.35056305
-0.53790981 -0.038746893 -0.26851892
-0.53154778 -0.27379286 -0.18857479
-0.53457278 -0.16203487 -0.22659111
-0.54775876 0.083357096 -0.31456614
-0.55016279 0.17114508 -0.3444438
-0.54219079 -0.11998594 -0.2453618
-0.55223978 0.2469871 -0.3702569
-0.53795677 -0.27460086 -0.19273901
-0.5486598 -0.12069798 -0.24959803
-0.55758381 0.2014761 -0.35931587
-0.54274476 -0.33423686 -0.17687178
-0.5573988 -0.040724933 -0.28133678
-0.55847776 -0.0022109151 -0.29446077
-0.56854481 0.12201208 -0.34134007
-0.56989276 0.16957706 -0.35755873
-0.56162781 -0.12212586 -0.25809097
-0.56286579 -0.078414917 -0.27299595
-0.56500679 -0.0028489232 -0.2987628
-0.55556881 -0.33593786 -0.1851778
-0.5587638 -0.22319496 -0.22362804
-0.5681228 -0.12284291 -0.26234293
-0.6026758 -0.48466897 -0.67382097
-0.57953179 0.045701087 -0.32439375
-0.56842577 -0.33764696 -0.1935029
-0.57338476 -0.16648495 -0.25194788
-0.58242476 -0.080484867 -0.28583097
-0.57486677 -0.33850491 -0.1976738
-0.57988381 -0.16723192 -0.25619268
-0.59858179 0.24366611 -0.40117693
-0.59120679 -0.0054138899 -0.31602287
-0.5813188 -0.33936489 -0.20184994
-0.58306777 -0.28031492 -0.22204208
-0.60031581 0.078682065 -0.34934187
-0.60295677 0.16693807 -0.37953281
-0.59419781 -0.12572694 -0.2794137
-0.60388476 0.1979351 -0.39013672
-0.5977788 -0.0060599446 -0.32035208
-0.60959679 0.1664061 -0.38394594
-0.60073781 -0.12645292 -0.2836957
-0.6020658 -0.08257091 -0.29871893
-0.60318977 -0.045397937 -0.31144285
-0.60436076 -0.0067068934 -0.32468796
-0.59603381 -0.2819649 -0.23046112
-0.61247879 0.042639077 -0.34615183
-0.60728776 -0.12717986 -0.28798485
-0.60072178 -0.3419559 -0.21441078
-0.60253078 -0.28279293 -0.2346797
-0.6190958 0.042022109 -0.35052299
-0.6152038 -0.083968878 -0.30733585
-0.61070776 -0.22950292 -0.25745583
-0.62178779 -0.084670901 -0.311656
-0.63054478 0.19588411 -0.40788174
-0.65791976 -0.49219596 -0.70868206
-0.61370277 -0.34369493 -0.22281313
-0.61724281 -0.23029995 -0.26171207
-0.61906981 -0.17175889 -0.28178692
-0.63345981 0.075714111 -0.37126684
-0.63866478 0.24077308 -0.4279151
-0.62378377 -0.23109889 -0.26596975
-0.6401158 0.075116098 -0.37566805
-0.63616878 -0.048784912 -0.33311796
-0.6718328 -0.49412286 -0.71757174
-0.62671679 -0.34544086 -0.23123598
-0.6467818 0.074517071 -0.38007689
-0.64158976 -0.086786866 -0.32464504
-0.67880577 -0.49509287 -0.72204208
-0.63323778 -0.34631789 -0.23545504
-0.64537281 -0.17481387 -0.29896069
-0.66148078 0.1140911 -0.40294504
-0.65339178 -0.13232088 -0.31815481
-0.6573438 -0.011939943 -0.35957813
-0.65004277 -0.23431492 -0.28306293
-0.6723268 0.23833007 -0.45036602
-0.6735388 0.072104096 -0.39777088
-0.66322678 -0.2359339 -0.29164076
-0.6843158 0.19172108 -0.44365883
-0.69001478 0.15992308 -0.43737173
-0.67993778 -0.13529789 -0.3355217
-0.69263977 0.23685008 -0.46391201
-0.6827268 -0.053596914 -0.36370993
-0.67255479 -0.35162187 -0.26088905
-0.6784578 -0.17867386 -0.32055807
-0.68812281 -0.091784954 -0.35515785
-0.6894148 -0.054290891 -0.36810303
-0.67913878 -0.35251296 -0.26514578
-0.68119377 -0.29288793 -0.2857337
-0.68307179 -0.23837793 -0.30455303
-0.70187277 0.11061209 -0.429708
-0.69480777 -0.092505932 -0.35954189
-0.7349748 -0.50302386 -0.75845098
-0.68970478 -0.2391969 -0.30886889
-0.69175577 -0.18023098 -0.32923698
-0.70150077 -0.093228936 -0.36392879
-0.7041918 -0.016602933 -0.39041615
-0.69634676 -0.24001694 -0.31318998
-0.71541476 0.1094411 -0.43867779
-0.70663381 -0.13830388 -0.352983
-0.71092379 -0.017275929 -0.39484692
-0.7194708 0.032585084 -0.4167738
-0.71333081 -0.1390599 -0.35736275
-0.72504878 0.18854511 -0.47075605
-0.72668779 0.23435807 -0.4866128
-0.70770681 -0.29631889 -0.30293274
-0.7244128 -0.018625915 -0.40372372
-0.73430079 0.066588104 -0.43794107
-0.72974378 -0.058490932 -0.39459085
-0.7512328 0.15493309 -0.47802591
-0.74021679 -0.14210391 -0.37494373
-0.7343688 -0.29978287 -0.32022476
-0.7500388 -0.060614944 -0.40791702
-0.74532777 -0.18653691 -0.36418915
-0.76022178 0.028712094 -0.44365788
-0.76155776 0.064097106 -0.45595407
-0.75206578 -0.18733287 -0.36858416
-0.76996577 0.10469908 -0.47481108
-0.77181476 0.1532461 -0.49168968
-0.76361579 -0.062038898 -0.41683102
-0.77524579 0.062842071 -0.46500111
-0.7704218 -0.062753916 -0.42129898
-0.78758579 0.026098073 -0.46170807
-0.7840578 -0.064188898 -0.43025112
-0.77911979 -0.19054091 -0.38622808
-0.79939878 0.15097606 -0.51000071
-0.78939676 -0.1027869 -0.42152691
-0.77901679 -0.36614788 -0.32970905
-0.78356081 -0.25086892 -0.36990213
-0.80438381 0.10168707 -0.49760008
-0.79622579 -0.10353494 -0.42600298
-0.80757779 0.18205011 -0.52563477
-0.78575081 -0.36707497 -0.33405876
-0.78814578 -0.30681396 -0.3550849
-0.79270279 -0.19215488 -0.3950839
-0.80306679 -0.10428488 -0.43048286
-0.80616981 -0.026868939 -0.45750999
-0.81510878 0.023458064 -0.47985792
-0.82019377 0.14925808 -0.52380371
-0.80391777 -0.2534219 -0.38313293
-0.82346576 0.058403075 -0.49685669
-0.81494677 -0.1506269 -0.42378807
-0.81993377 -0.028266907 -0.46656084
-0.83039379 0.057762086 -0.50143385
-0.82364279 -0.10654593 -0.44395971
-0.83541077 0.17984205 -0.54413795
-0.81526679 -0.31038094 -0.37265873
-0.81753677 -0.25513494 -0.39198494
-0.81999081 -0.19540989 -0.4128747
-0.84108078 0.14752811 -0.53766394
-0.83052278 -0.1073029 -0.44846487
-0.84239578 0.17928606 -0.54878092
-0.8337388 -0.029670894 -0.47563791
-0.82683879 -0.19622886 -0.41733885
-0.84065676 -0.030375898 -0.48018694
-0.84973979 0.020122111 -0.50268888
-0.86205781 0.14578611 -0.55158472
-0.8493098 -0.15457797 -0.44623804
-0.86907178 0.1452021 -0.5562377
-0.87218481 0.053885102 -0.52903509
-0.86842877 -0.0332129 -0.49844694
-0.87918478 0.0532341 -0.53365707
-0.8720088 -0.11188495 -0.47562885
-0.87539679 -0.033925891 -0.50302696
-0.86812776 -0.20118189 -0.44424582
-0.87698179 -0.15777397 -0.46431208
-0.89864177 0.17479306 -0.58616114
-0.89087778 -0.15938294 -0.47338581
-0.89987081 -0.11497796 -0.49386787
-0.90337479 -0.036797941 -0.52141476
-0.88793379 -0.38125086 -0.40003681
-0.89315879 -0.2647059 -0.44110394
-0.91846281 0.14107406 -0.58900499
-0.90686178 -0.11575592 -0.4984417
-0.91990876 0.17308509 -0.60029173
-0.8948248 -0.3822149 -0.4044857
-0.91386276 -0.11653495 -0.5030241
-0.91742581 -0.038244903 -0.53065014
-0.9304058 0.090533078 -0.58100414
-0.93413877 0.17193907 -0.60974789
-0.93390679 0.011945069 -0.55815983
-0.92789876 -0.11810088 -0.51220989
-0.9412728 0.17136407 -0.61448669
-0.93152076 -0.039698899 -0.53991175
-0.9469198 0.13868308 -0.60788012
-0.93281877 -0.16425991 -0.50076914
-0.93858278 -0.040427923 -0.54455185
-0.9224928 -0.3860929 -0.42233801
-0.92793679 -0.26914287 -0.46368694
-0.95174181 0.088625073 -0.59511805
-0.95556778 0.17020911 -0.62398291
-0.9437778 -0.081205964 -0.53503084
-0.94565576 -0.041159928 -0.54920006
-0.93492281 -0.27003694 -0.46822214
-0.93775678 -0.20960188 -0.48960304
-0.96121281 0.13747907 -0.61735773
-0.94902778 -0.12046289 -0.52603483
-0.95084679 -0.08196795 -0.53966475
-0.9660188 0.087345064 -0.60456085
-0.95180678 -0.21131086 -0.49875307
-0.9631688 -0.1220479 -0.5352869
-0.96694076 -0.043364942 -0.56318283
-0.97296178 -0.21389091 -0.51252604
-0.97130579 -0.39297092 -0.4538188
