# .PCD v0.7 - Point Cloud Data file format
VERSION 0.7
FIELDS x y z
SIZE 4 4 4
TYPE F F F
COUNT 1 1 1
WIDTH 1
HEIGHT 1024
VIEWPOINT 0 0 0 1 0 0 0
POINTS 1024
DATA ascii
0.42080238 -1.0505722 -0.17192841
0.4201774 -0.98010904 -0.16212845
0.41895938 -0.84270006 -0.14302015
0.41407639 -0.97967905 -0.16095924
0.4128744 -0.84230214 -0.1418581
0.40133539 -0.91445404 -0.14967632
0.4007144 -0.84151012 -0.13953733
0.3993324 -0.6788941 -0.1169343
0.39191139 -0.51559013 -0.093136311
0.3852264 -0.43637007 -0.081031322
0.38916638 -0.91363412 -0.14734936
0.38630539 -0.56705612 -0.099192142
0.38360938 -0.97755212 -0.15512228
0.38249341 -0.84033304 -0.13606024
0.38081938 -0.63448304 -0.10746145
0.37984741 -0.51495606 -0.090855122
0.37318841 -0.43577415 -0.078762531
0.3764264 -0.83994514 -0.13490343
0.37575141 -0.75567609 -0.12319708
0.37512439 -0.67747706 -0.11233521
0.37382039 -0.51464111 -0.089715481
0.36659938 -0.36258811 -0.067503452
0.37144241 -0.97671312 -0.15279436
0.3656674 -0.2444281 -0.051091194
0.36820439 -0.56607515 -0.095763206
0.3659074 -1.046612 -0.16139555
0.36269939 -0.6334601 -0.10402536
0.3592374 -0.18744713 -0.042088509
0.36217439 -0.56575114 -0.094622135
0.3551504 -0.43488711 -0.075357437
0.3536914 -0.24392313 -0.048845291
0.34817839 -0.30619913 -0.056400299
0.3477084 -0.24367207 -0.047721386
0.34728238 -0.1869691 -0.039851189
0.3501254 -0.56510609 -0.092341423
0.34313938 -0.4343031 -0.073091507
0.3446044 -0.63245004 -0.10059309
0.34130839 -0.18673104 -0.038730145
0.34410438 -0.56478506 -0.091201305
0.3406024 -0.9104231 -0.13807154
0.3385784 -0.63211614 -0.099450111
0.3348954 -0.1257121 -0.029176235
0.33061638 -0.36093014 -0.060727119
0.32893339 -0.12548906 -0.028060436
0.32120338 0.12674791 0.0080165863
0.32058638 0.21457291 0.020202637
0.32266238 -0.080835044 -0.020782471
0.32234541 -0.035801113 -0.014534473
0.32462838 -0.36065811 -0.059601307
0.32943138 -1.0440521 -0.15440655
0.32340139 -0.18602413 -0.035374165
0.32297438 -0.12526804 -0.026946545
0.3149994 0.1673739 0.0147295
0.31415439 0.28973192 0.031703472
0.3161394 0.0023248792 -0.0081653595
0.3233614 -1.043632 -0.1532445
0.32081139 -0.67437214 -0.10202551
0.30935639 0.12708092 0.010216713
0.3077074 0.3701539 0.043930531
0.31729439 -1.0432131 -0.15208244
0.3118614 -0.24218804 -0.040994167
0.3144964 -0.63079411 -0.094886303
0.3026464 0.24559188 0.027725697
0.3020184 0.33985192 0.040798664
0.30716339 -0.43257707 -0.066308498
0.3058944 -0.24194413 -0.039875507
0.3084814 -0.63046604 -0.093747139
0.30803138 -0.56289011 -0.084378242
0.3076874 -0.51125509 -0.077219486
0.2969434 0.21516389 0.024581909
0.29833138 0.0029008985 -0.0048451424
0.29916438 -0.12439007 -0.022493362
0.29134339 0.16800094 0.019117832
0.2924014 0.0030909181 -0.0037403107
0.29023939 0.3400929 0.042972565
0.28927541 0.49035791 0.06380558
0.29910639 -1.0419672 -0.14860249
0.29602841 -0.56226915 -0.082108498
0.29569739 -0.51065606 -0.07495451
0.28590938 0.09284389 0.0097756386
0.28466639 0.29038692 0.037154675
0.28622639 0.04250592 0.002799511
0.2836234 0.45607191 0.060118675
0.28921139 -0.43173105 -0.062926292
0.2926074 -0.97142607 -0.1377244
0.29220438 -0.90731508 -0.12883949
0.28727439 -0.1239571 -0.020270348
0.2803064 0.042685926 0.0039014816
0.2770094 0.57692391 0.077933788
0.28278339 -0.35878211 -0.051729202
0.28133339 -0.12374204 -0.019159317
0.28403538 -0.56165308 -0.079842091
0.27408138 0.093183935 0.011975765
0.2733404 0.21574491 0.02895546
0.27462339 0.0036569238 -0.00042819977
0.27115539 0.5769949 0.079007626
0.27240241 0.37083691 0.050443649
0.2704944 0.68622494 0.094145775
0.2809414 -1.0407372 -0.1451273
0.2757594 -0.18418211 -0.026453495
0.27772939 -0.50976604 -0.07156229
0.26796541 0.12822789 0.017904758
0.26919338 -0.078965127 -0.010796547
0.27489141 -1.0403302 -0.14397144
0.26300439 -0.033822119 -0.0034661293
0.26137638 0.2465629 0.035367489
0.2625564 0.043223917 0.0072045326
0.25926739 0.60994387 0.085697651
0.25971138 0.5333209 0.07508564
0.2653074 -0.43061811 -0.058423519
0.26764441 -0.83321005 -0.11418438
0.26352239 -0.12310106 -0.01583147
0.26606339 -0.56073815 -0.076446533
0.25566441 0.2161749 0.032230854
0.25523838 0.29102993 0.042596817
0.2536124 0.5772059 0.082227707
0.25316939 0.65503693 0.093004704
0.25299141 0.68637091 0.097345829
0.25933838 -0.43034309 -0.057299137
0.2628004 -1.0395222 -0.14166021
0.26203838 -0.90542608 -0.12309027
0.26070639 -0.67105609 -0.0906353
0.26046041 -0.62789804 -0.084657192
0.2514134 -0.078357041 -0.0074791908
0.24733439 0.65509093 0.094074726
0.24740741 0.68619192 0.092263699
0.24824739 0.49097392 0.071350574
0.24801138 0.53347892 0.077235699
0.2567564 -1.0391202 -0.14050531
0.2560114 -0.90505213 -0.12194347
0.2556074 -0.83249313 -0.11189651
0.2547074 -0.67073208 -0.089499474
0.25199738 -0.18328315 -0.022005081
0.24436641 0.12886691 0.022285461
0.24524841 -0.033244073 -0.00015640259
0.2432124 0.34103793 0.05165863
0.24216539 0.53355694 0.07831049
0.25033638 -0.96869606 -0.12965727
0.24998841 -0.90468115 -0.1207962
0.2491374 -0.74825305 -0.099140167
0.2484794 -0.62726909 -0.082391262
0.2460624 -0.18306106 -0.020896435
0.23865739 0.094185889 0.018557549
0.2384724 0.12902594 0.023380756
0.23825839 0.1693759 0.028965473
0.23760939 0.2914089 0.045856476
0.23591438 0.61019588 0.089980602
0.23718339 0.37150294 0.056943893
0.24144238 -0.42952508 -0.053931236
0.24105638 -0.35696214 -0.043888092
0.2404314 -0.23932904 -0.027605534
0.24186039 -0.50802106 -0.064797401
0.2327624 0.094350934 0.019652843
0.23212638 0.21673888 0.036590576
0.2319684 0.24723893 0.040811539
0.23302341 0.04410392 0.012700558
0.23008239 0.61025894 0.091051579
0.2379494 -0.90394312 -0.11850309
0.2342014 -0.18262011 -0.018677235
0.22669239 0.12933993 0.025566578
0.22425239 0.61032093 0.092121601
0.22402339 0.65530586 0.098345757
0.2246404 0.53378892 0.081530571
0.22915739 -0.35645205 -0.041651249
0.23261338 -1.0375321 -0.1358943
0.23193339 -0.90357608 -0.11735821
0.23114039 -0.74724513 -0.09572649
0.2288764 -0.30113012 -0.033998489
0.22856039 -0.23886615 -0.025381088
0.2209764 0.094677925 0.02184248
0.22000039 0.29178292 0.049112797
0.21858539 0.57761991 0.088656902
0.21960439 0.37182993 0.060186863
0.21939339 0.41450393 0.06608963
0.22623539 -0.96717304 -0.12506342
0.22421239 -0.55865008 -0.068544388
0.21492039 0.1296519 0.027752876
0.21449739 0.21715492 0.03985548
0.21435039 0.24763793 0.044072628
0.21389639 0.34161192 0.057071686
0.21238039 0.6554119 0.1004777
0.2135434 0.41460389 0.067168713
0.21317239 0.49148691 0.077802658
0.21761639 -0.42845112 -0.049449444
0.21955739 -0.83037812 -0.10504532
0.21915239 -0.74658114 -0.093455315
0.2185684 -0.62572211 -0.07673645
0.20980039 -0.032111108 0.0064496994
0.20827439 0.29202992 0.051278591
0.20804039 0.34172589 0.058152676
0.20769639 0.41470289 0.068246841
0.2071344 0.53401792 0.084748745
0.21389939 -0.90248507 -0.11392832
0.21316339 -0.74625105 -0.092320442
0.2107704 -0.2381801 -0.022051334
0.21259439 -0.6254161 -0.0756073
0.2102204 -0.12122911 -0.0058751106
0.2122774 -0.55806512 -0.066291332
0.2039004 -0.031925082 0.0075497627
0.20261739 0.24789989 0.046243668
0.20110339 0.57782292 0.09186554
0.20095339 0.61056691 0.096392632
0.2074994 0.72514188 -0.10092926
0.20789239 -0.90212506 -0.11278534
0.20717639 -0.74592215 -0.091185093
0.20631339 -0.55777413 -0.065167427
0.19820239 -0.076580107 0.0024476051
0.19527939 0.57788992 0.092934608
0.19633339 0.34195089 0.060313702
0.19619739 0.3722589 0.06450367
0.1958174 0.4574669 0.076286793
0.19547439 0.5341689 0.086889744
0.1994464 -0.35519606 -0.036075115
0.2011894 -0.74559504 -0.09005022
0.19866939 -0.1813181 -0.012033463
0.1908914 0.2481609 0.048413754
0.18931639 0.61068791 0.098527908
0.1903524 0.37236488 0.065582752
0.19588539 -0.90140909 -0.11050129
0.19557139 -0.8289991 -0.10049248
0.19300139 -0.23750311 -0.018724442
0.18621439 -0.03137207 0.0108428
0.18484639 0.29251689 0.055608749
0.1846364 0.34217489 0.06247282
0.1888994 -0.66726011 -0.077047348
0.18821639 -0.5054881 -0.0546875
0.18050739 -0.076004088 0.0057458878
0.18032339 -0.031190097 0.011938572
0.17917639 0.24841893 0.050579548
0.17782439 0.57808888 0.096138477
0.17769039 0.6108079 0.10065889
0.1780034 0.53439391 0.090099812
0.18443839 -1.0344372 -0.12670326
0.1832494 -0.74462205 -0.086653233
0.18293139 -0.66695207 -0.075919151
0.1806884 -0.12022012 -0.00036430359
0.17461339 -0.075813115 0.0068445206
0.17443539 -0.031008065 0.013036728
0.1742854 0.0067319274 0.018250465
0.17201039 0.57815492 0.097204685
0.17170139 0.6557759 0.10792971
0.17235339 0.4920699 0.085309505
0.17218439 0.53446794 0.09116888
0.17727439 -0.74430007 -0.085520267
0.17525439 -0.23683506 -0.015403271
0.1765264 -0.55634004 -0.059551239
0.17632139 -0.50493807 -0.052448273
0.1680574 0.09611392 0.031669617
0.1674694 0.24867493 0.052744865
0.16729839 0.29287589 0.058852673
0.16840239 0.0069059134 0.01934576
0.1669904 0.37278491 0.069890499
0.16868339 0.7285009 0.0092759132
0.17241739 -1.0336802 -0.12441254
0.17214839 -0.96384209 -0.11476421
0.1712994 -0.74398106 -0.084391117
0.1688914 -0.11982304 0.0018377304
0.16237639 0.046140909 0.025833607
0.1608904 0.68587494 0.08077383
0.16099639 0.41548091 0.076848507
0.1667524 0.7577619 -0.13587523
0.16531539 0.8133409 -0.082753181
0.16521139 0.84815389 -0.078926086
0.1656414 -0.82730907 -0.094814301
0.1636654 -0.29852408 -0.021774292
0.1648774 -0.62302011 -0.066595078
0.15694439 -0.075247109 0.010137558
0.15543239 0.34272391 0.067861557
0.15532339 0.37299192 0.072042465
0.16015439 -0.96311909 -0.1124835
0.15752639 -0.23617607 -0.012087345
0.15105939 -0.07506007 0.011233807
0.1507704 0.007422924 0.022622585
0.14850339 0.65597892 0.11217785
0.1544054 -1.0325582 -0.12098122
0.1539384 -0.89895314 -0.10253143
0.1531224 -0.66543609 -0.070286274
0.15273739 -0.55521613 -0.055067539
0.14434239 0.17169088 0.04637146
0.1441834 0.21876788 0.052871704
0.1440814 0.2491799 0.057070732
0.14489639 0.0075939298 0.023715496
0.1429704 0.57847989 0.10253382
0.1461134 -0.35300511 -0.026069164
0.14840439 -1.0321882 -0.11983824
0.14552739 -0.17943007 -0.0021052361
0.1453234 -0.11904007 0.0062327385
0.1383394 0.21889788 0.053952694
0.13889839 0.046795905 0.030196667
0.13728939 0.73121589 0.098487854
0.14096139 0.84842491 -0.057305336
0.1404344 -0.42508703 -0.034943104
0.14240739 -1.0318182 -0.11869621
0.14107439 -0.62185413 -0.062104225
0.1312674 0.61127794 0.10916948
0.1317464 0.4584319 0.088074684
0.1311114 0.73174989 0.11604881
0.13499239 0.84845489 -0.054972172
0.13428639 -0.35253006 -0.023852348
0.13658139 -1.0853562 -0.12499523
0.13599439 -0.89792413 -0.099126339
0.1357684 -0.82565612 -0.089151382
0.13374339 -0.17902011 9.5844269e-05
0.1335544 -0.11865312 0.0084266663
0.12628239 0.34326088 0.073239803
0.12619139 0.37350088 0.077412605
0.12921239 0.84838289 -0.061046124
0.1300184 -0.89758414 -0.097991467
0.12767239 -0.11846107 0.0095229149
0.12166539 -0.074137151 0.016709805
0.12153639 -0.029408097 0.022880554
0.12024839 0.41613889 0.084353924
0.1226774 -0.42433804 -0.031610489
0.1224684 -0.35205907 -0.02163744
0.12422839 -0.96099204 -0.10565424
0.12404439 -0.89724606 -0.096858501
0.12230939 -0.29693109 -0.014030457
0.12337039 -0.66395408 -0.064669132
0.12179339 -0.1182701 0.01061964
0.1151094 0.17238092 0.051785469
0.1157914 -0.073955119 0.017802715
0.11477339 0.29392588 0.06855154
0.11556339 0.0084348917 0.029167652
0.11398439 0.57879686 0.10785055
0.11463539 0.3434729 0.075387478
0.11422239 0.49286991 0.095996857
0.1171474 0.84852391 -0.049716473
0.11807039 -0.89690906 -0.095724106
0.11763939 -0.74116606 -0.074240208
0.11640839 -0.29670709 -0.012924194
0.1174244 -0.66366214 -0.063548088
0.1173054 -0.62070912 -0.057622433
0.11608139 -0.17841309 0.0033926964
0.10980339 -0.029061079 0.025062561
0.1081934 0.57885993 0.10891247
0.1088164 0.34357792 0.076460838
0.1087364 0.37380093 0.080629826
0.1084214 0.49294791 0.097062588
0.10830939 0.53526092 0.10289955
0.1108494 -0.42384511 -0.029390335
0.11210139 -0.89657503 -0.094593525
0.11051139 -0.29648513 -0.011823177
0.1100384 -0.11789113 0.012810707
0.11119139 -0.55329806 -0.047245502
0.11105639 -0.50200409 -0.040169239
0.10362139 0.09779191 0.043623924
0.1034314 0.1726529 0.053946495
0.1039414 -0.02888912 0.026152611
0.10323639 0.2500419 0.064619541
0.10240539 0.57892191 0.10997486
0.10270839 0.45885491 0.093416691
0.1026224 0.4930259 0.098129749
0.10647039 -1.0296402 -0.11185837
0.10574039 -0.74055606 -0.071991444
0.10461739 -0.29626411 -0.010719299
0.1055444 -0.66308111 -0.061306477
0.10543539 -0.62014514 -0.055385113
0.097692393 0.13261992 0.049488544
0.097896397 0.047912896 0.037808895
0.096618392 0.5789839 0.11103582
0.096907392 0.45893791 0.094483852
0.096825391 0.49310291 0.099193573
0.099377394 0.84856093 -0.047012329
0.10016839 -0.89590913 -0.092329502
0.099793397 -0.7402541 -0.070868492
0.099342391 -0.55276114 -0.045015335
0.091653392 0.21992093 0.062586784
0.092221394 -0.028547108 0.02833271
0.091483392 0.29437894 0.072852612
0.09083239 0.57904589 0.11209774
0.090932392 0.53546989 0.10608864
0.094508395 -1.028928 -0.10958433
0.092690393 -0.23383504 3.0517578e-05
0.092562392 -0.17761713 0.0077805519
0.085929394 0.17305493 0.057186604
0.086283393 0.0092579126 0.034608841
0.085049391 0.57910693 0.11315775
0.084882393 0.65651786 0.12382889
0.085235395 0.4932569 0.10132265
0.087219395 -0.42287213 -0.024955273
0.088242397 -0.89525014 -0.090069294
0.086943395 -0.29560608 -0.007414341
0.080602393 -0.072881043 0.024352551
0.079202391 0.6117869 0.1187129
0.079578392 0.73109591 0.093411922
0.081613392 0.76013392 -0.043765545
0.081830397 0.81379193 -0.058396339
0.08241339 -0.95858413 -0.097714424
0.081057392 -0.29538912 -0.006313324
0.08180739 -0.66193706 -0.05683136
0.081477396 -0.50071913 -0.034611225
0.07412339 0.25063992 0.069998741
0.074512392 0.04853493 0.042149544
0.073490396 0.57922888 0.11527777
0.073943391 0.34419692 0.082890511
0.073885396 0.37438792 0.087051868
0.073574394 0.53567588 0.10927677
0.076444395 0.88975692 -0.096233368
0.075279392 -0.35022014 -0.012798309
0.076449394 -0.95824713 -0.096583366
0.076027393 -0.73905712 -0.066379547
0.075796396 -0.61875707 -0.049802303
0.075667396 -0.55170304 -0.040562153
0.075568393 -0.50046605 -0.033502102
0.06844639 0.1734519 0.060422897
0.06880939 -0.027873099 0.032684803
0.068307392 0.25075793 0.071073532
0.067930393 0.45934892 0.099812508
0.06992539 0.81389588 -0.052546501
0.069861397 0.84855789 -0.047688484
0.070198394 0.88989592 -0.07343626
0.070709392 -1.081315 -0.11245441
0.070372395 -0.8942731 -0.086683273
0.070091397 -0.73876208 -0.065259457
0.069661394 -0.50021404 -0.032392502
0.062621392 0.17358291 0.061500549
0.063035391 -0.072355092 0.027621746
0.062417395 0.29493189 0.078215599
0.062283397 0.37457991 0.089188576
0.06214039 0.45942992 0.10087681
0.064235397 0.8899129 -0.070612431
0.064642392 -1.0271761 -0.10390949
0.063305393 -0.23281103 0.0055174828
0.063754395 -0.4999631 -0.031283379
0.057114393 -0.027541101 0.034858704
0.05667939 0.25099289 0.07322073
0.056299396 0.4936339 0.10664082
0.058300391 0.88991892 -0.0697155
0.057730392 -0.42168206 -0.019427299
0.057617396 -0.34954911 -0.0094923973
0.058355391 -0.82153815 -0.074501514
0.050912395 0.22078389 0.070118904
0.051160395 0.049144924 0.046482563
0.050395392 0.57946992 0.11951256
0.05069039 0.37476993 0.091324806
0.050568394 0.45959091 0.1030035
0.051155396 0.76243389 0.046916485
0.052519396 -0.89330906 -0.083303452
0.045215391 0.13386893 0.05920887
0.045428395 -0.027212083 0.03702879
0.045327395 0.049295902 0.047563553
0.046306394 0.81386793 -0.054436207
0.045854397 -0.34910613 -0.007291317
0.046820395 -1.0798972 -0.10791254
0.046367392 -0.73759311 -0.060782433
0.045781396 -0.29410809 0.00028181076
0.046208397 -0.61740214 -0.044232368
0.039437395 0.099384904 0.055520535
0.039642394 -0.071666062 0.031971455
0.039588392 -0.027049065 0.038113594
0.039497394 0.049445927 0.048645496
0.039142393 0.34479892 0.089305878
0.040062394 -0.42098206 -0.016116142
0.033448394 0.25145394 0.077510834
0.033708394 0.010688901 0.044371605
0.033093393 0.57964694 0.12268591
0.033010393 0.6569379 0.13332367
0.034223393 0.72765493 -0.021185398
0.033270393 0.76378393 0.1001935
0.027256392 0.65698391 0.13437653
0.027372394 0.76422894 0.1177659
0.027372394 0.53621292 0.11775589
0.028679393 0.84829891 -0.069355488
0.028806392 -0.95560509 -0.087551117
0.028170392 -0.29348212 0.0035715103
0.021910392 0.17448193 0.069030762
0.021767393 0.34509391 0.092507839
0.021670394 0.4599869 0.1083169
0.022713393 0.84838593 -0.062278271
0.022350393 -0.34823412 -0.0028944016
0.022964392 -1.0785072 -0.1033802
0.022204395 -0.17531914 0.020898819
0.022154395 -0.11515707 0.029177666
0.016132392 0.13453889 0.064591885
0.016069394 0.22150093 0.076556683
0.016015392 0.29579091 0.086777687
0.015958395 0.37532991 0.097719669
0.015772395 0.65694094 0.13328171
0.015928395 0.41773492 0.10355473
0.016479395 -0.34801906 -0.0017971992
0.016355395 -0.17513305 0.021988869
0.016587395 -0.49799913 -0.022431374
0.010443393 -0.070823133 0.037401676
0.010175394 0.37542188 0.098784924
0.010124393 0.4601419 0.11043882
0.010078393 0.53640795 0.12092972
0.010469394 -0.11480814 0.031349659
0.010730393 -0.54889613 -0.02836132
0.0045883935 -0.026086092 0.044615746
0.0043753944 0.4179039 0.10567856
0.0049013942 0.72693694 -0.045155525
0.0042083934 0.7651329 0.15343857
0.0043183938 0.53647292 0.12198591
0.0047423933 -0.34759206 0.00039768219
0.0049293935 -0.73560411 -0.052968502
0.0047163945 -0.29266006 0.0079526901
0.0048393942 -0.54864806 -0.027254105
-0.0013266057 0.22185189 0.079769611
-0.0013536066 0.29610389 0.089979649
-0.0012516063 0.011608899 0.050857544
-0.0014676061 0.61253589 0.1334939
-0.0013716072 0.34547991 0.096770763
-0.0013826061 0.37560391 0.10091162
-0.001397606 0.41798693 0.10674047
-0.00089360587 0.84810293 -0.085604191
-0.00092660636 -0.89050406 -0.07319355
-0.0010106061 -0.65810007 -0.041235447
-0.0012056064 -0.11446208 0.033521652
-0.0010676067 -0.49728209 -0.01912117
-0.0071106069 0.17510593 0.074397564
-0.0070516067 -0.070328057 0.040651798
-0.0071286066 0.2522409 0.085002899
-0.0071686069 0.41807091 0.10780191
-0.0071966061 0.53660095 0.12409878
-0.0068466067 0.81348789 -0.076708317
-0.006967606 -0.41916507 -0.0073103905
-0.0068716062 -0.81824905 -0.062180519
-0.0070126066 -0.23045105 0.018636703
-0.006936606 -0.54815704 -0.025045395
-0.0069486061 -0.49704605 -0.018017292
-0.012899606 0.10062593 0.065212727
-0.012884607 -0.025615096 0.047858715
-0.012917606 0.25235093 0.086070538
-0.012960606 0.61263895 0.13559866
-0.012942607 0.46044892 0.11467791
-0.012951607 0.5366649 0.12515593
-0.012772607 -0.95337814 -0.079680443
-0.012852606 -0.29205507 0.011232853
-0.012859607 -0.23026115 0.019727707
-0.012866607 -0.17422014 0.027430534
-0.018706607 -0.025460064 0.048939705
-0.018706607 0.29641289 0.093180656
-0.018706607 0.012058914 0.054096699
-0.018706607 0.61268991 0.13665152
-0.018706607 0.37587291 0.10410166
-0.018706607 0.4182359 0.10992384
-0.018706607 0.4605239 0.11573648
-0.018706607 0.76507092 0.15094852
-0.018706607 0.8896789 -0.10988331
-0.018706607 -0.88959712 -0.069832325
-0.018706607 -0.11394912 0.036776543
-0.024500607 0.1754719 0.077611923
-0.024491606 0.25256991 0.088205814
-0.024520606 0.012206912 0.055174828
-0.024448607 0.61274087 0.1377039
-0.024480607 0.34585792 0.10102558
-0.024471607 0.41831791 0.1109848
-0.024563607 -0.34654206 0.0058736801
-0.024600606 -0.6570521 -0.036798477
-0.024587607 -0.54742914 -0.02173233
-0.030302607 0.1355769 0.073183537
-0.030281607 0.22242391 0.085116863
-0.030264607 0.2966159 0.095310688
-0.030322608 0.051188886 0.061588764
-0.030196607 0.58027589 0.13428688
-0.030208606 0.65669787 0.12736273
-0.030206606 0.5368529 0.12832069
-0.030511606 -0.73395306 -0.046292305
-0.030390605 -0.22969609 0.022993565
-0.036098607 0.13570392 0.074254513
-0.036148608 0.68501091 0.05496645
-0.035981607 0.46074891 0.11891079
-0.036466606 -0.88870305 -0.066479206
-0.036440607 -0.81681305 -0.056603432
-0.036343604 -0.54694909 -0.019528389
-0.036325604 -0.49588209 -0.012512207
-0.041909605 0.10129189 0.07058382
-0.041991606 -0.069359124 0.047141552
-0.041933607 0.051468909 0.063739777
-0.041792609 0.34613693 0.10421467
-0.041824609 0.76365793 0.095053673
-0.041721605 0.49484992 0.1246419
-0.041701607 0.53697789 0.13042879
-0.042448606 -1.0212131 -0.083604336
-0.042414606 -0.9518351 -0.074074268
-0.042350605 -0.81653112 -0.05548954
-0.042310607 -0.73341411 -0.044071198
-0.042273607 -0.65628105 -0.033477306
-0.047633607 0.22276092 0.088320732
-0.047808606 -0.069201052 0.048221588
-0.047418606 0.58044088 0.13744259
-0.047472607 0.65660393 0.12514973
-0.047785606 0.68495393 0.053457737
-0.048246607 0.72672391 -0.052169323
-0.047444604 0.53703892 0.1314826
-0.048016608 -0.41763407 0.00037050247
-0.048298605 -0.88811606 -0.064246178
-0.047834605 -0.11311215 0.042191505
-0.053412605 0.2228719 0.089386463
-0.053391606 0.25310588 0.093538761
-0.053535607 0.051746905 0.065888882
-0.053229608 0.65657187 0.12441158
-0.054158606 0.72669989 -0.052947521
-0.053873606 -0.41742009 0.0014648438
-0.054345608 -1.0741792 -0.088720322
-0.053737607 -0.22895604 0.02734375
-0.053929608 -0.49519712 -0.0092163086
-0.059366606 0.013080895 0.061634541
-0.058890607 0.5805499 0.13954449
-0.059087608 0.34641093 0.10739946
-0.059061605 0.37648588 0.11152792
-0.058987606 0.65653992 0.12367392
-0.059425607 0.68489587 0.051950455
-0.058990605 0.46104291 0.12313747
-0.059422605 0.76258087 0.052492619
-0.058962606 0.49505392 0.12780666
-0.060233608 -1.020272 -0.080239296
-0.060061608 -0.81569105 -0.052150249
-0.059621606 -0.29048711 0.019956589
-0.059522606 -0.17280608 0.036113739
-0.059472606 -0.11278313 0.044354916
-0.059792608 -0.49497205 -0.0081191063
-0.065167606 0.013223886 0.062710762
-0.064624608 0.5806039 0.14059591
-0.065248609 0.68486691 0.051197529
-0.065986603 0.72665089 -0.054502487
-0.06470561 0.4951219 0.1288619
-0.065961607 -0.81541508 -0.051039219
-0.065882608 -0.73235315 -0.039636135
-0.070873603 0.10193992 0.075941563
-0.070835605 0.13645089 0.080677509
-0.070792608 0.17642188 0.086164474
-0.070662603 0.29731089 0.1027565
-0.070968606 0.013365924 0.063785553
-0.070531607 0.41895992 0.11945248
-0.071354605 -0.34491807 0.014610767
-0.071689606 -0.65502113 -0.027952194
-0.071643606 -0.61230808 -0.022089481
-0.071516603 -0.49452406 -0.0059232712
-0.076660603 0.10206693 0.077011585
-0.076811612 -0.0239501 0.059717655
-0.076331608 0.37674189 0.11470556
-0.076898605 0.6848079 0.049691677
-0.076138608 0.53734291 0.1367445
-0.078003608 -1.019346 -0.076878548
-0.07775861 -0.81486505 -0.048817158
-0.077129602 -0.28991514 0.023221493
-0.077515602 -0.61206812 -0.020988464
-0.082399607 0.13669491 0.082815647
-0.082611606 -0.023804069 0.060793877
-0.082245603 0.25362891 0.098860741
-0.082510605 0.052426934 0.071253777
-0.082725607 0.68477792 0.048938751
-0.082027607 0.4191159 0.12156677
-0.083740607 0.72657591 -0.056836128
-0.081872605 0.53740287 0.13779593
-0.082764603 0.89061189 0.044781685
-0.08383061 -0.94974107 -0.066250324
-0.083543606 -0.73157209 -0.036317348
-0.08280661 -0.17212003 0.040444851
-0.083230607 -0.49408108 -0.0037322044
-0.088179603 0.13681591 0.083883762
-0.087948605 0.29760092 0.10594177
-0.088300608 0.052560925 0.072325706
-0.087877609 0.34685791 0.11269855
-0.08894261 0.89040691 0.010994911
-0.088973604 -0.41615814 0.0080237389
-0.088870607 -0.34432715 0.017878532
-0.089545608 -0.81432205 -0.046598434
-0.08915861 -0.54485506 -0.0096321106
-0.094011605 0.1024459 0.080220699
-0.094207607 -0.023513079 0.062943459
-0.093216605 0.61332893 0.15029573
-0.095795609 0.81347692 -0.076952457
-0.09470661 -0.34413213 0.018967628
-0.095648609 -0.94915706 -0.064020157
-0.095308609 -0.73105806 -0.034105301
-0.095122606 -0.61135215 -0.017686367
-0.094438605 -0.17178315 0.042607784
-0.10007761 -0.067811072 0.05792284
-0.098935604 0.61337692 0.15134382
-0.09933161 0.37707692 0.11893654
-0.10021461 0.68468791 0.046682835
-0.099260606 0.41934693 0.12473249
-0.099190608 0.4615429 0.13051987
-0.10066061 -0.41574711 0.010206699
-0.10118861 -0.73080307 -0.033001423
-0.10105961 -0.65379411 -0.02243948
-0.10025161 -0.17161614 0.04368782
-0.10556961 0.10269493 0.082358837
-0.1053526 0.22384393 0.09897089
-0.10471161 0.58097386 0.14793968
-0.1051316 0.34712088 0.11587381
-0.10604661 0.68465692 0.045931816
-0.10500161 0.41942292 0.12578869
-0.10492561 0.46161291 0.13157368
-0.1074326 0.72647393 -0.059944153
-0.10846461 0.84744889 -0.1387701
-0.10802261 0.88970488 -0.1049943
-0.10767761 -1.0713491 -0.07862711
-0.10734361 -0.88526708 -0.053111076
-0.10595461 -0.11150306 0.052987576
-0.10673161 -0.54417807 -0.0063405037
-0.11134661 0.10281891 0.083426476
-0.1114416 0.053089917 0.076608658
-0.11188061 0.68462694 0.045179844
-0.11115961 0.76368791 0.096823692
-0.11051361 0.53769588 0.14304781
-0.11233861 -0.41534013 0.012387753
-0.1122006 -0.34355313 0.022229671
-0.1132376 -0.88499111 -0.052001476
-0.11197861 -0.22717315 0.038183689
-0.11279361 -0.6533131 -0.0202384
-0.11687461 0.22405392 0.10109568
-0.11730061 0.014476895 0.072366714
-0.11608261 0.61351693 0.15448284
-0.11662461 0.34729391 0.11798859
-0.1177156 0.68459594 0.044428825
-0.11647761 0.4195739 0.12789679
-0.11939961 -1.017241 -0.069057465
-0.11912961 -0.88471609 -0.050891399
-0.12256961 0.25433689 0.10629463
-0.12186661 0.58112788 0.15108252
-0.12236961 0.34737992 0.11904669
-0.1223046 0.37740493 0.12316084
-0.1224236 0.6561749 0.11558676
-0.1235536 0.68456489 0.043678761
-0.12153861 0.73346388 0.17196751
-0.12649061 0.81232291 -0.14327717
-0.12832561 0.84596789 -0.26006031
-0.12401061 -0.41493708 0.014566898
-0.12373861 -0.28843611 0.031904697
-0.12443161 -0.61018509 -0.012193203
-0.1233566 -0.11103708 0.056218624
-0.12858862 0.13764393 0.091349602
-0.12905361 -0.0670681 0.063297749
-0.12758061 0.5811789 0.15212965
-0.12785161 0.4618879 0.13578272
-0.12767962 0.53786892 0.14619446
-0.13270161 0.81208891 -0.15669632
-0.1313336 -1.0701361 -0.074156284
-0.1292896 -0.17079407 0.04908371
-0.1339706 0.29835093 0.11441755
-0.1338526 0.34754992 0.1211586
-0.1351546 0.76240891 0.046563625
-0.1414946 0.84527588 -0.31666327
-0.1407986 0.92584389 -0.27677441
-0.1361416 -0.60972804 -0.010000229
-0.1398246 0.25463289 0.10947466
-0.14107162 0.68447089 0.041426659
-0.1476656 0.92581391 -0.31832552
-0.14229462 -0.72905713 -0.025281429
-0.1457766 0.1778819 0.10000849
-0.14630361 -0.022243083 0.07259655
-0.14545961 0.29853392 0.11653376
-0.14463061 0.61374593 0.1597085
-0.1450296 0.46209091 0.13893557
-0.1448396 0.73275387 0.14883184
-0.1448296 0.53803891 0.14933968
-0.14733361 -0.41414505 0.018918514
-0.14837961 -0.81169313 -0.035533428
-0.14700161 -0.28772014 0.036235809
-0.14653461 -0.11042804 0.060519695
-0.1522046 -0.066488087 0.06758976
-0.15120061 0.29862392 0.11758947
-0.1518736 0.053986907 0.084087849
-0.1513146 0.6559999 0.11192179
-0.15082061 0.7323789 0.1365366
-0.15779561 0.81114388 -0.21090937
-0.16077161 0.84475392 -0.3591671
-0.1622926 0.88770491 -0.43493128
-0.1548136 -1.0155001 -0.062375546
-0.15462361 -0.94633311 -0.052902222
-0.1538136 -0.65167004 -0.0125494
-0.1567136 0.3778829 0.12948656
-0.15647161 0.46222392 0.14103556
-0.1568246 0.73200291 0.12419653
-0.15951961 0.76110792 -0.0044641495
-0.1563746 0.49614891 0.14568186
-0.1589846 -0.41375607 0.021092892
-0.1596656 -0.65144008 -0.011452198
-0.1595436 -0.60882705 -0.0056171417
-0.15920661 -0.49131614 0.010472775
-0.16363661 -0.021833122 0.075806618
-0.16352561 0.015539885 0.080924511
-0.16340961 0.054236889 0.086221695
-0.16183461 0.58147788 0.15840149
-0.16173761 0.61388087 0.16283846
-0.16244261 0.37796092 0.1305418
-0.16231661 0.4201619 0.13631773
-0.17049161 0.81066489 -0.23833418
-0.16459261 -0.34187311 0.031992912
-0.16676261 -1.0683661 -0.067466259
-0.16620761 -0.88257104 -0.042030334
-0.1657466 -0.72809106 -0.02088213
-0.16424561 -0.22565109 0.047903538
-0.16407861 -0.16983706 0.055545807
-0.1650386 -0.49111205 0.011560917
-0.1689136 0.13843989 0.098795891
-0.1695496 -0.066062093 0.070803642
-0.1675376 0.58152592 0.15944767
-0.1681696 0.37803793 0.13159275
-0.17062761 -0.41337115 0.023262501
-0.1724956 -1.014652 -0.059040546
-0.1713666 -0.65098506 -0.009262085
-0.17415261 0.29898089 0.12181568
-0.17506561 0.015797913 0.083058834
-0.17773061 -0.81043214 -0.030019283
-0.17746361 -0.72761613 -0.018685341
-0.18053661 0.10424793 0.09621191
-0.18028861 0.1785199 0.10637569
-0.1809576 -0.021431088 0.079015732
-0.17988561 0.29906791 0.12287092
-0.1833186 -0.7273801 -0.017587185
-0.18587361 0.22526491 0.11381674
-0.1868806 -0.065643072 0.074014664
-0.1867266 -0.021299064 0.080081463
-0.18534361 0.3782689 0.13475084
-0.18719061 0.73009992 0.061789513
-0.1849336 0.49645191 0.15091991
-0.1874326 -0.22499913 0.052212715
-0.1872396 -0.16921705 0.05984354
-0.1883516 -0.49030513 0.015913486
-0.1918236 0.6557489 0.10680389
-0.19371161 0.68417889 0.034687519
-0.1904906 0.53847694 0.15770578
-0.2026816 0.80944991 -0.3078661
-0.1936406 -0.34097713 0.037400723
-0.19825861 -1.0377581 -0.13893843
-0.19474761 -0.65009111 -0.0048832893
-0.19779861 0.10459089 0.099399567
-0.1981256 0.016305923 0.087323666
-0.19798161 0.054969907 0.092612743
-0.19950061 0.7293269 0.036493778
-0.20919961 0.80920392 -0.32194328
-0.2017636 -0.8841731 -0.047136307
-0.1990166 -0.2246781 0.054363728
-0.20018661 -0.54075712 0.011132717
-0.1999986 -0.48990911 0.018087864
-0.20326461 0.17893392 0.11061192
-0.2030866 0.22555488 0.11698771
-0.2037376 0.055089891 0.093676567
-0.20250261 0.37849492 0.13790274
-0.2093966 0.7584399 -0.1088953
-0.2157416 0.80895692 -0.3360734
-0.20703961 -0.8092081 -0.024516106
-0.2064296 -0.64965111 -0.0026993752
-0.20626761 -0.60708815 0.0031218529
-0.20916161 0.13920492 0.10622454
-0.2097916 -0.020776093 0.084349632
-0.2096446 0.016554892 0.089453697
-0.20699361 0.68958187 0.18148661
-0.2223116 0.80870789 -0.35026121
-0.2213266 -1.0887642 -0.31608152
-0.21686161 -0.91483313 -0.16107035
-0.21257061 -0.72622305 -0.012104511
-0.21059361 -0.22436208 0.05651474
-0.21226761 -0.64943415 -0.0016064644
-0.21455361 0.2257449 0.11909962
-0.2140546 0.34868592 0.13590765
-0.2129326 0.68928993 0.17373848
-0.21745561 -0.48932415 0.021343708
-0.22028461 0.2258389 0.12015581
-0.22015961 0.25594491 0.12427187
-0.22115761 0.01680088 0.091582775
-0.21947061 0.42085993 0.14681292
-0.21915361 0.49680391 0.15719366
-0.22990461 -0.85327011 -0.19471121
-0.2221636 -0.22404915 0.058661461
-0.22638761 0.13952291 0.1094017
-0.22601661 0.2259329 0.12121058
-0.2256996 0.29975289 0.13130045
-0.2244866 0.5819999 0.16987467
-0.23069261 0.72736692 -0.027590275
-0.23492761 0.7570709 -0.16233921
-0.2246726 0.53879291 0.16396952
-0.24049161 -0.96283311 -0.33940411
-0.2377996 -0.8685531 -0.25373411
-0.2347576 -0.76201707 -0.1569252
-0.23199961 -0.66545314 -0.069181442
-0.22770861 -0.16816705 0.067351818
-0.2322776 0.10525692 0.10576487
-0.23194961 0.17943692 0.11590147
-0.2312686 0.68791389 0.13700962
-0.2337296 -0.22374004 0.060808659
-0.2397656 -0.67887515 -0.12605524
-0.23819561 -0.62575215 -0.077467442
-0.23348361 -0.16802114 0.068422794
-0.2378626 0.13973188 0.11151886
-0.23585761 0.58209091 0.17195463
-0.25556362 0.80744892 -0.42207241
-0.2435016 -0.55630606 -0.058479309
-0.24375761 0.10547394 0.1078825
-0.24454761 -0.064299107 0.084690571
-0.24285261 0.30000091 0.13445568
-0.2439886 0.055906892 0.10111189
-0.2440176 0.65540993 0.10024548
-0.24360761 0.68698692 0.11229563
-0.24209361 0.46317589 0.15674448
-0.2543416 0.75602889 -0.20297432
-0.2447506 -0.10799009 0.078723907
-0.25135261 -0.56879514 -0.11517954
-0.2489216 0.22630191 0.12542868
-0.2483356 0.34914494 0.14220762
-0.2477916 0.46323591 0.15778971
-0.24762961 0.49708691 0.1624136
-0.25051561 -0.10785514 0.079790592
-0.2593376 -0.58150011 -0.17285728
-0.25606361 -0.064040065 0.086821556
-0.25547561 0.05613488 0.10323381
-0.25404361 0.34921992 0.14325571
-0.25348562 0.46329591 0.15883446
-0.25684059 -0.22313315 0.06510067
-0.25627661 -0.10772008 0.080857754
-0.26530862 -0.53051108 -0.1714735
-0.26181859 -0.06391108 0.087887764
-0.25974959 0.3492949 0.14430475
-0.25819862 0.65898091 0.18659449
-0.25879961 0.53909695 0.1702199
-0.2881496 -0.96606809 -0.63021421
-0.2842086 -0.8524161 -0.5227313
-0.28064162 -0.74955004 -0.42544651
-0.27870062 -0.69358915 -0.37252331
-0.2734786 -0.54299504 -0.23010254
-0.26757163 -0.063784122 0.088952541
-0.26426059 0.5823139 0.17715359
-0.26545459 0.34936792 0.14535284
-0.28412062 -0.62093812 -0.35186529
-0.28178862 -0.55569512 -0.28974009
-0.2722536 0.14034289 0.11786079
-0.27309161 -0.0194031 0.096057892
-0.2728956 0.01787293 0.10114479
-0.28722259 0.75426191 -0.27178526
-0.27038261 0.4973079 0.16658354
-0.28088361 -0.31449312 -0.10677624
-0.29801461 -0.77960008 -0.55270052
-0.2902436 -0.56861812 -0.35042048
-0.2786386 0.01798892 0.10220671
-0.27543861 0.6147179 0.18364286
-0.2811996 0.68415892 0.037020683
-0.2764746 0.4215169 0.15727568
-0.2883946 0.72373289 -0.14610243
-0.27584362 0.53924489 0.17334175
-0.28110862 0.6147579 0.1846776
-0.2823976 0.37949789 0.15257692
-0.28263262 0.6572839 0.1467309
-0.30367661 -0.49457604 -0.37723827
-0.2945416 -0.26060706 -0.14978123
-0.2896226 0.1063149 0.11634779
-0.28894761 0.22692692 0.13279867
-0.2952936 -0.080548108 -0.021836281
-0.29151461 0.013514936 0.070249557
-0.28695661 0.58248794 0.18130684
-0.28677562 0.61479688 0.18571472
-0.28809261 0.37956589 0.15362358
-0.28888062 0.65676188 0.13443756
-0.29735559 -0.13186806 -0.072080135
-0.31651661 -0.60878509 -0.53899622
-0.30353659 -0.089006126 -0.077949524
-0.2944876 0.25706893 0.1379509
-0.29778862 0.050101936 0.059202671
-0.29311362 0.49752292 0.17074871
-0.30567759 -0.14082211 -0.12903643
-0.30191362 0.13792694 0.098860741
-0.3096976 -0.045283079 -0.083064079
-0.3078486 -0.0017461181 -0.039832115
-0.29899061 0.46376291 0.16717768
-0.29879361 0.49757591 0.17178965
-0.29854959 0.53943694 0.17749882
-0.3264336 -0.43916708 -0.47420454
-0.31414461 -0.14993209 -0.18697929
-0.3037726 0.61491191 0.18882275
-0.3046726 0.46381891 0.16821957
-0.3275696 0.75208992 -0.35620451
-0.3247326 -0.017525077 -0.1536293
-0.31411362 0.65465289 0.084795475
-0.3280206 0.72123092 -0.22746325
-0.30989259 0.53953195 0.17957592
-0.32224962 0.21615988 0.033355713
-0.33793962 -0.12431806 -0.31215715
-0.33339161 -0.02561909 -0.21199608
-0.31529561 0.58269787 0.18649149
-0.31655061 0.37990093 0.15885258
-0.31603059 0.46393192 0.17030478
-0.3347176 0.7208069 -0.24121046
-0.3372336 0.071086884 -0.16409016
-0.33316159 0.15715593 -0.076104164
-0.3400076 0.012457907 -0.2240262
-0.3207556 0.61502492 0.19192791
-0.3268756 0.65358591 0.059693813
-0.32170862 0.46398792 0.17134762
-0.34811461 0.75098193 -0.39918423
-0.34179559 0.15062392 -0.13317537
-0.3488906 0.0045349002 -0.28362513
-0.33250561 0.34191388 0.063821793
-0.36243761 -0.27439004 -0.57087517
-0.35872361 -0.1979211 -0.49212313
-0.35290861 0.097154915 -0.23978615
-0.34615961 0.2325809 -0.099277496
-0.3347466 0.46159291 0.13832569
-0.3549746 0.71952593 -0.28279114
-0.36811861 -0.20803708 -0.5564332
-0.34620661 0.65196693 0.02167654
-0.36569962 0.1854679 -0.25222254
-0.34398159 0.61458993 0.18403864
-0.34969762 0.49064192 0.069206715
-0.3473376 0.53566587 0.11662674
-0.3804276 0.075141907 -0.4225564
-0.38600361 -0.028577089 -0.53263044
-0.35151961 0.61283588 0.14810276
-0.36027962 0.4498919 -0.024831295
-0.35828459 0.48700291 0.014555454
-0.35584262 0.53242195 0.062758923
-0.38216862 0.2082969 -0.33510447
-0.37933061 0.25977391 -0.28005123
-0.3743006 0.35105693 -0.18242645
-0.37166861 0.3988089 -0.13135719
-0.36701161 0.4833039 -0.04099226
-0.39360961 0.16574389 -0.43567419
-0.3780196 0.44175991 -0.13819313
-0.37327459 0.5257749 -0.047645092
-0.39270562 0.34101993 -0.30121708
-0.40214962 0.3358689 -0.36217117
-0.4139266 0.29497391 -0.46355343
-0.41176161 0.33062589 -0.42421341
-0.40691459 0.56052387 -0.22569609
-0.40163061 0.64549387 -0.1311841
-0.41292661 0.46383891 -0.33323717
-0.4163796 0.55732292 -0.28534317
-0.42037159 0.64058691 -0.24823046
-0.4324306 0.4555679 -0.45737648
-0.4292466 0.50441992 -0.40215254
-0.42768061 0.67261493 -0.26890326
-0.4432326 0.58478987 -0.42766809
