# .PCD v0.7 - Point Cloud Data file format
VERSION 0.7
FIELDS x y z
SIZE 4 4 4
TYPE F F F
COUNT 1 1 1
WIDTH 1
HEIGHT 1024
VIEWPOINT 0 0 0 1 0 0 0
POINTS 1024
DATA ascii
0.53888619 0.45795089 -0.89504719
0.52762818 0.41528589 -0.82926702
0.5165652 0.37336493 -0.76463699
0.52476519 0.4589569 -0.88189507
0.49310422 0.34541494 -0.70510721
0.49583122 0.37507594 -0.74562407
0.49972519 0.41743088 -0.80348301
0.47813922 0.25642288 -0.57660913
0.46840122 0.29945791 -0.62140322
0.47893322 0.41902488 -0.78426504
0.48580623 0.4970499 -0.89053917
0.45183921 0.1869989 -0.46142101
0.46579522 0.34777093 -0.68019724
0.47202623 0.41955394 -0.77787924
0.44216222 0.15151292 -0.40639019
0.43292421 0.043504894 -0.25955343
0.45899922 0.34835589 -0.6739974
0.43304822 0.12146693 -0.3588562
0.45470223 0.3784579 -0.70789909
0.46186122 0.4634189 -0.82328939
0.42657921 0.12222093 -0.35320425
0.41445023 -0.023934066 -0.15488911
0.41753921 0.013285935 -0.20539141
0.44109222 0.37957388 -0.69541121
0.44453123 0.42165488 -0.75245523
0.42250422 0.23348093 -0.49057436
0.43193421 0.3506819 -0.6493001
0.44393322 0.49981391 -0.85126638
0.39902723 -0.058305085 -0.095405102
0.40723723 0.12447089 -0.33630133
0.41252422 0.19122392 -0.42661905
0.39568621 -0.021382034 -0.13896036
0.41815421 0.26230192 -0.52279139
0.40378723 0.080909908 -0.27736235
0.43423623 0.46536791 -0.79754019
0.38900122 -0.10579115 -0.024754047
0.40320322 0.15588593 -0.37214422
0.41477922 0.30440891 -0.57290411
0.39482123 0.048334897 -0.22676039
0.42736223 0.46585292 -0.79113102
0.43008024 0.50072587 -0.83826923
0.38287821 -0.10488909 -0.019642353
0.38607523 0.017403901 -0.17847729
0.40495321 0.26359093 -0.51094103
0.39106321 0.082461894 -0.2663331
0.38471621 0.083234906 -0.26083136
0.36062723 -0.23611814 0.17003059
0.37066123 -0.10309309 -0.0094432831
0.37430221 -0.054828107 -0.074561119
0.37356123 0.019037902 -0.167768
0.39179721 0.26487291 -0.49912834
0.39837521 0.35355592 -0.61866236
0.40055123 0.3828879 -0.6581974
0.40365821 0.42476588 -0.714643
0.37745222 0.1587649 -0.34948921
0.38319123 0.23746389 -0.45546627
0.36462122 -0.017169058 -0.11257505
0.36963022 0.051515877 -0.2050662
0.39383721 0.38343489 -0.65203333
0.39998823 0.46777791 -0.7656064
0.40571123 0.54625094 -0.87127638
0.34492922 -0.2871781 0.25102282
0.35848522 -0.10130507 0.00072383881
0.36200121 -0.053102076 -0.064186096
0.37104222 0.15947992 -0.34384918
0.38164923 0.3074519 -0.54292202
0.36335921 0.052305877 -0.19966316
0.36464322 0.16019392 -0.33821821
0.34974021 -0.051384151 -0.053843021
0.35084721 0.05388093 -0.18888235
0.37174222 0.35582989 -0.59433842
0.37376523 0.38506889 -0.63359833
0.33725321 -0.14256614 0.07490778
0.34362221 -0.050528109 -0.048680305
0.34980422 0.13112193 -0.28607225
0.35431123 0.1974439 -0.37504625
0.33995223 -0.013836086 -0.09160614
0.34246123 0.023086905 -0.14113808
0.34460822 0.054665923 -0.18350315
0.34686223 0.087834895 -0.22800016
0.36511323 0.35639393 -0.5882802
0.37281221 0.46968293 -0.74025822
0.37516621 0.50432587 -0.78673124
0.32164821 -0.28318304 0.26973295
0.32524222 -0.23029512 0.19878197
0.34789822 0.19812691 -0.36935997
0.35535321 0.30985892 -0.51911306
0.33837822 0.05544889 -0.17813301
0.36322421 0.42782992 -0.6772213
0.37126321 0.5483039 -0.83868504
0.30476323 -0.44835609 0.49710178
0.30668622 -0.41954309 0.4584837
0.33142123 -0.048823059 -0.0383811
0.34428522 0.24138689 -0.42069912
0.33432922 0.089352906 -0.21712542
0.35380122 0.38669091 -0.61526012
0.35652822 0.42833591 -0.67102242
0.36156222 0.50521493 -0.77395916
0.31352121 -0.22837204 0.20831299
0.31931922 -0.13983709 0.089764595
0.29918522 -0.44727606 0.5014267
0.33510423 0.19948691 -0.35801697
0.32594922 0.057007909 -0.1674161
0.31925821 -0.047126114 -0.028110981
0.31776521 0.026290894 -0.11997938
0.30740923 -0.13802904 0.099633694
0.31016922 -0.094239056 0.041110039
0.32014921 0.16513991 -0.29904222
0.32498121 0.24332589 -0.40344
0.31356221 0.058559895 -0.15673304
0.28427821 -0.41529506 0.4759798
0.31199622 0.13547391 -0.25297403
0.31599721 0.20151389 -0.34107113
0.32025522 0.27180994 -0.43484497
0.32274023 0.31283391 -0.48957014
0.30964923 0.20218688 -0.33544016
0.32776621 0.50741589 -0.74222326
0.27041423 -0.50384408 0.54555988
0.28681523 -0.18252808 0.17728567
0.28961623 -0.13533312 0.11438704
0.27312422 -0.41318613 0.484694
0.27795523 -0.33180708 0.37623596
0.30124021 0.16723388 -0.28238297
0.30739123 0.2730509 -0.42327833
0.31659323 0.43134588 -0.63404036
0.27857423 -0.22265714 0.23675489
0.28370222 -0.1344381 0.11929178
0.27021623 -0.36642712 0.4281826
0.29495823 0.16792792 -0.27684832
0.30330724 0.31460088 -0.47195721
0.31937322 0.59689093 -0.84746408
0.26663023 -0.32979411 0.38524675
0.28868821 0.16862088 -0.2713213
0.27898121 -0.0056410432 -0.039725304
0.31256321 0.59725189 -0.84096336
0.30571821 0.47435993 -0.67764521
0.31003821 0.55193388 -0.78073597
0.26406923 -0.27335614 0.31607103
0.27190623 -0.13265604 0.12907887
0.25485721 -0.43872112 0.53584194
0.25899822 -0.36438006 0.43704271
0.26098123 -0.32879108 0.3897438
0.27664423 0.063171923 -0.12487221
0.27843821 0.09609288 -0.16858625
0.30576423 0.59761292 -0.83447409
0.29453322 0.39148092 -0.56078625
0.30329722 0.55233192 -0.77435398
0.2492982 -0.50462908 0.54146481
0.27052423 0.063933909 -0.11958933
0.28800321 0.39200693 -0.55478525
0.25265723 -0.27141708 0.32526588
0.25545621 -0.21889108 0.25558901
0.2440152 -0.50482804 0.5404377
0.26246622 -0.087306082 0.08103466
0.26500922 -0.039588034 0.017736912
0.26088023 -0.0032210946 -0.024308205
0.27542621 0.27612591 -0.3945241
0.27998123 0.36360693 -0.51046038
0.28582022 0.47574091 -0.65906525
0.28760523 0.5100199 -0.70449638
0.2469652 -0.27045113 0.32985401
0.25183022 -0.17702311 0.20603275
0.25654623 -0.086449087 0.08599472
0.26370722 0.17137492 -0.2492981
0.25672722 0.034166932 -0.067624092
0.27498221 0.39305389 -0.54280901
0.27708122 0.4343099 -0.59743214
0.28314421 0.5535199 -0.75527096
0.2439502 -0.21702212 0.26496792
0.2343442 -0.40587908 0.51502657
0.25306022 -0.037935078 0.027843952
0.25924823 0.2075069 -0.29070616
0.24886221 -0.001617074 -0.014067173
0.26474023 0.31809592 -0.43699312
0.25386122 0.099041879 -0.147223
0.28213921 0.63112891 -0.90044832
0.27261421 0.47665489 -0.64673424
0.24024221 -0.17520505 0.21556282
0.2425742 -0.12823611 0.15342903
0.25127923 0.17274189 -0.23833704
0.25299621 0.20816493 -0.28515339
0.2477432 0.099774897 -0.1419034
0.2388422 -0.083889067 0.1008296
0.22726321 -0.32282013 0.41660404
0.2450792 0.17342293 -0.23286819
0.24874321 0.25094193 -0.33522129
0.23688121 -2.1100044e-05 -0.0038552284
0.25197122 0.31924993 -0.42541027
0.2400832 0.067715883 -0.09329319
0.26909322 0.63099194 -0.90374804
0.25553322 0.39461493 -0.52491903
0.26309821 0.5546999 -0.73628616
0.24245921 0.25156593 -0.32959414
0.2456032 0.31982392 -0.41963434
0.25289121 0.47801793 -0.62831211
0.25446323 0.51215994 -0.67335129
0.25644121 0.5550909 -0.72997904
0.2229242 -0.17249411 0.22980976
0.2250842 -0.1256091 0.16795969
0.2160902 -0.32084805 0.42551279
0.23136221 0.14468789 -0.18229818
0.25181323 0.6004619 -0.78296709
0.25334921 0.63467693 -0.82805824
0.2463402 0.47846889 -0.62219334
0.21299221 -0.26470405 0.35725784
0.21534021 -0.21238607 0.28830481
0.20700121 -0.50626606 0.53321981
0.20560721 -0.42927915 0.57415867
0.22122021 -0.081347048 0.11560392
0.2265452 0.17545593 -0.21651506
0.2280882 0.21077991 -0.26302719
0.2299242 0.25280988 -0.318367
0.2311272 0.28036791 -0.35465002
0.2329012 0.32096893 -0.40810919
0.22193721 0.069963932 -0.077610016
0.23618521 0.39616388 -0.50711918
0.2379792 0.43722892 -0.56118822
0.2035692 -0.59331506 0.4760766
0.2014212 -0.39970809 0.54081869
0.2153642 -0.080504119 0.12051487
0.21303521 0.0031479001 0.016481876
0.23471721 0.51343089 -0.65478897
0.2039552 -0.21054608 0.29759789
0.19641221 -0.50668913 0.53114557
0.2115332 -0.032211125 0.062997818
0.19789021 -0.35328811 0.48537779
0.2156952 0.21207792 -0.25201225
0.21742821 0.25404793 -0.30717325
0.20860121 0.0403319 -0.026288986
0.20988721 0.071453929 -0.06719017
0.1961202 -0.26185912 0.3708806
0.1928802 -0.59377009 0.4739666
0.1911162 -0.50690311 0.53010893
0.1999592 -0.16891009 0.24871778
0.2056382 -0.031402051 0.06799078
0.22649421 0.63596594 -0.80225515
0.21578421 0.36899692 -0.45171213
0.22024721 0.48026592 -0.59781218
0.19051321 -0.26091605 0.3754096
0.19260721 -0.20871514 0.30686474
0.19424021 -0.16801912 0.25342894
0.18424821 -0.42764109 0.58044291
0.19666621 0.041854918 -0.016030312
0.1978762 0.072935879 -0.05680418
0.21848421 0.60221291 -0.7511344
0.2236052 0.68108791 -0.9237051
0.18051921 -0.50733513 0.52802801
0.19034821 -0.12041014 0.19684172
0.1813972 -0.3503111 0.4984436
0.1958552 0.17881089 -0.18942118
0.2057022 0.43962789 -0.5312562
0.21016321 0.55779994 -0.68613529
0.17521821 -0.50755411 0.52698565
0.1828282 -0.16624314 0.26283073
0.1886512 0.14952993 -0.1448102
0.1950452 0.32436889 -0.37375021
0.18590321 0.074410915 -0.04644537
0.1977832 0.39922792 -0.47177219
0.2007962 0.48160088 -0.57963419
0.1714852 -0.59469908 0.46973085
0.17044021 -0.34833711 0.50712967
0.1836482 0.18014193 -0.17864037
0.18489321 0.2152949 -0.22462702
0.1863732 0.25711691 -0.27934122
0.19982921 0.6372419 -0.7766304
0.1904092 0.37111491 -0.42847633
0.2037992 0.68112791 -0.92331743
0.17001121 -0.20507807 0.32532978
0.17630221 -0.027381122 0.092854023
0.16622321 -0.31208509 0.46532297
0.17756021 0.18080491 -0.17326212
0.17876321 0.21593291 -0.21917629
0.17396921 0.075878918 -0.036117077
0.1920312 0.60359788 -0.72586203
0.19319321 0.63755894 -0.77025223
0.19703521 0.68139887 -0.9169693
0.18788621 0.48248494 -0.56756639
0.1643842 -0.2041741 0.32993078
0.16077921 -0.59517211 0.46760464
0.17402321 0.25833392 -0.26826811
0.1540672 -0.34539407 0.52011681
0.17002021 0.32660788 -0.3510251
0.16207221 0.077339888 -0.025819302
0.15593021 -0.11528307 0.225492
0.14974721 -0.30920309 0.47849369
0.17335321 0.63850486 -0.75118113
0.1673312 0.44246691 -0.49565601
0.1709442 0.56008291 -0.64896297
0.14755121 -0.20147508 0.34369802
0.14337921 -0.50889212 0.5207119
0.15022521 -0.11443609 0.23024368
0.14180321 -0.38860911 0.58762169
0.15154821 -0.071358144 0.17409277
0.14823121 0.011708915 0.071811676
0.1667642 0.63881791 -0.74484634
0.1597722 0.40224493 -0.4367671
0.1458002 -0.070538104 0.17892361
0.1502192 0.28805292 -0.28174496
0.1513602 0.32827193 -0.33407307
0.1615252 0.68630493 -0.79989719
0.15580121 0.4846769 -0.53756714
0.1579632 0.56083691 -0.63665438
0.13637221 -0.19968611 0.35284662
0.13398421 -0.59638208 0.46226978
0.13752121 -0.15922207 0.30019665
0.14406721 0.28863293 -0.27619934
0.1536192 0.63944292 -0.7322073
0.14641221 0.37477189 -0.38816643
0.14829421 0.44386989 -0.47798824
0.14941721 0.48511189 -0.53159714
0.13079521 -0.19879514 0.35741091
0.12965621 -0.67296904 0.41177368
0.12862121 -0.59662908 0.46119881
0.13433221 -0.068905056 0.18856382
0.1352172 0.1854009 -0.13583708
0.13249521 0.080962896 -0.00020313263
0.14618221 0.60598791 -0.68205023
0.14706221 0.63975489 -0.72590303
0.14392021 0.51923591 -0.56938601
0.12387321 -0.24975914 0.42931557
0.12627821 -0.15748709 0.30947971
0.12748821 -0.11106604 0.24919081
0.12860921 -0.068091094 0.19337702
0.12153121 -0.33956605 0.54595184
0.1258392 0.050840914 0.044915676
0.1317922 0.28979093 -0.26512814
0.1366802 0.4859789 -0.51968336
0.11966421 -0.19701809 0.3665247
0.12182622 -0.11022907 0.25391197
0.11701121 -0.30350012 0.50469065
0.12320821 0.18669891 -0.12521839
0.11914121 0.015527904 0.096683025
0.12567121 0.2903679 -0.25960541
0.13318621 0.60666287 -0.66962814
0.13112821 0.5200479 -0.5573473
0.1321322 0.56233287 -0.61216021
0.11148521 -0.51028305 0.51439285
0.11830921 -0.01948005 0.142066
0.11654621 0.15764093 -0.081445217
0.11894421 0.2637369 -0.21885538
0.11955921 0.29094291 -0.25409222
0.11486121 0.083114922 0.015079021
0.12150121 0.3768329 -0.36533213
0.10801321 -0.67402714 0.40741062
0.11052721 -0.10855907 0.2633338
0.10476822 -0.38714415 0.59326077
0.11123522 0.18799192 -0.11462641
0.12095422 0.64099193 -0.70079708
0.11590622 0.40570992 -0.39634705
0.11928321 0.56307495 -0.5999732
0.10192021 -0.24610811 0.44710398
0.10259622 -0.67429608 0.40631676
0.10177521 -0.59788507 0.45582485
0.10488921 -0.10772711 0.2680378
0.10580921 -0.064853132 0.21255779
0.10681621 -0.017922103 0.15182781
0.10526321 0.18863589 -0.1093421
0.10681222 0.2649219 -0.20796633
0.10736421 0.29208988 -0.24308825
0.10380521 0.11683989 -0.016524315
0.11377321 0.60766888 -0.65107012
0.11133721 0.48769993 -0.49597502
0.096452214 -0.2452001 0.4515357
0.095515214 -0.51099712 0.51121664
0.098321214 -0.15318507 0.33257484
0.094703212 -0.43128413 0.56287289
0.099301212 0.18927789 -0.10406733
0.096030213 0.018549919 0.1164546
0.096719213 0.054509878 0.070005894
0.097308211 0.085252881 0.030296803
0.097926214 0.11752892 -0.011394024
0.10732521 0.60800195 -0.64490509
0.10886721 0.68846989 -0.74883938
0.10950221 0.72159392 -0.79162312
0.10502821 0.48812693 -0.4900713
0.10567121 0.52166092 -0.53338432
0.091983214 -0.19261211 0.38920689
0.092755213 -0.1523301 0.33717585
0.095360212 -0.016372144 0.16156197
0.089277215 -0.33381814 0.57159901
0.093976215 0.22471189 -0.14369917
0.090274215 0.019300878 0.12138081
0.09593121 0.33319288 -0.28368902
0.10088822 0.6083349 -0.63874912
0.10149422 0.64191091 -0.68207932
0.097264215 0.4071759 -0.37916231
0.086471215 -0.19173712 0.39372587
0.084860213 -0.51148111 0.50909376
0.089645214 -0.015599072 0.16641998
0.087993212 0.22532791 -0.13836908
0.095819212 0.68900394 -0.73618412
0.093718216 0.5645479 -0.57572317
0.082427211 -0.10442013 0.2867837
0.078483216 -0.38823611 0.58808899
0.079354212 0.056689918 0.084976673
0.08488521 0.40814692 -0.36774826
0.089829214 0.72231191 -0.77243328
0.085520215 0.44847393 -0.41969299
0.074659213 -0.24159008 0.46921492
0.075471215 -0.18999308 0.40274668
0.075495213 -0.67566413 0.40082693
0.074889213 -0.59918004 0.450418
0.076104216 -0.14977914 0.35094404
0.078240216 -0.01406008 0.17611504
0.078300215 0.38039088 -0.32571125
0.082813211 0.6895349 -0.7235713
0.069984213 -0.18912309 0.40724993
0.070572212 -0.74428409 0.35540581
0.069507211 -0.59944409 0.44933271
0.070571214 -0.14893204 0.35552263
0.071245216 -0.10277814 0.29612064
0.068437211 -0.29508907 0.54362679
0.070655212 0.2684409 -0.17549229
0.071556211 0.33534491 -0.26151609
0.068669215 0.12095392 0.014147758
0.073091216 0.44938093 -0.40814638
0.074091211 0.52365386 -0.50364733
0.064505212 -0.18825704 0.41174603
0.065107211 -0.74457711 0.35428667
0.064642213 -0.67622215 0.39862204
0.062988214 -0.43266207 0.55659294
0.064154215 0.22777593 -0.11712122
0.064996213 0.29605788 -0.20483828
0.062845215 0.12163389 0.019234657
0.066048212 0.38139689 -0.31447029
0.066396214 0.40959489 -0.35069513
0.07026121 0.72302389 -0.75334311
0.05921321 -0.67650408 0.39751577
0.059529208 -0.14724511 0.36465979
0.06009721 -0.10114306 0.30543375
0.063392214 0.69032693 -0.70473337
0.05417021 -0.74517006 0.35204458
0.052403208 -0.43313307 0.55448961
0.052155208 -0.38936108 0.58288765
0.05164421 0.16487288 -0.024320126
0.052977208 0.29717988 -0.19398403
0.056470208 0.64402992 -0.63876438
0.05527021 0.52483791 -0.485919
0.04811421 -0.1856671 0.42520094
0.048349209 -0.67707211 0.39530277
0.047513209 -0.51321906 0.50162363
0.048518211 -0.14556509 0.37377501
0.046883211 -0.38959008 0.58184385
0.047049209 -0.29140514 0.56079769
0.045426209 0.1236639 0.034452915
0.050083209 0.64432889 -0.632617
0.049392208 0.56708992 -0.53365898
0.043224208 -0.74576908 0.34979773
0.042914208 -0.67735904 0.39419365
0.04302521 -0.14472812 0.3783226
0.043437209 -0.098706067 0.31935692
0.043818209 -0.056107104 0.26477957
0.041409209 -0.32534009 0.60972786
0.039965209 0.1661669 -0.014032364
0.040195208 0.1956169 -0.051730156
0.04046521 0.23020089 -0.095998287
0.042197209 0.45162791 -0.37943411
0.037749209 -0.74607104 0.34867191
0.037540209 -0.14389306 0.38286591
0.036511209 -0.43384904 0.5513258
0.034336209 0.19624293 -0.046537399
0.034567211 0.23080289 -0.090734959
0.03344021 0.062429905 0.12459469
0.035023209 0.29885089 -0.17776299
0.037340209 0.64492589 -0.62035513
0.031795211 -0.18309611 0.43860483
0.031482209 -0.51398605 0.49840403
0.031088213 -0.28866512 0.5736208
0.028676212 0.23140389 -0.085480213
0.027738212 0.063139915 0.12951899
0.029055212 0.29940593 -0.17236996
0.029529212 0.3843829 -0.28094912
0.026084211 -0.23358804 0.50867271
0.027007211 -0.82247609 0.29720402
0.026133211 -0.51424509 0.4973278
0.025907211 -0.43433315 0.54921198
0.021888211 0.02817589 0.17997169
0.023276212 0.3395859 -0.21757603
0.023478212 0.38487691 -0.27539301
0.024846211 0.69189394 -0.66733217
0.02131121 -0.74698812 0.34528589
0.021337211 -0.095481098 0.33783865
0.02035021 -0.32291704 0.62066078
0.016811211 0.19810992 -0.031004429
0.01692621 0.23260188 -0.074995995
0.016365211 0.064553916 0.13934183
0.018195212 0.61258495 -0.55965042
0.017530212 0.41340488 -0.30560303
0.018570211 0.72489792 -0.70290327
0.017799212 0.49400091 -0.40840101
0.015375211 -0.23183209 0.51738167
0.015712211 -0.67881709 0.38862801
0.01558221 -0.60216504 0.43840981
0.01543321 -0.51476604 0.49517202
0.015680211 -0.14057308 0.40098095
0.015297211 -0.43482214 0.54709291
0.01510721 -0.32314104 0.61962366
0.010691211 0.06525892 0.14424467
0.01121521 0.30106193 -0.15624619
0.01075921 0.0957129 0.10543585
0.01034421 -0.74760705 0.34302092
0.01023521 -0.13974708 0.40549374
0.0099902106 -0.43506914 0.546031
0.0052122106 0.2337929 -0.064542294
0.0052582109 0.2747609 -0.11670113
0.0057222107 0.6926679 -0.64877415
0.0054572108 0.4542889 -0.34527397
0.0058342107 0.77214092 -0.77698517
-0.00063278934 0.30215889 -0.14553499
-0.00063278934 0.34167492 -0.19580126
-0.00063278934 0.12900794 0.074722767
-0.00063278934 0.3868379 -0.25325108
-0.00063278934 0.6929239 -0.64260721
-0.00063278934 0.49523288 -0.39113426
-0.00063278934 -0.17800504 0.4652667
-0.00063278934 -0.51555914 0.49193001
-0.00063278934 -0.049886048 0.30228662
-0.006541789 0.30270493 -0.14019012
-0.0069747893 0.69317991 -0.6364522
-0.0070357891 0.72477686 -0.70620537
-0.0067917891 0.52872092 -0.42743731
-0.0060837893 -0.68001205 0.38415194
-0.0059907893 -0.51582605 0.49084568
-0.0061047892 -0.09149307 0.36080885
-0.005892789 -0.28234214 0.60336781
-0.01215079 0.17191589 0.03191185
-0.01221479 0.20119292 -0.0052633286
-0.012381789 0.27645493 -0.10083103
-0.013203789 0.6472829 -0.571702
-0.01333679 0.69270289 -0.64791107
-0.011378789 -0.17632407 0.47410965
-0.011537789 -0.68031508 0.38302898
-0.01146679 -0.13646513 0.42349577
-0.01121079 -0.39219505 0.57028866
-0.017895788 0.17254692 0.036980629
-0.017551789 0.068757892 0.16865396
-0.018837789 0.45603991 -0.32267523
-0.01897179 0.49645591 -0.3739481
-0.01921979 0.57099491 -0.46851206
-0.016992789 -0.68062013 0.38190365
-0.017024789 -0.089911044 0.36995363
-0.017164789 -0.04758209 0.31625175
-0.023175789 0.069452882 0.1735158
-0.024214789 0.30433691 -0.12420607
-0.024389789 0.34374493 -0.17415619
-0.02330979 0.099792898 0.13505983
-0.026216788 0.69063091 -0.69766426
-0.024887789 0.45647591 -0.31704521
-0.021869788 -0.22574908 0.54770279
-0.022095788 -0.17465013 0.48293161
-0.022607788 -0.74950904 0.33618975
-0.022451788 -0.6809271 0.38077879
-0.032721791 0.68958491 -0.72278738
-0.031149788 0.49726591 -0.36253405
-0.028106788 -0.74983209 0.33504677
-0.027445789 -0.51691014 0.48649883
-0.028147789 -0.046056092 0.32553196
-0.035772789 0.27869493 -0.079778194
-0.034160789 0.035382926 0.22808075
-0.038645789 0.64453793 -0.62836933
-0.036956791 0.45734292 -0.30581617
-0.037716791 0.57204187 -0.45094299
-0.034067791 -0.88551503 0.24587584
-0.033043791 -0.13321215 0.44140673
-0.032540791 -0.43709308 0.53749466
-0.03393279 0.00094389915 0.27165461
-0.041018791 0.20423889 0.02029562
-0.039993789 0.071527898 0.18806601
-0.042107791 0.34528291 -0.15800714
-0.040472791 0.13360089 0.10959291
-0.042669792 0.41806191 -0.25001001
-0.043541789 0.53100389 -0.39278603
-0.038836792 -0.6818561 0.37739277
-0.03945379 0.0016759038 0.27636766
-0.037420791 -0.32544607 0.60920858
-0.046494789 0.17567992 0.062220573
-0.047648791 0.30649388 -0.10300303
-0.045849789 0.1024819 0.15467262
-0.051062789 0.61085188 -0.59202719
-0.04863679 0.41852093 -0.2444973
-0.05250879 0.68639994 -0.7992034
-0.04934179 0.49847391 -0.34547997
-0.049631789 0.53138089 -0.38704443
-0.05028579 0.57025695 -0.48070526
-0.042985789 -0.22231609 0.56491375
-0.045229789 -0.88623005 0.24351692
-0.043953791 -0.60533804 0.42624187
-0.043555792 -0.51773804 0.48322582
-0.043191791 -0.43761307 0.53534889
-0.044559792 -0.043779075 0.33940792
-0.044966791 0.0024058819 0.28107166
-0.042683791 -0.32568413 0.60816002
-0.050814789 0.037511885 0.24239159
-0.053874791 0.34630293 -0.14728022
-0.051779792 0.1348989 0.11949682
-0.054319791 0.39118189 -0.20391321
-0.05498879 0.45863593 -0.28903532
-0.048247792 -0.22146207 0.56920481
-0.050814789 -0.88659114 0.24233294
-0.049771789 -0.68248409 0.37512779
-0.050015792 -0.043024123 0.3440218
-0.047949791 -0.32592207 0.60711193
-0.05819479 0.20604891 0.035545826
-0.056348789 0.038218915 0.24714804
-0.060542792 0.41943693 -0.23349428
-0.060978789 0.4590649 -0.28345823
-0.06146279 0.49893489 -0.3389163
-0.054804791 -0.60593504 0.42401075
-0.054307792 -0.51829714 0.48103762
-0.054998789 -0.084430039 0.4017868
-0.053216789 -0.32616204 0.60606098
-0.052923791 -0.27472204 0.639534
-0.061874792 0.038922906 0.25189781
-0.066481784 0.41989291 -0.22800636
-0.06039279 -0.083654106 0.40631104
-0.061459791 0.004586935 0.29515171
-0.069218785 0.17815989 0.082287788
-0.067392789 0.039626896 0.25664282
-0.067857787 0.0749529 0.21218157
-0.07204479 0.39260888 -0.18761396
-0.07410679 0.49567792 -0.38450623
-0.064655788 -0.16803104 0.51800394
-0.067174785 -0.82821912 0.27748299
-0.066939786 0.0053098798 0.29983282
-0.074878789 0.17877591 0.087287903
-0.077297784 0.34832692 -0.12591839
-0.080492787 0.49403292 -0.40752411
-0.069942787 -0.16721207 0.52236366
-0.073173784 -0.88805109 0.23758793
-0.071757786 -0.040019095 0.3624177
-0.080975786 0.20844191 0.055780888
-0.082121789 0.28311193 -0.038031101
-0.078946784 0.076311886 0.22178459
-0.086918786 0.49237692 -0.43068743
-0.073893785 -0.27565104 0.63537073
-0.087208785 0.24312389 0.018033981
-0.08389879 0.041725934 0.27083969
-0.084478788 0.076988935 0.22657585
-0.085493788 0.13875788 0.14904165
-0.09865579 0.63348389 -0.85640812
-0.09338779 0.4907099 -0.45400333
-0.094513789 0.5212329 -0.54002905
-0.079657786 -0.21638209 0.59483957
-0.081967786 -0.60745615 0.41840982
-0.091804788 0.1806159 0.1022439
-0.09231279 0.20962989 0.065855026
-0.094768785 0.34983289 -0.10998011
-0.091082789 0.13939488 0.15394163
-0.10555679 0.63221192 -0.88262939
-0.097022787 0.41621792 -0.27143812
-0.09843979 0.45208889 -0.37293911
-0.099899784 0.4890309 -0.47747421
-0.10110879 0.51963687 -0.56407404
-0.086607784 -0.52001208 0.47443962
-0.087979786 -0.037785113 0.37615204
-0.084389783 -0.27612311 0.63328075
-0.095516786 0.078337908 0.23613977
-0.10232878 0.38944691 -0.22298908
-0.090068787 -0.2147041 0.60334492
-0.09499079 -0.83001012 0.27159595
-0.091221787 -0.4400211 0.52562857
-0.094226785 0.0089018941 0.32314682
-0.089640789 -0.27636105 0.632236
-0.10161778 0.10909289 0.20325279
-0.10977679 0.41245091 -0.31613016
-0.11139179 0.44850391 -0.41896439
-0.09626279 -0.16314608 0.54408789
-0.099782787 -0.75418907 0.3200469
-0.097932786 -0.078273118 0.43782663
-0.10925679 0.21140188 0.080917835
-0.10996179 0.24540091 0.038387775
-0.11150479 0.3113659 -0.054638386
-0.11793178 0.44669288 -0.44220018
-0.11969978 0.48392588 -0.54883003
-0.10278679 -0.5208891 0.47112274
-0.10232379 -0.12284511 0.4990139
-0.11425579 0.1830489 0.12209272
-0.11562879 0.24596691 0.043459892
-0.11770578 0.30921692 -0.075530052
-0.1320298 0.59460092 -0.8961482
-0.12451379 0.44486892 -0.46559
-0.1299208 0.55257988 -0.77531338
-0.10858878 -0.076752126 0.44678068
-0.10676879 -0.39680606 0.55106783
-0.11050379 0.011037886 0.3370657
-0.10599279 -0.3286311 0.59549665
-0.12394579 0.30705589 -0.096546173
-0.1390858 0.59318292 -0.92264605
-0.12921879 0.40670693 -0.38425207
-0.1311408 0.44303393 -0.4891324
-0.11196579 -0.16072911 0.55705786
-0.11728479 -0.83147508 0.26685762
-0.11358178 -0.5214811 0.46890497
-0.11066478 -0.27732414 0.62804079
-0.12213378 0.046567917 0.3037529
-0.1343838 0.37956589 -0.33421135
-0.13781379 0.44118488 -0.51284027
-0.14163379 0.50982094 -0.71181726
-0.11718779 -0.15992612 0.56137276
-0.12286479 -0.83184606 0.26566982
-0.12191079 -0.75559014 0.31537867
-0.12104879 -0.68672711 0.36027098
-0.11813179 -0.12049609 0.51217985
-0.11921579 -0.075237095 0.45571375
-0.11797879 -0.4414081 0.52018595
-0.12021979 -0.033361137 0.40347099
-0.12131679 0.0124529 0.34631491
-0.1317298 0.21374488 0.10090303
-0.1331428 0.24445689 0.030516624
-0.12239978 -0.1591261 0.56568098
-0.1274478 -0.75594407 0.31420994
-0.12438779 -0.52207905 0.466681
-0.14290479 0.3004849 -0.1604023
-0.13468279 0.11298591 0.2320919
-0.1309938 -0.61029404 0.40824366
-0.12869379 -0.44197208 0.51799965
-0.1280918 -0.39788908 0.54674482
-0.1309038 -0.031900108 0.41252995
-0.14930479 0.29826593 -0.18195343
-0.14101879 0.14506692 0.19775581
-0.15412079 0.37347692 -0.40268326
-0.1650898 0.54476094 -0.90539122
-0.13961579 -0.83297104 0.26209593
-0.13747579 0.014562905 0.36014271
-0.15807779 0.33090889 -0.30642128
-0.15437479 0.18116289 0.10780478
-0.15110779 0.1149109 0.24642467
-0.1496218 -0.75738114 0.30951071
-0.14856179 -0.68843514 0.3544898
-0.1468748 -0.029721081 0.42607975
-0.1670468 0.26803392 -0.17764425
-0.15459879 0.050655901 0.33172989
-0.17129779 0.32655692 -0.3515563
-0.18386379 0.49958092 -0.86574697
-0.15638779 -0.83411211 0.25850582
-0.1509168 -0.070735037 0.48238182
-0.14836079 -0.33069807 0.58696079
-0.16107979 0.08630389 0.2930069
-0.1621798 0.11530089 0.24952602
-0.1886798 0.46611589 -0.79738331
-0.1956238 0.53477287 -1.0717182
-0.1535258 -0.15436107 0.59142685
-0.16198279 -0.83449608 0.25730658
-0.15552279 -0.44340807 0.51251173
-0.15891479 0.017354906 0.37850189
-0.1536658 -0.33096105 0.58588982
-0.1772888 0.22783089 -0.11463499
-0.1819278 0.28694892 -0.29179716
-0.18468979 0.32214689 -0.39727497
-0.1570528 -0.20397907 0.65814972
-0.15996179 -0.11431104 0.54705667
-0.16142379 -0.06924814 0.49122763
-0.1608948 -0.44369906 0.51141071
-0.1627758 -0.027558148 0.43957663
-0.1580898 -0.27956313 0.61853361
-0.17072679 0.052678883 0.3456378
-0.17234379 0.085240901 0.28588772
-0.1885808 0.28463989 -0.31419706
-0.16215679 -0.20316714 0.66233158
-0.16769379 -0.52453107 0.45773697
-0.18776879 0.19337791 -0.067942142
-0.19026379 0.22293991 -0.15728617
-0.1760868 0.053349912 0.35026169
-0.1982618 0.31767493 -0.44360399
-0.1827278 0.13366789 0.11251879
-0.1733418 -0.026123106 0.44854879
-0.19422279 0.19084889 -0.088901997
-0.20871679 0.35661489 -0.59204531
-0.17552979 -0.11202008 0.56005001
-0.17713079 -0.067030132 0.5044589
-0.1786118 -0.025409043 0.45302582
-0.2034038 0.21798593 -0.20047522
-0.22149679 0.41796893 -0.8100872
-0.2250028 0.45672488 -0.92822933
-0.2295378 0.48526388 -1.0810361
-0.1839688 -0.52547604 0.45435858
-0.1824068 -0.44487911 0.50699091
-0.17922279 -0.28058904 0.61427879
-0.21562679 0.27524793 -0.40523815
-0.22526479 0.37828189 -0.72067642
-0.18439479 -0.14966112 0.61699295
-0.19407879 -0.76033813 0.30004168
-0.1877898 -0.44517714 0.50588369
-0.1891318 -0.023985088 0.46196461
-0.1845108 -0.28084904 0.61321163
-0.2167148 0.21296489 -0.24422026
-0.20802079 0.12298691 0.032426834
-0.23989679 0.45287192 -0.98187399
-0.24305479 0.48514891 -1.0823622
-0.19483179 -0.52611309 0.45210075
-0.1910328 -0.10974509 0.57299995
-0.19277279 -0.064827144 0.51763868
-0.19226879 -0.40127105 0.53365183
-0.1908648 -0.33284611 0.57834864
-0.1898028 -0.28111011 0.61214399
-0.22942179 0.2704559 -0.45166731
-0.20375979 -0.69197804 0.34281492
-0.20026679 -0.52643412 0.4509697
-0.23019679 0.20787692 -0.2885232
-0.21260679 0.036913931 0.24171782
-0.23638679 0.26803493 -0.47510815
-0.2209028 0.11754489 -0.0083580017
-0.19869979 -0.20366508 0.660954
-0.2092928 -0.6923421 0.34163904
-0.20133179 -0.10823709 0.58160591
-0.2015118 -0.33339614 0.5761838
-0.20038979 -0.28163606 0.6100049
-0.23700379 0.2053079 -0.3108902
-0.2219128 0.063015878 0.1323638
-0.25846979 0.40769589 -0.94137716
-0.21114179 -0.52708012 0.44870377
-0.2085018 -0.063426077 0.52624369
-0.20836179 -0.40214711 0.53034973
-0.21199879 -0.030452073 0.42352772
-0.21589179 0.0062538981 0.30918503
-0.24057379 0.17266893 -0.23937941
-0.25045979 0.26314288 -0.52246618
-0.2339488 0.11203092 -0.049653053
-0.25897479 0.3410719 -0.76630831
-0.26185477 0.36743492 -0.84879541
-0.20920679 -0.20415908 0.65884781
-0.2099288 -0.14579314 0.63816595
-0.2185998 -0.61566108 0.38988161
-0.25075379 0.20011693 -0.35606718
-0.25756577 0.2606709 -0.54638004
-0.2375198 0.08247292 0.013653755
-0.24053179 0.10924792 -0.070492268
-0.27363178 0.40347993 -0.99520636
-0.22752479 -0.76263112 0.29287481
-0.22409379 -0.61600906 0.3887229
-0.22202879 -0.52773315 0.44643164
-0.22041979 -0.069538057 0.49137878
-0.2201398 -0.44699806 0.49920893
-0.25420278 0.16731888 -0.2836132
-0.2471568 0.10644692 -0.091460228
-0.27685177 0.36298591 -0.90129805
-0.28129277 0.4013499 -1.0224061
-0.2197208 -0.20465714 0.65673971
-0.22553879 -0.4473061 0.4980917
-0.23026179 -0.039513052 0.36928797
-0.23452879 -0.0026450753 0.2529068
-0.25062478 0.076755881 -0.027357101
-0.28900978 0.39920288 -1.0498023
-0.23247379 -0.075723112 0.45612097
-0.22689879 -0.28297204 0.60463667
-0.25414079 0.048549891 0.032590866
-0.27917579 0.25315392 -0.61909342
-0.29206279 0.35847193 -0.95454502
-0.2302448 -0.20516104 0.65462589
-0.24261579 -0.045645058 0.33260489
-0.27177578 0.13364291 -0.26941824
-0.27879977 0.18952191 -0.44820404
-0.28341278 0.22621489 -0.56560326
-0.26728678 0.097931921 -0.15516424
-0.23643279 -0.14751309 0.63010502
-0.24809179 -0.6949361 0.33336592
-0.2460998 -0.61742204 0.38406897
-0.24382879 -0.52905613 0.44186974
-0.24175179 -0.4482401 0.49473381
-0.2488488 -0.048740089 0.31409502
-0.23751879 -0.28351504 0.60248184
-0.27059379 0.068039894 -0.089837074
-0.27408177 0.095056891 -0.17666626
-0.24077879 -0.20566911 0.65250778
-0.2462588 -0.1204831 0.51605177
-0.28566977 0.1280089 -0.31403828
-0.28906378 0.15362489 -0.3967433
-0.29310378 0.18411493 -0.49518728
-0.27007079 0.010273933 0.066074848
-0.30123377 0.2454769 -0.6933012
-0.2483058 -0.15400511 0.59644461
-0.26105979 -0.76499015 0.28564787
-0.25919878 -0.69569308 0.33098793
-0.25700778 -0.08831805 0.38437796
-0.25257179 -0.44887012 0.49248457
-0.29617476 0.15083092 -0.41981316
-0.28411779 0.062133908 -0.13214207
-0.25131977 -0.20618111 0.6503849
-0.26475677 -0.69607407 0.32979679
-0.25841579 -0.12694508 0.48108959
-0.29974878 0.12229788 -0.3592453
-0.25659579 -0.20643908 0.6493206
-0.26031479 -0.16057414 0.56240177
-0.27225977 -0.76579005 0.28322601
-0.26340279 -0.4495061 0.49023485
-0.26216078 -0.40515715 0.51926088
-0.26023778 -0.33651513 0.56418657
-0.29781577 0.056150913 -0.17498827
-0.27366179 -0.61922508 0.3782177
-0.28057379 -0.064500034 0.21992588
-0.26410678 -0.28489512 0.59706879
-0.31401178 0.11650991 -0.40503836
-0.32229677 0.17307591 -0.59105825
-0.30097678 0.027503908 -0.11234236
-0.33677778 0.27195388 -0.91622019
-0.30472979 0.053129911 -0.19661331
-0.27245978 -0.16722006 0.5279808
-0.27691779 -0.13678306 0.42788982
-0.32509679 0.13945889 -0.51364136
-0.30339476 -0.0051950812 -0.03573513
-0.31168878 0.050088882 -0.21837616
-0.27966478 -0.45047015 0.48684692
-0.29914379 -0.03353411 0.057889938
-0.32846579 0.11064291 -0.451437
-0.28474578 -0.17394608 0.49316692
-0.29258379 -0.69800514 0.32381773
-0.31701979 -0.011523068 -0.077351093
-0.29094279 -0.17733914 0.47560692
-0.29815778 -0.69839615 0.32261896
-0.29302177 -0.53212315 0.43152475
-0.28914878 -0.4067151 0.51366568
-0.31254977 -0.039950073 0.017444611
-0.28702578 -0.3379851 0.55868387
-0.28542078 -0.28602105 0.59272003
-0.33725777 0.06829989 -0.37651539
-0.30128777 -0.62106913 0.37232876
-0.35992178 0.15883589 -0.71459341
-0.30682078 -0.62144309 0.37114668
-0.29775679 -0.3385821 0.55647469
-0.36760378 0.1559279 -0.73980904
-0.35180879 0.062130928 -0.42253017
-0.32093978 -0.12118012 0.19753504
-0.36546078 0.095616937 -0.57017612
-0.35440579 0.031408906 -0.35194302
-0.30944279 -0.22973508 0.53562498
-0.31078279 -0.40798515 0.50916767
-0.30677179 -0.28716809 0.58834982
-0.37300977 0.092548907 -0.59440231
-0.37762779 0.11878592 -0.68400717
-0.36655578 0.055877924 -0.46915913
-0.32247177 -0.19461209 0.38630199
-0.32043979 -0.53388005 0.4257288
-0.31387278 -0.33948809 0.5531497
-0.35894379 -0.031009138 -0.20536709
-0.32161477 -0.40862912 0.5069108
-0.34697977 -0.097532094 0.022918701
-0.31924978 -0.33979207 0.55203867
-0.33724377 -0.70118505 0.31416988
-0.34099677 -0.17089504 0.24374199
-0.34760979 -0.13490504 0.11963558
-0.32703477 -0.40895313 0.50577974
-0.38904777 0.046335936 -0.54026604
-0.33456078 -0.24399608 0.46580982
-0.34007278 -0.62372011 0.36402273
-0.33403778 -0.45377713 0.47546673
-0.33245677 -0.40927809 0.50464678
-0.33001077 -0.34040505 0.54981279
-0.34836879 -0.2088111 0.31297493
-0.34843677 -0.70199805 0.31174183
-0.34562579 -0.62410611 0.36282873
-0.34242079 -0.5353151 0.42106485
-0.40429878 0.039862931 -0.58846998
-0.34494379 -0.4544571 0.47317266
-0.37471378 -0.11134404 -0.059315205
-0.34617278 -0.34133512 0.54646492
-0.34577978 -0.29501206 0.55339193
-0.36026978 -0.25860208 0.3943758
-0.35209179 -0.29872805 0.53619576
-0.40994978 -0.054742038 -0.36105013
-0.37488878 -0.22336012 0.23791265
-0.38886279 -0.15615314 -0.00081205368
-0.36131978 -0.45548612 0.4697237
-0.40392077 -0.083733141 -0.25806427
-0.35844177 -0.30246609 0.51890182
-0.42387477 -0.027837098 -0.49234724
-0.37342378 -0.62605804 0.35684061
-0.36995679 -0.5371421 0.41520166
-0.36235777 -0.34227711 0.54310465
-0.37995178 -0.26979107 0.3397069
-0.38839179 -0.23077208 0.19970369
-0.39510378 -0.19974214 0.088367939
-0.36775678 -0.34259313 0.54198265
-0.38658977 -0.27356607 0.3212719
-0.41007677 -0.16708714 -0.062729359
-0.41765177 -0.13274604 -0.18658638
-0.37771177 -0.31381506 0.46642494
-0.39013478 -0.62724906 0.35323
-0.38319379 -0.45687908 0.46510601
-0.39998779 -0.28118604 0.28407001
-0.39571178 -0.62765008 0.35202169
-0.38867077 -0.45723206 0.46394682
-0.39074779 -0.32149512 0.43093586
-0.43169579 -0.17823714 -0.12581825
-0.39962879 -0.45794004 0.46162558
-0.39773178 -0.41329414 0.49095583
-0.40393379 -0.32926708 0.39504099
-0.40318778 -0.41363806 0.4898057
-0.42726579 -0.29671007 0.20834684
-0.43696478 -0.2574541 0.062310696
-0.41415378 -0.54014915 0.4057436
-0.45373079 -0.18960708 -0.19010305
-0.41059679 -0.45865506 0.45929861
-0.45194978 -0.23009104 -0.074767113
-0.44115579 -0.30461913 0.16979694
-0.45123377 -0.26529914 0.021963596
-0.42157876 -0.45937508 0.45696688
-0.46661279 -0.23792607 -0.11683035
-0.43093878 -0.37460905 0.39981079
-0.43759179 -0.34911615 0.30345392
-0.43256977 -0.46010214 0.45462799
-0.46231079 -0.31666905 0.11109781
-0.47297379 -0.27725512 -0.039494038
-0.44187078 -0.54207915 0.39978504
-0.45133978 -0.3572281 0.26605892
-0.46284977 -0.63258809 0.33741474
-0.45458677 -0.46157211 0.44993591
-0.47226977 -0.36958414 0.20913601
-0.46009779 -0.46194404 0.44875765
-0.47933179 -0.37375408 0.18993378
-0.46937078 -0.43576008 0.39760971
-0.47970179 -0.63386112 0.33372688
-0.47113079 -0.46269113 0.44639778
-0.48589978 -0.40776807 0.25224066
-0.48532379 -0.63428909 0.33249378
-0.48636478 -0.54525107 0.39016962
-0.49194178 -0.54565507 0.38896084
-0.51438683 -0.42497009 0.17579699
-0.50310081 -0.54646713 0.38653803
-0.51106483 -0.46162409 0.28755283
-0.5288918 -0.43373412 0.13688278
-0.52529681 -0.47045809 0.24999666
-0.51986283 -0.54769713 0.38289261
-0.53665084 -0.54894215 0.37923479
-0.54225481 -0.54936105 0.3780098
