# .PCD v0.7 - Point Cloud Data file format
VERSION 0.7
FIELDS x y z
SIZE 4 4 4
TYPE F F F
COUNT 1 1 1
WIDTH 1
HEIGHT 1024
VIEWPOINT 0 0 0 1 0 0 0
POINTS 1024
DATA ascii
1.0678973 -0.070498049 -0.3222003
1.0437104 -0.20371109 -0.19386339
1.0207664 -0.078977048 -0.072807312
1.0147164 -0.078840077 -0.072721004
1.0490613 -0.070073068 -0.32183123
1.0302113 -0.25893706 -0.18511009
1.0086683 -0.078703105 -0.072632313
1.0216744 -0.25572509 -0.16758204
1.0341893 -0.15225905 -0.25894403
1.0302414 -0.06965512 -0.32145834
1.0114313 -0.069238126 -0.3210392
0.98583436 -0.25601512 -0.17408323
0.95988637 -0.070270121 -0.022427082
0.97851139 -0.25426406 -0.16485596
0.97463238 -0.3196941 -0.18201113
0.97238338 -0.25409812 -0.16468906
0.9473024 -0.16519409 0.028419971
0.95001841 -0.079447091 -0.085412025
0.95603341 -0.31891912 -0.18011999
0.9551574 -0.25518709 -0.17323637
0.93312341 -0.16955811 -3.8146973e-05
0.94061339 -0.11932808 -0.058915138
0.92248237 0.059022903 0.037054062
0.95986736 -0.38930506 -0.25887394
0.95008039 -0.31901413 -0.18139935
0.92883837 -0.17163509 -0.013258934
0.92453736 -0.17372113 -0.026525974
0.91812336 0.0057359338 -0.07130909
0.91116637 0.052374899 -0.015053272
0.91470838 0.0028979182 -0.092467308
0.91153538 -0.18003005 -0.066626072
0.89213639 0.1037479 -0.0055980682
0.91461438 -0.049039066 -0.19134331
0.90781641 -0.0028320551 -0.13516903
0.88885236 -0.28091604 0.021539688
0.89609236 -0.23070806 -0.038284302
0.8845014 -0.28319603 0.0084199905
0.89838737 -0.18641609 -0.1071682
0.90568137 -0.13557214 -0.16789293
0.88519937 0.09869194 -0.047234058
0.87457037 0.18409491 0.041903019
0.89396936 -0.18856305 -0.12078524
0.90123838 -0.13764113 -0.18174696
0.8689754 0.18387192 0.039263725
0.89045841 -0.13130707 -0.14224339
0.87010837 0.10220593 -0.020667076
0.87322038 0.0097839236 -0.04715395
0.87135041 -0.29009408 -0.031235218
0.86203337 -0.021258056 -0.0025162697
0.86693341 -0.2924121 -0.044548035
0.8671574 -0.17585307 -0.046470165
0.85203338 -0.060112059 0.032537937
0.85473239 -0.16647905 0.0092148781
0.84504437 0.18448889 0.041938782
0.84592736 -0.015755057 0.034247875
0.83914238 0.1845659 0.041945934
0.83985537 0.021660924 0.035688877
0.84066337 -0.16303307 0.028596878
0.84040338 -0.10350806 0.030881882
0.8559044 0.24089193 -0.15849829
0.83549237 -0.33340007 0.022057056
0.82766438 0.11022192 0.039101601
0.82839638 -0.059705079 0.032575607
0.82907939 -0.21820909 0.026487827
0.82858437 -0.10329813 0.030900955
0.82176238 0.11030489 0.039109707
0.82144439 0.1847949 0.04197073
0.82124239 0.23166394 0.04377985
0.82229936 -0.015369058 0.034282684
0.82365739 -0.33314508 0.022078037
0.82342637 -0.27906603 0.024155617
0.82267439 -0.1031931 0.030910969
0.81571639 0.1448769 0.040443897
0.81774336 -0.33301908 0.022088051
0.81676841 -0.10309011 0.030920029
0.80982035 0.14495593 0.040452003
0.80965137 0.18494391 0.041986942
0.80406839 0.11054891 0.039135933
0.80375737 0.18501693 0.041996002
0.80459237 -0.015087068 0.034310818
0.82525736 0.2414999 -0.15592003
0.79802841 0.14510989 0.040467739
0.79786241 0.18508995 0.042003632
0.79766738 0.23194093 0.043810844
0.79887336 -0.059214056 0.032620907
0.85597736 0.25388891 -0.49733829
0.79837638 0.060952902 0.037234783
0.79177737 0.23200893 0.043818951
0.79315138 -0.10268611 0.030955791
0.78658438 0.061120927 0.037252903
0.78796637 -0.27835709 0.024213791
0.78771836 -0.21742004 0.026552677
0.78749341 -0.16206008 0.028679848
0.78084636 0.022558928 0.035776615
0.78159136 -0.16195613 0.028689861
0.77495241 0.022643924 0.035784721
0.76857036 0.14548492 0.040508747
0.82382739 0.25450993 -0.49421024
0.76268137 0.14555794 0.040516853
0.76252437 0.18551594 0.042051792
0.76348537 -0.058652103 0.032673836
0.76456136 -0.33193105 0.022175789
0.76365638 -0.10219806 0.031000614
0.75663936 0.1855849 0.042059898
0.75712341 0.061528921 0.037294865
0.7586574 -0.33181506 0.022186756
0.75169837 -0.05847007 0.032691956
0.75152737 -0.014284074 0.034388065
0.74502236 0.14577389 0.040540695
0.76408941 0.24270189 -0.15048504
0.7468524 -0.33158606 0.022206783
0.7464124 -0.2166751 0.026620865
0.74074739 -0.27746505 0.024291039
0.7332564 0.1459139 0.040556908
0.73385841 -0.014030099 0.034413815
0.7337184 0.02322489 0.035844803
0.73357236 0.061841905 0.037327766
0.73462039 -0.21647114 0.026638031
0.73418838 -0.10173208 0.03104496
0.72737437 0.14598393 0.040565014
0.72813636 -0.058117092 0.032725811
0.72134638 0.18598592 0.042106628
0.77248639 0.25549489 -0.48900604
0.72240937 -0.10155112 0.031064034
0.71573836 0.11168391 0.039258957
0.71636039 -0.057945073 0.032743931
0.73356938 0.24329591 -0.14762926
0.71592039 0.062069893 0.037353039
0.70973337 0.1461879 0.040588856
0.71031439 -0.013702095 0.03444767
0.7274704 0.24341393 -0.14704609
0.71017838 0.023539901 0.035877705
0.70458937 -0.057777107 0.032759666
0.75326335 0.25586092 -0.48699331
0.6981014 0.11189294 0.039281845
0.69854838 -0.013542056 0.034464836
0.69841641 0.023693919 0.035894871
0.69967836 -0.33071214 0.022281647
0.69926935 -0.2158801 0.026692867
0.69179541 0.2330789 0.04394865
0.69282138 -0.057611048 0.032776833
0.69378537 -0.33060712 0.02229166
0.6935944 -0.27663511 0.024363995
0.68709141 -0.10102803 0.031115055
0.68047237 0.11209589 0.039304733
0.68181741 -0.2764371 0.024381638
0.6745984 0.11216193 0.039313793
0.67502737 -0.013231099 0.034497738
0.67490041 0.023991942 0.035926819
0.67572141 -0.21550304 0.02672863
0.66872436 0.11222792 0.039321899
0.66915041 -0.013156056 0.03450489
0.66902441 0.024064898 0.035934925
0.66983736 -0.21541208 0.026735783
0.66944736 -0.10077709 0.031139851
0.65845138 -0.32999808 0.02234602
0.65827137 -0.27605313 0.024418831
0.65788537 -0.15997511 0.028876781
0.65099537 0.14682794 0.040665627
0.65238839 -0.27595907 0.024426937
0.64484435 0.23352695 0.044006824
0.68931037 0.25706893 -0.48004103
0.64650536 -0.27586609 0.024436951
0.63991541 -0.056905091 0.032851696
0.63977337 -0.012788057 0.034546852
0.6402474 -0.1597231 0.028903008
0.63350141 0.11260891 0.039365768
0.63418138 -0.10029906 0.031189919
0.6272524 0.23368591 0.044027805
0.64225936 0.24505192 -0.13851118
0.62903136 -0.32951909 0.022390842
0.62830639 -0.10022205 0.031198025
0.63618636 0.24516791 -0.13787508
0.62279141 -0.21471006 0.026806831
0.62243336 -0.10014504 0.031205654
0.61590338 0.11279094 0.03938961
0.61605638 0.063243926 0.037487984
0.61138839 -0.32924312 0.022417068
0.61086941 -0.15932113 0.028944969
0.64465439 0.25790292 -0.47495127
0.60551035 -0.32915312 0.022424698
0.60534739 -0.2752431 0.024497032
0.60499638 -0.15924305 0.028951645
0.60481739 -0.099922121 0.031229973
0.59820837 0.14735091 0.040732861
0.61190641 0.24562794 -0.13528919
0.59963238 -0.32906407 0.022433758
0.59244937 0.11302489 0.039419651
0.59294939 -0.056331098 0.032915592
0.59375536 -0.32897609 0.022442818
0.59341639 -0.21430105 0.026847839
0.5863694 0.18732393 0.042278767
0.62554437 0.25825793 -0.47271538
0.58684337 0.025007904 0.036043644
0.58754236 -0.21422213 0.026855946
0.58720839 -0.099706113 0.031253815
0.58121538 -0.05619508 0.032930851
0.57612735 -0.32871908 0.022469044
0.57547337 -0.099566042 0.031270027
0.58159637 0.24619991 -0.13197803
0.57025439 -0.32863504 0.022476673
0.56305337 0.14767194 0.04077673
0.56349838 -0.011920094 0.034647942
0.56339538 0.025251925 0.036074638
0.55719638 0.1477229 0.040783882
0.55742735 0.063841939 0.037561893
0.55850738 -0.32847005 0.022493839
0.55835938 -0.27458912 0.024562836
0.55167335 0.025369942 0.036089897
0.55263537 -0.32838804 0.022503853
0.54557836 0.1134609 0.039479733
0.58102036 0.25907993 -0.46736526
0.54571134 0.063952923 0.037576675
0.54676539 -0.32830912 0.022511005
0.54645735 -0.21369404 0.026913643
0.53963238 0.14787292 0.040804863
0.53952634 0.18771589 0.042335033
0.54089534 -0.32823008 0.022520065
0.53377938 0.14792192 0.040812016
0.53431237 -0.055683076 0.03299284
0.53399837 0.06406194 0.037592888
0.52845138 -0.055622041 0.033000946
0.56196636 0.25942892 -0.46501732
0.52915537 -0.32807511 0.022535801
0.52885938 -0.21348113 0.026937008
0.52259237 -0.055563033 0.033007622
0.52238536 0.025650918 0.036126614
0.52299535 -0.21341211 0.026944637
0.52270335 -0.098975122 0.031339645
0.51742035 -0.32792312 0.022552013
0.51728535 -0.27406603 0.02462101
0.51037234 0.14811093 0.040840626
0.51113236 -0.15811414 0.029079914
0.50430834 0.23465693 0.044174671
0.51506037 0.2474429 -0.12437296
0.53658736 0.25989193 -0.46183538
0.50472635 0.064320922 0.037627697
0.50540638 -0.21320909 0.026968956
0.53024739 0.2600069 -0.46102905
0.49896735 0.025863945 0.036155701
0.49969137 -0.2738561 0.024644852
0.49941134 -0.15798813 0.029094696
0.49926835 -0.098734081 0.03137064
0.49355239 -0.15792614 0.029101849
0.48688239 0.1881119 0.042397976
0.48745334 -0.05522114 0.033051968
0.48717237 0.06446892 0.037649632
0.48782438 -0.21301514 0.026991844
0.48769438 -0.15786511 0.029110909
0.48196536 -0.21295303 0.026998997
0.47518939 0.18819392 0.042411804
0.47564435 -0.011075079 0.034757614
0.48488438 0.24799991 -0.12076998
0.47555935 0.026064932 0.036184788
0.46943438 0.14841789 0.040888786
0.47050434 -0.32735807 0.02261591
0.4701224 -0.15768808 0.029131889
0.46404034 -0.055008113 0.033081055
0.46394235 -0.010975063 0.034771919
0.49224734 0.26069492 -0.45612431
0.45755637 0.23496389 0.0442276
0.45809239 -0.010926068 0.034780025
0.45197237 0.11420792 0.039590836
0.45267439 -0.21265107 0.027036667
0.44605535 0.1485799 0.040915966
0.44706136 -0.32709903 0.022646904
0.44681937 -0.21259409 0.027043819
0.44670236 -0.15746409 0.029162884
0.44028437 0.11428994 0.039604664
0.43437034 0.1486569 0.040929794
0.42893839 -0.054712117 0.033124924
0.43669134 0.24888289 -0.11482239
0.42937738 -0.27310103 0.024735928
0.42317438 -0.098039091 0.031466961
0.42465937 0.24910194 -0.11329937
0.41766536 -0.27298814 0.024751663
0.41744035 -0.15720314 0.029198647
0.41092938 0.18859994 0.04248476
0.43537235 0.26171494 -0.44851923
0.40595734 -0.27287906 0.024766922
0.4056294 -0.097898066 0.031486988
0.39925134 0.18866694 0.042497635
0.40020239 -0.3266291 0.022706985
0.39999038 -0.21216613 0.027102947
0.39978039 -0.097853124 0.031493664
0.39348638 0.1489079 0.040977001
0.39414036 -0.21211606 0.027109623
0.38764834 0.14894193 0.040982723
0.38800937 -0.054403126 0.033174038
0.38849336 -0.3265211 0.022720814
0.38181037 0.1489749 0.040988922
0.38860536 0.24975491 -0.10864735
0.38202339 0.026754916 0.036294937
0.38224036 -0.097722113 0.031514645
0.37597334 0.1490069 0.040995598
0.37590539 0.18879193 0.042522907
0.37669438 -0.27262408 0.024801731
0.37659037 -0.21197313 0.027132034
0.3704024 -0.010280073 0.034883976
0.37034035 0.026828945 0.036307812
0.36429834 0.14906889 0.041007996
0.36423337 0.18885189 0.042535782
0.36449939 0.026863933 0.036314964
0.36480135 -0.1567871 0.029262066
0.35859734 0.06536293 0.037798882
0.35294837 -0.054167092 0.033212662
0.35301638 -0.0975191 0.031548023
0.34684438 0.11485189 0.039710045
0.34119737 -0.010102093 0.034916878
0.35977435 0.26305193 -0.43791819
0.34141839 -0.15662414 0.029288769
0.33512235 0.14921492 0.041039944
0.3354224 -0.054060042 0.033232689
0.33535737 -0.010068059 0.034921646
0.33524638 0.065489888 0.037824631
0.33548635 -0.097407043 0.03156805
0.32933837 0.11493993 0.039728642
0.32916439 0.2356239 0.044365883
0.32951838 -0.010036111 0.034927845
0.33463734 0.25072193 -0.10142708
0.32946539 0.027063906 0.036354065
0.32940936 0.065519929 0.037829876
0.32972938 -0.15654808 0.02930069
0.32350439 0.11496693 0.03973484
0.32374239 -0.053992093 0.03324461
0.32357335 0.06554991 0.037837982
0.32404935 -0.27222306 0.02486372
0.31756637 0.18906593 0.04258585
0.31784037 -0.0099720955 0.034941673
0.31811738 -0.21155506 0.027200699
0.31183437 0.11502093 0.039747715
0.31173536 0.18908989 0.042593002
0.30600137 0.11504692 0.03975296
0.30595636 0.14934492 0.041071892
0.30584335 0.23571593 0.044389725
0.30606636 0.065633893 0.037857056
0.30007437 0.18913692 0.042604923
0.30032736 -0.0098831058 0.0349617
0.30066139 -0.27206904 0.0248909
0.30058438 -0.21144706 0.027218819
0.30952537 0.26392794 -0.43056107
0.28856137 0.065711915 0.037874699
0.28889638 -0.21137911 0.027232647
0.28875837 -0.097144067 0.031620026
0.28286839 -0.053780138 0.033289909
0.29698235 0.2641449 -0.42868519
0.28272837 0.06573689 0.037880898
0.28312439 -0.27196413 0.024910927
0.27683836 0.1151669 0.039784908
0.27679938 0.1494599 0.041101933
0.28080636 0.25167394 -0.093921185
0.27727938 -0.27193111 0.024916649
0.27708036 -0.097086132 0.0316329
0.27087337 0.23583692 0.044427872
0.27106136 0.065783918 0.037892818
0.27149439 -0.32566005 0.02285862
0.27124137 -0.097059071 0.031638622
0.26513737 0.14950091 0.041114807
0.27818137 0.26446992 -0.42584515
0.26526839 0.027362943 0.036422729
0.26546538 -0.15618902 0.029372692
0.25980237 -0.32559508 0.022871971
0.25351337 0.11525095 0.03980875
0.25384137 -0.21119708 0.02726984
0.24765037 0.1495589 0.04113102
0.24756637 0.2359069 0.044449806
0.25095937 0.25219792 -0.089626312
0.24196936 -0.0096330643 0.035022736
0.24499437 0.25230193 -0.088757038
0.24193437 0.027449906 0.036447048
0.23602237 0.11530793 0.039827824
0.23591337 0.23593891 0.04445982
0.23621437 -0.096909106 0.031676769
0.24062937 0.26511389 -0.42006731
0.23026937 0.027489901 0.036458969
0.23057736 -0.32545108 0.022902966
0.23047736 -0.21109408 0.027294636
0.22454137 -0.096866071 0.031687737
0.21850736 0.14964294 0.04115963
0.21843737 0.23598194 0.04447794
0.21863537 -0.0095540881 0.035047054
0.21860537 0.027525902 0.03647089
0.21884637 -0.27164906 0.024981022
0.21280037 -0.0095360875 0.035052776
0.21277237 0.027543902 0.036475658
0.21304438 -0.32537609 0.022922039
0.20685036 0.14967293 0.041172981
0.20682137 0.18942493 0.042699814
0.20700037 -0.053485096 0.033370972
0.20102337 0.14968592 0.041176796
0.20329237 0.25302589 -0.082572937
0.20938736 0.26564592 -0.41515398
0.20108238 0.066010892 0.037963867
0.19519737 0.14969993 0.041183949
0.19547936 -0.27156311 0.02500391
0.18947037 -0.0094710588 0.035075665
0.18944636 0.027605891 0.036500931
0.18952537 -0.096755087 0.03172493
0.18354237 0.14972389 0.041195869
0.18351837 0.18947393 0.042721748
0.18544437 0.25333291 -0.079871178
0.19066437 0.2659629 -0.41216421
0.18382837 -0.32527107 0.022950649
0.18372637 -0.15588003 0.029458046
0.18369037 -0.096740067 0.031729698
0.17766637 0.2360639 0.04451704
0.17949837 0.25343591 -0.078961372
0.17792137 -0.21091408 0.027349949
0.17190838 0.11546594 0.039889812
0.17197537 -0.0094301105 0.035092831
0.17193437 0.066077888 0.037993908
0.16606337 0.1497559 0.041211605
0.16604337 0.18950492 0.042738914
0.16614336 -0.0094180703 0.03509903
0.16627537 -0.27147704 0.025033951
0.16624436 -0.21088403 0.027360916
0.16033137 -0.053368032 0.033415794
0.16027537 0.066098928 0.038003922
0.16043337 -0.27146214 0.025038719
0.15439337 0.18952191 0.042749882
0.15451737 -0.096674025 0.031757832
0.14858437 0.1497829 0.041227818
0.14275937 0.14978993 0.041234016
0.14272738 0.23611289 0.044549942
0.14293437 -0.32516509 0.022992611
0.14291437 -0.27142411 0.025056839
0.14287136 -0.15578812 0.029497623
0.13692036 0.1895439 0.042765617
0.13696137 0.066133916 0.03802681
0.13703637 -0.15577811 0.029503822
0.13123336 -0.27140409 0.025066853
0.13121536 -0.21081406 0.027393818
0.12527137 0.18955493 0.042777061
0.12531437 0.027718902 0.036561012
0.12530437 0.066147923 0.038036823
0.11946437 0.11553693 0.03993988
0.11943637 0.23613495 0.044571877
0.11363837 0.11554193 0.039944649
0.11362337 0.18956494 0.042788029
0.11361437 0.23613894 0.044576645
0.11366337 -0.0093420744 0.035148621
0.11371636 -0.27138013 0.025084019
0.11370437 -0.21079105 0.027411938
0.10780437 0.1498239 0.041267872
0.10779037 0.23614293 0.044582844
0.10783837 -0.053295076 0.033465862
0.10782537 0.027734935 0.036577702
0.10788437 -0.32511204 0.02302599
0.10200737 -0.053291142 0.033470631
0.10201237 -0.096605122 0.031807899
0.096151367 0.18957394 0.042803764
0.097301364 0.26752394 -0.39672518
0.096167371 0.027741909 0.036587715
0.096179366 -0.096601069 0.031813622
0.090327367 0.18957591 0.042809963
0.090343371 -0.053285062 0.033480644
0.09036237 -0.3250981 0.023041725
0.090346366 -0.096599042 0.031817913
0.084505364 0.14983392 0.041287899
0.084502369 0.23615193 0.044602871
0.084510371 -0.0093261003 0.0351758
0.084509365 0.027745903 0.036598682
0.07867837 0.14983493 0.041295052
0.07867837 0.23615289 0.044608593
0.07867837 -0.27135712 0.02511692
0.072848365 -0.0093240738 0.035185814
0.067026369 0.11555791 0.03998661
0.067018367 -0.0093240738 0.035192013
0.061208367 0.18957794 0.042833805
0.060074367 0.26813692 -0.39032507
0.061192367 0.027745903 0.03661871
0.061196368 0.066173911 0.038096905
0.061168365 -0.21077102 0.027458668
0.055350367 -0.053285062 0.033512592
0.055027366 0.25554192 -0.059086323
0.055314369 -0.3250981 0.023071766
0.055321366 -0.27136105 0.025136948
0.04955937 0.1895749 0.042845726
0.049519368 -0.053288043 0.033517838
0.049539369 0.066169918 0.038105965
0.043721367 0.11554992 0.040009022
0.043728366 0.14982694 0.041323662
0.043736368 0.18957192 0.042850018
0.04368737 -0.053291142 0.033524036
0.041485369 0.2684409 -0.38707733
0.043655369 -0.21078008 0.02747488
0.037903368 0.1498239 0.041328907
0.037912369 0.18956894 0.042856693
0.03792337 0.23614293 0.044644833
0.037855368 -0.053295076 0.033527851
0.037865367 -0.0093370676 0.035216808
0.032069366 0.11554193 0.040019035
0.029102366 0.2686429 -0.38489532
0.031950369 -0.32511812 0.023092747
0.026251368 0.1498149 0.041338921
0.026190367 -0.053306043 0.033538818
0.026203368 -0.0093480945 0.035226822
0.025501367 0.25603193 -0.05412817
0.020415369 0.11553192 0.040026665
0.020358369 -0.053313076 0.033542633
0.020267367 -0.32513303 0.02310276
0.014526367 -0.05332011 0.033548832
0.014542371 -0.0093610883 0.035236835
0.014556371 0.027711928 0.036660671
0.0087753683 0.14979792 0.041354656
0.0088103712 0.23611993 0.044668674
0.0029343665 0.11551189 0.040042877
0.0029663667 0.18953693 0.04288578
-0.0018246323 0.26914394 -0.37937593
0.002742365 -0.32516414 0.023118019
0.0027653649 -0.27142411 0.025180817
0.0028413683 -0.096652091 0.031894684
-0.0028766319 0.1497829 0.04136467
-0.0028576329 0.1895299 0.042891026
-0.0098726302 0.25661492 -0.048063278
-0.0088556334 -0.1558091 0.029633045
-0.014481634 0.23609191 0.044687748
-0.020356633 0.26944292 -0.37602425
-0.014691629 -0.1558221 0.029637814
-0.021650635 0.25680691 -0.046014309
-0.020423628 0.027656913 0.036688805
-0.026157632 0.18949491 0.042911053
-0.02636563 -0.15584904 0.029647827
-0.026330635 -0.096710026 0.031919003
-0.032310635 -0.32525212 0.023145676
-0.032237634 -0.21091312 0.027536869
-0.032202631 -0.15586311 0.029651642
-0.037776634 0.2360549 0.044708729
-0.037970632 -0.053420126 0.033590794
-0.037940629 -0.0094560981 0.035278797
-0.037890635 0.066053927 0.038179874
-0.038075633 -0.2109291 0.027541637
-0.04377263 -0.0094701052 0.035284996
-0.045186631 0.25719094 -0.041872025
-0.051207632 0.26993692 -0.37036419
-0.049459636 0.18945092 0.042929649
-0.049425632 0.2360329 0.044717789
-0.049606636 -0.0094860792 0.035288811
-0.051067635 0.25728691 -0.040829182
-0.057373628 0.27003491 -0.36922216
-0.049799636 -0.27156204 0.025222778
-0.049754634 -0.2109651 0.027550697
-0.055249631 0.23602092 0.044723988
-0.055640638 -0.27158207 0.025228024
-0.061270639 -0.0095180869 0.035298824
-0.062821627 0.25747693 -0.038732052
-0.06707263 0.027544916 0.036726952
-0.067040637 0.065980911 0.038202763
-0.067272633 -0.21102506 0.027564049
-0.072827637 0.11535889 0.040104866
-0.072974637 -0.053521097 0.033618927
-0.078657627 0.11534292 0.040109634
-0.088168636 0.27052391 -0.3634572
-0.078953639 -0.21106905 0.027572632
-0.078849629 -0.096865118 0.031960011
-0.090480626 -0.053582132 0.033631802
-0.090437636 -0.0096110702 0.035321712
-0.090633631 -0.21111709 0.027581692
-0.090522632 -0.096908033 0.031968594
-0.096234635 0.027450919 0.03674984
-0.096474633 -0.21114308 0.027585983
-0.096359625 -0.09693104 0.031972885
-0.10185163 0.23590791 0.044760704
-0.10237963 -0.27177709 0.025262833
-0.10219763 -0.096955121 0.031975746
-0.10777064 0.1495409 0.041448593
-0.11891763 0.27100891 -0.35760593
-0.10790163 0.027408898 0.036757946
-0.10803564 -0.096979082 0.031980991
-0.11350463 0.23587394 0.044770718
-0.11382464 -0.053674042 0.033648968
-0.11377563 -0.0096991062 0.035338879
-0.11563264 0.25832492 -0.02912426
-0.11412564 -0.32559413 0.023205757
-0.11387263 -0.097005069 0.031984806
-0.11938463 0.18926293 0.042984009
-0.11956863 0.027363896 0.036767006
-0.11977763 -0.15618712 0.029717922
-0.12544663 -0.0097481012 0.035346031
-0.12561764 -0.15621608 0.029720783
-0.13104263 0.18922395 0.042992592
-0.14348364 0.27139294 -0.35285997
-0.13123864 0.027315915 0.036776066
-0.13166463 -0.32569212 0.023217678
-0.13152663 -0.21131307 0.027609825
-0.13138863 -0.097085059 0.031996727
-0.13696364 0.11514491 0.040154934
-0.13692163 0.14943892 0.041471004
-0.13681464 0.23579991 0.044787884
-0.14961964 0.2714889 -0.35166597
-0.13730063 -0.15627509 0.029729843
-0.14290763 0.027264893 0.036782742
-0.14328963 -0.27199703 0.025290012
-0.14314163 -0.15630609 0.029732704
-0.14869264 0.065687895 0.038264751
-0.14898263 -0.15633804 0.029737949
-0.15430063 0.23573893 0.044800758
-0.15490063 -0.21144503 0.027626991
-0.15482663 -0.1563701 0.029741764
-0.16024864 0.14934593 0.04148674
-0.16041563 0.02718389 0.036798
-0.16036363 0.065634906 0.038273811
-0.16636664 -0.053926051 0.033685684
-0.16651063 -0.15643805 0.029750824
-0.17220564 -0.053958118 0.033690929
-0.18640064 0.2720589 -0.34442329
-0.17203362 0.065579891 0.038281918
-0.17259763 -0.32595509 0.023243904
-0.17235364 -0.1564731 0.029752731
-0.17226864 -0.097301066 0.032025814
-0.17774563 0.14926994 0.041501045
-0.17768665 0.18904191 0.043027878
-0.17798065 -0.010002077 0.035383701
-0.17792563 0.027095914 0.036808014
-0.17786963 0.065550923 0.038285732
-0.17844664 -0.32599705 0.023246765
-0.17836763 -0.27222103 0.025313854
-0.17810963 -0.097335041 0.032028675
-0.18583564 0.25943494 -0.015881062
-0.18370663 0.065521896 0.038288593
-0.18421663 -0.27226204 0.025315762
-0.18965964 -0.010067105 0.035391808
-0.19518565 0.1889649 0.043040752
-0.19599764 -0.32612807 0.023257732
-0.19591264 -0.27234608 0.025323868
-0.20140962 -0.054129064 0.033710003
-0.20770063 -0.32621914 0.023265839
-0.21309562 -0.054203093 0.033716679
-0.21302162 -0.01020509 0.03540802
-0.22922964 0.27271593 -0.33581829
-0.21289463 0.065364897 0.038311005
-0.21893762 -0.054241121 0.03372097
-0.21886264 -0.010241091 0.035411835
-0.21873362 0.065330923 0.038314819
-0.21940364 -0.3263151 0.023272991
-0.21911363 -0.15678507 0.029782772
-0.22485663 -0.097636044 0.032059669
-0.23032464 0.11469591 0.040219784
-0.24755563 0.27299494 -0.33207798
-0.23616363 0.11466193 0.040225029
-0.23632364 0.026756942 0.036848068
-0.24186562 0.18873191 0.043073654
-0.24223362 -0.010394096 0.035425663
-0.26586664 0.27327293 -0.32830906
-0.24800764 0.026680946 0.036855698
-0.25442261 -0.27282411 0.025357723
-0.25420165 -0.15705413 0.029803753
-0.25937963 0.18863595 0.043086052
-0.25961965 0.065077901 0.038341999
-0.26005161 -0.15710205 0.029806614
-0.26536465 0.11448491 0.040242672
-0.27145761 -0.010602057 0.035444736
-0.27324361 0.2607879 0.0013618469
-0.2963466 0.27373093 -0.3219552
-0.28281862 0.1486969 0.041573048
-0.28307265 0.026434898 0.036876678
-0.28866166 0.14865893 0.041576862
-0.28847861 0.23510492 0.044896603
-0.2889986 -0.010735095 0.03545475
-0.28955364 -0.27315611 0.025375843
-0.28942466 -0.21247905 0.027708054
-0.28918362 -0.098135054 0.03209877
-0.29441863 0.1884259 0.04310894
-0.29431862 0.23507094 0.04489994
-0.29503363 -0.098185122 0.032101631
-0.30034661 0.14858192 0.041584015
-0.30025965 0.18838894 0.043112755
-0.30069464 -0.010828078 0.035462856
-0.30052966 0.064790905 0.038365841
-0.30101466 -0.15746206 0.029830933
-0.30088562 -0.098236024 0.032104969
-0.30712461 -0.27333504 0.025384903
-0.3119446 0.18831289 0.043120861
-0.31230962 0.026209891 0.036894798
-0.31272262 -0.15757209 0.029836655
-0.31970561 0.26149392 0.010869026
-0.31870461 -0.21276611 0.027721882
-0.31844366 -0.098394096 0.032114983
-0.32363361 0.18823493 0.043128014
-0.32352561 0.23489189 0.044920921
-0.32470262 -0.27352208 0.025393009
-0.32936865 0.23485392 0.044923782
-0.33004963 -0.055110037 0.033786774
-0.3510946 0.27454591 -0.31030321
-0.33068961 -0.32742208 0.023328781
-0.33056265 -0.27358609 0.025396824
-0.33029062 -0.15774411 0.029845715
-0.33015162 -0.098503053 0.032120705
-0.33549964 0.11399394 0.040287018
-0.33541763 0.14833593 0.041607857
-0.33521163 0.2348159 0.044926643
-0.33710063 0.26175594 0.014489651
-0.33570963 0.026017904 0.036908627
-0.34117061 0.18811393 0.043138981
-0.34165162 -0.011175096 0.035484791
-0.36324161 0.2747249 -0.30767632
-0.34241664 -0.32756013 0.023334026
-0.34761262 -0.055273116 0.033796787
-0.36931163 0.2748149 -0.30635738
-0.34814864 -0.2737841 0.02540493
-0.34786463 -0.15792304 0.029854774
-0.35304761 0.11385691 0.040297985
-0.35296261 0.14820391 0.041616917
-0.35414463 -0.32770008 0.023339748
-0.35932362 -0.055385053 0.03380394
-0.35902262 0.064323902 0.03840065
-0.35987461 -0.27392203 0.025408745
-0.3595826 -0.15804714 0.02986002
-0.36466163 0.14811391 0.041623592
-0.36605865 0.26218891 0.02059269
-0.38750964 0.27508193 -0.30237913
-0.36544263 -0.15811104 0.029862881
-0.37051362 0.14806694 0.041627884
-0.37028962 0.23457694 0.044949055
-0.39357364 0.27516991 -0.30104733
-0.37174362 -0.32792014 0.023346901
-0.37689763 -0.055560052 0.033813
-0.37731063 -0.21340805 0.027750015
-0.37716663 -0.15824014 0.029867649
-0.38263863 -0.011559069 0.035507679
-0.40569365 0.27534693 -0.29837322
-0.38254064 0.025598943 0.036933899
-0.38816065 0.11356491 0.040318012
-0.41175061 0.27543491 -0.29702997
-0.38839662 0.025543928 0.036937714
-0.38903964 -0.21354812 0.02775383
-0.39392263 0.14787591 0.041641712
-0.39381462 0.18771791 0.043171883
-0.39521766 -0.32822603 0.023356915
-0.39490563 -0.2136181 0.027757645
-0.39987165 0.11346292 0.040324688
-0.39966762 0.18767095 0.043174744
-0.40077263 -0.2136901 0.027758598
-0.40586561 0.063899934 0.038426876
-0.40695864 -0.32838506 0.023359776
-0.40631962 -0.099292099 0.032158852
-0.41206163 -0.055930078 0.033828735
-0.41193664 -0.011856079 0.035522938
-0.41709566 0.23422694 0.044977665
-0.41792464 -0.055994093 0.033831596
-0.41821766 -0.15871805 0.029886723
-0.4242456 -0.2139861 0.027770042
-0.42408562 -0.15879005 0.02988863
-0.42961764 0.26312792 0.034314632
-0.43029261 -0.27482313 0.025437832
-0.43479961 0.18737692 0.043194771
-0.43466163 0.23408592 0.044988632
-0.44087863 0.1130839 0.040345669
-0.47222263 0.27630591 -0.28341436
-0.44807762 -0.32897204 0.023373604
-0.4479146 -0.27507013 0.025444031
-0.45260364 0.11296993 0.040352821
-0.45395464 -0.32906014 0.023375988
-0.45325363 -0.099846065 0.032179832
-0.45846659 0.11291194 0.040354729
-0.45898962 -0.056467116 0.03385067
-0.4588536 -0.012369096 0.035544872
-0.45861959 0.063371897 0.038452625
-0.45983261 -0.32914907 0.023377895
-0.4594776 -0.21445805 0.027782917
-0.45912361 -0.099918067 0.03218174
-0.46409762 0.18711591 0.04321003
-0.46485859 -0.056537092 0.033854008
-0.47019464 0.11279392 0.040361881
-0.47008562 0.14718491 0.041681767
-0.47058964 -0.012504101 0.035548687
-0.47035062 0.063246906 0.038459778
-0.47582364 0.18700689 0.043215752
-0.47646064 -0.012573063 0.035552025
-0.5023886 0.27673489 -0.27647924
-0.47634262 0.024624944 0.036980629
-0.50841564 0.2768209 -0.27508211
-0.48317963 -0.27558905 0.025455952
-0.48298264 -0.21479112 0.027791023
-0.48755163 0.18689591 0.043223858
-0.48834562 -0.056827128 0.033863068
-0.48820263 -0.012714088 0.035556793
-0.51444161 0.27690589 -0.27368212
-0.48905963 -0.27567905 0.025457859
-0.4938246 0.062988937 0.038469791
-0.4994176 0.14689189 0.041697979
-0.49912959 0.23352891 0.045023918
-0.49994862 -0.01285708 0.035562992
-0.49982464 0.024351895 0.036991596
-0.50528562 0.14683092 0.041699886
-0.50515163 0.18672591 0.043232918
-0.53250861 0.27715993 -0.26945925
-0.50556761 0.062855899 0.038475037
-0.50688761 -0.32989603 0.02339077
-0.51086062 0.23342091 0.045032024
-0.51075864 0.26365894 0.04619503
-0.51143962 0.06278789 0.038478851
-0.51258963 -0.27604812 0.025464058
-0.51662463 0.26360589 0.046196938
-0.51744562 0.024140894 0.036998749
-0.5227586 0.18654889 0.043241978
-0.52249163 0.2635529 0.046199799
-0.52454662 -0.33019203 0.023396015
-0.52963459 -0.10085613 0.032209873
-0.53422964 0.2634449 0.046205997
-0.54051661 0.14645493 0.041718006
-0.54020762 0.23313892 0.045045853
-0.5420236 -0.27653104 0.025471687
-0.54139864 -0.10102409 0.032212734
-0.54651564 0.11196393 0.040398598
-0.54639161 0.1463899 0.041719913
-0.54696661 -0.013459086 0.035582066
-0.54669362 0.062367916 0.03849268
-0.55212361 0.18624389 0.043254852
-0.55300963 -0.057690084 0.033887863
-0.55380464 -0.27673107 0.025475025
-0.55799961 0.18618089 0.043258667
-0.5866096 0.27791393 -0.25661039
-0.55845362 0.062221944 0.038497925
-0.5596956 -0.27683204 0.025476933
-0.55926961 -0.16068012 0.02993679
-0.56433362 0.062147915 0.038500786
-0.56578761 -0.33091909 0.023403645
-0.56536263 -0.21606809 0.027815819
-0.57003063 0.11168694 0.040408611
-0.56990165 0.14612395 0.041730881
-0.56946564 0.26310694 0.046224594
-0.57168263 -0.33102709 0.023404598
-0.57545459 0.23278391 0.045064926
-0.57624364 0.023387909 0.037021637
-0.57737559 -0.27714211 0.025479794
-0.58166361 0.14598691 0.041736603
-0.5834766 -0.33124608 0.023407936
-0.58283061 -0.1610561 0.029943943
-0.5876776 0.11147189 0.040416718
-0.58739263 0.18585789 0.043272972
-0.58709663 0.26293093 0.0462327
-0.61660063 0.27832693 -0.24935293
-0.58801562 0.023228943 0.037027836
-0.58786762 0.061845899 0.038509846
-0.5889346 -0.21646613 0.027822018
-0.58872265 -0.16115206 0.02994585
-0.59297562 0.26287091 0.046236038
-0.59993559 -0.014194071 0.035600662
-0.60096359 -0.27756804 0.025485039
-0.60027862 -0.10191113 0.032231808
-0.60707664 -0.33169514 0.023411751
-0.61092561 0.18558794 0.043282986
-0.61073959 0.23240793 0.045081615
-0.6125226 -0.21687907 0.027825832
-0.61206764 -0.10209912 0.032233715
-0.6169706 0.14556193 0.041751862
-0.61662364 0.2323429 0.045084953
-0.61761165 -0.014453053 0.035606861
-0.61842263 -0.21698409 0.02782774
-0.6182006 -0.16164511 0.029953003
-0.62269759 0.1854499 0.043287754
-0.62368363 -0.058739126 0.033909798
-0.62350464 -0.01454109 0.035607815
-0.62432259 -0.21709007 0.027828693
-0.62888861 0.11094791 0.04043293
-0.6356566 -0.10248405 0.032240868
-0.64017159 0.23207891 0.045094967
-0.64137661 -0.059019029 0.033915997
-0.67046863 0.27905893 -0.23607826
-0.64642364 0.14518994 0.041763783
-0.6474576 -0.1026811 0.032242775
-0.65317661 -0.059210122 0.033918858
-0.65360963 -0.16226512 0.029960632
-0.65335959 -0.10278112 0.032244682
-0.65804362 0.18502092 0.043303967
-0.65889162 -0.015083075 0.035617828
-0.68839264 0.27929991 -0.23159218
-0.65951663 -0.1623711 0.029963017
-0.65926462 -0.10288113 0.032247066
-0.66393763 0.18494689 0.043306828
-0.6637376 0.23180592 0.045105934
-0.66498262 -0.059404075 0.033920765
-0.6647926 -0.015176058 0.035620689
-0.6659196 -0.2788201 0.025495052
-0.66516864 -0.10298306 0.032248974
-0.67053461 0.022032917 0.037054062
-0.67132962 -0.16258711 0.029964924
-0.67107362 -0.1030851 0.032249928
-0.68162763 0.1847229 0.04331398
-0.71226263 0.27961892 -0.22556305
-0.68365765 -0.27918214 0.02549696
-0.68288761 -0.10329205 0.032252789
-0.68770462 0.14464289 0.041779995
-0.68860662 -0.059801042 0.033927917
-0.71822661 0.2796979 -0.22404814
-0.6880756 0.060437918 0.038544655
-0.69322062 0.23145193 0.045118809
-0.69451463 -0.059902132 0.033928871
-0.69415259 0.021664917 0.037061691
-0.69398063 0.060347915 0.038547993
-0.69573063 -0.33352309 0.023420811
-0.69521964 -0.21843714 0.027839661
-0.69950861 0.14448094 0.04178381
-0.69932961 0.18449295 0.043319702
-0.7002266 -0.01575011 0.035629749
-0.70005959 0.021571934 0.037062645
-0.70164961 -0.33365303 0.023420811
-0.70502061 0.23130691 0.045124054
-0.70488364 0.26163495 0.046288967
-0.70579261 0.060167909 0.038551807
-0.71131963 0.14431691 0.041787624
-0.71224964 -0.060210049 0.033932686
-0.71170264 0.060076892 0.038552761
-0.71722561 0.14423394 0.041790962
-0.71704262 0.18425792 0.043327808
-0.71682763 0.23115891 0.045128822
-0.71668863 0.26149392 0.046292782
-0.71778864 0.021285892 0.037068844
-0.7227326 0.23108494 0.045129776
-0.72259259 0.26142192 0.046294689
-0.72370064 0.021188915 0.037068844
-0.72920263 0.10953993 0.040466785
-0.72885662 0.18409795 0.043331623
-0.72863859 0.23100889 0.045131683
-0.75991762 0.28024793 -0.21334839
-0.7294336 0.059798896 0.038558006
-0.73047262 -0.16371709 0.029973984
-0.73591059 -0.060633123 0.033937931
-0.73570263 -0.016351104 0.035638809
-0.76586664 0.28032589 -0.2118063
-0.7369386 -0.28031904 0.025499821
-0.74102861 0.10936189 0.040472031
-0.7423166 -0.16395313 0.029975891
-0.74636459 0.23077995 0.04513979
-0.74622059 0.26113093 0.046305656
-0.7487936 -0.28058213 0.025500774
-0.75249964 0.1837709 0.043339729
-0.75367063 -0.060958087 0.033940792
-0.75442964 -0.2196601 0.027846813
-0.75804162 0.26098192 0.046310902
-0.78964263 0.28063589 -0.20560408
-0.75919962 0.020593941 0.037078857
-0.7643286 0.18360394 0.043344021
-0.76395363 0.26090592 0.046313763
-0.79558164 0.2807129 -0.2040472
-0.76684564 -0.33514911 0.023421764
-0.76628661 -0.21991605 0.027847767
-0.76572859 -0.10483509 0.032266617
-0.77194762 -0.16455907 0.029978752
-0.77165663 -0.10495204 0.032266617
-0.77736861 -0.061403096 0.033946991
-0.8074556 0.28086692 -0.2009182
-0.77871764 -0.33543414 0.023420811
-0.77787763 -0.16468304 0.029978752
-0.7775836 -0.1050691 0.032268047
-0.78208363 0.18334889 0.043349743
-0.8133896 0.28094292 -0.19935036
-0.78269964 0.058927894 0.038571835
-0.7882036 0.14318591 0.04181385
-0.78800362 0.18326294 0.04335165
-0.78922564 -0.06163007 0.033946991
-0.78900462 -0.017304063 0.035648823
-0.78761864 0.2605989 0.046321869
-0.78881764 0.020077944 0.037085056
-0.79059261 -0.3357231 0.023420811
-0.7903226 -0.28153509 0.025500774
-0.79430264 0.1085279 0.040486813
-0.7941286 0.1430949 0.041814804
-0.79455161 0.058725893 0.038575649
-0.80005264 0.14300293 0.041815758
-0.79961264 0.23006189 0.045159817
-0.79945964 0.26044291 0.046325684
-0.80553561 0.22997892 0.045161724
-0.80702162 -0.061977088 0.033949852
-0.81295562 -0.062094033 0.033949852
-0.81130362 0.26028389 0.046331882
-0.84303164 0.28132391 -0.19145727
-0.81783462 0.1427229 0.041821957
-0.81889164 -0.06221205 0.033950806
-0.81846964 0.019542933 0.037090778
-0.8203066 -0.33646411 0.023418903
-0.82536662 -0.16570705 0.029981613
-0.82987761 0.10794091 0.040496826
-0.83220261 -0.33676809 0.02341795
-0.83099663 -0.10616213 0.032273769
-0.83581161 0.10784191 0.040498734
-0.83562964 0.14243692 0.041825771
-0.8364746 -0.018204093 0.035657883
-0.86671263 0.28162491 -0.18508196
-0.8378666 -0.28268105 0.025499821
-0.83725262 -0.16597205 0.029981613
-0.84174663 0.10774094 0.040499687
-0.84241462 -0.018320084 0.035657883
-0.84094161 0.25987792 0.046341896
-0.84768564 0.1076389 0.040500641
-0.84859359 -0.062814057 0.033953667
-0.8785426 0.28177392 -0.18187523
-0.84976661 -0.28297812 0.025499821
-0.85362363 0.10753691 0.040501595
-0.85430062 -0.018554091 0.035658836
-0.85539061 -0.22195214 0.027848721
-0.86048365 -0.063060105 0.033956051
-0.85874164 0.25962692 0.046349049
-0.86104161 -0.16651207 0.029983044
-0.86550462 0.10733092 0.040504932
-0.86643064 -0.063185036 0.033957005
-0.89627165 0.28199792 -0.17703819
-0.87144762 0.10722691 0.040505886
-0.87103862 0.18199193 0.043376923
-0.8723796 -0.063310087 0.033957958
-0.87213659 -0.01891011 0.035662651
-0.87193161 0.018533945 0.037099838
-0.8717196 0.057348907 0.038591862
-0.87739259 0.1071229 0.040507793
-0.87698162 0.18189591 0.04337883
-0.87672263 0.22894293 0.045186043
-0.87984061 -0.33802313 0.023412704
-0.87954259 -0.28373605 0.025497913
-0.87920564 -0.22253114 0.027846813
-0.88428259 -0.063563049 0.033957005
-0.89081162 -0.16720706 0.029981613
-0.89438063 0.25911093 0.04636097
-0.89551359 0.056900918 0.038594723
-0.89643461 -0.10759014 0.032278061
-0.90189761 -0.019520104 0.035665989
-0.9036966 -0.33867508 0.023409843
-0.90239459 -0.10772604 0.03227663
-0.90713662 0.1065889 0.040514946
-0.90644562 0.2284869 0.045194626
-0.9062736 0.25893492 0.046364784
-0.90742064 0.056671917 0.038598061
-0.90935564 -0.28451914 0.025493622
-0.90835363 -0.1078611 0.032278061
