# .PCD v0.7 - Point Cloud Data file format
VERSION 0.7
FIELDS x y z
SIZE 4 4 4
TYPE F F F
COUNT 1 1 1
WIDTH 1
HEIGHT 1024
VIEWPOINT 0 0 0 1 0 0 0
POINTS 1024
DATA ascii
0.54872137 -0.67763478 0.12484646
0.54204333 -0.67491871 0.13537025
0.51781934 -0.77863175 0.29369926
0.52875137 -0.66951674 0.15632105
0.51629537 -0.72593373 0.24100208
0.53084338 -0.57880181 0.056150436
0.51292437 -0.85969275 0.2108593
0.51743436 -0.57366282 0.077616215
0.52229035 -0.52322882 0.014518261
0.51076233 -0.5711078 0.088300228
0.48573837 -0.76469773 0.34332418
0.50115037 -0.60018772 0.13835335
0.51249737 -0.47906476 -0.012558937
0.48920938 -0.85640782 0.22093725
0.50212938 -0.51577276 0.04708004
0.49901637 -0.47421879 0.0093622208
0.48429838 -0.56098074 0.13068533
0.49608839 -0.35125977 -0.11485481
0.46558338 -0.85317177 0.23092842
0.47119439 -0.5559718 0.15167522
0.47752938 -0.40411574 -0.021695614
0.44459638 -0.7569738 0.36922932
0.46240938 -0.50110775 0.11125708
0.46570438 -0.46225876 0.063547134
0.46893036 -0.34234375 -0.069794655
0.44444838 -0.63534278 0.28931141
0.45586637 -0.49869579 0.12183332
0.45910838 -0.45989376 0.074276447
0.44524539 -0.54606479 0.19325829
0.46704337 -0.19539577 -0.22147655
0.44284236 -0.49389571 0.14288616
0.44598037 -0.45518881 0.095638275
0.42990538 -0.5723868 0.25188541
0.43636337 -0.49150974 0.15336132
0.41585937 -0.75330776 0.38100719
0.41859037 -0.84684175 0.25065231
0.40671337 -0.6201008 0.34889746
0.41328138 -0.53388077 0.24450111
0.43958637 -0.096142709 -0.27139473
0.42937937 -0.23229676 -0.10686874
0.40695038 -0.53147072 0.25465345
0.43806538 -0.021680772 -0.34712362
0.39003137 -0.67289978 0.43822908
0.39835039 -0.56011075 0.30220842
0.42612937 -0.18350679 -0.15196657
0.40711537 -0.44127971 0.15890026
0.38392538 -0.6703468 0.44777632
0.41600338 -0.22825176 -0.084311962
0.42309737 -0.13048476 -0.20198059
0.40071237 -0.43899077 0.16932821
0.37783739 -0.66779977 0.45729923
0.38195339 -0.61011773 0.38801432
0.38586837 -0.55526072 0.32212114
0.39432839 -0.43671077 0.17972326
0.38356838 -0.84221774 0.26522303
0.37014037 -0.74758273 0.39959526
0.36572039 -0.66273576 0.47625303
0.37898737 -0.47041672 0.24616432
0.40900639 0.067141235 -0.38279295
0.41371438 0.13658023 -0.46570253
0.39867538 -0.085221708 -0.20086765
0.38314539 -0.31427175 0.072622299
0.38611439 -0.27048379 0.020338058
0.37271538 -0.46811575 0.25631332
0.37530437 -0.42991883 0.21070623
0.39905336 0.023370206 -0.31651258
0.36612538 -0.83994478 0.27243614
0.36114138 -0.54566473 0.36158133
0.36900339 -0.42767078 0.22097206
0.39969939 0.13951123 -0.4406848
0.39220437 0.025005221 -0.30450296
0.36660138 -0.36617476 0.16072941
0.37641138 -0.21629673 -0.017521858
0.37853539 -0.079853714 -0.1661377
0.39744738 0.21435821 -0.51535368
0.36264038 -0.94515175 0.12734222
0.35452339 -0.83844477 0.27722025
0.36989039 -0.21433073 -0.0065197945
0.35646337 -0.42320079 0.2414012
0.37430838 -0.039412737 -0.20044279
0.37857938 0.028256238 -0.28060579
0.35670939 -0.94434279 0.12984514
0.33575338 -0.6502288 0.5231452
0.36339137 -0.21237177 0.0044484138
0.36630738 -0.16617173 -0.050280571
0.36949539 -0.11566478 -0.11011267
0.34782436 -0.45899183 0.29660034
0.35022336 -0.42097777 0.25156927
0.38160539 0.18807423 -0.45576096
0.32981539 -0.64775282 0.53243923
0.35691339 -0.21041971 0.015379429
0.38195038 0.30946225 -0.58487892
0.34486139 -0.94273478 0.13483524
0.33039239 -0.74271375 0.41560507
0.35325739 -0.16239876 -0.028090954
0.33549637 -0.45447773 0.31656027
0.36509639 0.14673823 -0.37890482
0.37198237 0.26214725 -0.51481962
0.33846238 -0.2997058 0.14686203
0.31799239 -0.64282674 0.5509491
0.34105137 -0.25630981 0.095756054
0.34402138 -0.20653671 0.037140369
0.34676638 -0.16052276 -0.017050743
0.33162239 -0.41435474 0.28188324
0.35608238 0.11112922 -0.32314587
0.35824937 0.14816624 -0.36667776
0.34542239 -0.071043789 -0.10902166
0.34959438 0.00024223328 -0.19280958
0.32890439 -0.35333782 0.22278214
0.31907937 -0.74134678 0.42013645
0.34029639 -0.1586538 -0.006046772
0.32324839 -0.44999677 0.33639336
0.32546237 -0.41216379 0.29192448
0.34492537 0.036276221 -0.22156763
0.36080039 0.31297523 -0.5461607
0.36251739 0.34288824 -0.58125162
0.31261536 -0.52687579 0.43906546
0.31715336 -0.44776875 0.34626436
0.34077838 0.082609236 -0.26226568
0.34254837 0.11408222 -0.2991147
0.34870839 0.22360724 -0.42734766
0.33633137 0.0035182238 -0.16966677
0.35547939 0.34400123 -0.56830883
0.31649938 -0.3491208 0.24321032
0.31962338 -0.29357582 0.1781764
0.32122838 -0.93955582 0.14474821
0.30778438 -0.73998982 0.42464828
0.30834839 -0.49405175 0.41289806
0.32741937 -0.15493578 0.015855312
0.32793239 -0.02754879 -0.11994553
0.32973439 0.005148232 -0.15815353
0.33162439 0.039442241 -0.19822884
0.31338438 -0.29154772 0.18854904
0.29543337 -0.63784176 0.56919003
0.31576338 -0.24837273 0.13809633
0.30234939 -0.49178272 0.42253447
0.30709738 -0.40563482 0.32186604
0.32741639 0.085631251 -0.23865461
0.32911038 0.11701125 -0.27525282
0.34148338 0.34621423 -0.54257059
0.29181439 -0.57390982 0.53056002
0.31463039 -0.15124673 0.037613392
0.31732637 -0.1012848 -0.020655632
0.29898137 -0.44112974 0.37570047
0.32242638 0.11846721 -0.26338196
0.31286639 -0.062397778 -0.05284977
0.33676237 0.38967723 -0.57907963
0.29040837 -0.48726875 0.44171619
0.31090438 -0.099517763 -0.0096387863
0.29495138 -0.40132171 0.34167147
0.31184438 0.044144213 -0.16351986
0.33199438 0.43357325 -0.61595678
0.29106039 -0.83039373 0.30316639
0.28525138 -0.73730773 0.43361616
0.30450237 -0.097757757 0.0013422966
0.28890637 -0.39917582 0.35152817
0.32067537 0.34950221 -0.50429869
0.32674837 0.46946722 -0.64340353
0.28583339 -0.33870882 0.29372215
0.27962738 -0.73664373 0.43584633
0.27428037 -0.56689173 0.55831528
0.30096537 0.091607213 -0.19190598
0.30250937 0.12280226 -0.22800779
0.29708236 0.013201237 -0.10116196
0.31799239 0.43547422 -0.58987284
0.28248838 -0.28151482 0.23992348
0.27401039 -0.73598176 0.4380722
0.28704938 -0.18941778 0.13333511
0.29440838 0.093087256 -0.18031597
0.29978737 0.20418423 -0.30864573
0.28904837 -0.017627776 -0.052426815
0.30116338 0.23260325 -0.34147453
0.31873137 0.59547126 -0.76062679
0.27844337 -0.23668176 0.20060635
0.26674438 -0.47833377 0.47974348
0.28264439 -0.015995741 -0.041303635
0.29869539 0.32326722 -0.43244171
0.30409339 0.43735921 -0.56397867
0.26766637 -0.33255082 0.32365513
0.25944337 -0.50635773 0.52403927
0.26491639 -0.39066976 0.39066219
0.28136137 0.096030235 -0.15725183
0.27775338 0.01796025 -0.067415714
0.29521438 0.39577723 -0.50217152
0.26164737 -0.33051175 0.33357525
0.25362438 -0.50411671 0.53334332
0.25896537 -0.38856179 0.40037441
0.27627137 0.12850523 -0.18139696
0.27986237 0.20809525 -0.27280664
0.26989737 -0.012749791 -0.019161701
0.28648737 0.35489422 -0.44140673
0.25564939 -0.32848078 0.34346104
0.27136737 0.16624224 -0.21148062
0.26497537 0.021104217 -0.04510355
0.29038736 0.59813821 -0.70657682
0.24967036 -0.32645673 0.35331726
0.25208336 -0.27166182 0.29050303
0.23969036 -0.55307072 0.61309338
0.25396037 -0.22902781 0.24163008
0.24711937 -0.38436872 0.41970348
0.26195839 0.10040325 -0.12294579
0.28336638 0.59879827 -0.69318771
0.24370936 -0.32444078 0.36314344
0.23398636 -0.55079478 0.62213039
0.24788935 -0.22713178 0.25180626
0.23757136 -0.46733874 0.52664232
0.25192437 -0.13319975 0.14433241
0.23962636 -0.41949874 0.47190619
0.25228336 0.024224222 -0.022938728
0.26503837 0.32883024 -0.37079573
0.23776737 -0.32243079 0.37294006
0.24005637 -0.2677688 0.31051731
0.22964036 -0.63058776 0.59457302
0.22829936 -0.54852682 0.63113928
0.24183737 -0.22524172 0.26195002
0.23534736 -0.38020474 0.43891716
0.25361538 0.21324122 -0.22558594
0.24312237 -0.043932736 0.067551136
0.24465737 -0.0063287616 0.024689198
0.24734037 0.059442222 -0.050278664
0.26939937 0.60011023 -0.66655159
0.26298639 0.44292521 -0.4873867
0.23184136 -0.32042772 0.38270903
0.23406936 -0.26583272 0.32048035
0.22810337 -0.2639038 0.33041143
0.23744537 -1.0126657 0.062868118
0.21873236 -0.62941176 0.59874535
0.21697436 -0.54401273 0.64908648
0.23897137 0.17295825 -0.15358257
0.24062736 0.21578521 -0.20221472
0.24330536 0.28505725 -0.28087664
0.24512435 0.33211625 -0.33431482
0.22215536 -0.26198179 0.3403101
0.21133836 -0.54176778 0.65802002
0.22740637 -0.12616271 0.18608236
0.21639237 -0.41105574 0.5095911
0.23416536 0.21704924 -0.1905899
0.24735737 0.56789923 -0.58824682
0.24118336 0.40368825 -0.40212774
0.24404936 0.47991425 -0.48852253
0.24566536 0.52290726 -0.5372529
0.21418136 -0.31446177 0.41183424
0.21964136 -0.16924077 0.24723816
0.22874637 0.24625921 -0.21061754
0.24350536 0.65018123 -0.66757059
0.21031436 -0.25815672 0.36002207
0.21362936 -0.16744572 0.25740242
0.20205136 -0.48429281 0.61584902
0.21743436 0.11041725 -0.044203758
0.21224636 -0.035784781 0.12088346
0.22375436 0.28852326 -0.24531555
0.21470337 0.033447206 0.042708397
0.23371837 0.56930023 -0.56236172
0.20442237 -0.25625473 0.36983204
0.20763737 -0.16565782 0.26753235
0.20922436 -0.12095076 0.21705103
0.19915137 -0.40479881 0.53756428
0.21491136 0.22081423 -0.15593958
0.20741536 0.0031252503 0.089411259
0.20851237 0.034965217 0.053524017
0.20966136 0.068349242 0.015898228
0.22973536 0.65129924 -0.64112377
0.19668236 -0.30855876 0.44069719
0.20711836 0.17954922 -0.096644878
0.20127936 0.0046802163 0.1000762
0.22017737 0.57069123 -0.53666496
0.22288737 0.65185523 -0.62797165
0.19720036 -0.11750871 0.23753548
0.18897536 -0.36383373 0.51464224
0.19866936 0.11462826 -0.011008739
0.20218436 0.22330022 -0.1330328
0.19516337 0.0062302351 0.11070919
0.19726737 0.071274221 0.037672043
0.21453936 0.60525322 -0.56191778
0.21062136 0.48412225 -0.42590284
0.21200036 0.52676427 -0.47378254
0.18843436 -0.81794673 0.34433126
0.19279036 -0.067145765 0.19310045
0.19452436 0.18215024 -0.074128628
0.18906537 0.0077742338 0.12131023
0.20673136 0.57207024 -0.51114559
0.19945537 0.33963722 -0.25063658
0.17934537 -0.30271679 0.46930408
0.17473736 -0.54732972 0.63427544
0.17622337 -0.45442277 0.58107424
0.17706636 -0.40173072 0.55090332
0.18718137 0.14780325 -0.0230546
0.18826036 0.18344426 -0.062926769
0.17796037 -0.15681082 0.31771803
0.17041937 -0.48863775 0.5964241
0.17930536 -0.11238974 0.26802635
0.18008836 0.11879426 0.021867275
0.18525036 0.29533625 -0.17526674
0.17785737 0.042469263 0.10709524
0.18660836 0.34174824 -0.22709465
0.16444336 -0.62367076 0.61935043
0.16564336 -0.45608872 0.57351112
0.17479536 -0.062235773 0.22401237
0.17579336 0.18601722 -0.040634632
0.16261636 -0.30048877 0.47995806
0.17249236 -1.0041628 0.089789391
0.16582336 -0.81530172 0.35326719
0.17148536 0.25701326 -0.10710287
0.18103936 0.60838521 -0.49801493
0.17384636 0.34384423 -0.20370483
0.17573336 0.41323626 -0.28090477
0.17777236 0.48825023 -0.36436081
0.15806136 -0.24224478 0.4421792
0.16374937 -0.91936582 0.2094264
0.15373036 -0.55085772 0.61938524
0.15970036 0.046906233 0.13883018
0.16749837 0.34488624 -0.19207096
0.16824636 0.37346125 -0.22380257
0.15184537 -0.30200273 0.47215223
0.16189036 0.37445521 -0.21210194
0.16291237 0.41510224 -0.2571559
0.14645137 -0.30276281 0.46824217
0.14509636 -0.40658778 0.52794218
0.14952436 0.12563425 0.075956345
0.14693636 0.018428206 0.19457006
0.16041736 0.57681322 -0.42323256
0.15555537 0.37544626 -0.20043659
0.15653536 0.41603023 -0.24534082
0.15752836 0.45714122 -0.2908268
0.15935436 0.53277922 -0.37451172
0.14105037 -0.30352372 0.46432924
0.14179236 -0.24442774 0.43032503
0.13744636 -0.62088579 0.62949944
0.14416836 0.15708023 0.053436279
0.14099537 0.019928217 0.20490408
0.14172037 0.051294208 0.17026424
0.15017936 0.41695422 -0.23356676
0.15905637 0.77189827 -0.65734577
0.14739037 0.57814419 -0.39850473
0.14232036 0.34901524 -0.14591789
0.14384437 0.41787422 -0.22182798
0.13022736 -0.30505174 0.45648909
0.13203336 -0.81141478 0.36652613
0.12946737 -0.71967679 0.49434948
0.12902436 -0.40904182 0.51640844
0.13142337 0.12967926 0.10799742
0.13368337 0.23664623 -0.0097055435
0.13052136 0.08698523 0.15497637
0.14259236 0.65835321 -0.47373676
0.14328237 0.69100726 -0.50966787
0.13753136 0.41879123 -0.21013069
0.13998637 0.53498721 -0.33798885
0.12480737 -0.30581778 0.45256329
0.12596837 -0.20092875 0.39208412
0.12812836 0.26513022 -0.02869463
0.13124037 0.41970521 -0.19847488
0.13273336 0.49389422 -0.27996159
0.13357536 0.53571725 -0.32589769
0.12000636 -0.24736375 0.41446018
0.12346836 -0.91448373 0.22557926
0.13016236 0.6919502 -0.48434067
0.12718637 0.53644425 -0.31384754
0.11349536 0.13368022 0.13973522
0.11467436 0.19859821 0.068689346
0.11542837 0.24019325 0.023169041
0.11592236 0.26741022 -0.0066165924
0.11272436 0.091162205 0.18626547
0.12160936 0.58077621 -0.34956074
0.10907236 -0.24884278 0.40650129
0.10951136 -0.20306879 0.38005304
0.10699736 -0.46538979 0.53162241
0.11096437 -0.051331818 0.29238033
0.10573936 -0.013638794 0.2660923
0.10609536 0.025545239 0.24343634
0.11053636 0.3085072 -0.039289951
0.11713237 0.69288725 -0.45918655
0.11318936 0.46309024 -0.20815659
0.11929636 0.77344322 -0.59690571
0.10248236 -0.37216073 0.4733901
0.10335936 0.24253523 0.044908047
0.10013936 -0.014249742 0.26193047
0.10047636 0.024956226 0.23924446
0.10076236 0.058250248 0.21998024
0.10563536 0.38323623 -0.10851669
0.10814936 0.53861022 -0.27794266
0.096724361 0.20228225 0.10080624
0.094850361 0.02436626 0.2350502
0.095400363 0.092436254 0.19563723
0.099489361 0.38419324 -0.097197533
0.09102536 -0.71557575 0.50898838
0.093803361 -0.10516077 0.31004524
0.090075359 0.13691324 0.16529703
0.092319362 0.31170923 -0.0061249733
0.098427363 0.74113923 -0.47270489
0.10007437 0.83201724 -0.59851456
0.089107364 -0.91041178 0.23922825
0.085225359 -0.50249177 0.53577423
0.084377363 0.13638723 0.16100645
0.084600359 0.16788721 0.14274311
0.090314366 0.61683619 -0.32491684
0.090919361 0.66251826 -0.3744626
0.088321365 0.46641922 -0.16178274
0.08481136 -0.99317473 0.12544918
0.08231736 -0.15442175 0.32962036
0.078377359 0.090777218 0.18286848
0.081661366 0.42689025 -0.10659695
0.085530363 0.74190122 -0.44763279
0.083068363 0.5414592 -0.23063087
0.076111361 -0.25331873 0.38251925
0.07900136 -0.99246782 0.1277833
0.076758362 -0.15511781 0.32554102
0.073830359 0.27526021 0.069535255
0.078224361 0.66353923 -0.35006952
0.07685136 0.54216421 -0.21890259
0.070595361 -0.25407082 0.37850714
0.069141366 -0.71328479 0.51726103
0.068314359 -0.6291638 0.59629631
0.069068365 -0.5051468 0.52428818
0.071484365 -0.10783273 0.29359627
0.067625359 0.20318222 0.10837221
0.067394361 -0.99106079 0.13243628
0.066283368 -0.90775472 0.24822807
0.063334361 -0.56622177 0.5554204
0.065887362 -0.10850376 0.28947306
0.061518364 0.13426822 0.14379501
0.065917365 0.69655919 -0.36031199
0.066676363 0.77724123 -0.44719172
0.067893364 0.83222723 -0.58669376
0.059238363 -0.31515974 0.40511131
0.057959363 -0.56714374 0.55162334
0.060547363 -0.057070792 0.25504732
0.056829363 0.36258221 0.0063300133
0.059613362 0.69701022 -0.34813976
0.05770136 0.47051024 -0.10467052
0.060005363 0.74340522 -0.39800978
0.054670364 -0.10985273 0.28120947
0.053935364 0.77787322 -0.42229462
0.051883362 0.50398624 -0.12841272
0.052190363 0.54495925 -0.17237854
0.05506736 0.83226824 -0.58442068
0.046928361 -0.63298982 0.58127642
0.049052361 -0.11052972 0.27707243
0.049264364 -0.058362782 0.24669743
0.047073361 0.69790721 -0.32392693
0.048660364 0.83228022 -0.58376455
0.042692363 -0.31753677 0.39314842
0.041794363 -0.56992477 0.54020548
0.043069363 -0.21178073 0.33152723
0.042319361 -0.42242473 0.45426226
0.038539361 0.13213021 0.12650108
0.038072363 -0.021069765 0.21582747
0.039095361 0.31428623 0.020292282
0.040835362 0.69835323 -0.31188154
0.039580364 0.47283623 -0.072147846
0.037794363 -0.11188775 0.26878119
0.037954364 -0.059660733 0.23832846
0.033133361 0.27227724 0.040076256
0.032660361 0.086294234 0.14859343
0.033643365 0.47251025 -0.076751709
0.034831364 0.74488622 -0.34906483
0.030821363 -0.63588375 0.56996918
0.031224363 -0.47757679 0.47760105
0.026692363 -0.022328794 0.20737934
0.026085362 -0.31993073 0.38114548
0.026301362 -0.21399671 0.31929207
0.026506362 -0.11325282 0.26047039
0.026613362 -0.060964763 0.22993803
0.025955362 -0.38367075 0.41836214
0.020992363 -0.022960782 0.20314932
0.021103362 0.050135255 0.16043711
0.022468362 0.77943027 -0.36080599
0.020375362 -0.42584878 0.43855524
0.015441363 0.12997121 0.10912228
0.015359364 0.049546242 0.15614843
0.015951363 0.62372422 -0.1829958
0.015675362 0.35980624 -0.025265694
0.014980363 -0.32153577 0.37312126
0.015364363 -0.98488075 0.15312338
0.014913363 -0.79855782 0.41162729
0.014693364 -0.7077288 0.53764534
0.015142363 -0.16288072 0.28035641
0.015191363 -0.11462373 0.25213909
0.0097053628 0.24197322 0.038912296
0.0097413631 0.31214523 -0.0021476746
0.0096253632 0.084021211 0.1313324
0.0099593634 0.70055825 -0.25226164
0.010260363 0.83206427 -0.59641457
0.0093783634 -0.79797477 0.41372633
0.0092553627 -0.63977271 0.55483913
0.0095233629 -0.1153118 0.24796724
0.0038453629 0.12888426 0.10039902
0.0038453629 0.19772422 0.060090065
0.0038453629 0.38809526 -0.051377773
0.0038453629 0.42933524 -0.075525761
0.0038453629 0.78035021 -0.32441282
0.0038453629 0.50458121 -0.11958361
0.0038453629 -0.26323682 0.32999945
0.0038453629 -0.11600178 0.24378824
0.0038453629 -0.063591778 0.21310139
0.0038453629 -0.38702875 0.40248346
-0.0021986372 0.59014922 -0.17456579
-0.0023186372 0.78065425 -0.31236458
-0.0021766371 0.54637325 -0.14891577
-0.0017316372 -0.32395679 0.36105108
-0.0015686371 -0.64172977 0.54725027
-0.0016326371 -0.51686877 0.47408724
-0.0016776372 -0.42930478 0.42278147
-0.0076956367 0.047171235 0.13893032
-0.0082516372 0.5898962 -0.17930269
-0.0083316369 0.66873723 -0.22553062
-0.0072056372 -0.79623872 0.41999435
-0.0071176365 -0.51778573 0.47019625
-0.0075276373 -0.1173858 0.23542023
-0.013426636 0.012885213 0.15438032
-0.013883636 0.31041425 -0.020202637
-0.014128638 0.46987525 -0.11376953
-0.014554637 0.74707925 -0.27642059
-0.014737637 0.8363862 -0.34641075
-0.012906636 -0.32558078 0.35298347
-0.012998638 -0.26556879 0.31776905
-0.013400638 -0.98155075 0.16443825
-0.012417638 -0.64369673 0.5396452
-0.013069636 -0.21922976 0.29057932
-0.012808637 -0.38956779 0.39052916
-0.019500637 0.15853822 0.064192295
-0.019666638 0.23958623 0.016604424
-0.019119637 -0.027426779 0.17338848
-0.020451637 0.62250221 -0.20823956
-0.020775639 0.78093326 -0.30126476
-0.020891638 0.83659524 -0.33428383
-0.018243637 -0.79509479 0.42415142
-0.025355637 0.1580072 0.059778214
-0.025563639 0.23910522 0.012125015
-0.026240638 0.50303024 -0.14295769
-0.023756638 -0.7945258 0.42622423
-0.024384638 -0.22074074 0.28233147
-0.031120639 0.12559021 0.074105263
-0.030768637 0.011024237 0.14147329
-0.031831637 0.35657525 -0.061717987
-0.032790639 0.66793227 -0.24480057
-0.032177638 0.46887425 -0.12775183
-0.033137638 0.78068423 -0.31110191
-0.03005264 -0.22149879 0.2782011
-0.030526638 -0.067579806 0.18769407
-0.036975637 0.12503725 0.069704056
-0.037223637 0.19417524 0.029021263
-0.037484638 0.26676822 -0.013695717
-0.037635639 0.30866623 -0.038349628
-0.036811639 0.079408228 0.096554279
-0.039041638 0.69995022 -0.26859474
-0.038060639 0.42681521 -0.10787296
-0.038331639 0.50240523 -0.15235186
-0.039532639 0.83634222 -0.34885073
-0.03534364 -0.32885176 0.33678818
-0.036341637 -0.97893971 0.17340136
-0.034006637 -0.70293075 0.55563831
-0.035726637 -0.22225875 0.27406502
-0.034770638 -0.48834282 0.43063927
-0.035113636 -0.39298171 0.37452412
-0.043302637 0.23765522 -0.0013446808
-0.043420639 0.26630223 -0.018212795
-0.044881638 0.6215682 -0.22741175
-0.045070637 0.66752625 -0.25447559
-0.045534637 0.78043324 -0.32095957
-0.040174637 -0.52332872 0.44676304
-0.041826639 -0.1215778 0.21019125
-0.040706638 -0.39383978 0.37051249
-0.048178639 0.009150207 0.1285181
-0.049366638 0.26583421 -0.02273798
-0.049915638 0.38460726 -0.092727661
-0.051373638 0.69958723 -0.27833462
-0.046884637 -0.2702828 0.29318047
-0.046893638 -0.89514071 0.29207325
-0.045709636 -0.52426082 0.44283915
-0.054587636 0.12336826 0.056466103
-0.055779636 0.35493624 -0.080085754
-0.058276638 0.83603823 -0.36628485
-0.053508639 -0.97701281 0.18007135
-0.061115637 0.23619521 -0.014866829
-0.060013637 0.041746259 0.099879265
-0.061951637 0.38382125 -0.10198164
-0.058237638 -0.27186877 0.28494501
-0.058127638 -0.89394075 0.29635525
-0.057295639 -0.43808776 0.38303137
-0.057531636 -0.39642674 0.35844707
-0.069448635 0.62062621 -0.2466898
-0.06123364 -0.70778376 0.53777027
-0.065167636 -0.071624815 0.16210222
-0.07149864 0.0066302419 0.11117125
-0.073223636 0.26395321 -0.040892601
-0.073825635 0.35369623 -0.093926907
-0.076139636 0.69885623 -0.29789591
-0.074301638 0.42462122 -0.13583899
-0.069620639 -0.27346271 0.27669144
-0.067505635 -0.58896571 0.46313524
-0.069933638 -0.22685677 0.24914932
-0.070615634 -0.12511772 0.18902636
-0.068505637 -0.43986982 0.37502813
-0.079000637 0.23472422 -0.028440952
-0.079856634 0.35328126 -0.09855175
-0.080069639 0.38263625 -0.11590958
-0.081225641 0.54265624 -0.21054173
-0.08346764 0.03929621 0.082383156
-0.083741635 0.074706256 0.061429024
-0.087707639 0.58655322 -0.24147558
-0.087965637 0.61991322 -0.26121759
-0.086124636 0.38223922 -0.12056494
-0.088323638 0.66609025 -0.28854465
-0.089202635 0.77954423 -0.35568476
-0.087364636 0.54236519 -0.21532488
-0.082044639 -0.97385877 0.19109011
-0.079322636 -0.49568874 0.39898109
-0.090022638 0.11999524 0.029842377
-0.090962641 0.23373824 -0.037517548
-0.089642636 0.074112236 0.057014465
-0.093878634 0.58629227 -0.24630356
-0.086748637 -0.27586681 0.26427317
-0.083599634 -0.65670675 0.48980904
-0.08797764 -0.12726074 0.1762681
-0.09595564 0.11942822 0.025384426
-0.095240638 0.038063228 0.0736022
-0.098000638 0.35203022 -0.11246157
-0.098259635 0.38144225 -0.12989187
-0.098626636 0.42314023 -0.15460491
-0.10175764 0.77928823 -0.36566877
-0.09194164 -0.33716375 0.29597425
-0.092473641 -0.27667171 0.26012421
-0.090230636 -0.53178972 0.41131544
-0.10082364 0.0034462214 0.089366436
-0.10114064 0.037444234 0.06920433
-0.10699164 0.66546726 -0.30324793
-0.10473064 0.42276824 -0.15931368
-0.10543964 0.49890924 -0.20446873
-0.099122636 -0.97200078 0.19764328
-0.094139636 -0.71403974 0.51487541
-0.098641641 -0.23073882 0.22825146
-0.096651636 -0.44435877 0.35493946
-0.10784864 0.11829025 0.016452312
-0.10631764 -0.03724879 0.10876036
-0.11244664 0.58550322 -0.26082897
-0.11277564 0.61895424 -0.28068066
-0.11043064 0.38064122 -0.13924789
-0.11125564 0.46445024 -0.18898678
-0.11435064 0.7790302 -0.37568283
-0.11159164 0.49858722 -0.20924568
-0.10334964 -0.33884972 0.28775311
-0.10593264 -0.076417744 0.13200617
-0.11296064 0.036202252 0.060390472
-0.11899964 0.61871225 -0.28556252
-0.11947964 0.66505027 -0.3130827
-0.11981664 0.69756019 -0.33239079
-0.10704364 -0.53464979 0.39942026
-0.10796064 -0.44616979 0.34687233
-0.12012264 0.14933121 -0.011629581
-0.12053164 0.18689424 -0.033955574
-0.12132964 0.26013625 -0.077483654
-0.11927064 0.071120262 0.034852028
-0.12263364 0.37983626 -0.14862585
-0.12308864 0.42164522 -0.17347383
-0.11150064 -0.78577381 0.45879221
-0.11068363 -0.71720082 0.50337124
-0.12738164 0.25965422 -0.082086563
-0.13147564 0.6182282 -0.29534769
-0.12922664 0.42126924 -0.17820883
-0.13330764 0.77864122 -0.39075565
-0.13009864 0.49761525 -0.22361374
-0.12120964 -0.28072673 0.23930502
-0.12235464 -0.18053681 0.17971706
-0.13828164 0.66441923 -0.32788897
-0.13867064 0.69699723 -0.34727859
-0.12625463 -0.34224576 0.27125502
-0.12524264 -0.88696474 0.32165623
-0.12433164 -0.50317377 0.36703634
-0.12497965 -0.44890171 0.33473539
-0.12548064 -0.40695876 0.30977201
-0.13771963 0.11542124 -0.0059776306
-0.13714364 0.069308221 0.02148819
-0.14356764 0.58417624 -0.2851696
-0.14669463 0.83483726 -0.43445969
-0.13199864 -0.34309977 0.26711941
-0.12785864 -0.78420371 0.46477842
-0.12879564 -0.59981972 0.42002201
-0.13400763 -0.18205374 0.17120028
-0.12998964 -0.50411874 0.36302233
-0.14371763 0.11484325 -0.010480881
-0.14520563 0.22924024 -0.07866478
-0.14168763 -0.041276753 0.08257246
-0.14220963 -0.001074791 0.058610439
-0.15025464 0.61749721 -0.31007862
-0.13775064 -0.34395581 0.26297808
-0.13520764 -0.53946072 0.37950516
-0.14048363 -0.13378471 0.13770819
-0.14972363 0.11426425 -0.014990807
-0.15016064 0.14655125 -0.034247875
-0.15067163 0.18423426 -0.056724548
-0.14760964 -0.041953743 0.078187466
-0.15223964 0.30012721 -0.12584877
-0.15329164 0.37780625 -0.17218256
-0.15760364 0.69643122 -0.36222887
-0.15385863 0.41975522 -0.19720173
-0.13914964 -0.66698176 0.45099211
-0.14003164 -0.60182279 0.41212702
-0.14569263 -0.18357772 0.16266108
-0.14086264 -0.54043072 0.37550831
-0.14132863 -0.50601572 0.35498238
-0.14707763 -0.081290781 0.10165024
-0.14263263 -0.40963775 0.29749632
-0.15735164 0.22822624 -0.087874889
-0.15410765 -0.0023807883 0.049772263
-0.15458864 0.031807244 0.029365063
-0.16111764 0.49597824 -0.24769354
-0.14927864 -0.34567374 0.2546792
-0.14418764 -0.78265578 0.47072744
-0.14396264 -0.72358674 0.48025131
-0.15079564 -0.23784178 0.19031525
-0.15223864 -0.13525373 0.12908125
-0.16176364 0.11310124 -0.024026871
-0.16223563 0.14542925 -0.043335915
-0.16343664 0.22771823 -0.092488766
-0.16448064 0.29920524 -0.13518858
-0.17415664 0.77507323 -0.53111792
-0.14962363 -0.78214473 0.47270203
-0.15129764 -0.60383576 0.40421247
-0.15741064 -0.18510872 0.15410137
-0.16885564 0.18262225 -0.070457935
-0.16542664 -0.043994725 0.065002441
-0.16996963 0.25624526 -0.11446476
-0.17061263 0.29874223 -0.13986778
-0.17491063 0.58283222 -0.30968094
-0.17134164 0.34693021 -0.16867161
-0.17179064 0.37657726 -0.18639278
-0.17612664 0.66314328 -0.35768652
-0.17242664 0.41861022 -0.21151781
-0.17733663 0.74311721 -0.40549088
-0.18061864 0.77496624 -0.53518581
-0.17358664 0.49531823 -0.25736952
-0.15511164 -0.72573572 0.47251034
-0.16483064 -0.083403766 0.088559151
-0.17434163 0.14430225 -0.052447796
-0.17138164 -0.044677794 0.06059742
-0.17201264 -0.0043507814 0.036474228
-0.17254964 0.029901206 0.015985012
-0.18371864 0.74295926 -0.41054964
-0.18708864 0.77485925 -0.53925753
-0.16416664 -0.88307482 0.33611536
-0.16560864 -0.41323978 0.28106117
-0.18102163 0.1815412 -0.079643726
-0.17734563 -0.045362771 0.056184292
-0.18221563 0.25526023 -0.12377071
-0.19356863 0.77475226 -0.54333687
-0.18678863 0.53761423 -0.29279089
-0.16591564 -0.78062576 0.47860241
-0.16825064 -0.60687274 0.39230728
-0.17417563 -0.2410478 0.1733222
-0.17068964 -0.45628077 0.30216217
-0.18906264 0.29734826 -0.15394258
-0.18516463 0.06441021 -0.014404774
-0.17188963 -0.72897774 0.46086645
-0.17391564 -0.60788876 0.38832903
-0.17714263 -0.41505378 0.27281523
-0.19200563 0.11017025 -0.046717644
-0.18929563 -0.046738803 0.047343254
-0.18999363 -0.0063357949 0.023124218
-0.19058564 0.027981222 0.0025520325
-0.17676064 -0.77962571 0.48251438
-0.18591264 -0.24266177 0.16479445
-0.18861364 -0.086245716 0.071028233
-0.19807863 0.10957921 -0.051273823
-0.19528264 -0.047428787 0.042915344
-0.19600263 -0.0070007443 0.018662453
-0.19661464 0.027338207 -0.0019378662
-0.19725263 0.063171208 -0.023433685
-0.20849964 0.6948992 -0.40241194
-0.18633863 -0.88090974 0.34428024
-0.18310964 -0.73115081 0.45308447
-0.18795364 -0.45908374 0.28986931
-0.20680664 0.25327623 -0.14245892
-0.20847663 0.34432423 -0.19711781
-0.19187364 -0.88037473 0.34631109
-0.18873064 -0.73224074 0.44918537
-0.19372363 -0.46002275 0.28576326
-0.21917364 0.58092225 -0.34428883
-0.21605764 0.41590625 -0.24514961
-0.19344164 -0.78198379 0.47450829
-0.19665164 -0.61197978 0.37237644
-0.21698163 0.14031422 -0.084528923
-0.21771863 0.17826724 -0.10734558
-0.21475063 0.025399208 -0.015440941
-0.23401064 0.73684824 -0.61174583
-0.23592964 0.83070523 -0.67115879
-0.21052665 -0.19209176 0.1153183
-0.20610864 -0.41962582 0.25211239
-0.22476064 0.22256625 -0.13896894
-0.22716364 0.34300625 -0.21142864
-0.23417164 0.69412124 -0.42267561
-0.21322764 -0.35526782 0.20868301
-0.20675364 -0.67963082 0.40383339
-0.20998764 -0.51758772 0.30634117
-0.21192464 -0.42054671 0.24795818
-0.22924064 0.13916326 -0.093747616
-0.23827964 0.58009422 -0.3592248
-0.23576364 0.45736223 -0.28532982
-0.24808465 0.83111227 -0.64719963
-0.24538264 0.61376125 -0.38467169
-0.24118663 0.41433924 -0.26451492
-0.25305563 0.73705024 -0.60439682
-0.25221261 0.77377427 -0.58026552
-0.24281263 0.49162924 -0.31108379
-0.22495663 -0.35703975 0.20025206
-0.22837764 -0.19445175 0.10229111
-0.22269064 -0.46474975 0.26515007
-0.24395864 0.25026423 -0.17068052
-0.25106561 0.57953823 -0.36921883
-0.24916063 0.49128923 -0.31600761
-0.25009462 0.53454822 -0.34209061
-0.23083264 -0.35792774 0.19603109
-0.23215663 -0.29657882 0.15904045
-0.22261164 -0.73883778 0.42570114
-0.23657164 -0.092010796 0.035694122
-0.24594164 0.058155239 -0.059794903
-0.25286663 0.37114322 -0.2486496
-0.25380462 0.41355026 -0.27423763
-0.25551763 0.49094823 -0.32093859
-0.23807363 -0.29743272 0.15476418
-0.24954464 -0.053713739 0.0028004646
-0.25641161 0.24925023 -0.18013859
-0.25124863 0.021480262 -0.042604923
-0.25916561 0.37071824 -0.25348473
-0.27206463 0.73725021 -0.59706354
-0.23396264 -0.74105674 0.4178381
-0.24629964 -0.19682974 0.08921814
-0.23812963 -0.55725282 0.30685329
-0.24742363 -0.14725775 0.059285164
-0.24864264 -0.093468726 0.026805401
-0.25928262 0.10359424 -0.097169876
-0.26265264 0.24874121 -0.18487787
-0.27031162 0.57869923 -0.38426065
-0.27219564 0.65987027 -0.43331194
-0.26645961 0.41275722 -0.28398752
-0.26825863 0.49026322 -0.33082294
-0.27953663 0.86921221 -0.62439775
-0.24247864 -0.62027782 0.34024525
-0.26992363 0.29118526 -0.21559763
-0.27179262 0.36986423 -0.26317787
-0.27381963 0.45516723 -0.31475973
-0.28471962 0.73738325 -0.59218168
-0.27567562 0.53330022 -0.36200762
-0.24705763 -0.87517279 0.36637402
-0.25700563 -0.25250977 0.11317921
-0.27242362 0.13508725 -0.12621689
-0.27444762 0.21835423 -0.17660475
-0.28597263 0.69254327 -0.46356153
-0.27915263 0.41196126 -0.29376554
-0.28019363 0.45479822 -0.31968975
-0.29104063 0.73744923 -0.58974171
-0.29148161 0.86949426 -0.6007328
-0.25104663 -0.74440473 0.40601015
-0.26429763 -0.19922477 0.076093197
-0.26550463 -0.14956075 0.046040058
-0.26681462 -0.09567076 0.013427258
-0.25770462 -0.47049481 0.24025345
-0.27957663 0.17270321 -0.15401459
-0.29166663 0.65920126 -0.44863367
-0.28852263 0.53267121 -0.37200975
-0.29597864 0.8326962 -0.55369568
-0.25979063 -0.62342972 0.32811832
-0.27031264 -0.20002681 0.071707249
-0.26219961 -0.52648181 0.26940727
-0.28581062 0.17213923 -0.15871572
-0.29610863 0.57757127 -0.40442276
-0.29697561 0.61171126 -0.42511272
-0.29385564 0.48888323 -0.35067272
-0.30352864 0.86972225 -0.58146191
-0.27218664 -0.36420876 0.16633034
-0.26122862 -0.79561681 0.4277792
-0.26390064 -0.69044381 0.36404037
-0.27633661 -0.20083076 0.067317486
-0.29021162 0.10054725 -0.12034893
-0.29106262 0.13331926 -0.14022493
-0.28715762 -0.01716578 -0.048958778
-0.29399061 0.24617821 -0.20867062
-0.28805661 0.017504215 -0.069984913
-0.30258262 0.5772872 -0.40948153
-0.29715562 0.36814523 -0.28264189
-0.26819861 -0.74777573 0.3941412
-0.27531862 -0.47339779 0.22773743
-0.30142662 0.28876221 -0.23960781
-0.31122562 0.65852726 -0.46402597
-0.30671161 0.48818824 -0.36064291
-0.30786562 0.53172326 -0.38706493
-0.27974463 -0.52948779 0.25700712
-0.30579162 0.21568024 -0.20033693
-0.30137461 0.052394211 -0.10116386
-0.31648263 0.61093223 -0.4404006
-0.31315261 0.48783922 -0.36563873
-0.29003161 -0.36693281 0.15352201
-0.31290063 0.24462622 -0.22302485
-0.31544262 0.33672923 -0.27900553
-0.31627363 0.36684424 -0.29730988
-0.33017862 0.68731225 -0.60351181
-0.31863964 0.45256525 -0.34941387
-0.31839162 0.21460122 -0.20987558
-0.31063661 -0.060858786 -0.042324543
-0.32043862 0.28729421 -0.25409269
-0.33649763 0.68739223 -0.60106659
-0.29117063 -0.75230771 0.37825203
-0.30505162 -0.25923282 0.078336239
-0.32230362 0.13034421 -0.16369867
-0.31796962 -0.020635784 -0.071796894
-0.33029562 0.40873426 -0.33315659
-0.30045262 -0.63086981 0.29965448
-0.31109661 -0.26008171 0.073955059
-0.31265762 -0.20569474 0.040849209
-0.31409061 -0.15578073 0.010466099
-0.32295963 -0.062307775 -0.05142355
-0.34029463 0.53012621 -0.41230583
-0.30126563 -0.80374676 0.40022421
-0.33486363 0.12914425 -0.1731329
-0.33247763 0.049139261 -0.12436295
-0.35060564 0.65716326 -0.49501181
-0.35543463 0.68762922 -0.59374094
-0.31213963 -0.63301772 0.29147911
-0.32632163 -0.15735477 0.0015172958
-0.34015563 0.095594227 -0.15776062
-0.33656263 -0.022738755 -0.085571766
-0.36033061 0.73816025 -0.56302261
-0.33409762 -0.10387677 -0.036072731
-0.35231262 0.28482425 -0.27837181
-0.34498262 0.047826231 -0.13368654
-0.35609362 0.40709722 -0.35301876
-0.35743064 0.45029825 -0.37939453
-0.33387461 -0.31137878 0.085607052
-0.32386062 -0.63517576 0.28328419
-0.33535463 -0.2634998 0.056377411
-0.35377261 0.12733322 -0.18733454
-0.35641661 0.21133226 -0.23865366
-0.34900263 -0.024148762 -0.094787598
-0.35010162 0.010748208 -0.11610699
-0.35124862 0.047167242 -0.13835764
-0.36121663 0.36377221 -0.33178568
-0.36256763 0.40668523 -0.35800362
-0.36392862 0.44991726 -0.38441563
-0.33589762 -0.44039279 0.15951538
-0.36132762 0.16526526 -0.21564388
-0.35752264 0.046507239 -0.14303493
-0.36670363 0.33304423 -0.31822252
-0.37296662 0.52850926 -0.43772888
-0.34400961 -0.37521976 0.11480808
-0.33761561 -0.57475573 0.2368021
-0.33874062 -0.53966373 0.21534824
-0.35088861 -0.16052479 -0.01645565
-0.34189063 -0.44136173 0.15524721
-0.36534563 0.093081236 -0.17661953
-0.37315363 0.33257824 -0.32315683
-0.38369763 0.65601122 -0.52104568
-0.37554261 0.40585822 -0.36799192
-0.36772862 -0.026276767 -0.10865498
-0.37653762 0.23936725 -0.27130985
-0.38610461 0.52785724 -0.44795179
-0.36322361 -0.16212171 -0.025477886
-0.36502963 -0.10767978 -0.058812618
-0.35247663 -0.4862178 0.17296743
-0.38041463 0.16351426 -0.23002481
-0.37260163 -0.068176806 -0.088053703
-0.38295463 0.23883426 -0.27617455
-0.37640163 0.044516206 -0.15710688
-0.40058061 0.65283924 -0.59646273
-0.36424962 -0.31584674 0.063706398
-0.37884662 -0.068918765 -0.092660904
-0.38145962 0.0073082447 -0.13940382
-0.39656761 0.44799823 -0.40963554
-0.37199762 -0.26868778 0.029838085
-0.39477563 0.20801526 -0.26767063
-0.41316861 0.65301228 -0.59158373
-0.37428963 -0.37990075 0.093111038
-0.37645862 -0.31764871 0.054908276
-0.39282462 -0.02913779 -0.12723494
-0.41534764 0.60694623 -0.51786375
-0.41832063 0.68840224 -0.56941557
-0.38257563 -0.31855172 0.0505023
-0.38993463 -0.11075479 -0.077112675
-0.40340564 0.089267254 -0.20510578
-0.41315264 0.36019522 -0.37161064
-0.42574263 0.65318525 -0.58670855
-0.41626862 0.44683522 -0.42485571
-0.39043462 -0.27130979 0.016497135
-0.39421761 -0.16614681 -0.048136711
-0.40542763 -0.030578792 -0.13656378
-0.42870262 0.60640323 -0.52832556
-0.42126763 0.40293223 -0.40318489
-0.42285761 0.44644624 -0.42994785
-0.41616863 0.087982237 -0.21465492
-0.41883963 0.15997624 -0.25896454
-0.42053863 0.20577621 -0.28715467
-0.41174161 -0.031301737 -0.14123774
-0.42164561 0.23560923 -0.30551577
-0.42783862 0.40251023 -0.40824175
-0.40870762 -0.1130808 -0.090903759
-0.42256263 0.087338209 -0.2194376
-0.42700362 0.20521325 -0.29204273
-0.41939062 0.0031252503 -0.16756773
-0.44457963 0.65344119 -0.57940865
-0.43441963 0.40208721 -0.41330481
-0.43172362 0.15878421 -0.26866674
-0.43347761 0.20464921 -0.2969389
-0.42439863 -0.032753766 -0.15060091
-0.43629262 0.27825725 -0.34230995
-0.42714763 0.039135218 -0.19491482
-0.44748163 0.57086223 -0.52267075
-0.43935561 0.35838026 -0.39169788
-0.44572362 0.52488124 -0.49432993
-0.44282162 0.27774322 -0.34727764
-0.45418563 0.57056123 -0.52790689
-0.45553464 0.6053102 -0.54934168
-0.45789161 0.32641822 -0.38794374
-0.46578062 0.52387422 -0.50992775
-0.46571961 0.35654622 -0.41190195
-0.48109862 0.56935227 -0.54891968
-0.47107562 0.32545322 -0.39801884
-0.47411963 0.39952624 -0.44384861
-0.47252864 0.20123422 -0.32644796
-0.47896263 0.35562325 -0.42205095
-0.48408061 0.47845924 -0.49810696
-0.49462062 0.56874228 -0.55947685
-0.48928761 0.44249624 -0.48125076
-0.50289166 0.60336924 -0.58642673
-0.50969863 0.60309023 -0.59174967
-0.51098466 0.47696224 -0.51893759
-0.52178764 0.56751525 -0.58068085
