# .PCD v0.7 - Point Cloud Data file format
VERSION 0.7
FIELDS x y z
SIZE 4 4 4
TYPE F F F
COUNT 1 1 1
WIDTH 1
HEIGHT 1024
VIEWPOINT 0 0 0 1 0 0 0
POINTS 1024
DATA ascii
0.35030115 0.59104985 0.022045135
0.34450012 0.55820286 0.021218777
0.34473214 0.43755484 0.017010689
0.34466612 0.47184485 0.01820612
0.33857414 0.59111184 0.022685051
0.33330414 0.27291083 0.011904716
0.33271214 0.59114283 0.023005009
0.33321214 0.32236081 0.013629913
0.33299714 0.43764585 0.017652035
0.33293414 0.47192985 0.018847942
0.33285514 0.5144248 0.020329952
0.32756913 0.19875586 0.0096387863
0.32751313 0.22899884 0.010694027
0.32685113 0.59117281 0.023326874
0.32734314 0.32241684 0.013952732
0.32671115 0.66782284 0.026004791
0.32699212 0.51446283 0.020650864
0.32191312 0.077765822 0.0057377815
0.32185113 0.11217284 0.0069389343
0.32164115 0.22906286 0.011015892
0.31590813 0.15213984 0.0086517334
0.31547815 0.39526182 0.017132759
0.31016615 0.077920854 0.0063838959
0.31038314 -0.047400177 0.0020127296
0.31031913 -0.010200143 0.0033097267
0.31025213 0.02836287 0.004655838
0.30919614 0.63642585 0.025867939
0.32259014 0.73892283 -0.24318695
0.31053513 -0.13496715 -0.0010409355
0.30403513 0.22925186 0.011983871
0.30341813 0.59129286 0.024612904
0.30382413 0.35282886 0.016294956
0.30456713 0.66694582 0.0011057854
0.30362114 0.47213483 0.020456791
0.31382912 0.79531085 -0.18825293
0.30475813 -0.19419414 -0.0027861595
0.29842114 0.078072846 0.0070309639
0.29863113 -0.047225177 0.0026607513
0.29809412 0.27326685 0.013839722
0.29761612 0.55846882 0.023788929
0.29756114 0.59132183 0.024934769
0.29801112 0.32268983 0.015563965
0.29796013 0.35287982 0.016617775
0.29896915 -0.24930614 -0.0043878555
0.29877713 -0.13477618 -0.00039386749
0.29255113 0.078147829 0.0073547363
0.29249415 0.11253881 0.0085539818
0.29269615 -0.0099481344 0.0042829514
0.29170614 0.59135085 0.02525568
0.29318914 -0.30996615 -0.0061831474
0.29299814 -0.1939941 -0.0021381378
0.28643712 0.22943681 0.012952805
0.28636715 0.27338183 0.014484882
0.28676215 0.028682828 0.0059509277
0.28578013 0.63652682 0.027153015
0.28679213 0.66713083 0.0052919388
0.28616914 0.39549685 0.018745899
0.28712115 -0.19389516 -0.0018119812
0.28081414 0.07829684 0.0080008507
0.29246414 0.70469183 -0.24856901
0.28124514 -0.19379717 -0.0014882088
0.28115115 -0.1344952 0.00057983398
0.28174615 -0.5102312 -0.012525082
0.27415013 0.59143585 0.026219845
0.27452013 0.35307884 0.017907143
0.27408013 0.63657486 0.027793884
0.27438813 0.43807885 0.020870686
0.27433515 0.47233185 0.022066116
0.27426913 0.51478785 0.023545742
0.27610412 -0.66662115 -0.01765728
0.27593812 -0.55994219 -0.013936043
0.26907915 0.078442812 0.0086488724
0.26902714 0.11282086 0.0098490715
0.26896614 0.15268487 0.011239052
0.26884913 0.22961682 0.013921738
0.26878214 0.27354985 0.015452862
0.26834813 0.55862582 0.02539587
0.26822913 0.63659883 0.028114796
0.26859614 0.39563286 0.019711971
0.27738515 0.74052984 -0.18158913
0.27708814 0.79557186 -0.17479086
0.27005112 -0.5598132 -0.013609886
0.26316315 0.11288983 0.010170937
0.26310414 0.15275085 0.011560917
0.26298913 0.22967583 0.01424408
0.26284912 0.32300085 0.01749897
0.26238215 0.63662285 0.028435707
0.27187514 0.70637983 -0.19344997
0.27057314 0.79578084 -0.16301918
0.27121612 0.83070886 -0.17805004
0.26370212 -0.24869114 -0.0024380684
0.26426414 -0.62477618 -0.015552998
0.26362014 -0.19350821 -0.00051307678
0.26353213 -0.13422221 0.0015530586
0.25753313 -0.046635151 0.004928112
0.25742313 0.029067814 0.0075697899
0.25699314 0.32305187 0.017819881
0.25688714 0.39572185 0.020354748
0.26538014 0.74052584 -0.18227911
0.25799614 -0.36318713 -0.0061101913
0.25866613 -0.82155114 -0.022093296
0.25843912 -0.66621119 -0.016676903
0.25821012 -0.50973719 -0.011219025
0.25143814 0.11302584 0.010817051
0.25138113 0.15287983 0.012207031
0.25173014 -0.090622127 0.0037169456
0.25155813 0.029141843 0.0078921318
0.25080013 0.55871582 0.026359081
0.25075415 0.59154683 0.027503014
0.25113815 0.32310182 0.0181427
0.25887212 0.74083483 -0.17031622
0.25092414 0.47248283 0.023352146
0.25086313 0.51492488 0.024831772
0.25313112 -1.0701711 -0.030441284
0.25305814 -1.0186973 -0.028645039
0.25277513 -0.82140416 -0.021766186
0.25204214 -0.30922014 -0.00390625
0.25249413 -0.62451416 -0.014900208
0.24495213 0.55874586 0.026680946
0.24484311 0.63669288 0.029397964
0.24507211 0.47251984 0.023674011
0.25234914 0.79588884 -0.15750504
0.24716114 -1.0185351 -0.028316975
0.24666713 -0.66594416 -0.016024113
0.24644811 -0.50949711 -0.010568142
0.23976313 0.07879585 0.010264874
0.23993413 -0.046393156 0.0059008598
0.23952012 0.66761786 0.016448021
0.23889412 0.71322787 0.032387733
0.24636512 0.79588783 -0.15777206
0.24046512 -0.43333012 -0.0075912476
0.24056913 -0.50937814 -0.010241985
0.23413013 -0.090372145 0.0046868324
0.23407112 -0.04631418 0.0062251091
0.23402111 -0.0091561675 0.007519722
0.23347811 0.39589483 0.021641731
0.23305313 0.71324486 0.032707691
0.23331912 0.51502383 0.025795937
0.23528312 -0.95149416 -0.025335312
0.23434113 -0.24820322 -0.0008149147
0.23426713 -0.19304317 0.0011091232
0.22799914 0.11329085 0.012109756
0.22794713 0.15313083 0.013497829
0.22778912 0.27392483 0.017709732
0.22810911 0.02943486 0.009185791
0.22741611 0.55883384 0.027641773
0.22737311 0.59165287 0.028787136
0.22772412 0.32329684 0.019432068
0.22762911 0.39593685 0.02196312
0.22757412 0.43839884 0.023443699
0.23484312 0.74086082 -0.17019415
0.23419912 0.83103186 -0.15303516
0.22911613 -0.74038714 -0.017652988
0.22847213 -0.24810821 -0.00049114227
0.22881411 -0.5091452 -0.0095911026
0.22234613 -0.046158135 0.0068717003
0.22178112 0.39597785 0.022284985
0.22172812 0.71298683 0.023724079
0.22890811 0.74081886 -0.1720891
0.22168311 0.47266385 0.024958134
0.22826113 0.79595786 -0.15443802
0.22284012 -0.43300015 -0.0066151619
0.22275013 -0.36255318 -0.00415802
0.22358812 -1.0178981 -0.027005196
0.22333612 -0.82068712 -0.020131111
0.22268212 -0.30871719 -0.0022821426
0.22300112 -0.5588271 -0.011002064
0.21628413 0.11341983 0.012753963
0.21613912 0.23012686 0.016822815
0.21638912 0.029576838 0.0098319054
0.21602212 0.32339185 0.020073891
0.21598512 0.35354584 0.02112484
0.21593212 0.39601982 0.022605896
0.21583612 0.47269884 0.025279999
0.22255212 0.83092386 -0.16233301
0.21696612 -0.43289214 -0.0062890053
0.21725611 -0.66529816 -0.014391899
0.21038112 0.15331382 0.014465809
0.21057811 -0.0088601708 0.0088129044
0.20984712 0.59172988 0.029747963
0.21013711 0.35358983 0.021446705
0.20979212 0.63682783 0.031320095
0.21008512 0.39606082 0.022926807
0.21165112 -0.88979322 -0.021893978
0.21086912 -0.24782914 0.00048303604
0.21124712 -0.55859214 -0.010350227
0.20481712 -0.089970171 0.0063056946
0.20443712 0.23023486 0.017467976
0.20438512 0.27412885 0.018996716
0.20400812 0.59175587 0.030067921
0.20429012 0.35363382 0.021768093
0.20418613 0.66797388 0.024814129
0.20418912 0.43854985 0.024726868
0.20414913 0.47276884 0.025920868
0.20576613 -0.88965112 -0.021566868
0.20568313 -0.82027417 -0.019150257
0.20545012 -0.62351316 -0.012291908
0.20537312 -0.55847615 -0.010024071
0.19858712 0.23028785 0.017788887
0.19820713 0.55897385 0.0292449
0.19830813 0.66803282 0.026207924
0.20457312 0.79582983 -0.1626482
0.19970812 -0.73972911 -0.016021252
0.19913912 -0.24764818 0.0011301041
0.19962212 -0.66492611 -0.013412952
0.19957413 -0.62339312 -0.011966228
0.19282313 0.15349084 0.015432835
0.19296212 0.029852867 0.011124134
0.19233012 0.59180486 0.03070879
0.19243012 0.66809082 0.027601719
0.19255012 0.39618087 0.023890972
0.19348311 -0.43247122 -0.0049910545
0.19340312 -0.36205214 -0.0025362968
0.19419912 -1.0685692 -0.027160168
0.19391912 -0.82000512 -0.01849699
0.19382812 -0.73960215 -0.015695095
0.19334312 -0.30823714 -0.0006608963
0.19327413 -0.24755818 0.0014538765
0.18678612 0.32362086 0.021681786
0.18655711 0.66814888 0.028995991
0.18657613 0.51527488 0.028360844
0.19244613 0.83098382 -0.15840006
0.18761413 -0.4323681 -0.0046648979
0.18818212 -0.9503141 -0.022716999
0.18803912 -0.8198722 -0.01817131
0.18795112 -0.73947614 -0.015367985
0.18116613 0.11378986 0.014688969
0.18099512 0.27432382 0.020283699
0.18069212 0.55905485 0.030205727
0.18094212 0.32366484 0.022001743
0.18091013 0.35380483 0.023054123
0.18369313 0.71025884 -0.068026066
0.18078312 0.47290385 0.02720499
0.18073812 0.5153048 0.028680801
0.18242413 -1.0682671 -0.026504993
0.18229912 -0.95017213 -0.022389889
0.18207411 -0.73935121 -0.015043259
0.18155012 -0.2473821 0.0021018982
0.18149212 -0.19226211 0.0040230751
0.18182813 -0.50825518 -0.0069890022
0.17527512 0.15366286 0.016397953
0.17519513 0.23049486 0.019075871
0.18137212 0.87288886 -0.18903112
0.17619812 -0.73922712 -0.014717102
0.17557111 -0.13296515 0.0064101219
0.16942713 0.15371883 0.016719818
0.16967112 -0.089514196 0.0082449913
0.16914111 0.43876484 0.026652813
0.17530812 0.87289983 -0.1874342
0.17065312 -1.0679722 -0.025852203
0.17053512 -0.9498952 -0.021737099
0.16977412 -0.1920982 0.0046687126
0.16350412 0.23059481 0.019719124
0.16318412 0.55913281 0.031166077
0.16338412 0.35392886 0.024016857
0.16308913 0.66838086 0.034572124
0.16300212 0.74616885 0.037685871
0.16322713 0.51539284 0.029642105
0.16872512 0.79577082 -0.16719389
0.16414912 -0.43196815 -0.0033679008
0.16408013 -0.36157519 -0.00091409683
0.16396911 -0.24712521 0.003071785
0.16391513 -0.19201714 0.0049929619
0.16427112 -0.55769819 -0.0077490807
0.15727712 0.63701582 0.034199715
0.16260113 0.79585385 -0.1625309
0.15828513 -0.43187016 -0.0030431747
0.15857412 -0.73886412 -0.013740063
0.15805912 -0.19193715 0.0053157806
0.15840313 -0.55759221 -0.0074238777
0.15835713 -0.50783616 -0.0056900978
0.15188812 0.15388286 0.01768589
0.15151812 0.55918384 0.031807899
0.15148813 0.5919708 0.032948971
0.15173312 0.32387984 0.023607731
0.15540013 0.70882285 -0.11643314
0.15230912 -0.30760521 0.0016069412
0.15263411 -0.66398615 -0.010809898
0.14621912 -0.04521817 0.011068821
0.14593711 0.27460182 0.022211075
0.14618613 -0.0081031322 0.012362003
0.14633912 0.74538887 0.0063457489
0.14576212 0.47309485 0.029127121
0.14572512 0.51547885 0.030602932
0.15098712 0.83076787 -0.17728806
0.14649811 -0.36130112 5.5789948e-05
0.14707512 -1.0159981 -0.022753239
0.14683113 -0.73862821 -0.013090134
0.14645012 -0.30751818 0.0019307137
0.14639711 -0.24687618 0.0040440559
0.14672813 -0.62237018 -0.0090379715
0.14026113 0.079874814 0.01574707
0.14040512 -0.08915621 0.0098581314
0.14033613 -0.0080391765 0.012683868
0.14030412 0.030433834 0.014023781
0.13999212 0.39652085 0.026778698
0.13992712 0.47312585 0.029447079
0.14069712 -0.43158418 -0.0020709038
0.14085913 -0.62226218 -0.0087141991
0.13441612 0.079932868 0.016068935
0.13429312 0.23083586 0.021326065
0.13399611 0.59203887 0.033906937
0.13419113 0.35412687 0.025620937
0.13743612 0.70896888 -0.11204624
0.13409412 0.47315684 0.029767036
0.13928013 0.83061284 -0.1903019
0.13960913 0.87280387 -0.2042613
0.13477913 -0.36112422 0.00070381165
0.13499312 -0.62215513 -0.0083889961
0.13494012 -0.55717713 -0.006125927
0.12854512 0.11430484 0.017585754
0.12851413 0.15409386 0.01897192
0.12845312 0.23088282 0.02164793
0.12841812 0.27473485 0.023173809
0.12837912 0.32404387 0.0248909
0.12969112 0.74440885 -0.032884121
0.13296212 0.79561687 -0.17702103
0.12933812 -0.88793319 -0.017328262
0.12887911 -0.30726415 0.0029001236
0.12883112 -0.24663514 0.005012989
0.12903713 -0.50733811 -0.0040678978
0.12267312 0.15414584 0.019292831
0.12236512 0.55930686 0.033405781
0.12234013 0.59208184 0.034547806
0.12245612 0.43903184 0.029216766
0.12547512 0.70906484 -0.10912228
0.12243012 0.47321585 0.030407906
0.12360112 -1.0668521 -0.023238182
0.12346512 -0.88781112 -0.017002106
0.12297712 -0.2465561 0.0053358078
0.12293512 -0.19147521 0.0072550774
0.12289011 -0.13229817 0.0093159676
0.12321313 -0.55697614 -0.0054769516
0.11701012 -0.088883102 0.011147976
0.11648013 0.63714886 0.036436081
0.11768612 -1.0153363 -0.021121979
0.11748412 -0.73806113 -0.011464119
0.11739913 -0.62184316 -0.0074162483
0.11731513 -0.50714618 -0.0034198761
0.11104313 0.080156863 0.017355919
0.11107813 0.030731857 0.01563406
0.11082213 0.39669484 0.028379917
0.11559813 0.79506087 -0.20954323
0.11135212 -0.36078018 0.0019979477
0.11176312 -0.9485932 -0.018476009
0.11148912 -0.55678016 -0.0048279762
0.10520212 0.080211818 0.017677784
0.10531512 -0.088751137 0.011793137
0.10507213 0.27490485 0.024457932
0.10968111 0.79495883 -0.21556187
0.10546112 -0.30693918 0.0041928291
0.099340126 0.11456883 0.019194126
0.099285126 0.20095885 0.022202015
0.099035129 0.59216684 0.035824776
0.099187121 0.35434985 0.027543068
0.10369512 0.79491085 -0.21841908
0.10387212 0.83016181 -0.22809887
0.099935129 -0.81804711 -0.013287067
0.09352313 0.080317855 0.018320084
0.093553126 0.030902863 0.016598701
0.093356118 0.35438484 0.027863979
0.093165129 0.66859585 0.038805962
0.09581013 0.74240887 -0.11274099
0.094219118 -1.0662022 -0.021607876
0.094188124 -1.0148323 -0.01981926
0.094069123 -0.8179372 -0.012961864
0.093758121 -0.30678219 0.0048398972
0.093721122 -0.24617714 0.0069499016
0.093879119 -0.50677711 -0.0021271706
0.087662131 0.11466986 0.019834995
0.087780118 -0.08855921 0.012757778
0.087343127 0.66861081 0.039125919
0.087455124 0.47338784 0.032326698
0.09229812 0.82977986 -0.25971031
0.087906122 -0.30670518 0.0051608086
0.087871119 -0.24610418 0.0072717667
0.088087127 -0.62134618 -0.005795002
0.087839127 -0.19104415 0.0091910362
0.088050127 -0.55640215 -0.003534317
0.081711128 0.32434982 0.027454853
0.081648126 0.43924585 0.031456947
0.083696127 0.70939785 -0.098893166
0.081629127 0.47341484 0.032645702
0.082124129 -0.43069917 0.0011639595
0.082085118 -0.3603732 0.0036129951
0.082471132 -1.0659533 -0.020956993
0.082407132 -0.9479962 -0.016848087
0.082292125 -0.73742312 -0.0095152855
0.082023129 -0.24603111 0.0075960159
0.082193121 -0.55631012 -0.0032100677
0.076094121 -0.088435113 0.013402939
0.076071128 -0.044462144 0.014933109
0.076032132 0.031067848 0.017562866
0.075759128 0.55948782 0.035961151
0.075743124 0.59224683 0.037102699
0.075881124 0.32438582 0.027775764
0.075719118 0.63727283 0.038671017
0.078569129 0.74138886 -0.15338802
0.076643124 0.79828686 -0.023578167
0.076271132 -0.4306162 0.0014867783
0.07623513 -0.36029512 0.0039358139
0.07647112 -0.81761211 -0.011988163
0.076147124 -0.19090718 0.009832859
0.070170119 0.080524862 0.019603729
0.070134118 0.15458184 0.022183895
0.07025212 -0.088374197 0.01372385
0.070231125 -0.044404149 0.015254974
0.069922119 0.5922668 0.037421703
0.069900125 0.63728881 0.038990021
0.069821119 0.79946786 0.044639111
0.070703119 -1.0143521 -0.018517017
0.064319119 0.11486483 0.021119118
0.06419012 0.39695382 0.030940056
0.064007118 0.79947484 0.044956684
0.064535126 -0.36014122 0.0045809746
0.064775124 -0.88666421 -0.013750076
0.06474413 -0.81740218 -0.011339188
0.064483121 -0.24582011 0.008562088
0.064431131 -0.13163513 0.012537003
0.058415126 0.27521986 0.027020931
0.058535125 -0.0072111487 0.017189026
0.058363128 0.39698482 0.031260967
0.059882123 0.70958388 -0.093050003
0.058313128 0.51586282 0.035398006
0.058685128 -0.36006516 0.004904747
0.058909122 -0.88655716 -0.013427258
0.058662128 -0.30633515 0.0067749023
0.058814127 -0.6623432 -0.0056200027
0.058613125 -0.19070917 0.010799885
0.058747124 -0.50625521 -0.00018501282
0.052567128 0.32452583 0.029056072
0.052443128 0.6373378 0.039946079
0.052538123 0.39701486 0.031580925
0.053936128 0.70962983 -0.091589928
0.052508127 0.47354683 0.034245014
0.052865122 -0.43029517 0.0027799606
0.052837122 -0.35999113 0.0052280426
0.053069126 -0.94743615 -0.01522398
0.053045128 -0.88645214 -0.013101101
0.052816126 -0.30626315 0.0070967674
0.046891127 -0.088138163 0.015010834
0.046759125 0.27529383 0.0276618
0.046861123 -0.0071041584 0.017829895
0.046655122 0.55959284 0.037558079
0.046615127 0.66871381 0.041356087
0.046580125 0.79947484 0.044755936
0.046990123 -0.3599171 0.0055499077
0.047157127 -0.8170982 -0.010365963
0.040996123 0.08076787 0.021208763
0.040946122 0.23151982 0.026455879
0.040931124 0.27533084 0.027982712
0.040905122 0.35468584 0.030744076
0.040876124 0.43944183 0.03369379
0.043159124 0.74011981 -0.20406532
0.040851127 0.51593184 0.036355972
0.040756125 0.79950184 0.0462327
0.041711126 0.83230186 -0.053250313
0.041167121 -0.43014115 0.0034251213
0.041362125 -1.0137873 -0.01689291
0.041319128 -0.88624519 -0.012453079
0.041209128 -0.55570012 -0.00094604492
0.035105124 0.27536583 0.028300762
0.035190124 -0.0070001483 0.018473148
0.035018124 0.55963284 0.038197041
0.035008125 0.59237784 0.039335728
0.035090126 0.32462686 0.030016899
0.035081126 0.35471785 0.031064034
0.034995124 0.63738483 0.040903091
0.035055123 0.43946883 0.034012794
0.035045125 0.47362185 0.03520298
0.035512123 -1.0650172 -0.018354893
0.035437126 -0.8169021 -0.0097179413
0.029377125 -0.087970197 0.015974998
0.029354125 -0.0069491863 0.018795013
0.030175123 0.70981282 -0.085750103
0.031081125 0.74019885 -0.20104313
0.029554125 -0.73655218 -0.0065999031
0.023463126 0.23163283 0.027416706
0.023422126 0.39715886 0.033176899
0.026215125 0.87183183 -0.36677122
0.023778126 -1.0647991 -0.017704964
0.023698125 -0.73646218 -0.0062770844
0.017661124 0.11522585 0.023684025
0.017653126 0.15496987 0.025067806
0.017601125 0.39718682 0.033496857
0.017592125 0.43954685 0.034973145
0.017901126 -1.0133622 -0.015594006
0.017887127 -0.94681114 -0.013277054
0.017804123 -0.55537611 0.00034475327
0.011855125 -0.006801188 0.01975584
0.011737123 0.63744485 0.042177677
0.011767127 0.47371686 0.036478996
0.011919126 -0.35949713 0.0074830055
0.012047123 -1.0645862 -0.017055988
0.011988126 -0.73628515 -0.0056290627
0.011909124 -0.30579013 0.0093517303
0.011898126 -0.24523419 0.011458874
0.011955123 -0.55529815 0.00066900253
0.011946123 -0.50562114 0.0023961067
0.0060331244 -0.087756217 0.017259121
0.005985124 0.23174083 0.028376102
0.0069601256 0.74035484 -0.19500303
0.0059481245 0.47373983 0.036798
0.0061951242 0.79836285 -0.019863129
0.0061821248 -1.0644822 -0.016731262
0.0061641242 -0.94661516 -0.012629986
0.0060671251 -0.30572718 0.0096731186
0.0061041247 -0.55522114 0.00099086761
0.00017512403 0.11535084 0.024644852
0.00019012578 -0.0067051649 0.02039814
0.00014112517 0.39726782 0.034454823
0.00053512491 0.71003783 -0.078453064
0.00093612447 0.74039388 -0.19349432
0.00029612519 -0.88556415 -0.010184288
0.00027812459 -0.73611313 -0.0049829483
0.00022612512 -0.30566412 0.0099949837
0.00026912428 -0.66147417 -0.0023860931
0.00021212548 -0.19010216 0.014017105
0.00025612488 -0.5551452 0.0013136864
-0.0056628752 0.23181087 0.029016972
-0.0056448746 0.031755865 0.022056103
-0.005692875 0.55976385 0.040427685
-0.0056708753 0.32484484 0.032253742
-0.0056998748 0.63748783 0.043131828
-0.0050968751 0.74055982 -0.18694687
-0.005382875 0.79735982 -0.077918053
-0.0056028757 -0.4295662 0.0060038567
-0.0055448748 -1.0642791 -0.016083241
-0.0055748746 -0.73603016 -0.0046610832
-0.0056298748 -0.1309461 0.016394138
-0.0055958759 -0.50540119 0.0033650398
-0.011468875 -0.043668151 0.019751072
-0.011507875 0.5925138 0.041885853
-0.011499875 0.47380683 0.037755013
-0.011426875 -0.73594719 -0.0043382645
-0.011452875 -0.30554122 0.010638714
-0.017305875 0.15520185 0.026988029
-0.017308876 0.27566582 0.031179905
-0.017300874 -0.0065671802 0.021359921
-0.017301876 0.031842828 0.022696018
-0.017319875 0.63751483 0.043768883
-0.017217875 0.71017182 -0.074077129
-0.017145876 0.74132681 -0.15659428
-0.017315876 0.47382784 0.038074017
-0.017316874 0.51614082 0.039546013
-0.017162874 0.79633886 -0.13698006
-0.017289875 -0.35917312 0.0090928078
-0.017278876 -0.73586518 -0.0040149689
-0.017293874 -0.2449401 0.013065815
-0.017296875 -0.13084215 0.017036915
-0.023131875 -0.043574154 0.020391941
-0.023131875 0.23191082 0.029974937
-0.023131875 0.35500681 0.034257889
-0.023131875 0.66886783 0.045177937
-0.023131875 0.39736986 0.035731792
-0.023131875 0.43971485 0.037204742
-0.023131875 0.74170786 -0.14151621
-0.023131875 0.47384983 0.038393021
-0.023131875 0.79582185 -0.16690588
-0.023131875 -1.0126741 -0.013325214
-0.023131875 -0.30542117 0.011282921
-0.023131875 -0.24488419 0.01338768
-0.023131875 -0.18988317 0.015303135
-0.028956875 0.081285834 0.025053978
-0.028962875 -0.087458193 0.019182682
-0.028951876 0.27572685 0.031817913
-0.028942876 0.55983281 0.041701794
-0.028941875 0.59255981 0.042841911
-0.029150875 0.79529983 -0.197083
-0.028966876 -0.24482912 0.013709068
-0.028978875 -0.61965519 0.00066995621
-0.034767874 0.32498682 0.033851147
-0.034760874 0.43975884 0.037842751
-0.034755874 0.5161978 0.040503025
-0.035223875 0.79477382 -0.22752619
-0.034813873 -0.42924112 0.0076117516
-0.034848876 -1.0124912 -0.012678146
-0.034831874 -0.73562914 -0.0030460358
-0.034805875 -0.30530614 0.01192379
-0.034798875 -0.18977815 0.015944004
-0.034795873 -0.13069314 0.017998695
-0.034820877 -0.55471414 0.0032467842
-0.040600874 0.15534484 0.02826786
-0.040618874 -0.043440163 0.021351814
-0.040560875 0.59258986 0.043478012
-0.040584877 0.32501382 0.034170151
-0.040556878 0.6375668 0.045042992
-0.040567875 0.5162158 0.040822029
-0.041350875 0.79424286 -0.25823832
-0.046809874 0.74321383 -0.081879139
-0.046486877 -0.35887522 0.010699749
-0.046571873 -1.0636163 -0.013813972
-0.046479873 -0.30519515 0.012567043
-0.046472877 -0.24466819 0.014671803
-0.046509877 -0.55458015 0.0038919449
-0.052238874 0.20196086 0.030525684
-0.052233875 0.23206782 0.031572819
-0.052226875 0.27584386 0.033095837
-0.052183874 0.55989683 0.042975903
-0.052172877 0.63759184 0.045680046
-0.052196875 0.47395083 0.039987087
-0.053769875 0.79316586 -0.32049131
-0.052333876 -0.42905718 0.0085778236
-0.052412875 -0.94571811 -0.0093941689
-0.052305877 -0.24461716 0.014992714
-0.052369878 -0.66079718 0.00051689148
-0.058079876 0.081473827 0.026653767
-0.058102876 -0.043311179 0.022314072
-0.058088876 0.032127857 0.02493906
-0.058035877 0.32509285 0.035128117
-0.057972874 0.66893584 0.047086716
-0.058014873 0.43984383 0.039116859
-0.058172874 -0.42899913 0.008898735
-0.058228876 -0.73533112 -0.0017561913
-0.058139876 -0.24456614 0.015314102
-0.058118876 -0.13050514 0.019281864
-0.058195874 -0.55445021 0.0045347214
-0.063870877 0.23212785 0.032211781
-0.063800871 0.55992782 0.043612957
-0.063818872 0.47398883 0.040624142
-0.063809872 0.51628584 0.042094707
-0.063995875 -0.35870713 0.011663914
-0.063959874 -0.1895321 0.017547131
-0.069716871 0.11579585 0.028483868
-0.069695875 0.20205283 0.031486034
-0.069687873 0.23215586 0.032531738
-0.06960088 0.59265983 0.045067787
-0.070340872 0.71056283 -0.060951233
-0.069803879 -0.2444672 0.015955925
-0.075506873 0.23218381 0.032849789
-0.075494871 0.27595186 0.034372807
-0.075417876 0.55995786 0.044249058
-0.075473875 0.35523087 0.037129879
-0.075395875 0.63763881 0.046950817
-0.075440876 0.47402585 0.041259766
-0.075811878 -0.8844822 -0.0059819221
-0.075621873 -0.18944019 0.018188
-0.075707875 -0.50462121 0.007226944
-0.081369877 0.081613839 0.027933121
-0.081310876 0.27597785 0.034691811
-0.081395879 -0.0061161518 0.02488184
-0.081384875 0.032274842 0.026216984
-0.081213877 0.59268582 0.045704842
-0.081190877 0.66897583 0.048357964
-0.081563875 0.74541885 0.005628109
-0.081237875 0.51633584 0.043049812
-0.081700876 -1.0118191 -0.010089874
-0.081641875 -0.81523412 -0.0032539368
-0.081594869 -0.66046315 0.0021290779
-0.08724688 -0.087023199 0.022387028
-0.087030873 0.55998588 0.044886112
-0.08710888 0.32521486 0.036723137
-0.087098882 0.35527587 0.037766933
-0.087058872 0.47406083 0.041897774
-0.087532878 -0.94524819 -0.0074548721
-0.087512881 -0.88433713 -0.0053391457
-0.087437868 -0.66040117 0.0024490356
-0.093028873 0.032344818 0.026856899
-0.092835873 0.55999982 0.045202732
-0.092879876 0.43996084 0.04102993
-0.092867881 0.47407785 0.04221487
-0.092851877 0.51636684 0.043685913
-0.099041879 0.78923684 -0.54737425
-0.093195871 -0.42866713 0.010827065
-0.093426868 -1.0629511 -0.011228085
-0.093361869 -0.8842662 -0.0050148964
-0.09881787 0.11595482 0.030082703
-0.09886688 -0.0060081482 0.025843143
-0.098706871 0.39765882 0.039876938
-0.098690882 0.43997884 0.04134798
-0.098608881 0.74649787 0.048533916
-0.099153876 -0.73486012 0.00049972534
-0.098983869 -0.30473918 0.015455723
-0.099124879 -0.66027814 0.0030927658
-0.099082872 -0.55403012 0.0067868233
-0.099062875 -0.50439614 0.0085129738
-0.10453488 0.35533983 0.038723946
-0.10451688 0.39767784 0.040195942
-0.10564588 0.71081585 -0.052205086
-0.10478987 -0.24419218 0.017879009
-0.10494888 -0.61881119 0.0048546791
-0.10474087 -0.13016814 0.02184391
-0.10489987 -0.50434214 0.0088348389
-0.11054687 -0.086871207 0.023666859
-0.11035888 0.32530385 0.037997723
-0.11032687 0.39769685 0.040513992
-0.11029187 0.47412783 0.043170929
-0.11099088 -1.0627263 -0.010259151
-0.11096787 -1.0114481 -0.008477211
-0.11075987 -0.55392021 0.0074300766
-0.11073688 -0.50429016 0.0091557503
-0.11628887 0.081803858 0.02985096
-0.11634888 -0.042933166 0.025514126
-0.11609788 0.47414383 0.043488979
-0.11650187 -0.35825819 0.01455307
-0.11675787 -0.88399619 -0.0037250519
-0.11672388 -0.81483811 -0.0013213158
-0.11647588 -0.30460411 0.016417027
-0.11664887 -0.66010314 0.0040578842
-0.11662887 -0.61869913 0.0054979324
-0.11659688 -0.55386716 0.0077519417
-0.12208888 0.11607182 0.031360149
-0.12206888 0.15577286 0.032740116
-0.12202887 0.23239183 0.035402775
-0.12185988 0.56006485 0.046792984
-0.12181987 0.63772285 0.04949379
-0.12180388 0.66904086 0.050581932
-0.12176387 0.74661082 0.053287029
-0.12269688 -1.0625842 -0.0096139908
-0.12260488 -0.88393313 -0.0034031868
-0.12252788 -0.73461813 0.0017867088
-0.12248987 -0.66004711 0.0043787956
-0.12224688 -0.18910414 0.020750999
-0.12799388 -0.04286617 0.026153088
-0.12777688 0.35541981 0.039998055
-0.12775387 0.39775187 0.041470051
-0.12913388 0.71098185 -0.046376228
-0.12771188 0.47417384 0.044126034
-0.12768887 0.51645386 0.045596123
-0.12820488 -0.4283722 0.012753963
-0.12852287 -1.0112422 -0.0075092316
-0.12810388 -0.24402612 0.019161701
-0.12830888 -0.61859113 0.0061397552
-0.12827288 -0.55376416 0.0083937645
-0.13370088 0.15582484 0.033378124
-0.13367388 0.20234782 0.034995079
-0.13363187 0.27618986 0.03756094
-0.13344887 0.59279287 0.048566818
-0.13358587 0.35543883 0.040316105
-0.13353688 0.44008085 0.043259144
-0.13351788 0.47418883 0.044445038
-0.13417087 -0.65993911 0.0050230026
-0.13410987 -0.55371422 0.0087151527
-0.13953987 0.11615187 0.032316685
-0.13961388 -0.0057811737 0.028079033
-0.13934287 0.44009584 0.043576717
-0.13975787 -0.24394912 0.01980114
-0.14532988 0.15587384 0.034016132
-0.14507288 0.56011188 0.048066139
-0.14505188 0.59281385 0.049201965
-0.14672287 0.71110487 -0.042004108
-0.14663488 0.74431485 -0.037175179
-0.14512688 0.47421783 0.045081139
-0.14509988 0.51649284 0.04654789
-0.14610587 -1.062319 -0.0083250999
-0.14603087 -0.94458121 -0.0042319298
-0.14594787 -0.81454521 0.00028800964
-0.15130688 -0.086634099 0.025906086
-0.15125288 -0.0057221651 0.028717041
-0.15085387 0.59282386 0.049520016
-0.15093288 0.47423184 0.045397758
-0.15153489 -0.42819721 0.014034748
-0.15192388 -1.0109901 -0.0062198639
-0.15712787 -0.086603105 0.026226044
-0.15665388 0.59283388 0.049838066
-0.15681988 0.35550982 0.041589737
-0.15662287 0.63777685 0.051399708
-0.15957087 0.74283683 -0.095470905
-0.15763588 -0.81443614 0.00093173981
-0.15749888 -0.61834317 0.0077457428
-0.15719987 -0.18888813 0.022670746
-0.16280088 0.11625183 0.033592701
-0.16277188 0.15594387 0.034973145
-0.16271688 0.23254585 0.037633896
-0.16245387 0.59284282 0.050156116
-0.16376089 0.71199381 -0.01220417
-0.16365887 -1.0621362 -0.0073580742
-0.16362187 -1.0108721 -0.0055751801
-0.16352887 -0.88352519 -0.0011501312
-0.16328888 -0.55348319 0.01031971
-0.16873588 -0.04265517 0.028389931
-0.16852687 0.23256487 0.0379529
-0.16827887 0.56015486 0.04933691
-0.16843387 0.35554284 0.042225838
-0.16819587 0.66910285 0.053122997
-0.17273188 0.74133182 -0.15477228
-0.16897488 -0.35788816 0.017435074
-0.16937287 -0.88347214 -0.00083017349
-0.16932088 -0.81433421 0.0015740395
-0.16917188 -0.61825222 0.0083880424
-0.17445588 0.082068861 0.033041
-0.17442888 0.11629784 0.034230709
-0.17458887 -0.086516201 0.027183056
-0.17449488 0.032757819 0.031327724
-0.17426388 0.32551283 0.041501045
-0.17399287 0.66910982 0.053440094
-0.17411289 0.51655281 0.048139095
-0.17485788 -0.42803711 0.01531601
-0.17521688 -0.88342112 -0.0005068779
-0.17516288 -0.81428415 0.0018959045
-0.17471288 -0.24373716 0.021719933
-0.18021187 0.15600884 0.035927773
-0.18017387 0.20251983 0.037545681
-0.18037388 -0.042601168 0.029028893
-0.18011288 0.27634484 0.040110111
-0.18034388 -0.0055881739 0.030314922
-0.17985387 0.59287083 0.05110693
-0.18007287 0.32552886 0.041819096
-0.18612789 0.73979986 -0.21512413
-0.17991588 0.51656383 0.048455715
-0.18063188 -0.35781616 0.018075943
-0.18120888 -1.0619662 -0.0063910484
-0.18044588 -0.12973017 0.026000977
-0.18075188 -0.50374621 0.01300478
-0.18605688 0.11634082 0.034870148
-0.18598388 0.20253885 0.037863731
-0.18622889 -0.086461127 0.027823925
-0.18565288 0.59287882 0.051424026
-0.18561389 0.63781583 0.052986145
-0.18580587 0.7137078 0.04513979
-0.18575288 0.47430784 0.047305107
-0.18705788 -1.0619121 -0.0060691833
-0.19189988 0.082135856 0.033998966
-0.19204788 -0.086435139 0.028141975
-0.19200988 -0.042550147 0.029666901
-0.19176787 0.23263985 0.039227962
-0.19286087 -1.0106051 -0.0039658546
-0.19280288 -0.94415015 -0.0016570091
-0.19251588 -0.61808413 0.0096707344
-0.19768287 0.11638182 0.035505772
-0.19760388 0.20257586 0.038498878
-0.19786687 -0.086409152 0.028461933
-0.19782688 -0.042526186 0.029984951
-0.19757688 0.23265684 0.039545059
-0.19717988 0.66913581 0.054708958
-0.19713888 0.71403486 0.05627203
-0.19735688 0.47432983 0.047941685
-0.19870788 -1.0105562 -0.0036449432
-0.19864687 -0.94410318 -0.0013360977
-0.19852889 -0.81410116 0.0031790733
-0.20352888 0.082176864 0.034635067
-0.20349588 0.11640185 0.035824776
-0.20338687 0.23267382 0.039864063
-0.20307888 0.56021082 0.051241875
-0.20304787 0.59290385 0.052379131
-0.20329988 0.32558984 0.043092728
-0.20323189 0.39794683 0.045604706
-0.20418687 -0.61800712 0.01031208
-0.20378287 -0.18864721 0.025228024
-0.20372789 -0.12962216 0.0272789
-0.20919588 0.23268986 0.040180683
-0.20877188 0.66914785 0.055344105
-0.20899388 0.44025585 0.047391891
-0.20872788 0.71404481 0.056910038
-0.20983587 -0.42782921 0.01723814
-0.20960388 -0.18862015 0.025547028
-0.20954688 -0.12959713 0.027596951
-0.20995788 -0.55317014 0.01288414
-0.21503387 0.20262682 0.039455891
-0.21527888 -0.042458177 0.030942917
-0.21495987 0.27643985 0.042019844
-0.21520388 0.032913864 0.033560753
-0.21467587 0.56022787 0.051877975
-0.21491088 0.32561684 0.043727875
-0.21488088 0.35565782 0.044770718
-0.21456687 0.66915381 0.055660725
-0.22776988 0.73503584 -0.40269613
-0.21559387 -0.35762519 0.019994736
-0.21611989 -0.88310021 0.0017409325
-0.21585488 -0.61793512 0.010953903
-0.22081187 0.23272085 0.040817738
-0.22105688 -0.0054291487 0.032547951
-0.22047389 0.56023586 0.052196026
-0.22214589 -1.0616241 -0.0041399002
-0.22196189 -0.88306016 0.0020627975
-0.22180788 -0.73381919 0.0072469711
-0.22130188 -0.24350613 0.024277687
-0.22124588 -0.1885702 0.026186943
-0.22156988 -0.50350112 0.015246868
-0.22687188 -0.0054091811 0.032865047
-0.22627188 0.56024283 0.052511692
-0.22615588 0.66916382 0.056294918
-0.22639889 0.44028684 0.048346043
-0.22636288 0.47438085 0.049530029
-0.22712387 -0.2434811 0.024596691
-0.22739989 -0.5034712 0.015566826
-0.23264588 0.032970846 0.034517765
-0.23195188 0.66916883 0.056612015
-0.23220187 0.44029683 0.048664093
-0.24945489 0.73255384 -0.50034809
-0.23211788 0.51664883 0.051314831
-0.23314887 -0.42771214 0.018517971
-0.23307188 -0.35754317 0.020954132
-0.23364589 -0.88298315 0.0027050972
-0.23348288 -0.73374814 0.0078887939
-0.23301388 -0.30391914 0.022815704
-0.23340188 -0.65921718 0.01047802
-0.23809688 0.35570484 0.046042919
-0.23804988 0.39801484 0.047513008
-0.23800188 0.44030684 0.048982143
-0.23796389 0.47439885 0.0501647
-0.23791687 0.51665688 0.051632881
-0.23864187 -0.12948519 0.029191971
-0.23911688 -0.55301219 0.014483929
-0.23906088 -0.50341314 0.016206741
-0.24412988 0.15620083 0.039433002
-0.24407688 0.20270085 0.041047096
-0.24404188 0.23277587 0.042091846
-0.24366488 0.56026483 0.053463936
-0.24390088 0.35571587 0.04636097
-0.24371488 0.51666385 0.051950932
-0.24445988 -0.12946516 0.029511929
-0.25002688 0.082317829 0.037184715
-0.24988388 0.20271385 0.0413661
-0.24970388 0.35572582 0.04667902
-0.24960388 0.44032383 0.049616814
-0.25085387 -0.61774713 0.01287508
-0.25583887 0.08233285 0.037503719
-0.25569287 0.20272583 0.041684151
-0.25599086 -0.042324185 0.033175945
-0.25554386 0.32569987 0.045953751
-0.25545686 0.39804387 0.048465729
-0.25682887 -0.73362416 0.0091700554
-0.26185986 -0.086181104 0.03196907
-0.26175886 -0.005305171 0.034778118
-0.26130986 0.35574484 0.047315121
-0.26284987 -0.88281721 0.0043077469
-0.26266387 -0.73359615 0.0094909668
-0.26251987 -0.6176942 0.013514042
-0.26198688 -0.18842214 0.028419971
-0.26243988 -0.55290622 0.01576376
-0.26726887 0.23282284 0.043364048
-0.26711288 0.35575384 0.047631741
-0.26671386 0.66919583 0.058520794
-0.26700488 0.44034785 0.050570011
-0.26810986 -0.42756611 0.020433903
-0.26891688 -1.0613241 -0.0015702248
-0.26868987 -0.88278717 0.0046300888
-0.26835188 -0.61766917 0.013834
-0.27338585 -0.0052761436 0.035414696
-0.27295387 0.32572782 0.046907902
-0.28318685 0.70545083 -0.2256732
-0.27270487 0.51669788 0.053542137
-0.27393585 -0.42754513 0.02075386
-0.27460885 -0.94361812 0.0028367043
-0.27418387 -0.61764616 0.014154911
-0.27362385 -0.18838722 0.02905798
-0.27898288 0.15627587 0.041341782
-0.27892086 0.20277083 0.042955875
-0.27930588 -0.086134136 0.032926083
-0.27888086 0.23284382 0.044000149
-0.27882287 0.27656883 0.045517921
-0.27839985 0.59298384 0.056511879
-0.28144285 0.63454282 -0.02269125
-0.28016987 -0.73351914 0.010449886
-0.28001487 -0.61762315 0.014474869
-0.28489286 0.082396865 0.039094925
-0.28479287 0.15628684 0.041659832
-0.28512287 -0.086121142 0.033245087
-0.28496087 0.033104837 0.037384987
-0.30849987 0.69529188 -0.56172228
-0.28638387 -1.0099971 0.0011711121
-0.28541985 -0.30373317 0.025690079
-0.29065585 0.11662287 0.040600777
-0.29053587 0.20279086 0.043593884
-0.29093787 -0.086108148 0.033563137
-0.29087687 -0.042237163 0.035087109
-0.29032186 0.35578686 0.04890871
-0.30263588 0.49802884 -0.25769091
-0.29141387 -0.4274891 0.021711826
-0.29204887 -0.88268417 0.0059108734
-0.29651287 0.082417846 0.039732933
-0.29675287 -0.086095154 0.033883095
-0.29814187 -1.0611861 3.3855438e-05
-0.29697686 -0.24325019 0.028427124
-0.29689887 -0.18832713 0.030333042
-0.29681486 -0.1293202 0.032382011
-0.30227286 0.11664182 0.041240692
-0.30221486 0.15631586 0.042619705
-0.30214787 0.20280784 0.044234753
-0.31008887 0.25819087 -0.14525318
-0.30239487 0.033137858 0.038340092
-0.30398688 -1.0611632 0.00035476685
-0.30288488 -0.30368811 0.026646137
-0.30279687 -0.2432372 0.028746128
-0.30340087 -0.6589182 0.014317989
-0.30317485 -0.50317115 0.019723892
-0.30813387 0.08243686 0.040372849
-0.30838385 -0.086073101 0.034520149
-0.32342187 0.19575685 -0.31692505
-0.32925487 0.22863781 -0.45325232
-0.30820686 0.033147812 0.038661003
-0.30956686 -0.88262218 0.0068707466
-0.30870786 -0.30367512 0.026966095
-0.30861786 -0.24322516 0.029063702
-0.30900386 -0.50315613 0.020042896
-0.32314387 0.056120813 -0.17002726
-0.31549788 -0.94345611 0.0050797462
-0.31540588 -0.88260418 0.0071907043
-0.31530085 -0.81349915 0.0095901489
-0.31443685 -0.24321312 0.029382706
-0.31506687 -0.65888518 0.014956951
-0.31426385 -0.12928611 0.033339024
-0.33609986 -0.015173137 -0.32606316
-0.32043287 -0.35726315 0.025743008
-0.32025588 -0.24320215 0.02970314
-0.32083488 -0.6174981 0.016713142
-0.32017085 -0.18828112 0.031610966
-0.34591988 -0.1059162 -0.40698195
-0.32708287 -0.88257116 0.0078320503
-0.32607487 -0.24319214 0.030025005
-0.32648486 -0.50311714 0.020999908
-0.33292085 -0.88255817 0.0081510544
-0.33837485 -0.2674852 -0.10969019
-0.33256185 -0.65884513 0.015914917
-0.33249485 -0.61747414 0.017351151
-0.33231187 -0.50310618 0.021318913
-0.33801585 -0.4273842 0.024269104
-0.34269488 -0.37660319 -0.074954033
-0.33896887 -1.0098221 0.0040540695
-0.35001686 -0.35086411 -0.23020697
-0.34489685 -1.0610452 0.0025959015
-0.34459886 -0.88253421 0.0087909698
-0.34435087 -0.7333371 0.013967991
-0.34415787 -0.61745316 0.017988682
-0.35065287 -1.0098002 0.0046949387
-0.35658386 -1.0610251 0.0032367706
-0.35627586 -0.88251513 0.0094299316
-0.35601786 -0.73332018 0.014607906
-0.36705285 -0.66917616 -0.20705986
-0.37678587 -0.64566213 -0.40257406
-0.37108386 -0.77822512 -0.16730595
-0.38237888 -0.75479311 -0.39027214
-0.36827186 -1.0610111 0.0038766861
