# .PCD v0.7 - Point Cloud Data file format
VERSION 0.7
FIELDS x y z
SIZE 4 4 4
TYPE F F F
COUNT 1 1 1
WIDTH 1
HEIGHT 1024
VIEWPOINT 0 0 0 1 0 0 0
POINTS 1024
DATA ascii
0.98944896 -0.0055101514 0.009144783
0.98349798 -0.0053911209 0.0091300011
0.99469197 -0.18648219 -0.1975379
0.98643398 -0.18380415 -0.18232489
0.99375296 -0.13105512 -0.23473406
0.97901696 -0.18210113 -0.17294693
0.97353595 -0.18271911 -0.17748404
0.97975898 -0.12887716 -0.22262001
0.94187701 -0.0045771599 0.0090332031
0.95818996 -0.23512411 -0.1544919
0.960109 -0.18096316 -0.16859484
0.92999595 -0.0043511391 0.0090060234
0.94119596 -0.23635411 -0.16394186
0.93514496 -0.23626614 -0.16423416
0.94100696 -0.12587118 -0.20846415
0.93037599 -0.18124115 -0.17427206
0.93514097 -0.12606108 -0.21046495
0.909347 -0.013782144 -0.060079098
0.90392399 0.029577851 -0.018608093
0.92475998 -0.30071914 -0.17794704
0.92418498 -0.1809901 -0.17355299
0.89852196 -0.052595139 -0.022879124
0.91587996 -0.23450613 -0.15652514
0.89077699 0.06980288 -0.0090298653
0.88785696 -0.090356112 0.01360178
0.89067298 -0.057167172 -0.054633141
0.88393897 -0.092709184 -0.0020689964
0.88672 -0.059470177 -0.070621014
0.883111 0.065577865 -0.042244911
0.89898598 -0.2359401 -0.1670351
0.87251997 0.12023884 -0.0056900978
0.88966501 -0.024990141 -0.14140511
0.86853796 -0.14715219 0.025829792
0.86842299 0.11848485 -0.02037096
0.88566101 -0.027249157 -0.15778589
0.87537301 0.061309874 -0.075771809
0.88636696 -0.23504317 -0.16341591
0.863123 -0.1476872 0.02188015
0.881639 -0.029519141 -0.17424297
0.87694997 0.013909876 -0.13659906
0.87984896 -0.23429418 -0.15987587
0.85915601 -0.15016711 0.0062570572
0.86756098 0.056996882 -0.10963011
0.87757701 -0.30192614 -0.19062185
0.85199797 0.15192986 -0.031966209
0.849841 0.19411385 -0.014391899
0.873537 -0.034094155 -0.20738316
0.86907595 0.0093278885 -0.17105198
0.86362797 0.054823875 -0.12667894
0.85116798 -0.1551621 -0.02519989
0.84807396 0.15000689 -0.048635006
0.84390098 0.19419485 -0.014408112
0.86945897 -0.036398113 -0.22406721
0.84412998 0.14807385 -0.065383911
0.86536098 -0.038712144 -0.24082422
0.86031997 -0.30309212 -0.19917202
0.85194701 -0.11194217 -0.12998199
0.83479196 0.19171584 -0.037456989
0.85444999 -0.078295112 -0.20110321
0.86074197 -0.040435195 -0.25348091
0.85712397 0.0023668408 -0.22336102
0.85463399 -0.30359519 -0.20263481
0.82696199 -0.20941818 -0.021771908
0.83571798 -0.024699152 -0.1459589
0.81428397 -0.25967014 0.035132885
0.82349896 -0.017016113 -0.093460083
0.82141697 -0.10295212 -0.075736046
0.81265897 0.23757184 -0.051974773
0.81323999 0.064764857 -0.056957245
0.80133599 -0.31094515 0.045138836
0.80679101 -0.20554411 -0.0016460419
0.80327797 0.15374887 -0.022479057
0.79966795 -0.0020651221 0.0087218285
0.79617 -0.25859213 0.03895998
0.79542798 0.12137389 -0.0058312416
0.79588801 0.15535289 -0.0098352432
0.79705 0.24116188 -0.019952774
0.79745597 0.27118784 -0.023491859
0.78950697 0.12145585 -0.0058407784
0.78885096 0.072601855 -8.1062317e-05
0.78370398 -0.31056917 0.045092106
0.78403896 0.15551084 -0.0098562241
0.78456497 0.19497085 -0.014506817
0.78518301 0.24130386 -0.019968033
0.781367 -0.04501915 0.013783932
0.78558296 0.27132386 -0.023509026
0.77782899 -0.31044614 0.045075893
0.77863801 0.19504589 -0.014515877
0.77174801 0.12170088 -0.0058698654
0.77331901 0.24144286 -0.019986153
0.77371198 0.27145785 -0.023523808
0.76608199 -0.31020212 0.045046806
0.768246 -0.14523518 0.025598049
0.76583099 0.12178087 -0.005879879
0.76678699 0.19519287 -0.01453495
0.762357 -0.14513016 0.025584221
0.763111 -0.087236166 0.018760204
0.76035398 0.15582085 -0.0098929405
0.75721699 -0.087138176 0.018746853
0.75400096 0.12193888 -0.0058989525
0.754435 0.15589589 -0.0099020004
0.75186896 -0.044540167 0.013724804
0.75242198 -0.0013221502 0.0086321831
0.75591797 0.27165389 -0.023548126
0.74851698 0.15597087 -0.009912014
0.74597096 -0.044447184 0.013713837
0.74543101 -0.086942196 0.018723965
0.73881197 -0.14471912 0.025535107
0.73954099 -0.086846113 0.018712997
0.73775697 0.24184787 -0.02003479
0.73517799 0.035449862 0.0042948723
0.73086798 -0.30949509 0.044962883
0.72704595 -0.14451814 0.025510788
0.724859 0.15626585 -0.0099468231
0.72534299 0.19568884 -0.014594078
0.72239697 -0.044081092 0.013669968
0.71977997 -0.25710213 0.038781166
0.71942598 0.19575685 -0.014603138
0.71998996 0.24204284 -0.020060062
0.71650499 -0.043991089 0.013659954
0.714432 0.27209383 -0.023602009
0.70741296 -0.3090421 0.044908047
0.69935197 -0.0005441308 0.0085368156
0.69701099 -0.19772708 0.03178215
0.69833499 -0.086193085 0.018632889
0.69490796 0.12269288 -0.0059900284
0.69295096 -0.04364109 0.013617039
0.69345897 -0.00046116114 0.0085268021
0.69113898 -0.19762719 0.031768799
0.692451 -0.086102128 0.018622875
0.68900496 0.12276387 -0.0060009956
0.68940097 0.15668786 -0.010000229
0.68706501 -0.04355514 0.013607979
0.68397397 -0.30860519 0.044855118
0.68656999 -0.086013079 0.018611908
0.68395001 0.19615585 -0.014651775
0.68253899 0.074059844 -0.0002579689
0.67804098 0.19622087 -0.014659882
0.67529696 -0.043386102 0.013586044
0.67620897 0.036257863 0.0041971207
0.67664295 0.074133873 -0.00026798248
0.672261 -0.30839312 0.044828892
0.67414796 -0.14365518 0.025406837
0.67480999 -0.085837126 0.018589973
0.67130101 0.12297589 -0.0060248375
0.67168599 0.15689087 -0.010024071
0.67213398 0.19628489 -0.014667988
0.67265898 0.24253887 -0.020120144
0.66941398 -0.043302178 0.013576031
0.67299896 0.27250785 -0.02365303
0.66640598 -0.3082881 0.044815063
0.66699797 -0.25616312 0.038669109
0.66540098 0.12304485 -0.0060348511
0.66578197 0.15695786 -0.010032177
0.66353101 -0.043220162 0.013566971
0.66442597 0.036411881 0.0041790009
0.66485196 0.074280858 -0.00028610229
0.66179895 -0.1971432 0.031712055
0.66031897 0.19640988 -0.014683247
0.65764999 -0.043138146 0.013556004
0.65853697 0.036486864 0.0041689873
0.656533 -0.14338315 0.025372982
0.654414 0.19647288 -0.014689922
0.65525597 0.27267784 -0.023674011
0.64942098 -0.25586617 0.038631916
0.65007097 -0.19695616 0.031688213
0.64807999 0.15715384 -0.010056019
0.64343101 0.27278787 -0.02368784
0.64128399 0.074566841 -0.00032091141
0.637142 -0.30777812 0.044754028
0.63591796 0.12338084 -0.0060758591
0.634597 0.00032687187 0.0084300041
0.631293 -0.30767918 0.044742107
0.63185197 -0.25557816 0.038599014
0.63367897 -0.085246086 0.018517971
0.63038397 0.15734386 -0.010078907
0.62871701 0.00040185452 0.0084218979
0.631612 0.27289689 -0.023702145
0.62599796 -0.2554841 0.038587093
0.62570399 0.27294987 -0.023707867
0.62014496 -0.25539112 0.038574219
0.61859298 0.15746689 -0.010095119
0.61650896 -0.042586088 0.01348877
0.61979598 0.27300286 -0.023714066
0.61063397 -0.042510152 0.013478756
0.609047 -0.19632816 0.031611919
0.60960001 -0.14269519 0.025289059
0.60767698 0.24316287 -0.020197868
0.60596001 0.074975848 -0.00037097931
0.60373801 -0.1426121 0.025279999
0.600568 0.12376386 -0.0061230659
0.59468001 0.12382483 -0.0061302185
0.593018 -0.042288184 0.013453007
0.593449 0.00083488226 0.008368969
0.59037 -0.30701208 0.044661045
0.58757299 0.00090485811 0.0083608627
0.58562398 -0.19598818 0.031569958
0.586155 -0.1423701 0.025249958
0.58290398 0.12394685 -0.0061450005
0.58407396 0.24337286 -0.020223141
0.578466 0.27335787 -0.023758888
0.57284397 -0.30674112 0.044628143
0.57183599 0.19727987 -0.014791012
0.56806695 -0.19574213 0.031539917
0.56913501 -0.08439517 0.018414974
0.56557101 0.15799284 -0.010159016
0.56478798 0.075420856 -0.00042486191
0.55821097 0.0012418628 0.0083189011
0.55740899 -0.084251165 0.018396854
0.55302995 0.075542867 -0.00043916702
0.55101299 -0.14190912 0.025194168
0.55154896 -0.084180117 0.018387794
0.54760098 0.12429488 -0.0061879158
0.54896998 0.27359486 -0.023787022
0.54680699 0.037787855 0.0040111542
0.54515898 -0.14183509 0.025185108
0.54171997 0.12434983 -0.0061950684
0.53649396 0.19759089 -0.014828205
0.53506196 0.037909865 0.0039949417
0.532444 -0.25410116 0.03841877
0.53060699 0.19764084 -0.014834881
0.52848697 -0.041530132 0.01335907
0.52952701 0.075776875 -0.00046920776
0.52030897 -0.30597818 0.04453516
0.51676494 -0.041402102 0.013343811
0.51589894 -0.14147711 0.025142193
0.50908798 -0.25379312 0.038382053
0.50644696 0.12467188 -0.006234169
0.50673294 0.15851986 -0.010223866
0.50706494 0.19783485 -0.0148592
0.505045 -0.04127717 0.013328075
0.50280994 -0.30574119 0.044507027
0.50057095 0.12472284 -0.0062398911
0.50085396 0.15856886 -0.010230064
0.49918595 -0.041215181 0.013320923
0.49697894 -0.30566418 0.044497013
0.49741295 -0.25364411 0.03836298
0.49883294 -0.083577156 0.018314838
0.49398395 0.038315833 0.0039448738
0.49114895 -0.30558813 0.044487
0.49206194 -0.19476914 0.031423092
0.49250394 -0.1412071 0.025107861
0.49297896 -0.083514094 0.018307209
0.48882195 0.12482387 -0.006251812
0.48909795 0.15866584 -0.010242939
0.48979294 0.24412686 -0.020318031
0.48782197 0.0019778609 0.0082287788
0.48353595 0.19801885 -0.014882088
0.47948995 -0.30543816 0.04446888
0.48081094 -0.14107609 0.025092125
0.47407296 -0.25335717 0.038328171
0.47496396 -0.14101219 0.025084019
0.47542197 -0.083329082 0.018284798
0.47120196 0.12496984 -0.0062718391
0.47023997 0.0021448731 0.0082068443
0.47236994 0.27415186 -0.023857117
0.46532995 0.12501788 -0.0062770844
0.46404895 -0.04086411 0.013278008
0.46648297 0.27419084 -0.023861885
0.46495396 0.076366842 -0.00054121017
0.45880094 0.03863585 0.0039057732
0.45657596 -0.25315213 0.038301945
0.45743194 -0.14082515 0.025062084
0.45413697 0.19823587 -0.014908791
0.45470896 0.27426785 -0.023871899
0.45035195 -0.30508113 0.044425011
0.45074394 -0.25308514 0.038293839
0.44825995 0.19827688 -0.014914989
0.44882396 0.27430588 -0.023877144
0.44534895 -0.19424319 0.031357765
0.44574594 -0.14070511 0.025046825
0.44209597 0.15902787 -0.010288239
0.44121695 0.038786888 0.0038871765
0.43650794 0.19835883 -0.014924049
0.43478495 -0.040591121 0.013245106
0.43705595 0.27437884 -0.023886204
0.43562996 0.076607883 -0.00057077408
0.43035296 0.15911287 -0.010297775
0.42949894 0.038883865 0.0038747787
0.42308295 -0.04048717 0.013231754
0.41919994 0.24460083 -0.020377159
0.41723296 -0.040437102 0.013225079
0.41804194 0.076743841 -0.00058794022
0.41654396 -0.14041817 0.025012016
0.41218096 0.076788843 -0.0005941391
0.40994194 -0.25264418 0.038239956
0.41034096 -0.19388616 0.031313896
0.40664595 0.12545788 -0.0063319206
0.40553597 -0.040338159 0.013213158
0.40582395 0.0027028918 0.0081400871
0.40606797 0.039068878 0.0038509369
0.40525296 -0.082663178 0.018201828
0.40077996 0.12549788 -0.0063381195
0.40126196 0.19858986 -0.01495409
0.40021095 0.039113879 0.0038461685
0.39902794 -0.14025617 0.024991989
0.39588296 0.27462089 -0.023916245
0.39246294 -0.25246811 0.038218975
0.39284396 -0.19371915 0.031292915
0.38701394 -0.19366515 0.031285763
0.38241795 0.0028838515 0.0081171989
0.38151994 -0.14010215 0.024971962
0.37753496 0.15946287 -0.010343075
0.37702596 0.077039838 -0.00062513351
0.37466994 -0.30426514 0.044323921
0.37499094 -0.2523011 0.038197994
0.37568495 -0.14005208 0.024965763
0.36952296 -0.19350815 0.031267166
0.37019795 -0.082372189 0.018166065
0.36486796 0.003012836 0.0081009865
0.36508495 0.039366841 0.0038142204
0.35876694 -0.039971113 0.013166904
0.35901996 0.003053844 0.0080938339
0.35923296 0.039406836 0.0038089752
0.35818094 -0.13990712 0.024949074
0.35851896 -0.082281113 0.018154144
0.35429996 0.19886589 -0.014987946
0.35338095 0.039445877 0.0038042068
0.35359895 0.077193856 -0.00064516068
0.35234696 -0.13986111 0.024941921
0.34620994 -0.1933111 0.031241894
0.34123695 -0.039847136 0.013151169
0.34147596 0.0031738877 0.0080800056
0.34298596 0.27489287 -0.023952007
0.34188795 0.077266872 -0.00065422058
0.34005696 -0.25199115 0.038159847
0.34038395 -0.19326413 0.031237125
0.34068096 -0.13977015 0.024930954
0.33669695 0.19895989 -0.014999866
0.33694896 0.24505484 -0.020433903
0.33539495 -0.039806128 0.013146877
0.33395395 -0.30389214 0.044277191
0.33455697 -0.19321811 0.031230927
0.33062094 0.15973389 -0.010375977
0.33107796 0.24508286 -0.02043581
0.32978296 0.0032498837 0.0080699921
0.32475895 0.15976489 -0.010381222
0.32496494 0.19901884 -0.015007973
0.32232496 -0.30379415 0.044267178
0.32259795 -0.25184917 0.038142204
0.32290596 -0.19312918 0.031219959
0.31707996 -0.19308519 0.03121376
0.31765196 -0.081989169 0.018117905
0.31346595 0.24516487 -0.020449162
0.31242996 0.039699852 0.0037732124
0.31125596 -0.19304216 0.031208992
0.30488494 -0.30365419 0.044248104
0.30514196 -0.25171411 0.038125038
0.30034995 -0.03958118 0.01311779
0.30073395 0.039766848 0.0037641525
0.29986694 -0.13947916 0.024895191
0.29488495 0.039798856 0.003759861
0.29430896 -0.081839085 0.018098831
0.28886995 0.0034938455 0.0080399513
0.29012796 0.27512383 -0.023981094
0.28744796 -0.30352211 0.044232845
0.28847495 -0.081803083 0.018095016
0.28412196 0.24528986 -0.020463943
0.28425795 0.27514684 -0.023984909
0.28336295 0.077591836 -0.00069522858
0.27825496 0.24531388 -0.020468235
0.27605596 -0.25150812 0.038099766
0.27218896 0.19925886 -0.015038967
0.27251697 0.27519089 -0.023990154
0.27166295 0.077648878 -0.00070285797
0.27001595 -0.30339909 0.04421711
0.27097496 -0.081701159 0.018081188
0.26420495 -0.30336118 0.044209957
0.26442397 -0.25143313 0.038089752
0.26467195 -0.1927321 0.031170845
0.26016396 0.12628186 -0.0064368248
0.25490797 0.27525383 -0.023997784
0.25411496 0.077729881 -0.00071287155
0.25324497 -0.13919616 0.024858952
0.24845697 0.12633085 -0.00644207
0.24892297 0.24542284 -0.020482063
0.24780996 -0.039295197 0.013081074
0.24741897 -0.13916516 0.024854183
0.24197197 -0.039266109 0.013078213
0.24241796 0.077779889 -0.00072002411
0.23656997 0.07780385 -0.00072288513
0.23132697 0.24548185 -0.020489216
0.22935097 -0.30314612 0.044184208
0.22953796 -0.25122714 0.038063049
0.22974896 -0.19253612 0.031146049
0.23014897 -0.081491113 0.018054962
0.22474396 0.040130854 0.0037169456
0.22372496 -0.25119519 0.038058758
0.22411796 -0.13904619 0.024839878
0.21919496 0.12644285 -0.006456852
0.21930897 0.16021985 -0.010438919
0.21877797 0.0038288832 0.0079960823
0.21279697 -0.039137125 0.013062
0.21246797 -0.13899219 0.024831772
0.20749097 0.12648284 -0.0064640045
0.20759897 0.16025889 -0.010445118
0.20696297 -0.039114118 0.013058186
0.20709997 0.0038748384 0.0079898834
0.20796597 0.27539885 -0.024017811
0.20721596 0.040197849 0.0037088394
0.20612097 -0.30302119 0.044167995
0.20065597 -0.19239616 0.031126976
0.20099896 -0.081364155 0.018039227
0.19600797 0.19952387 -0.015073776
0.19614497 0.24558586 -0.020503044
0.19466297 -0.25105309 0.038041115
0.19028097 0.24560088 -0.020505905
0.19036697 0.27544385 -0.02402401
0.18979797 0.077973843 -0.00074577332
0.18884997 -0.25102711 0.038036823
0.18917297 -0.13889313 0.024818897
0.18395297 0.077991843 -0.00074720383
0.17843397 0.19957083 -0.015080929
0.17855696 0.24562985 -0.02051115
0.17863697 0.27547187 -0.024026871
0.17708896 -0.30288708 0.044149876
0.17768197 -0.081277132 0.018026829
0.17247596 0.16035986 -0.010458946
0.17277198 0.27548486 -0.024030209
0.17185397 -0.081257105 0.018024921
0.16653897 0.12660289 -0.0064787865
0.16662297 0.16037387 -0.010460854
0.16575196 -0.19225609 0.031107903
0.15967296 -0.30281818 0.0441432
0.15979497 -0.25091219 0.038023949
0.15993397 -0.19223619 0.031105995
0.15491597 0.16040188 -0.010464191
0.15456197 0.0040458441 0.0079679489
0.15517697 0.27552187 -0.024034977
0.15436897 -0.081202149 0.018015862
0.14906396 0.16041487 -0.010467052
0.14924796 0.24569285 -0.02051878
0.14817597 -0.25087214 0.038018227
0.14314297 0.12665784 -0.0064868927
0.14329296 0.19964987 -0.015090942
0.14288996 0.0040758848 0.0079641342
0.14304297 0.07810086 -0.00076198578
0.14271496 -0.081169128 0.018013
0.13729297 0.12667084 -0.0064888
0.13743496 0.19966084 -0.01509285
0.13666897 -0.19216418 0.031095982
0.13144496 0.12668186 -0.0064902306
0.13157997 0.19967186 -0.015093803
0.13166496 0.24572486 -0.020524025
0.13113797 -0.038875103 0.013025761
0.13121797 0.0041038394 0.0079598427
0.13064897 -0.3027221 0.044128895
0.13074496 -0.25081909 0.038011074
0.12559697 0.12669289 -0.0064921379
0.12565596 0.16046089 -0.010472775
0.12585697 0.27557188 -0.024043083
0.12484596 -0.30270517 0.044126987
0.12503897 -0.19213319 0.031092167
0.11986896 0.19969088 -0.015097141
0.11904196 -0.30269015 0.04412508
0.11390096 0.12671286 -0.0064949989
0.11395296 0.16047984 -0.010476112
0.11401396 0.19969988 -0.015100002
0.11364496 -0.038838148 0.013020992
0.10805196 0.12672186 -0.0064969063
0.10809996 0.16048884 -0.010476112
0.10781296 -0.038828135 0.013019085
0.10798196 0.078167856 -0.00077295303
0.10203996 0.0041588545 0.0079507828
0.10184896 -0.13864112 0.024785995
0.096152961 -0.038808107 0.013016224
0.096540958 0.27560884 -0.024048805
0.09624996 0.040479839 0.0036702156
0.095826961 -0.3026371 0.044116974
0.095890962 -0.25073814 0.038000107
0.096099958 -0.081070185 0.017998219
0.090370961 0.0041758418 0.0079479218
0.090454958 0.07819289 -0.00077581406
0.090023957 -0.30262613 0.04411602
0.090148963 -0.19206119 0.031083107
0.09027496 -0.081061125 0.017996788
0.084784962 0.24578488 -0.020534992
0.084220961 -0.30261719 0.044114113
0.084389962 -0.1386131 0.024782181
0.078923963 0.24578989 -0.020534992
0.078699961 0.0041908622 0.0079469681
0.078733966 0.040500879 0.0036668777
0.078768961 0.078205884 -0.00077915192
0.078463964 -0.25071013 0.037994862
0.073064961 0.24579388 -0.020534992
0.07283096 -0.038778186 0.013011932
0.072865963 0.0041968822 0.0079469681
0.072612964 -0.30260015 0.044112206
0.067119963 0.12676787 -0.0065040588
0.06121996 0.040516853 0.0036621094
0.061007962 -0.30258715 0.044109821
0.061108962 -0.13858712 0.024776936
0.061144963 -0.081028104 0.017992973
0.055500962 0.27563989 -0.02405405
0.055399962 0.078224838 -0.00078201294
0.049626961 0.24580687 -0.020537853
0.04952696 0.0042138696 0.0079421997
0.043753963 0.19976187 -0.015110016
0.043767963 0.24580884 -0.020537853
0.043632962 -0.19201314 0.031075001
0.032040961 0.16054684 -0.010488033
0.032049961 0.24581087 -0.020538807
0.032052964 0.27564585 -0.024055958
0.032028962 0.040528834 0.0036611557
0.032032963 0.078232884 -0.00078392029
0.031998962 -0.25067413 0.03798914
0.032004964 -0.19201016 0.031073093
0.026188962 0.12678283 -0.0065069199
0.026188962 0.24581087 -0.020540237
0.026188962 0.040528834 0.0036611557
0.026188962 0.078232884 -0.00078392029
0.026188962 -0.081014156 0.017988205
0.020342963 0.12678283 -0.0065088272
0.020338962 0.16054684 -0.010488033
0.020347962 0.078232884 -0.00078392029
0.014488962 0.16054589 -0.010488033
0.014480962 0.19976288 -0.015111923
0.0086489618 0.12677985 -0.0065088272
0.0086389631 0.16054386 -0.010488987
0.0087479632 -0.19201314 0.03107214
0.0027709622 0.19975889 -0.015111923
0.0028509628 0.0042128563 0.0079388618
0.002820963 0.078227878 -0.00078392029
-0.0089130383 0.16053587 -0.010488033
-0.0087900367 -0.038769126 0.01300621
-0.008985037 0.27563685 -0.024056911
-0.0088390391 0.04051584 0.0036587715
-0.0088630375 0.078220844 -0.00078392029
-0.0086960364 -0.19202518 0.031073093
-0.014620038 -0.038773179 0.013007164
-0.014590038 -0.081034184 0.017990112
-0.020614037 0.16052788 -0.010488033
-0.020546036 0.07821089 -0.00078487396
-0.020324038 -0.19203711 0.031074047
-0.026282037 -0.038786173 0.013007164
-0.026038038 -0.30260909 0.044107914
-0.026140036 -0.19204509 0.031075001
-0.026189039 -0.13860619 0.024774075
-0.032156035 0.0041828752 0.0079421997
-0.031894036 -0.25072014 0.037991047
-0.032009035 -0.13861418 0.024775028
-0.037702039 -0.25072908 0.037992001
-0.03789404 -0.081062078 0.017991066
-0.044018038 0.16050285 -0.01048708
-0.043825038 0.0041668415 0.0079441071
-0.044160038 0.27560884 -0.024055004
-0.043917038 0.078184843 -0.00078201294
-0.04364904 -0.13863218 0.024775982
-0.049871042 0.16049588 -0.010485172
-0.049251042 -0.30265009 0.044112206
-0.055497043 0.0041478872 0.0079450607
-0.05554904 0.040460885 0.0036649704
-0.055603042 0.078166842 -0.00078201294
-0.05521404 -0.19209516 0.031077862
-0.061750039 0.27558786 -0.024055004
-0.061200038 -0.081103086 0.017993927
-0.06709604 -0.038851142 0.01301384
-0.066662036 -0.30269217 0.04411602
-0.06674704 -0.25079012 0.037998199
-0.073216036 0.12669188 -0.0065011978
-0.072927043 -0.038864136 0.013014793
-0.072853036 -0.08112812 0.017995834
-0.079128042 0.16044885 -0.010481834
-0.079201043 0.19967085 -0.015106201
-0.079342037 0.27556187 -0.024052143
-0.090762042 0.12665689 -0.0064988136
-0.089986041 -0.25085616 0.038003922
-0.10246103 0.12662989 -0.0064959526
-0.10273104 0.24567986 -0.020530224
-0.10235103 0.078071833 -0.00077199936
-0.10160703 -0.25089419 0.038006783
-0.11415904 0.12660086 -0.0064940453
-0.11434004 0.19959784 -0.015098095
-0.12009504 0.16035783 -0.010471821
-0.12031504 0.24564189 -0.020525932
-0.11890405 -0.3028661 0.044133186
-0.12594903 0.16034287 -0.010470867
-0.12605304 0.19956887 -0.015097141
-0.12572803 0.078007877 -0.00076580048
-0.12470903 -0.30289018 0.044136047
-0.12530203 -0.081279159 0.018012047
-0.13170904 0.12655288 -0.0064878464
-0.13180304 0.16032684 -0.01046896
-0.13212304 0.27545685 -0.02404213
-0.13066103 -0.25100517 0.03801918
-0.13097203 -0.13887417 0.024799824
-0.13790303 0.24559885 -0.020522118
-0.13708203 -0.039050102 0.013032913
-0.14304402 0.0039158463 0.0079669952
-0.14926003 0.12649888 -0.0064840317
-0.14827603 -0.19239914 0.031107903
-0.15511303 0.12647986 -0.0064821243
-0.15558803 0.27539688 -0.024035931
-0.15445003 -0.081391096 0.018023968
-0.16068003 0.040173888 0.0036931038
-0.15954903 -0.30305517 0.044154167
-0.17266703 0.12641889 -0.0064740181
-0.17134503 -0.25119913 0.038040161
-0.17878103 0.19941086 -0.015079975
-0.18437204 0.12637484 -0.0064711571
-0.18449703 0.16015488 -0.010453224
-0.18464303 0.19939089 -0.015078068
-0.18481304 0.24545985 -0.020510197
-0.18391803 0.003751874 0.0079851151
-0.18405303 0.040078878 0.0037031174
-0.18419203 0.077801883 -0.00074386597
-0.18297303 -0.25126219 0.038045883
-0.18360204 -0.081522107 0.018036842
-0.18975803 0.0037258863 0.0079879761
-0.18989603 0.040053844 0.0037050247
-0.19004004 0.077776849 -0.00074100494
-0.18878703 -0.25129616 0.038050175
-0.18943304 -0.081551194 0.01804018
-0.20173603 0.077726841 -0.00073623657
-0.20109603 -0.081610084 0.018046856
-0.20778604 0.12627888 -0.0064611435
-0.20808603 0.19930387 -0.015068054
-0.20647304 -0.1927011 0.031143188
-0.21327503 0.039945841 0.0037169456
-0.21877803 -0.039418101 0.013072014
-0.21896403 0.0035838485 0.0080018044
-0.22013803 0.27518886 -0.02401495
-0.21811503 -0.19277215 0.031148911
-0.22587602 0.24531084 -0.020493031
-0.22461502 -0.039450169 0.013074875
-0.23120303 0.12617385 -0.0064501762
-0.23026203 -0.081772089 0.018064976
-0.23706003 0.12614584 -0.0064468384
-0.23629303 -0.039516091 0.013082981
-0.23507003 -0.30352712 0.044206142
-0.24291603 0.12611687 -0.0064430237
-0.24140604 -0.19292414 0.03116703
-0.24893604 0.15987986 -0.010423183
-0.24835505 0.039762855 0.0037369728
-0.24722902 -0.1929642 0.031170845
-0.24748804 -0.13948417 0.024866104
-0.24776603 -0.081879139 0.018075943
-0.25250605 -0.30366015 0.044219971
-0.26108804 0.24516189 -0.020478249
-0.25986904 0.0033538342 0.0080270767
-0.26123905 0.27502388 -0.02399683
-0.25887805 -0.19304812 0.031179905
-0.25914806 -0.13956308 0.024875164
-0.26634505 0.12599587 -0.0064301491
-0.26672104 0.19904488 -0.015040874
-0.26549205 -0.039695144 0.013102055
-0.26609504 0.077400863 -0.00069999695
-0.26527405 -0.081993103 0.018088818
-0.27282804 0.24510789 -0.02047205
-0.27111104 -0.082033157 0.018093109
-0.27845204 0.19898587 -0.015035152
-0.27717406 -0.039772153 0.013110161
-0.27740404 0.0032448769 0.0080399513
-0.27885905 0.27494484 -0.023990154
-0.27603805 -0.25190115 0.038115978
-0.28325003 0.0032078624 0.008043766
-0.28247005 -0.13973212 0.024893761
-0.28978005 0.12586486 -0.006415844
-0.29018706 0.19892484 -0.015028
-0.28909805 0.0031688809 0.0080490112
-0.29060906 0.27488989 -0.023983955
-0.28739104 -0.30394912 0.044251919
-0.28768006 -0.25199711 0.038126945
-0.28800604 -0.19327009 0.031205177
-0.29564005 0.12583089 -0.0064120293
-0.29470205 -0.039892197 0.013123989
-0.29515105 0.039479852 0.0037670135
-0.29446205 -0.082199097 0.018112183
-0.30192205 0.19886184 -0.015021801
-0.30079305 0.0030898452 0.0080580711
-0.30664104 0.0030488372 0.0080609322
-0.30685404 0.039402843 0.0037760735
-0.30483806 -0.30410612 0.044270039
-0.30514306 -0.25214815 0.038145065
-0.31366006 0.19879586 -0.015015125
-0.31393504 0.24490088 -0.020450115
-0.31065705 -0.30416119 0.044274807
-0.31908506 0.12568688 -0.0063958168
-0.31807804 -0.040064096 0.013143063
-0.31856105 0.03932184 0.0037851334
-0.31678906 -0.25225413 0.038156986
-0.31714603 -0.19351411 0.03123188
-0.31747106 -0.14000916 0.024923801
-0.31782106 -0.082377195 0.018130779
-0.32539904 0.19872886 -0.015007019
-0.32880506 -0.19361818 0.031243801
-0.32914105 -0.14010811 0.024936199
-0.32950306 -0.082471132 0.018142223
-0.33667305 0.12557286 -0.0063838959
-0.33688906 0.15938485 -0.010369778
-0.33714005 0.19865787 -0.014998913
-0.33762506 0.27464885 -0.023956776
-0.33426005 -0.25241816 0.038175106
-0.34253904 0.12553388 -0.0063791275
-0.34197804 0.039152861 0.0038027763
-0.33974904 -0.30444717 0.044306755
-0.34008604 -0.25247514 0.038181782
-0.34888506 0.19858587 -0.014992237
-0.34665206 -0.14026308 0.024952888
-0.34703106 -0.082618117 0.018157959
-0.35449404 0.15926987 -0.010356903
-0.35344604 0.002697885 0.0081009865
-0.35248905 -0.14031613 0.024959087
-0.36013305 0.12541187 -0.0063657761
-0.36094403 0.24463284 -0.020420074
-0.35900605 -0.040393114 0.013179779
-0.35980305 0.076782882 -0.00063323975
-0.35832706 -0.14037013 0.024964809
-0.35871905 -0.08272016 0.018168926
-0.36599904 0.12536985 -0.0063610077
-0.36650404 0.19847286 -0.014977932
-0.37186804 0.12532687 -0.006357193
-0.36885604 -0.30475712 0.044342995
-0.37655604 -0.040545106 0.013195992
-0.37625605 -0.082879186 0.018187046
-0.38360304 0.12524086 -0.0063462257
-0.38446206 0.24448586 -0.020403862
-0.38271704 0.0024538636 0.0081281662
-0.38130003 -0.19412816 0.031301975
-0.39000604 0.19831383 -0.014962196
-0.38632506 -0.30495417 0.044364929
-0.38713506 -0.19418919 0.031309128
-0.39411205 -0.040704131 0.013214111
-0.39443105 0.0023518801 0.0081400871
-0.39297304 -0.19425118 0.031313896
-0.40121105 0.12510484 -0.0063328743
-0.40233305 0.27426386 -0.023914814
-0.39921203 -0.1407721 0.025011063
-0.40734005 0.15889186 -0.010314941
-0.40799105 0.24432987 -0.020386219
-0.40671104 0.076409876 -0.00059080124
-0.40380204 -0.30516016 0.044387817
-0.40505505 -0.14083314 0.025018215
-0.40549505 -0.083159089 0.018218994
-0.41048506 -0.19444215 0.031335831
-0.41134405 -0.083217144 0.018226147
-0.41786304 0.0021388531 0.0081629753
-0.41814804 0.038525879 0.0038738251
-0.41844305 0.07630986 -0.00057983398
-0.41586304 -0.25329614 0.038272858
-0.41632304 -0.19450712 0.031342983
-0.42564505 0.24420685 -0.020372868
-0.42128503 -0.30537415 0.044414043
-0.43084306 0.15870786 -0.010293007
-0.42958406 0.0020268559 0.0081748962
-0.42987606 0.038418889 0.0038847923
-0.42711306 -0.3054471 0.04442215
-0.42753103 -0.25343609 0.038290024
-0.43672004 0.15865988 -0.010290146
-0.43741605 0.24412185 -0.020363808
-0.43574104 0.038363874 0.0038919449
-0.43294203 -0.30552208 0.044429779
-0.43336505 -0.25350714 0.03829813
-0.43428004 -0.14114916 0.025053978
-0.44231904 0.12476784 -0.0062937737
-0.44819605 0.12471688 -0.0062890053
-0.44460404 -0.30567312 0.044446945
-0.44597605 -0.14128113 0.025066853
-0.45407206 0.12466586 -0.0062818527
-0.45508003 0.24399084 -0.020349026
-0.45266905 -0.041284084 0.013278961
-0.45303306 0.0017968416 0.0082011223
-0.45087406 -0.25372708 0.038322926
-0.45182404 -0.1413492 0.025074959
-0.46122503 0.27385789 -0.023869991
-0.45953205 0.07593888 -0.00053977966
-0.46611804 0.15841287 -0.010262012
-0.46305805 -0.19506109 0.031406879
-0.47094604 0.038022876 0.0039300919
-0.46838805 -0.25395513 0.038349152
-0.47890702 0.27372688 -0.023855209
-0.47522506 -0.14162612 0.025106907
-0.48376706 0.15825784 -0.010244846
-0.48411903 0.19758487 -0.01488018
-0.48236105 0.0014918447 0.0082349777
-0.48107705 -0.14169812 0.025115013
-0.48159406 -0.083980083 0.018311977
-0.48783705 -0.04166913 0.01332283
-0.48745307 -0.084049106 0.01831913
-0.49522403 0.12428784 -0.0062408447
-0.49553505 0.15815085 -0.010231972
-0.49409702 0.0013648868 0.0082497597
-0.49659404 0.27358985 -0.023839951
-0.49477807 0.075594842 -0.00050115585
-0.50221503 0.24361783 -0.020308018
-0.500305 0.037717879 0.003964901
-0.49814102 -0.19551408 0.031457901
-0.49863806 -0.14191818 0.025140762
-0.50730801 0.15804183 -0.010221004
-0.50583702 0.001234889 0.0082650185
-0.50653303 0.075474858 -0.00048780441
-0.51287401 0.12411684 -0.0062222481
-0.51129901 -0.041940093 0.013353825
-0.51205301 0.037591875 0.0039777756
-0.51241201 0.075413883 -0.00048017502
-0.50928199 -0.25451815 0.038413048
-0.51034904 -0.14206815 0.025157928
-0.52019 0.27340084 -0.02381897
-0.515127 -0.25460315 0.038422108
-0.51620501 -0.14214516 0.025165081
-0.53124702 0.19716483 -0.014833927
-0.53170002 0.24336684 -0.020279884
-0.52890301 -0.042152166 0.01337719
-0.52932602 0.00096583366 0.0082950592
-0.52682 -0.25477409 0.038442135
-0.532152 -0.30693209 0.044589996
-0.53266799 -0.25486112 0.038452148
-0.53325003 -0.19599819 0.031514168
-0.54230404 0.12381786 -0.0061879158
-0.54264301 0.15769988 -0.01018095
-0.54107404 0.00082683563 0.0083107948
-0.53799504 -0.30702412 0.04460001
-0.54695004 0.00075685978 0.0083189011
-0.54383802 -0.30711615 0.044610977
-0.54495901 -0.19616616 0.031534195
-0.55560899 0.27310085 -0.023787022
-0.55195403 -0.084856153 0.01841116
-0.559973 0.12363088 -0.006166935
-0.56151402 0.27304888 -0.023779869
-0.55908102 0.037057877 0.0040388107
-0.55722702 -0.14270413 0.025228977
-0.57175601 0.12350386 -0.006152153
-0.57211304 0.15739787 -0.010148048
-0.57301301 0.24299288 -0.020237923
-0.57084501 0.036916852 0.0040559769
-0.567222 -0.30749619 0.044654846
-0.56956202 -0.085093141 0.018437862
-0.57800901 0.15733588 -0.010139942
-0.57424903 -0.19660211 0.031581879
-0.57543302 -0.085174084 0.018446922
-0.58261502 0.036772847 0.0040707588
-0.58302104 0.07462889 -0.00039100647
-0.58943903 0.12330788 -0.0061302185
-0.59105802 0.27278185 -0.023749828
-0.58850104 0.036700845 0.0040798187
-0.58597201 -0.19678319 0.031601906
-0.58717901 -0.085338116 0.018465996
-0.596641 0.24276686 -0.020212173
-0.59398901 0.00016587973 0.0083861351
-0.59438699 0.036626875 0.004087925
-0.59939504 -0.043066144 0.013482094
-0.59987199 8.9883804e-05 0.0083961487
-0.59769702 -0.19696712 0.031624794
-0.60290599 -0.25597608 0.038579941
-0.61385202 0.19633985 -0.01473999
-0.61437303 0.24259186 -0.020192146
-0.61115801 -0.043230176 0.013501167
-0.61471003 0.27255887 -0.023725986
-0.60876399 -0.25607514 0.038591862
-0.610681 -0.085674167 0.018504143
-0.61704004 -0.043312192 0.013511181
-0.61590201 -0.14357519 0.025328159
-0.62426901 0.074124873 -0.00033378601
-0.62930602 -0.00030714273 0.0084400177
-0.62764704 -0.14375913 0.025351048
-0.63702804 0.15667987 -0.010066032
-0.63748801 0.19608384 -0.014711857
-0.64057904 -0.043651104 0.013548851
-0.638767 -0.19763911 0.031702042
-0.64007902 -0.086113095 0.018554211
-0.646465 -0.043738127 0.013558865
-0.65021604 0.27220786 -0.023684978
-0.65434504 0.12253785 -0.0060429573
-0.65287 -0.00063711405 0.0084781647
-0.65613699 0.27214783 -0.023677826
-0.66066301 0.15640086 -0.010035038
-0.657731 -0.086386085 0.018585205
-0.667983 0.27202588 -0.023665905
-0.66090304 -0.3091681 0.044847965
-0.66225702 -0.19804311 0.031746864
-0.67206901 0.12231487 -0.0060172081
-0.67248601 0.15625685 -0.010016918
-0.67002404 -0.044091105 0.013599873
-0.670555 -0.000893116 0.0085067749
-0.671004 0.035607874 0.0042052269
-0.66740704 -0.25711513 0.038711071
-0.66879201 -0.14443016 0.025426865
-0.67737401 0.073429883 -0.00025510788
-0.67539001 -0.086666107 0.018619061
-0.682805 0.035439849 0.0042238235
-0.67914701 -0.25733411 0.03873682
-0.68055505 -0.14463019 0.025449753
-0.68980199 0.12208587 -0.0059900284
-0.69023001 0.15603685 -0.0099930763
-0.691688 0.27177489 -0.023636818
-0.69571501 0.12200785 -0.0059819221
-0.70354503 0.27164686 -0.023622036
-0.69609904 -0.30985916 0.04492712
-0.69821101 -0.14493513 0.025485992
-0.70754302 0.12185085 -0.0059652328
-0.70908904 0.24157286 -0.020077229
-0.70947599 0.27158189 -0.023614883
-0.70691299 0.073018849 -0.00020694733
-0.70340401 -0.19878316 0.031832218
-0.71597803 0.31522584 -0.028759956
-0.712825 0.072934866 -0.00019788742
-0.71776003 -0.0016061664 0.0085878372
-0.71823901 0.034920871 0.0042829514
-0.726879 0.24136585 -0.020053864
-0.72414804 0.034830868 0.0042920113
-0.731668 0.15550184 -0.0099329948
-0.73219401 0.19496185 -0.014584064
-0.73281103 0.24129587 -0.020046234
-0.72899503 -0.045030117 0.013708115
-0.73321104 0.27131587 -0.023585796
-0.72615403 -0.25824916 0.038842201
-0.72765702 -0.14546108 0.02554512
-0.72842902 -0.087550163 0.018719196
-0.73973501 0.31497586 -0.028730869
-0.73282701 -0.19933808 0.031897068
-0.73432702 -0.087652087 0.018732071
-0.74351799 0.15534389 -0.0099139214
-0.74080402 -0.045228124 0.013729095
-0.74188399 0.034559846 0.0043230057
-0.74944502 0.15526384 -0.0099039078
-0.75102502 0.27111083 -0.023561954
-0.744605 -0.19956708 0.031922817
-0.74533904 -0.14578712 0.025584221
-0.74612904 -0.087859154 0.018754005
-0.75696504 0.27104187 -0.023552895
-0.75423402 0.072326839 -0.00012922287
-0.74896604 -0.31096113 0.045053959
-0.76083004 0.12111187 -0.0058789253
-0.76249003 0.24093688 -0.020005226
-0.760153 0.072236836 -0.00011777878
-0.76607603 0.072146833 -0.00010681152
-0.76303101 -0.14612019 0.025621891
-0.77316302 0.15493685 -0.009868145
-0.77479303 0.27083087 -0.023530006
-0.77199799 0.072055876 -9.8228455e-05
-0.77909601 0.15485388 -0.0098581314
-0.776254 -0.045838118 0.013800144
-0.77686703 -0.0025651455 0.0086979866
-0.774068 -0.20015311 0.031991005
-0.77483004 -0.14634717 0.025648117
-0.77565104 -0.088390112 0.018815041
-0.78559303 0.19426489 -0.01450491
-0.77912199 -0.25934815 0.03896904
-0.78501302 -0.25947511 0.038982868
-0.79015005 -0.31187212 0.045159817
-0.80234301 0.12049985 -0.0058097839
-0.80107599 0.033608854 0.0044331551
-0.80163002 0.071590841 -4.3869019e-05
-0.81112301 0.31417388 -0.028641224
-0.80269402 -0.25986111 0.039029121
-0.80356205 -0.20076215 0.032062054
-0.80435205 -0.14692819 0.025714874
-0.815301 0.19385684 -0.014458179
-0.81174701 -0.046475172 0.0138731
-0.816432 0.27031887 -0.023469925
-0.81026 -0.14704716 0.025728226
-0.81111801 -0.089054108 0.018891811
-0.82015103 0.12022787 -0.0057787895
-0.82124603 0.19377387 -0.01444912
-0.81370801 -0.31241512 0.045221806
-0.81616902 -0.14716613 0.025742054
-0.82359004 -0.04669416 0.013896942
-0.83254504 0.15407586 -0.0097689629
-0.83384299 0.24001884 -0.019899845
-0.83016604 -0.0034911633 0.0088047981
-0.82886904 -0.089397192 0.018931866
-0.837973 0.11994988 -0.0057477951
-0.84092104 0.31381887 -0.028602123
-0.83665103 0.033002853 0.0045027733
-0.84391505 0.11985683 -0.0057358742
-0.84621304 0.26993787 -0.023427963
-0.83808899 -0.2606591 0.039120197
-0.83982003 -0.14765418 0.025798798
-0.84986103 0.11976188 -0.0057258606
-0.84728801 -0.047141194 0.013949871
-0.847956 -0.0038131475 0.0088419914
-0.84399402 -0.26079619 0.039135933
-0.84573704 -0.14777815 0.025813103
-0.85633403 0.15371388 -0.0097289085
-0.85321504 -0.047255158 0.013961792
-0.85881603 0.31359988 -0.028575897
-0.85504603 0.070709884 5.7220459e-05
-0.849087 -0.31325817 0.045320988
-0.85165399 -0.14790213 0.025825977
-0.85255402 -0.089866161 0.018984795
-0.86228502 0.15362185 -0.0097179413
-0.86633199 0.032478869 0.0045638084
-0.86171299 -0.26121008 0.039184093
-0.863491 -0.14815414 0.025856018
-0.86440402 -0.090105176 0.019012928
-0.87100601 -0.04760015 0.0140028
-0.87287402 0.070403874 9.1075897e-05
-0.86679304 -0.31369317 0.045370102
-0.87763101 -0.0043651462 0.0089049339
-0.88866699 0.31322485 -0.028532982
-0.879444 -0.26163316 0.039233208
-0.88951004 -0.0045921206 0.00893116
-0.893933 0.26929885 -0.023355007
-0.89010203 0.032045841 0.004611969
-0.89801604 0.15305686 -0.0096530914
-0.89604801 0.031936884 0.0046238899
-0.904625 0.19254285 -0.014307976
-0.90261799 0.069879889 0.00015211105
-0.89718801 -0.26206517 0.039281845
-0.90993804 0.15286285 -0.0096302032
-0.90794402 0.031714857 0.0046510696
-0.90310502 -0.26221013 0.039299011
-0.91328704 -0.0050531626 0.0089850426
-0.909024 -0.26235712 0.039316177
-0.92330104 0.23875785 -0.019756794
-0.92849499 0.19216985 -0.01426506
-0.92518204 -0.0052881241 0.0090107918
-0.92643601 0.069447875 0.00020217896
-0.92185801 -0.20342219 0.032368183
-0.92276299 -0.14946711 0.026007175
-0.93379903 0.15246886 -0.0095858574
-0.93650299 0.31259787 -0.028461933
-0.93708605 -0.0055261254 0.0090389252
-0.94174302 0.26862586 -0.02327919
-0.94721001 0.23839986 -0.019715786
-0.947725 0.26853985 -0.023269176
-0.93965101 -0.20385218 0.032416821
-0.95239103 0.19178689 -0.014222145
-0.95319003 0.23830986 -0.019704819
-0.949624 0.030914843 0.0047430992
-0.94751203 -0.091871142 0.019217014
-0.95917404 0.23821789 -0.019694805
-0.96434802 0.19159186 -0.01419878
-0.96154702 0.030679882 0.0047707558
