# .PCD v0.7 - Point Cloud Data file format
VERSION 0.7
FIELDS x y z
SIZE 4 4 4
TYPE F F F
COUNT 1 1 1
WIDTH 1
HEIGHT 1024
VIEWPOINT 0 0 0 1 0 0 0
POINTS 1024
DATA ascii
0.43305409 -0.64060271 0.50307322
0.44311512 -0.53135777 0.36096907
0.42746112 -0.63999081 0.50505686
0.42633611 -0.58146775 0.44239998
0.43808511 -0.45031977 0.27225018
0.4414261 -0.41302478 0.22386408
0.43528712 -0.41156578 0.23034525
0.4145121 -0.57830477 0.45447397
0.4191401 -0.52516675 0.38570929
0.42801911 -0.35072076 0.16839695
0.4364101 -0.25297272 0.042066097
0.4131771 -0.52362871 0.39186525
0.40015811 -0.63931179 0.50584698
0.4301061 -0.25164771 0.048930168
0.41380009 -0.4443897 0.29770994
0.4077611 -0.4429177 0.30404425
0.41085809 -0.40576375 0.25614929
0.44103411 0.037103236 -0.30574083
0.4252941 -0.15455675 -0.058988094
0.40173212 -0.44144773 0.31036806
0.43439811 0.038164258 -0.29812288
0.38516212 -0.57047081 0.48445988
0.3987191 -0.40288579 0.26897812
0.4224641 -0.027466774 -0.20488405
0.4277761 0.039221227 -0.29052114
0.38592511 -0.4861027 0.38407707
0.4125351 -0.1520927 -0.044846058
0.43000612 0.15292227 -0.42741013
0.43569112 0.22538924 -0.52034998
0.39115611 -0.34235573 0.20779514
0.3799971 -0.48461175 0.39024019
0.41801211 0.085792243 -0.33232594
0.42326909 0.15386528 -0.41951895
0.42885911 0.22625923 -0.51224804
0.38505709 -0.34097481 0.21431828
0.36742711 -0.63854873 0.50674915
0.36769411 -0.56581879 0.502316
0.37177509 -0.51297879 0.43463516
0.4113771 0.086799264 -0.324646
0.4252471 0.26930225 -0.55811501
0.4311811 0.34737223 -0.65798569
0.4344191 0.38998425 -0.7124958
0.37897012 -0.3395977 0.2208271
0.36619011 -0.72113073 0.4359293
0.3618941 -0.56427574 0.50825024
0.38635111 -0.2424767 0.096586227
0.4131031 0.19938624 -0.45954895
0.36583009 -0.43271673 0.34805107
0.41155511 0.27094322 -0.54175377
0.39489111 0.044463277 -0.25275993
0.4261851 0.46979123 -0.79548788
0.38451311 -0.096595764 -0.072767735
0.3964721 0.15760922 -0.3881259
0.38082111 -0.058665752 -0.11250496
0.34456509 -0.55967271 0.52597904
0.36780012 -0.23859978 0.11680508
0.35396111 -0.42983675 0.36051702
0.38498911 0.090795219 -0.2940979
0.3929061 0.20205224 -0.43570375
0.38184011 0.046539247 -0.23776913
0.40134111 0.32058126 -0.58656788
0.40345711 0.35031927 -0.62441683
0.3441411 -0.72063076 0.4365263
0.37070611 -0.018623769 -0.14615011
0.34471712 -0.39012372 0.3260951
0.37188509 0.092776239 -0.27892399
0.37402409 0.12387323 -0.31840515
0.37952012 0.20381624 -0.41989899
0.36430112 -0.017532766 -0.13887882
0.38969409 0.35177922 -0.60775089
0.34271911 -0.33141077 0.25961494
0.3309541 -0.5025208 0.47685528
0.35918412 -0.091945767 -0.044404984
0.33624712 -0.42554569 0.37912798
0.33877811 -0.3887248 0.33238125
0.36991909 0.16130924 -0.35701084
0.3579101 -0.016443729 -0.13162184
0.37477112 0.23312926 -0.44807577
0.38569412 0.39480025 -0.65307188
0.33672109 -0.33005869 0.26603699
0.32383612 -0.63762176 0.50787592
0.32161909 -0.55358875 0.54946995
0.34652811 -0.18491673 0.081999302
0.34956411 -0.13997376 0.025012016
0.35288709 -0.090790749 -0.037352085
0.3303661 -0.42412281 0.38530922
0.36090112 0.12578326 -0.30312204
0.3490321 -0.053039789 -0.076662064
0.35591412 0.050656259 -0.20798016
0.3740311 0.32361722 -0.55365801
0.38689309 0.51742226 -0.799088
0.3433421 -0.13877976 0.031918049
0.35435909 0.12673426 -0.29550409
0.3451691 -0.01427573 -0.11715269
0.37699211 0.47398326 -0.73470211
0.3136341 -0.4980967 0.49478388
0.34585211 0.096704245 -0.24877071
0.35293111 0.20731527 -0.38849497
0.33641312 -0.050809741 -0.062427044
0.3388201 -0.013196766 -0.10994005
0.36236009 0.35467422 -0.57464314
0.32226712 -0.27186978 0.21681786
0.3078841 -0.49662971 0.5007391
0.33248511 -0.012120724 -0.10274506
0.3345021 0.019998252 -0.14326906
0.3555671 0.35539228 -0.56641293
0.3658461 0.51905227 -0.77288675
0.31625211 -0.27057481 0.22332907
0.32194009 -0.1800108 0.10906887
0.32475311 -0.13521779 0.052558899
0.3278321 -0.086204767 -0.0092787743
0.34147111 0.23734224 -0.40854883
0.32814109 0.021043241 -0.13600016
0.33021709 0.054726243 -0.17844391
0.34697309 0.32661927 -0.52104282
0.3540141 0.44086826 -0.66500187
0.35886511 0.51959121 -0.76419592
0.29824209 -0.46412671 0.47534084
0.31758711 -0.047489762 -0.041185856
0.2945801 -0.71960473 0.43778229
0.28753811 -0.54457974 0.58439207
0.29070109 -0.4922508 0.51853704
0.2924881 -0.46269178 0.48133707
0.31538409 -0.083929777 0.0046720505
0.32188112 0.13145024 -0.25766516
0.31133911 -0.046389699 -0.034136772
0.31356111 -0.0089097619 -0.081245899
0.31745312 0.056745231 -0.16376686
0.34235811 0.47692424 -0.69189072
0.28195211 -0.54337478 0.58902597
0.2917031 -0.37766171 0.38224506
0.30914012 0.024158239 -0.11428404
0.31109211 0.057750225 -0.15645313
0.2947571 -0.22340178 0.19649029
0.29888511 -0.044197798 -0.02008009
0.28636211 -0.26415074 0.25569725
0.2809681 -0.7935487 0.37446404
0.30854911 0.24149525 -0.36945677
0.31350312 0.33032227 -0.48068571
0.31513911 0.35965925 -0.51742315
0.3242071 0.52226627 -0.72103977
0.27741709 -0.31673574 0.32957697
0.2694191 -0.63660479 0.50916004
0.28793311 -0.1281817 0.093462944
0.2902641 0.027248263 -0.092704773
0.26985511 -0.79333878 0.37473011
0.29398212 0.21504223 -0.31884003
0.2857891 0.061741233 -0.1273489
0.30022112 0.33178824 -0.46466684
0.27081409 -0.21844471 0.22263813
0.27338409 -0.17035675 0.16257
0.2566421 -0.48359573 0.55384588
0.26266709 -0.3708657 0.41303205
0.28338212 0.13702124 -0.21279192
0.2852661 0.17304927 -0.25774002
0.2911351 0.28529125 -0.39777088
0.3059901 0.56938624 -0.75219393
0.2587471 -0.79313481 0.37498903
0.25100511 -0.48216569 0.55969429
0.25254309 -0.45275176 0.5229969
0.27544811 0.10728127 -0.16716576
0.2770161 0.13794023 -0.20536995
0.2991021 0.56986129 -0.74355173
0.28849611 0.36246324 -0.48512793
0.29279011 0.44642127 -0.58974171
0.25403312 -0.31150472 0.35465813
0.25113511 -0.36817181 0.42526722
0.27599612 0.24558926 -0.33078814
0.2652871 0.031328261 -0.064138889
0.28779009 0.48154026 -0.62442303
0.28995711 0.52490222 -0.67838478
0.23976208 -0.47931671 0.57135916
0.26282811 0.10916924 -0.1525321
0.26432312 0.13977122 -0.19056892
0.27935812 0.44763625 -0.57322693
0.23680308 -0.63606977 0.50986624
0.24706908 -0.21353877 0.24858522
0.25157511 -0.12125981 0.13388491
0.2617451 0.21924925 -0.28072691
0.2650421 0.28838027 -0.36654711
0.2528801 0.033351243 -0.049944878
0.2763721 0.52594525 -0.66146088
0.24344708 -0.1644268 0.1955843
0.2478721 -0.071641803 0.080396175
0.23392209 -0.36415672 0.44353485
0.23083709 -0.30632877 0.37954998
0.22292709 -0.54245579 0.59026194
0.2265171 -0.39913476 0.49462128
0.23740309 -0.033414721 0.049362183
0.23908709 0.0036722422 0.0034360886
0.25208509 0.28991127 -0.35103703
0.2664651 0.60659623 -0.74320889
0.2542161 0.33685327 -0.40916872
0.22543509 -0.79256773 0.37572813
0.22050509 -0.6358248 0.51020002
0.23775609 0.11291426 -0.12344599
0.2406911 0.17919427 -0.20542288
0.24257509 0.22174627 -0.25805378
0.23132509 -0.032352805 0.056231976
0.23436709 0.036365271 -0.02876091
0.25811109 0.57268322 -0.69211006
0.25963211 0.60702527 -0.73458576
0.2508221 0.40802628 -0.48845482
0.22563308 -0.16090775 0.21523809
0.21520609 -0.39642978 0.50654793
0.2328371 0.14430428 -0.15384293
0.22685909 0.0057282448 0.017350197
0.24245609 0.36729127 -0.42930269
0.24939008 0.52801323 -0.62784815
0.21586709 -0.2490778 0.33212614
0.20964108 -0.63566875 0.51041603
0.20756109 -0.44160879 0.56997108
0.22076508 0.0067522526 0.024283886
0.23593909 0.36797327 -0.42140102
0.24087609 0.48549125 -0.56639481
0.20148109 -0.54216671 0.59067297
0.21181609 -0.2062788 0.28713226
0.2007601 -0.4694618 0.61186123
0.20198809 -0.4402318 0.57579517
0.21567409 -0.11444879 0.17382908
0.22466908 0.25202024 -0.26978493
0.22634208 0.29294723 -0.32021999
0.21597509 0.039353251 -0.0077109337
0.23112509 0.40994525 -0.46439791
0.20210509 -0.29993474 0.41040611
0.20598309 -0.20507979 0.29351425
0.20793109 -0.1574167 0.23477697
0.19642609 -0.43885875 0.5816102
0.20973408 -0.11332381 0.180439
0.21170509 -0.065092802 0.12100315
0.19832508 -0.39239776 0.52435398
0.2172121 0.22504127 -0.2280488
0.20714709 -0.028132737 0.083564281
0.20861509 0.0087932348 0.038114071
0.21831609 0.25281423 -0.26223087
0.21994109 0.29370123 -0.31255579
0.22179809 0.34040922 -0.37004614
0.23679709 0.68878424 -0.83439493
0.18971209 -0.46667778 0.62334204
0.20256008 0.0098082423 0.045008183
0.20377809 0.041332245 0.0062541962
0.22265808 0.53005725 -0.59454107
0.19618909 -0.15510476 0.24774218
0.19974908 -0.062933803 0.13443327
0.18712409 -0.38972771 0.53617191
0.20565508 0.25439423 -0.24717569
0.21312809 0.45360124 -0.49176693
0.1885521 -0.20150173 0.31258917
0.18914708 -0.024998724 0.10391903
0.19934508 0.25518125 -0.23967409
0.20082909 0.29594922 -0.28966808
0.20357309 0.37135327 -0.38213778
0.20658809 0.45418823 -0.48372078
0.18315808 -0.87455881 0.30572605
0.17706509 -0.63523769 0.51103306
0.17553209 -0.24050272 0.3759141
0.17163709 -0.63517177 0.51112986
0.18021609 -0.10774672 0.213305
0.19886509 0.61082625 -0.65787411
0.20230509 0.65550125 -0.78104591
0.19355209 0.45535827 -0.46768093
0.16981509 -0.23929071 0.3821249
0.17284909 -0.15051675 0.27352095
0.16608609 -0.34840775 0.51561499
0.17602009 0.12209725 -0.051776886
0.1781911 0.18776524 -0.13201475
0.17460009 0.079166234 0.00067901611
0.19219209 0.61124223 -0.64944983
0.1843271 0.37335825 -0.35878611
0.19535309 0.65612328 -0.76627302
0.16078308 -0.63504469 0.51132298
0.16704409 -0.1493777 0.27993393
0.17007908 -0.057585716 0.1677742
0.16991909 0.12300128 -0.044692039
0.17201608 0.18860924 -0.12475872
0.17336109 0.23072022 -0.1761508
0.17424309 0.25830626 -0.20981693
0.16854809 0.080109239 0.0076551437
0.18057708 0.45652026 -0.45171499
0.15841809 -0.23687577 0.39450598
0.15887609 -0.79162478 0.37704086
0.15721008 -0.71746778 0.44065714
0.16125108 -0.14824176 0.28633499
0.16265109 -0.1044358 0.23287392
0.15493609 -0.34582973 0.52747631
0.16383108 0.12390327 -0.037620068
0.1658541 0.18945128 -0.11751699
0.16052809 0.016842246 0.092880249
0.16149509 0.048174262 0.054688931
0.17068408 0.34599423 -0.30833197
0.17156909 0.37468523 -0.34330273
0.18035109 0.65930325 -0.69022894
0.1741121 0.45709825 -0.44375801
0.14790408 -0.54154372 0.59161425
0.15546909 -0.14710879 0.29272509
0.15970309 0.19029027 -0.1102891
0.1629791 0.30038828 -0.24432707
0.15648109 0.081987262 0.021564007
0.17125809 0.57862824 -0.58306885
0.1643571 0.34668428 -0.30068874
0.17561109 0.69154924 -0.76119804
0.16765909 0.45767623 -0.43581581
0.14778909 -0.79149175 0.37724018
0.14450508 -0.63486481 0.51160002
0.1482911 -0.19326377 0.35667324
0.15672009 0.30112123 -0.2368269
0.14952709 0.05010426 0.068403244
0.16468509 0.57907629 -0.5748167
0.15804508 0.34737122 -0.29306698
0.16700509 0.66002321 -0.67324686
0.16341008 0.53456926 -0.52069807
0.14140609 -0.23327672 0.41299725
0.13908009 -0.63480771 0.51169109
0.14656208 -0.053358793 0.19421387
0.14860208 0.23391527 -0.1468339
0.15366109 0.41745424 -0.36974573
0.13430209 -0.28492379 0.48331213
0.13670509 -0.7913667 0.37743092
0.13365608 -0.63475275 0.51177931
0.13689309 -0.19093871 0.36916208
0.13050608 -0.42264974 0.65058708
0.13960809 0.12748623 -0.0094771385
0.14040309 0.15753126 -0.045922756
0.13761109 0.052025259 0.082062244
0.15247808 0.61371422 -0.59929991
0.14546509 0.34874022 -0.27787113
0.14622109 0.37731725 -0.31253481
0.14839309 0.45939726 -0.4121027
0.15040909 0.53555626 -0.5044899
0.12872408 -0.28369379 0.48931599
0.1301221 -0.23089373 0.42526531
0.13121009 -0.18977976 0.37539005
0.12508109 -0.42132175 0.65627003
0.13524109 0.19362426 -0.081532955
0.13700008 0.26292926 -0.16550398
0.14505708 0.58041227 -0.55016613
0.13991909 0.37797022 -0.30488682
0.14710508 0.66109526 -0.64792299
0.14095309 0.41868025 -0.35421181
0.14200009 0.45996726 -0.40423489
0.14992508 0.74141824 -0.78255272
0.12562309 -0.79124773 0.37761593
0.12280909 -0.63464677 0.51195192
0.12784208 -0.097892761 0.2716732
0.1240991 -0.013718724 0.17754221
0.1308381 0.26369327 -0.15816879
0.13181809 0.30403125 -0.20698404
0.12653708 0.086638272 0.056093216
0.13363008 0.37862122 -0.29725075
0.14050108 0.66145122 -0.63951683
0.14261009 0.69218922 -0.74458599
0.13562009 0.46053624 -0.39637995
0.12150309 -0.8737967 0.3068471
0.12208109 -0.096811771 0.27809811
0.12157509 0.13014823 0.011484146
0.12562709 0.30475324 -0.19956398
0.12735608 0.37927127 -0.2896328
0.13101709 0.53702629 -0.48031187
0.1153221 -0.1392597 0.33711815
0.1088681 -0.41735578 0.67326212
0.1099341 -0.37141478 0.61773014
0.11625209 0.16096723 -0.017699718
0.1132371 0.024719238 0.14678526
0.12046609 0.35145426 -0.24766874
0.1210961 0.37991923 -0.28203297
0.1065401 -0.63450074 0.51219988
0.1096331 -0.13814974 0.34341097
0.1037391 -0.45637679 0.66499519
0.1116481 -0.047102809 0.23349285
0.1109851 0.19692224 -0.053009033
0.1118631 0.23864228 -0.10331392
0.1124381 0.26596928 -0.1362648
0.11328509 0.30619222 -0.18476772
0.1080351 0.056781232 0.11597729
0.1087221 0.089398265 0.076645851
0.1148501 0.38056523 -0.27444792
0.1214801 0.69553828 -0.65424871
0.1157041 0.42111325 -0.3233428
0.1181641 0.53799826 -0.46428299
0.1021051 -0.22498977 0.45574188
0.1023521 -0.71690571 0.44155502
0.1048701 -0.09358871 0.29729319
0.1058701 -0.046069741 0.23999596
0.1063291 0.26672423 -0.12899399
0.1021561 0.057724237 0.1227212
0.1028061 0.090313256 0.083471298
0.1086161 0.38120925 -0.26687574
0.1094251 0.42171723 -0.31566477
0.1002361 0.26747626 -0.12173891
0.1018611 0.35347027 -0.22518492
0.10771409 0.66321123 -0.59778595
0.10316209 0.42231923 -0.30800581
0.093496099 -0.87352479 0.30729294
0.090273097 -0.6343677 0.51243687
0.087873094 -0.45626175 0.66521406
0.088933095 -0.33063877 0.59776592
0.093669094 0.24097627 -0.081757069
0.089883097 0.028594255 0.17342329
0.094155096 0.26822627 -0.11449814
0.090436094 0.059603274 0.13616419
0.095686093 0.35413826 -0.21772194
0.10178909 0.69648027 -0.62904978
0.096912093 0.42291927 -0.30036497
0.088758096 0.30904526 -0.15535975
0.089525096 0.35480428 -0.21027708
0.094705097 0.66390824 -0.58122778
0.079009093 -0.27276576 0.54286814
0.082296096 -0.87342978 0.30745888
0.081307098 -0.7908448 0.37829924
0.0767451 -0.40996671 0.70500422
0.078081094 -0.3281517 0.60933495
0.0782791 0.030516267 0.1866641
0.082660094 0.30975324 -0.14804792
0.078764096 0.061472237 0.14955807
0.084455095 0.42411524 -0.28512812
0.073539093 -0.2715677 0.54876328
0.074361093 -0.21916175 0.48594522
0.074937098 -0.7166878 0.44195127
0.074473098 0.16688925 0.031142235
0.076574095 0.31046027 -0.14074802
0.077242099 0.35613126 -0.19542694
0.084403098 0.74148124 -0.78155613
0.069453098 -0.7166487 0.44202423
0.067611098 -0.54088378 0.59278917
0.066720098 0.032428265 0.19985485
0.067579098 0.095752239 0.1241312
0.071121097 0.35679227 -0.18802595
0.075301096 0.66494727 -0.55652475
0.063338093 -0.21685076 0.49795008
0.063170098 -0.63417876 0.51280499
0.062279094 0.13886327 0.080440998
0.060507093 -0.0027677417 0.24960613
0.061751094 0.096650243 0.13086128
0.068863094 0.66529125 -0.54832792
0.066796094 0.49999824 -0.35090208
0.058937091 -0.12829471 0.39953709
0.05762909 0.24558628 -0.039034843
0.061529096 0.58606923 -0.44522905
0.062440094 0.66563427 -0.54015112
0.059701096 0.42648625 -0.254848
0.051761094 -0.26680374 0.57224703
0.052360091 -0.21455276 0.50991106
0.054299094 -0.87322271 0.30784893
0.051562093 -0.5407908 0.59298992
0.050864093 -0.45604169 0.66568422
0.053854093 -0.084067702 0.35424185
0.054394092 -0.036894798 0.29796505
0.050876092 0.17022324 0.058743
0.049097095 -0.00081175566 0.26254606
0.056371097 0.69864523 -0.57091999
0.053970095 0.46778423 -0.29582691
0.054750092 0.54277825 -0.38518906
0.047528092 -0.71651077 0.4423089
0.048732094 -0.035889745 0.30434513
0.045005094 0.17105126 0.065612316
0.044335093 0.099329233 0.15097427
0.048893094 0.58692122 -0.4293499
0.049940094 0.69895124 -0.56268883
0.047784094 0.46833023 -0.28820705
0.041422091 -0.21226573 0.52183008
0.041491091 -0.63405478 0.51307631
0.040291093 -0.45599079 0.66580725
0.043080091 -0.034885764 0.3107152
0.038903091 0.14228427 0.10764313
0.039779093 0.24786323 -0.017867088
0.038031094 0.037163258 0.23260927
0.040944092 0.38817525 -0.18466806
0.043255094 0.66665721 -0.51572275
0.041276094 0.42824727 -0.232306
0.043919094 0.74664325 -0.6108098
0.035970092 -0.2111268 0.5277729
0.034729093 -0.4097507 0.70550919
0.032785092 0.10110325 0.16431618
0.036555093 0.62087429 -0.45285416
0.030150095 -0.26208878 0.59556627
0.032246094 -0.93800581 0.25245428
0.031085094 -0.7164247 0.44250822
0.030653095 -0.6340028 0.51320314
0.031472094 -0.079908729 0.37924719
0.026413096 0.0030712485 0.28827906
0.028110096 0.27634525 -0.035820007
0.028638097 0.36136627 -0.1366539
0.028812094 0.38941824 -0.16992474
0.030538095 0.66733426 -0.49952984
0.030740095 0.69986326 -0.53810978
0.029061096 0.42941225 -0.21735716
0.029312095 0.46996126 -0.26544571
0.029776094 0.54465222 -0.35403109
0.025097096 -0.20885777 0.53962803
0.025349094 -0.16833377 0.49156713
0.025637096 -0.1218518 0.43643904
0.026196094 -0.031891763 0.32974815
0.022041095 0.25012124 0.0031719208
0.022385094 0.31673026 -0.075734138
0.023791095 0.58860922 -0.39780188
0.024611095 0.74739826 -0.58590412
0.019466095 -0.54064572 0.59335804
0.019122094 -0.31469774 0.67225885
0.016154096 0.25087023 0.010156155
0.016265094 0.27779526 -0.021700859
0.017550094 0.58902824 -0.3899579
0.017877094 0.66800725 -0.48340702
0.016896095 0.43057227 -0.20246887
0.017063094 0.47104025 -0.25035191
0.018205095 0.74764824 -0.5776391
0.014264096 -0.20660079 0.55144215
0.015307095 -0.93792272 0.25265217
0.015113095 -0.87301278 0.3083272
0.013677094 -0.34880674 0.7197051
0.009629095 0.041835248 0.26505089
0.010362094 0.27851623 -0.014665127
0.011568096 0.66834223 -0.47537279
0.011061095 0.50459027 -0.28184605
0.011189096 0.54604328 -0.33083677
0.0087040942 -0.25742078 0.61872292
0.0087700952 -0.54060781 0.593472
0.0089890957 -0.16504371 0.50954819
0.0094110947 -0.028921723 0.3486743
0.0085340943 -0.31229174 0.68357229
0.0041990946 0.14734626 0.14804697
0.0042600944 0.17678225 0.11329985
0.0044710939 0.27923626 -0.0076417923
0.0052730939 0.66867626 -0.46735716
0.0049360939 0.50509322 -0.2742548
0.0033680941 -0.25626171 0.62448502
0.0032950942 -0.45585573 0.66620302
-0.0014349055 0.25310326 0.031025887
-0.0010539056 0.62317926 -0.40531969
-0.0013209055 0.36457926 -0.10041094
-0.0017389059 -0.7903918 0.37931728
-0.0018559056 -0.63388371 0.51355219
-0.0020239055 -0.4096297 0.70589209
-0.0072759055 0.39310825 -0.12605572
-0.0072759055 0.50609529 -0.25911903
-0.0072759055 -0.87293375 0.30856228
-0.0072759055 -0.45582974 0.66630602
-0.013059906 0.21365327 0.093017101
-0.013129906 0.28138423 0.013342857
-0.012580905 -0.2528007 0.64171791
-0.012871906 -0.87291777 0.30861902
-0.012692906 -0.63385677 0.51365709
-0.012675906 -0.16069579 0.53337288
-0.019051906 0.32150024 -0.025989056
-0.019282905 0.43401027 -0.1581831
-0.018065905 -0.15961576 0.5393033
-0.018343905 -0.024022758 0.37998629
-0.017764905 -0.30632973 0.71168518
-0.024397906 0.15150225 0.18136024
-0.024718905 0.25605327 0.058659077
-0.024921905 0.32217425 -0.018939018
-0.024171906 0.077851236 0.26779604
-0.025851905 0.62469423 -0.37397385
-0.025060905 0.36711723 -0.07168293
-0.025145905 0.39493024 -0.10432482
-0.025491904 0.50758725 -0.23653793
-0.024064906 -0.87289381 0.30872297
-0.023527905 -0.63383579 0.51375628
-0.023586905 -0.11237478 0.49104309
-0.023127906 -0.45580077 0.66645193
-0.022886906 -0.34028876 0.75852203
-0.030203905 0.18161023 0.15365887
-0.029511904 0.012600243 0.35177708
-0.030781906 0.32284623 -0.011901855
-0.031405907 0.47529724 -0.19060898
-0.032668907 0.78409326 -0.55258894
-0.028651904 -0.19768572 0.59828091
-0.028274905 -0.40958273 0.70613003
-0.029369906 -0.022080779 0.39243126
-0.035906907 0.18240726 0.16034031
-0.036289908 0.25751626 0.072397232
-0.035043906 0.013539255 0.35806227
-0.036426906 0.28422123 0.041128159
-0.038002905 0.59274721 -0.32011509
-0.038402908 0.67098927 -0.41172695
-0.038566906 0.70314026 -0.44937086
-0.035501905 -0.93778074 0.25315809
-0.034671906 -0.7162317 0.44317007
-0.034014907 -0.54051876 0.59387112
-0.033436906 -0.30324674 0.72627687
-0.040853906 0.048126221 0.30898285
-0.041039906 0.078637242 0.27355719
-0.042798907 0.36793625 -0.06235075
-0.042967908 0.39573824 -0.094632149
-0.045329906 0.78426427 -0.54575205
-0.043901905 0.54948926 -0.27315378
-0.039040908 -0.25009871 0.65525913
-0.039881907 -0.11176276 0.49463415
-0.038773905 -0.40957379 0.70621729
-0.038493905 -0.34004474 0.75969601
-0.047451906 0.18056327 0.14499712
-0.046502907 0.046897233 0.30044222
-0.048974909 0.39492422 -0.10429001
-0.049542908 0.47482124 -0.19720411
-0.044381905 -0.25163877 0.64761686
-0.053867906 0.25491625 0.048153877
-0.052165907 0.045663238 0.29187918
-0.054772906 0.36623627 -0.081505775
-0.057242908 0.67000324 -0.43531513
-0.056252908 0.54826629 -0.29352379
-0.052046906 -0.87286377 0.30896091
-0.051552907 -0.79031074 0.37976122
-0.051108908 -0.71622181 0.44330311
-0.063154906 0.62378526 -0.39256573
-0.063573904 0.66955829 -0.445961
-0.056033906 -0.63381076 0.5140233
-0.055405907 -0.5405097 0.59404087
-0.054834906 -0.45577872 0.66670895
-0.054278906 -0.34493577 0.7375021
-0.065260902 0.21186924 0.07759285
-0.063174903 0.0072962642 0.31661224
-0.065952905 0.27981025 -0.0017867088
-0.066816904 0.36452526 -0.10076475
-0.070252903 0.70146823 -0.49444294
-0.067919903 0.47267926 -0.22712994
-0.063726902 -0.93776977 0.25337887
-0.070426904 0.14673227 0.14342213
-0.068846904 0.0060112476 0.30809402
-0.071910903 0.27884424 -0.011176109
-0.075774901 0.62276125 -0.41363001
-0.076653905 0.70106721 -0.50526381
-0.0766249 0.17512822 0.099831104
-0.077049904 0.20976824 0.059232235
-0.074974902 0.040690243 0.25739908
-0.075351901 0.071407259 0.22139597
-0.079762906 0.43075526 -0.19977283
-0.083653904 0.74782622 -0.57139301
-0.073691905 -0.7903198 0.37992001
-0.072285905 -0.6338197 0.51413822
-0.074103907 -0.030245781 0.34053802
-0.088471904 0.62173021 -0.43482304
-0.086457901 0.47051525 -0.25731516
-0.080662906 -0.93778574 0.25349331
-0.0879829 0.14333427 0.11638927
-0.086472906 0.038179219 0.24002218
-0.094847903 0.62121224 -0.44546509
-0.0856269 -0.87289071 0.30919027
-0.081256904 -0.45579875 0.6668911
-0.085450903 -0.032912731 0.32360697
-0.092243902 0.036918223 0.23129988
-0.092718907 0.067740262 0.19500685
-0.1000599 0.54392123 -0.36573505
-0.091223903 -0.8729018 0.30922413
-0.090296902 -0.79034579 0.380023
-0.087492906 -0.54053879 0.59425831
-0.089035906 -0.17118871 0.47636318
-0.090419903 -0.081402779 0.37063122
-0.1002549 0.17071623 0.063259125
-0.1084189 0.66640025 -0.52136898
-0.1089559 0.69903725 -0.55986309
-0.1097379 0.74647623 -0.61581278
-0.1063909 0.54329228 -0.37617016
-0.093067907 -0.26571274 0.57799816
-0.093957901 -0.63385272 0.51427221
-0.0912719 -0.40960479 0.70658731
-0.096079901 -0.082797766 0.3622613
-0.1087149 0.31288427 -0.1152029
-0.11142591 0.46759623 -0.29796314
-0.1024169 -0.87292874 0.30928516
-0.099374905 -0.63386476 0.51430416
-0.0969529 -0.35819376 0.6775403
-0.1116179 0.13875222 0.080005169
-0.10965391 0.033110261 0.20499611
-0.1169579 0.42605126 -0.25991774
-0.1069029 -0.7903868 0.38011408
-0.1066429 -0.12887073 0.39664698
-0.1083269 -0.038298726 0.28948498
-0.1181519 0.16736823 0.035564899
-0.1188379 0.20230126 -0.0058307648
-0.12857491 0.69780225 -0.59302092
-0.1232199 0.42525727 -0.2700429
-0.1113839 -0.71631074 0.44368219
-0.1241499 0.16624624 0.026285172
-0.1248749 0.20122123 -0.015226841
-0.1213389 0.030551255 0.18734407
-0.1344739 0.66456026 -0.56517601
-0.13034791 0.46537924 -0.32876301
-0.1310399 0.49879426 -0.36842394
-0.13190891 0.54075325 -0.41822577
-0.11296491 -0.45586669 0.66707087
-0.1198559 -0.041017771 0.27229214
-0.1309289 0.20013726 -0.024650097
-0.13183491 0.24175024 -0.074120045
-0.12720591 0.029266238 0.17848301
-0.1400229 0.61753321 -0.52085495
-0.14175391 0.69697225 -0.61529303
-0.13833591 0.54011321 -0.4288168
-0.1236649 -0.13324881 0.37168217
-0.12564391 -0.04238379 0.26366186
-0.1193939 -0.32923269 0.60467005
-0.13795391 0.24071324 -0.083711147
-0.13857691 0.26800025 -0.11620092
-0.14655691 0.61700022 -0.53175688
-0.1304049 -0.87302971 0.30940914
-0.12829591 -0.1817137 0.41927528
-0.14408791 0.23967326 -0.093326092
-0.14474191 0.26699424 -0.12590885
-0.14570391 0.30720425 -0.17386389
-0.14051391 0.090417266 0.084678173
-0.15310791 0.61646521 -0.54269075
-0.15124992 0.53882623 -0.45009708
-0.13600291 -0.8730557 0.30942917
-0.13613091 -0.092689753 0.30305099
-0.1303879 -0.33257079 0.58913326
-0.14756492 0.13176626 0.024681091
-0.14919391 0.19686222 -0.053077698
-0.14649992 0.089192271 0.075535297
-0.15379392 0.38067722 -0.27264404
-0.15667892 0.49598625 -0.41038275
-0.13861792 -0.22581673 0.45181608
-0.14082392 -0.13766778 0.34652328
-0.14988191 -0.012415767 0.18646717
-0.16012192 0.37981325 -0.28280401
-0.16118191 0.42044026 -0.33141088
-0.16423891 0.53753024 -0.47149992
-0.1442669 -0.71644378 0.44381428
-0.1409779 -0.54070473 0.59451914
-0.14895591 -0.047890782 0.22890806
-0.16145691 0.19466126 -0.07215786
-0.15578891 -0.013764739 0.17760706
-0.17288391 0.61484921 -0.57568693
-0.16569291 0.35041428 -0.25880289
-0.16869691 0.46087825 -0.39117575
-0.17076291 0.53687823 -0.48224974
-0.15279691 -0.87314475 0.30947924
-0.15118991 -0.79057479 0.38028717
-0.15233891 -0.1406368 0.3296423
-0.14600691 -0.37349677 0.60868597
-0.16661891 0.15828025 -0.039402008
-0.16455992 0.085495234 0.047957897
-0.17856391 0.58059621 -0.54629183
-0.17951791 0.61430728 -0.5867548
-0.17283592 0.37807626 -0.30321503
-0.17730892 0.53622425 -0.49303579
-0.14996591 -0.45600772 0.66723013
-0.15022291 -0.42136478 0.65632296
-0.17502491 0.23442227 -0.1418128
-0.1676529 -0.01647377 0.15981293
-0.17583291 0.26191527 -0.17486477
-0.15702792 -0.54078174 0.59457302
-0.1570619 -0.37695479 0.59317923
-0.15811791 -0.34100378 0.54996014
-0.19181292 0.57940829 -0.56827784
-0.19284391 0.61321628 -0.60898781
-0.18474992 0.34768224 -0.28924894
-0.18813092 0.45859224 -0.42279911
-0.19676691 0.74195528 -0.76399708
-0.19045691 0.53491026 -0.51469803
-0.1661929 -0.7165668 0.44387531
-0.1626109 -0.37869072 0.5853982
-0.18412492 0.12464124 -0.031558037
-0.19846791 0.57881129 -0.57931995
-0.19204591 0.37544924 -0.3340497
-0.20102791 0.65984523 -0.67705488
-0.20695391 0.73774421 -0.90336609
-0.1733389 -0.79071081 0.38033628
-0.16931091 -0.34441376 0.53415489
-0.20625392 0.61211824 -0.63136101
-0.19754991 0.34584522 -0.30969572
-0.19848891 0.37456626 -0.34439278
-0.20779791 0.65936422 -0.68843603
-0.2133889 0.73798925 -0.89505482
-0.20368691 0.53358626 -0.53649092
-0.17524491 -0.63420272 0.51458502
-0.18283691 -0.10426581 0.23405027
-0.17493092 -0.34612679 0.52621984
-0.20103291 0.25779027 -0.21453571
-0.20494892 0.37368226 -0.35476208
-0.21458891 0.65888125 -0.6998477
-0.2198099 0.73823428 -0.88676405
-0.18425691 -0.2385478 0.38602304
-0.18441591 -0.79078877 0.38035202
-0.18565591 -0.19715381 0.33593607
-0.17777692 -0.43029177 0.61802912
-0.1903699 -0.0576998 0.16720104
-0.1900299 -0.24016178 0.3777051
-0.18378091 -0.54094172 0.59463787
-0.19467191 -0.1072067 0.2165699
-0.1849499 -0.38569176 0.5540781
-0.20993792 0.15012825 -0.10637569
-0.21274391 0.22800225 -0.20090914
-0.20496792 0.012167275 0.061094284
-0.20729391 0.076726258 -0.017273903
-0.21940991 0.41302526 -0.42550993
-0.2209129 0.45472926 -0.47613573
-0.22213991 0.48879424 -0.517488
-0.22368091 0.53158325 -0.56942892
-0.19581892 -0.24178076 0.36936522
-0.18913291 -0.54097772 0.59464693
-0.19902791 -0.15270376 0.26123428
-0.21619791 0.14894825 -0.11605072
-0.21752091 0.18457323 -0.15936804
-0.2320549 0.57579327 -0.63504696
-0.23898891 0.73896426 -0.86199713
-0.20162292 -0.24340475 0.36100197
-0.20103091 -0.79092073 0.38036585
-0.19620591 -0.38922369 0.53830194
-0.2238429 0.18343323 -0.16919804
-0.21576992 -0.027487755 0.087676048
-0.22652791 0.25360823 -0.25466204
-0.2371159 0.53023624 -0.59155703
-0.2090349 -0.20346677 0.30199528
-0.22757392 0.11614722 -0.098369122
-0.22456391 0.039732277 -0.0051541328
-0.2515009 0.65304124 -0.83913279
-0.2511889 0.68896723 -0.82946205
-0.23917191 0.41050124 -0.45743895
-0.20568691 -0.43935573 0.57926416
-0.2307509 0.03841126 -0.014541149
-0.2524589 0.57395625 -0.66889572
-0.24579892 0.40965426 -0.46814394
-0.2105419 -0.54113674 0.5946722
-0.24584691 0.25043523 -0.28505993
-0.24755691 0.29148227 -0.33529711
-0.23695691 0.037085235 -0.023952007
-0.23834291 0.070337236 -0.064646721
-0.2541959 0.45079827 -0.53027582
-0.21589491 -0.54118073 0.59467506
-0.21695191 -0.4430207 0.56362486
-0.21889591 -0.39635372 0.50651312
-0.2477719 0.14298725 -0.16484499
-0.24023391 -0.033103704 0.051019192
-0.2540859 0.29047126 -0.34563971
-0.24460691 0.069046259 -0.074204922
-0.26763889 0.60707629 -0.73375511
-0.25609592 0.33742124 -0.4031949
-0.2240449 -0.63458073 0.51462793
-0.23266791 -0.2098608 0.2676959
-0.22134991 -0.47422969 0.59177589
-0.2527979 0.11120427 -0.13713789
-0.27456689 0.60650623 -0.74530792
-0.27782789 0.65311724 -0.83641195
-0.23427391 -0.79122972 0.38035107
-0.22827691 -0.44670773 0.54790497
-0.26052991 0.14057428 -0.18455505
-0.2621499 0.17651224 -0.228755
-0.28491691 0.60144627 -0.84963989
-0.2706359 0.36466223 -0.46015978
-0.27251089 0.40623623 -0.51129103
-0.27441189 0.44840527 -0.56315613
-0.23748492 -0.71714878 0.44391298
-0.23489191 -0.63468277 0.51462221
-0.24674492 -0.16508377 0.19137192
-0.23396091 -0.44855976 0.54001808
-0.25093791 -0.072102785 0.077017307
-0.2655189 0.10870826 -0.15668869
-0.26693588 0.13936228 -0.19445086
-0.26048589 -0.00010174513 -0.022643089
-0.2718749 0.24615222 -0.32600975
-0.2759639 0.33455426 -0.43491507
-0.28119189 0.44760227 -0.57418203
-0.25056091 -0.21470976 0.24173689
-0.27336189 0.13814527 -0.20437813
-0.27506989 0.17417425 -0.24883699
-0.26497391 -0.038793802 0.013957977
-0.2826269 0.33359224 -0.44555092
-0.24537291 -0.45228076 0.52418518
-0.26094788 -0.12372279 0.1187582
-0.24932691 -0.36888075 0.42127085
-0.28500691 0.24398828 -0.34666491
-0.27456889 0.029036224 -0.080984116
-0.29860789 0.52405322 -0.6928277
-0.2670759 -0.12525475 0.10971928
-0.25338289 -0.40721679 0.4582243
-0.25515792 -0.37066877 0.41305304
-0.2847409 0.10493124 -0.18622398
-0.29366189 0.28432822 -0.40832806
-0.30554691 0.52335322 -0.70425415
-0.28724891 0.026317239 -0.10020685
-0.31786489 0.60154825 -0.84623575
-0.30852389 0.44436127 -0.61862803
-0.31250888 0.52265227 -0.71571589
-0.2725099 -0.26329875 0.25894785
-0.2668629 -0.37426281 0.3965559
-0.29925489 0.13323826 -0.24436998
-0.30338189 0.21250427 -0.34283304
-0.30701289 0.28225225 -0.42947292
-0.29536688 0.058565259 -0.15161276
-0.26744589 -0.63502479 0.514575
-0.26838091 -0.45979273 0.49227524
-0.30577791 0.13200027 -0.25444269
-0.31625089 0.32873023 -0.49922085
-0.3178179 0.35815924 -0.53583813
-0.3223199 0.44272327 -0.64105797
-0.2786209 -0.79174173 0.38024616
-0.2698029 -0.5437398 0.5863409
-0.2917529 -0.13142776 0.073327065
-0.2766799 -0.41457081 0.42562294
-0.27863291 -0.37788069 0.37997103
-0.31818089 0.23851424 -0.398839
-0.30641091 0.02220422 -0.12924814
-0.3246409 0.35721624 -0.54678106
-0.2841669 -0.79181373 0.38022614
-0.30063289 -0.083969712 0.0030779839
-0.32089791 0.16586328 -0.32004976
-0.33813989 0.47597024 -0.70718908
-0.28971189 -0.79188776 0.3802042
-0.3017019 -0.17939675 0.11097527
-0.2857959 -0.46548772 0.46813107
-0.3153109 -0.050401807 -0.061408997
-0.33159089 0.23629725 -0.41992378
-0.29237089 -0.71778774 0.44377804
-0.33205488 0.12700927 -0.2950139
-0.32168388 -0.051873803 -0.070946693
-0.34523588 0.35437024 -0.57980585
-0.35474488 0.51838624 -0.78525305
-0.30568388 -0.32785678 0.27474785
-0.30883288 -0.27353477 0.20670414
-0.30080488 -0.79203975 0.38015699
-0.3002249 -0.42201769 0.39269209
-0.3386749 0.12574923 -0.30523491
-0.32807788 -0.05335176 -0.080515862
-0.36459491 0.56381822 -0.85486794
-0.35214591 0.35341424 -0.59088612
-0.31494689 -0.27526081 0.19791317
-0.31745389 -0.23289478 0.14475727
-0.3642239 0.43773925 -0.70918083
-0.3092339 -0.47316372 0.43565321
-0.3409169 -0.05632174 -0.099727154
-0.3586579 0.23181725 -0.46247673
-0.36863691 0.39388424 -0.66651011
-0.32386789 -0.33321977 0.24886703
-0.32722288 -0.27872777 0.18026495
-0.3180519 -0.42766476 0.36776686
-0.3681159 0.27272826 -0.52620983
-0.37299991 0.35052627 -0.62431908
-0.37836888 0.43605328 -0.73217392
-0.38488689 0.51364923 -0.86310577
-0.31983289 -0.71817076 0.44365692
-0.31917191 -0.50687981 0.4569211
-0.32634789 -0.39257777 0.31278086
-0.37501091 0.27165025 -0.53712511
-0.32168189 -0.56172979 0.5155983
-0.33238688 -0.39444077 0.30428123
-0.3773109 0.19979227 -0.45851088
-0.3870129 0.34858423 -0.64678288
-0.34220189 -0.33863473 0.22278214
-0.3517319 -0.19247675 0.037842274
-0.33292291 -0.48093677 0.40284109
-0.35468289 -0.1472218 -0.019422054
-0.3767269 0.086788237 -0.32748079
-0.37377191 0.042302251 -0.27109385
-0.3368969 -0.51282179 0.43251705
-0.38344491 0.085459232 -0.33779192
-0.3733449 -0.06383574 -0.14824104
-0.39296091 0.22612822 -0.51639271
-0.39582089 0.26839727 -0.57005882
-0.39908889 0.31670427 -0.63139296
-0.40932789 0.46805325 -0.82355309
-0.3392489 -0.56783676 0.49166203
-0.3644169 -0.19580078 0.01930809
-0.37084389 -0.10080671 -0.10130072
-0.3505989 -0.40006673 0.2786541
-0.39988491 0.22497827 -0.5272727
-0.40613189 0.31567925 -0.64262772
-0.40819588 0.34564424 -0.68073893
-0.41412988 0.43178523 -0.79029369
-0.3606869 -0.34410179 0.19648886
-0.36446491 -0.2892648 0.12674809
-0.37078691 -0.19747078 0.01000309
-0.4017359 0.15114027 -0.44559193
-0.39141288 0.0038932562 -0.2580018
-0.42384189 0.46643424 -0.84727287
-0.37717691 -0.19914675 0.00066804886
-0.3547639 -0.51881981 0.40792608
-0.40372288 0.081442237 -0.3689127
-0.4168269 0.26510823 -0.603302
-0.3543489 -0.63621378 0.51421022
-0.35695788 -0.57400274 0.46754313
-0.38358289 -0.20082772 -0.0086889267
-0.36289489 -0.49079072 0.36135101
-0.4154979 0.14862627 -0.46695375
-0.40478191 0.0010042191 -0.27824211
-0.37932989 -0.34962273 0.16998291
-0.36893791 -0.4927808 0.35299015
-0.37241089 -0.44493079 0.29182005
-0.37511688 -0.40765274 0.24416828
-0.38557789 -0.35147476 0.16109991
-0.36930388 -0.7189647 0.44334888
-0.36522189 -0.63639081 0.51414108
-0.3749969 -0.49477577 0.34460592
-0.40350589 -0.10866678 -0.14982605
-0.42418489 0.077384233 -0.40030909
-0.42934391 0.14609426 -0.48844671
-0.4348309 0.21916825 -0.58218193
-0.41823089 -0.0019057393 -0.29859972
-0.4208149 0.032503247 -0.34273672
-0.3748039 -0.71906173 0.44330597
-0.3706589 -0.63648176 0.51410389
-0.4029139 -0.2059058 -0.036917686
-0.38107291 -0.49677873 0.33619928
-0.44886789 0.30944824 -0.71077585
-0.3981289 -0.35519671 0.14326096
-0.38079089 -0.5823127 0.43509817
-0.4056249 -0.2570008 0.017083168
-0.4403899 0.10633624 -0.46217871
-0.4467119 0.18780327 -0.56703615
-0.40871689 -0.30182278 0.063196182
-0.3824349 -0.64051175 0.49915409
-0.4502759 0.14226323 -0.52092505
-0.43855891 -0.0063077807 -0.32936478
-0.39280289 -0.5865078 0.41875124
-0.3994019 -0.50282276 0.31084919
-0.45176089 0.071908236 -0.44260216
-0.4396489 -0.079248786 -0.2473731
-0.3968119 -0.71946573 0.44312811
-0.41240689 -0.4192158 0.1917429
-0.44638988 -0.080818772 -0.2574439
-0.4279539 -0.3072927 0.035583973
-0.43797791 -0.26588273 -0.029721737
-0.44208491 -0.21621478 -0.094099045
-0.4153769 -0.53922772 0.32457209
-0.41788289 -0.50892675 0.28529596
-0.43620589 -0.3665098 0.089164257
-0.4122909 -0.65133679 0.45898199
-0.44867891 -0.21795177 -0.10371876
-0.43128788 -0.42508173 0.16521406
-0.44261488 -0.36841679 0.080060005
-0.42311889 -0.59710872 0.37751293
-0.43028688 -0.51302671 0.26814985
-0.42923188 -0.59924877 0.36920214
-0.43388489 -0.54547679 0.29913902
-0.4439629 -0.4290247 0.14740801
-0.43536189 -0.6013968 0.36086702
-0.44150791 -0.60355079 0.35251331
