# .PCD v0.7 - Point Cloud Data file format
VERSION 0.7
FIELDS x y z
SIZE 4 4 4
TYPE F F F
COUNT 1 1 1
WIDTH 1
HEIGHT 1024
VIEWPOINT 0 0 0 1 0 0 0
POINTS 1024
DATA ascii
1.0799919 -0.018779218 -0.26870441
1.0391049 0.0030918121 -0.1143713
0.97813588 0.10550481 -0.023769379
0.99819487 -0.0037471652 -0.17020226
0.98785192 -0.0054562092 -0.18412018
0.95810091 0.10776579 -0.0082001686
0.9468959 0.18210483 -0.013650417
0.99148291 -0.067488194 -0.35005522
0.93881488 0.10939479 0.0023956299
0.97700387 -0.058347225 -0.28767824
0.9333449 0.10902882 -0.0012731552
0.92326689 0.18743283 0.030488968
0.91836387 0.18661278 0.022578716
0.93510687 0.039145827 -0.15440321
0.90835291 -0.015021205 0.0080609322
0.90190589 0.14566481 0.012079716
0.90014488 0.18726379 0.026021957
0.89532387 -0.0068022013 0.064182758
0.89508289 0.03041482 0.066095829
0.93711591 -0.14587724 -0.26663733
0.90257388 -0.06631422 -0.040551186
0.89856392 0.26085079 -0.0085792542
0.88899887 0.14684981 0.020433903
0.88861787 0.18714082 0.023493767
0.88964087 0.062148809 0.015278816
0.88314587 0.14686579 0.019845009
0.88285089 0.18707979 0.022228718
0.85753089 0.017036796 0.22697258
0.88608289 0.26148379 -0.0039010048
0.89640087 -0.11726117 -0.087332249
0.85219991 0.052703798 0.22363758
0.87244087 0.18589783 0.010486603
0.87284189 0.23242581 0.0071997643
0.88136387 0.30017579 -0.062708378
0.84662688 0.052607834 0.22225761
0.89757788 -0.19522715 -0.19572639
0.86720687 0.14530283 0.004740715
0.86561191 0.18683183 0.017927647
0.86838192 0.23119378 -0.004963398
0.84014291 -0.025143206 0.22838783
0.86937892 0.26074582 -0.013207436
0.84326589 0.049970806 0.20258188
0.83306992 -0.072774172 0.19151402
0.86320692 0.29571283 -0.11182213
0.84428889 0.18485284 -0.0021300316
0.83324689 -0.14679623 0.091859818
0.83793288 0.18534583 0.0014839172
0.83008492 0.070113838 0.068795681
0.84425187 -0.22636819 -0.052713394
0.80852789 0.13640881 0.20436287
0.83091491 -0.05737114 0.010876656
0.8320989 -0.014759183 0.00064563751
0.83292288 0.021508813 -0.0064821243
0.80549687 0.13351583 0.18068886
0.82971591 0.2289958 -0.030242443
0.80004287 -0.12379324 0.2281909
0.80931389 -0.008084178 0.044880867
0.79287189 -0.12987518 0.19031858
0.80826288 0.23265082 0.0017638206
0.83846587 0.28117079 -0.26749516
0.80338889 0.067418814 0.045215607
0.79587692 0.069447815 0.059827805
0.78942591 0.11940181 0.065075874
0.77573591 0.20735079 0.18907976
0.7859329 -0.043823183 0.096717834
0.78683788 -0.0015081763 0.088513851
0.78197092 0.1213038 0.079591751
0.78267592 0.15459681 0.073151588
0.77359587 0.20364279 0.15605974
0.78095788 0.073475838 0.088842869
0.77168089 -0.24508619 0.17355156
0.7752459 0.15641582 0.087630749
0.77478987 0.19636381 0.091829777
0.7711429 -0.03930521 0.12540293
0.77202588 0.0028228164 0.11727285
0.7947939 0.29830879 -0.092311382
0.76781487 0.27367479 0.10235167
0.76540589 0.040521801 0.1247139
0.76069188 -0.1866492 0.16845465
0.75248492 0.1288228 0.13700485
0.75005591 0.0092418194 0.15992785
0.74585891 0.16360581 0.14489698
0.73782992 -0.23577213 0.22128773
0.73897088 -0.17901421 0.21043158
0.74113387 -0.071429133 0.18985367
0.7385959 0.16538179 0.15905285
0.73148692 -0.28650224 0.22725677
0.72929889 0.050424814 0.1931138
0.72292191 -0.027527213 0.19929266
0.72406691 0.087317824 0.18812561
0.72033989 -0.28680623 0.2244978
0.72250891 -0.069032192 0.20332956
0.71774292 0.014551818 0.19380093
0.71846092 0.087209821 0.18673277
0.71402192 0.20635182 0.17373896
0.7144649 0.25151283 0.1693449
0.71214187 0.014434814 0.19240999
0.71285391 0.087101817 0.18534088
0.7080279 0.16778183 0.1760869
0.70840192 0.20625782 0.17234278
0.70724392 0.0869928 0.18394756
0.70517492 -0.12598419 0.20467281
0.7034989 0.28059578 0.16369963
0.7012769 0.049858809 0.1861577
0.70012689 -0.06954515 0.19778061
0.69647688 0.13443881 0.17652178
0.6971609 0.20606679 0.16954756
0.69293588 -0.23651516 0.21263361
0.69224292 0.28042382 0.16090059
0.69040889 0.086660802 0.17976761
0.6889289 -0.069807172 0.19500399
0.68633789 0.25106382 0.16235161
0.68028688 0.20577681 0.16535473
0.67810887 -0.02852422 0.18817902
0.68097889 0.28024882 0.1580987
0.67917788 0.086435795 0.17698097
0.67719692 -0.12667525 0.1977396
0.6743049 0.1671738 0.16770792
0.67250192 -0.028652191 0.18678999
0.67058188 -0.23712814 0.20710087
0.6715979 -0.1268152 0.19635296
0.66837692 0.13390678 0.16954279
0.66944391 0.25078779 0.15815163
0.66794187 0.08620882 0.174191
0.66551691 -0.1795392 0.20008993
0.6659959 -0.12695718 0.19496679
0.6638099 0.25069481 0.15675068
0.66128188 -0.028911173 0.18400669
0.6640749 0.27998281 0.15389681
0.66198689 0.049037814 0.17640877
0.65939587 -0.23744118 0.20433378
0.65776789 0.20538282 0.15976
0.65817291 0.25060081 0.15535069
0.6543169 -0.17983818 0.19731855
0.65005392 -0.029172182 0.18122387
0.65317392 0.32246083 0.14694357
0.65074587 0.048796833 0.17361975
0.65107489 0.085862815 0.1700058
0.64871591 -0.17998922 0.19593191
0.64968491 -0.070746183 0.18527794
0.6475299 0.32237583 0.14553976
0.64512491 0.048674822 0.172225
0.6431129 -0.18014121 0.19454384
0.63796687 -0.1276772 0.18802357
0.63845992 -0.071022153 0.18249655
0.6356169 0.25022084 0.1497426
0.63387692 0.048429787 0.16943598
0.62794387 0.012583792 0.17152596
0.62856591 0.085391819 0.1644187
0.6253649 -0.28954816 0.20100689
0.62394488 0.20477182 0.1513567
0.62019688 -0.23856318 0.19463778
0.62068492 -0.18075716 0.18899393
0.62112987 -0.12811923 0.18385601
0.61868191 0.24992979 0.14553499
0.6166929 0.01232481 0.16873598
0.61892688 0.27924979 0.14267683
0.61928391 0.32194179 0.13851595
0.61265892 0.2045638 0.14855385
0.6107139 -0.030112207 0.17147255
0.61106491 0.012193799 0.16734076
0.60508692 -0.030249178 0.17007875
0.60543388 0.012061834 0.16594601
0.60797292 0.32176578 0.13570356
0.60295492 -0.29023421 0.1954689
0.60105187 0.16577983 0.14951658
0.60009289 0.047676802 0.161057
0.60039389 0.084787786 0.15743065
0.59382987 -0.030527174 0.16728878
0.59445691 0.047548831 0.15965891
0.5926159 -0.18154824 0.18204975
0.59303987 -0.12887418 0.17690086
0.59349489 -0.072157145 0.17135763
0.5900659 0.20414078 0.14294195
0.5906589 0.2787748 0.13565588
0.58881992 0.047419786 0.15825987
0.5891149 0.084541798 0.15463257
0.58699787 -0.18170917 0.18065882
0.58741689 -0.12902725 0.17550993
0.58384889 0.13221282 0.14855957
0.5847699 0.24933279 0.1371088
0.58256692 -0.030807197 0.16449881
0.5831809 0.047290802 0.15686369
0.58347291 0.08441782 0.15323257
0.58052087 -0.29093623 0.18992472
0.5809229 -0.23973215 0.18492556
0.58223891 -0.072449207 0.16856956
0.57845891 0.16532981 0.14390755
0.5787589 0.20392579 0.1401329
0.57097489 -0.07274425 0.16578054
0.56744689 0.20370781 0.13732481
0.56565791 -0.031233191 0.16030979
0.56801492 0.2783848 0.13003063
0.56833988 0.32113081 0.12584972
0.56653589 0.084040821 0.14903164
0.56367689 -0.2914722 0.18576288
0.56534088 -0.072892189 0.1643858
0.56234992 0.2782858 0.12862158
0.55805987 -0.29165316 0.18437576
0.5543769 -0.031521201 0.15751696
0.54762191 -0.18285918 0.1709199
0.5445199 0.16463679 0.13548374
0.54392993 0.083528817 0.14342785
0.54119688 -0.29220223 0.18021059
0.54198992 -0.18302715 0.16952896
0.53913593 0.20315284 0.13029575
0.53997993 0.32066178 0.11879969
0.53827488 0.083398819 0.14202499
0.53179789 -0.032106221 0.15192461
0.53031093 -0.24130213 0.17241859
0.52614689 -0.032254219 0.15052462
0.52644491 0.01014179 0.14637089
0.52669692 0.045955837 0.14286184
0.52585489 -0.073957205 0.15461063
0.52162993 0.13087678 0.13312483
0.5210399 0.045818806 0.14145994
0.51596391 0.13075179 0.13171959
0.51563489 0.082872808 0.13641167
0.5130589 -0.29313517 0.17326498
0.51128888 0.27737081 0.11593676
0.5115779 0.32018083 0.11174059
0.50997192 0.08273983 0.13500786
0.50890791 -0.07442522 0.1504178
0.50510794 0.2024678 0.12184858
0.50405693 0.045401812 0.13725185
0.50252193 -0.18422818 0.15977287
0.50325489 -0.074582219 0.14901876
0.49895394 0.13037181 0.12749958
0.49972793 0.24775279 0.11599779
0.49992192 0.27716184 0.11311388
0.50020391 0.31998479 0.10891485
0.49615493 -0.29370713 0.1690917
0.49722391 -0.13159919 0.15319681
0.49221593 -0.03316021 0.14212465
0.48781994 0.1634298 0.12141562
0.48806894 0.2021178 0.11762094
0.48655394 -0.033314168 0.14072371
0.48682693 0.0091277957 0.13655996
0.48882493 0.31978679 0.10608673
0.48705792 0.044978797 0.13303995
0.48729694 0.082199812 0.12938786
0.48557994 -0.18475616 0.15558481
0.48591992 -0.13193619 0.15040064
0.48089191 -0.0334692 0.13932276
0.47923592 -0.29428816 0.16491699
0.47956192 -0.24294925 0.15988255
0.48026493 -0.13210523 0.14900494
0.48062691 -0.075222135 0.14341974
0.47669992 0.20188081 0.11479998
0.47391292 -0.24313724 0.1584878
0.47427693 -0.18511319 0.15279198
0.47129393 0.24719781 0.10893679
0.46955892 -0.033780217 0.13651657
0.47147593 0.27662981 0.10604858
0.46794692 -0.29468119 0.16213083
0.46560192 0.2470848 0.10752392
0.46604192 0.31938481 0.10042667
0.46296692 -0.1854732 0.14999771
0.45963591 0.2015208 0.11056471
0.46008492 0.27641279 0.10321999
0.45869091 0.044259787 0.12601376
0.45762694 -0.13279319 0.14340782
0.45371494 0.1626758 0.11295891
0.45254794 -0.034254193 0.13230801
0.45279992 0.0082278252 0.12813473
0.45301291 0.044113815 0.12460756
0.44851393 0.2467438 0.10328293
0.44687292 -0.034413218 0.13090372
0.44233093 0.1624198 0.11013365
0.44255394 0.20115578 0.10632801
0.44144192 0.0079218149 0.12532282
0.43969491 -0.29567921 0.15516186
0.43999094 -0.2442832 0.15011358
0.44062892 -0.13331819 0.13920593
0.43752393 0.31887078 0.093341827
0.43617591 0.080943823 0.11672163
0.43465993 -0.18639016 0.14300585
0.43075493 0.12879282 0.11059284
0.43115693 0.20090979 0.1035018
0.43141094 0.24639678 0.099037647
0.42899391 -0.18657625 0.14160585
0.42524192 0.1620298 0.1058979
0.41366294 0.1283828 0.10635567
0.41301692 0.0071437955 0.11828661
0.41340694 0.080367804 0.11108065
0.41167092 -0.24526525 0.14312601
0.41226292 -0.13421118 0.1321969
0.40796193 0.12824482 0.1049428
0.40658492 -0.13439214 0.130795
0.40323994 0.31823683 0.084825993
0.40006593 -0.29711819 0.1453886
0.40063092 -0.18752015 0.13460398
0.40119794 -0.077562213 0.12377882
0.39611992 0.042611837 0.11052084
0.39439592 -0.29732823 0.14399099
0.39550993 -0.077736139 0.12237167
0.39084694 0.12782681 0.10070181
0.39002892 -0.0360502 0.11684275
0.39158094 0.27506679 0.086212635
0.38927191 -0.18790519 0.13179874
0.38530293 0.16109884 0.095995903
0.38549194 0.19989979 0.092184544
0.38571593 0.2454468 0.087698936
0.38433492 -0.036218166 0.11543369
0.38384992 -0.13512516 0.12517977
0.38013792 0.27483481 0.083372593
0.37901694 0.042146802 0.10628891
0.37737793 -0.29796314 0.13979578
0.37790594 -0.18829215 0.1289959
0.37843692 -0.078261137 0.11815166
0.37461492 0.31769478 0.077717781
0.37194392 -0.24668014 0.13332558
0.37246993 -0.13549721 0.12236786
0.37273991 -0.078438163 0.11674356
0.36743593 0.0058588386 0.10700893
0.36602193 -0.29839122 0.1369977
0.36626092 -0.24688613 0.13192368
0.36653194 -0.18868423 0.12618589
0.36677793 -0.13568413 0.12096262
0.36228392 0.12711781 0.093625546
0.36261392 0.1993798 0.086510658
0.36295593 0.27448279 0.079108715
0.36189392 0.041675806 0.10204887
0.35709292 0.24483478 0.080598831
0.35602191 0.0055308342 0.10418558
0.35722491 0.27436382 0.077686787
0.35635093 0.078877807 0.096951962
0.35116294 0.19911683 0.08367157
0.35136291 0.24470979 0.079176903
0.35012493 -0.037243187 0.10697556
0.35149291 0.27424479 0.076263905
0.35168192 0.31725079 0.072022915
0.35063493 0.078724802 0.095536709
0.34543294 0.19898379 0.082250595
0.34594193 0.31713879 0.070597649
0.34423491 -0.07933414 0.10970068
0.33939794 0.1265378 0.087956905
0.33989492 0.24445981 0.076331615
0.34001991 0.27400482 0.07341671
0.33806291 -0.18967915 0.11916161
0.33445892 0.31691283 0.067747593
0.33347294 0.078261793 0.091287613
0.32794294 0.12624383 0.085119724
0.32853994 0.27376282 0.070568562
0.32759693 0.040712833 0.093563557
0.32666191 -0.19008315 0.1163497
0.32267892 0.24408078 0.072060585
0.32201993 0.077948809 0.08845377
0.32052094 -0.30014515 0.12578773
0.32095692 -0.19028723 0.1149416
0.32116693 -0.13721418 0.10970163
0.31660894 0.15942979 0.078979015
0.31705093 0.2735188 0.067718983
0.31629193 0.07779181 0.08703661
0.31502491 -0.24878418 0.11929178
0.31101891 0.19817483 0.073720932
0.31012094 -0.038476169 0.097088814
0.31041992 0.04022181 0.089314938
0.30482891 0.077475786 0.084199905
0.30383393 -0.19090319 0.11071968
0.30424291 -0.080624223 0.099822998
0.29953092 0.19789982 0.070872784
0.29867393 -0.038836181 0.094259739
0.29882792 0.0038397908 0.090042591
0.29980391 0.27314782 0.063439846
0.29772392 -0.30104613 0.12017393
0.29322392 0.0397228 0.08506155
0.28803393 0.19762284 0.068024635
0.28736392 0.0034928322 0.087208748
0.28748891 0.039555788 0.08364296
0.28648892 -0.24987316 0.11226082
0.28669092 -0.1915282 0.10649157
0.28707191 -0.081190228 0.095582962
0.28268093 0.31587082 0.054894924
0.2807759 -0.25009322 0.11085272
0.27677691 0.27264678 0.05772686
0.27601093 0.03921783 0.080803871
0.27613392 0.076671779 0.0770998
0.27115092 0.31563383 0.052033901
0.26414791 -0.081955194 0.089921951
0.25903693 0.1244238 0.068059921
0.25939393 0.24264383 0.056369781
0.25961393 0.31539482 0.049170971
0.25807792 -0.19258821 0.099437714
0.25328091 0.12426782 0.066633701
0.25337893 0.15781778 0.063322544
0.25279692 -0.040306211 0.08292675
0.25292292 0.0024318099 0.078695774
0.25302893 0.03853482 0.07512188
0.25202593 -0.30289817 0.10892296
0.25217792 -0.25121117 0.10380888
0.24772993 0.1966328 0.058037758
0.24794492 0.27200681 0.050577641
0.24738492 0.075849831 0.06998682
0.24630393 -0.3031342 0.10751486
0.24196193 0.1964888 0.056608677
0.24208793 0.24223983 0.052078724
0.24142392 0.0020717978 0.075854778
0.23599893 0.12379479 0.06235981
0.23608893 0.15736383 0.059041977
0.23619293 0.19634479 0.055179596
0.23631592 0.24210382 0.050647736
0.23544492 -0.082932234 0.082836628
0.23023492 0.12363678 0.06093359
0.22941193 -0.19367123 0.092371941
0.22425292 0.037662804 0.0680089
0.22339593 -0.30408823 0.10187674
0.21829893 -0.041443169 0.074409008
0.21858093 0.075009823 0.062863827
0.21778692 -0.25258517 0.095339775
0.21320292 0.2415548 0.044919968
0.21218492 -0.1943332 0.088127613
0.20715292 0.12299478 0.055226803
0.20722893 0.15659481 0.051894665
0.20695992 0.037130833 0.063733578
0.20619093 -0.30481517 0.097644806
0.20643893 -0.19455516 0.086712837
0.20655893 -0.14128721 0.081429005
0.20668793 -0.083930135 0.075740814
0.20153493 0.19546479 0.046595573
0.20163393 0.2412768 0.042053699
0.20169793 0.27095282 0.039109707
0.20068993 -0.1947782 0.085295677
0.20080593 -0.14150023 0.080011845
0.18988493 0.15612578 0.047602654
0.18972193 0.074151814 0.055727959
0.18417393 0.19501579 0.042295933
0.18372093 -0.042610168 0.065871716
0.18331793 -0.25399518 0.086854935
0.18342993 -0.19545424 0.08104372
0.17838292 0.19486582 0.040861607
0.17776991 -0.14236224 0.07433176
0.17787392 -0.084949136 0.068632603
0.17217793 -0.043005168 0.063022614
0.17272092 0.27027678 0.031926632
0.17237993 0.073628783 0.051440716
0.17200492 -0.1425792 0.072910786
0.17210492 -0.085155249 0.067208767
0.16691692 0.27013981 0.030488014
0.16653092 0.035862803 0.053743839
0.16088092 0.1216768 0.04377985
0.16111292 0.27000183 0.029049873
0.16074692 0.035678804 0.052315712
0.16080593 0.073275805 0.048578739
0.16038492 -0.19636822 0.075368881
0.15484393 -0.043605208 0.058745861
0.15490693 -0.00072717667 0.054483891
0.14929092 0.12134081 0.040912628
0.14939192 0.19410181 0.033683777
0.14945592 0.23999584 0.029123783
0.14906192 -0.043806195 0.057318687
0.14912093 -0.00091916323 0.053055763
0.14949693 0.26972479 0.026169777
0.14917192 0.035308838 0.049454689
0.14876792 -0.25544119 0.078353882
0.14327691 -0.044008195 0.055889606
0.14368492 0.26958579 0.024729729
0.14300193 -0.25568521 0.076935768
0.14307792 -0.19706321 0.071107864
0.14314792 -0.14368117 0.065799713
0.14322293 -0.086200237 0.060085773
0.13730292 -0.19729722 0.069685936
0.13736792 -0.14390421 0.064376831
0.13169992 -0.044415176 0.053034782
0.13183193 0.072380781 0.041418552
0.13140193 -0.30807221 0.079255581
0.12620392 0.23941082 0.02336359
0.12590793 -0.044620216 0.051605701
0.12011392 -0.04482621 0.050175667
0.12022592 0.072017789 0.038551807
0.12007391 -0.087051153 0.054378986
0.11408892 -0.30884922 0.075000763
0.11413392 -0.2569232 0.069834709
0.10851792 -0.04523921 0.047316551
0.10855092 -0.0022922158 0.043039799
0.10260992 -0.19872022 0.061145782
0.097013921 0.11979282 0.027987003
0.096752927 -0.30963516 0.070742607
0.096886918 -0.087917209 0.048662663
0.091106921 -0.045866191 0.043021679
0.091129921 -0.0028921962 0.038741589
0.09108492 -0.088135242 0.047232628
0.085331924 0.033214808 0.033688545
0.079526924 0.070725799 0.028503895
0.079393923 -0.31043124 0.066476822
0.079411924 -0.25844121 0.061297894
0.073754922 0.26786882 0.0074028969
0.073632926 -0.19993222 0.054015636
0.067864925 -0.0037041903 0.0330019
0.06787692 0.070348799 0.025625706
0.067829922 -0.20017719 0.05258894
0.062065922 0.26757479 0.004506588
0.062024921 -0.20042324 0.051160812
0.06203492 -0.089241147 0.040073872
0.056215923 0.23759884 0.0060329437
0.056215923 -0.2594732 0.055596828
0.044552922 0.031834781 0.023623943
0.038695924 0.11800683 0.013571739
0.038807921 -0.31232524 0.056511879
0.032848924 0.11782378 0.012127876
0.027000921 0.11764079 0.010682583
0.026948921 0.23681784 -0.0012130737
0.026935922 0.2666778 -0.004193306
0.021149922 0.11745679 0.0092368126
0.021087922 0.23665982 -0.0026640892
0.021316923 -0.20217419 0.041148663
0.02125892 -0.090826154 0.030027866
0.01527692 0.15110081 0.0044107437
0.015205923 0.26637483 -0.0070981979
0.015349921 0.03082478 0.01641655
0.015559923 -0.31343019 0.050803661
0.01542392 -0.091056228 0.028591633
0.0094419234 0.11708683 0.0063438416
0.0095569231 -0.04889214 0.022917747
0.0096269213 -0.14904523 0.032924652
0.0035819225 0.1169008 0.0048956871
0.0034879223 0.2361818 -0.0070199966
0.0037119202 -0.049114227 0.021476746
0.0039199218 -0.31398916 0.047947884
0.0037909225 -0.14928925 0.031487942
-0.0022790767 0.11671382 0.0034489632
-0.0023090765 0.15056479 6.5803528e-05
-0.0019030795 -0.31427014 0.046518803
-0.0020000786 -0.20319617 0.035415649
-0.0081430785 0.11652678 0.001999855
-0.0077790804 -0.26239622 0.0398736
-0.0079420768 -0.091985226 0.022836685
-0.014134075 0.23569882 -0.011381149
-0.01355708 -0.31483614 0.043658733
-0.01361208 -0.26266813 0.038442612
-0.013730075 -0.15002823 0.027177811
-0.019691076 -0.050013185 0.015709877
-0.019740079 -0.0068631768 0.011393547
-0.01939008 -0.31512117 0.042226791
-0.019449081 -0.26294124 0.037008762
-0.025750082 0.11595982 -0.0023503304
-0.025896076 0.2353738 -0.01429224
-0.025287081 -0.26321518 0.035574913
-0.031624075 0.1157698 -0.0038003922
-0.031669077 0.14965779 -0.0071902275
-0.031463075 -0.0072981715 0.0085039139
-0.031820077 0.26513684 -0.018741131
-0.031059075 -0.31569314 0.039364815
-0.031275075 -0.15077519 0.022861004
-0.037710082 0.26497978 -0.020200253
-0.037129078 -0.15102518 0.021421909
-0.043431077 0.1492908 -0.010097027
-0.04348908 0.18866283 -0.014037132
-0.043134075 -0.050925136 0.0099358559
-0.043198075 -0.0077362061 0.0056118965
-0.043603081 0.26482183 -0.021659374
-0.043308076 0.06662482 -0.0018253326
-0.049380075 0.18848681 -0.015494347
-0.049452078 0.23471582 -0.020121098
-0.049003076 -0.05115521 0.0084896088
-0.048585076 -0.3165592 0.035065651
-0.055149075 0.11500078 -0.0096101761
-0.055271078 0.18830979 -0.016949177
-0.054706078 -0.15178418 0.017099857
-0.061037075 0.11480683 -0.011064053
-0.060885075 0.028108835 -0.0023822784
-0.060476076 -0.2058202 0.021045685
-0.06676808 0.027894795 -0.0038332939
-0.066837072 0.065805793 -0.0076313019
-0.072822079 0.11441684 -0.013973236
-0.073052078 0.23404878 -0.025959015
-0.072501078 -0.052084208 0.002702713
-0.072585076 -0.008847177 -0.0016322136
-0.072655082 0.027678788 -0.0052843094
-0.071990073 -0.31772923 0.029325962
-0.072420076 -0.094612241 0.0069637299
-0.078958079 0.2338798 -0.027420998
-0.078383073 -0.052319169 0.0012536049
-0.078470081 -0.0090711713 -0.0030813217
-0.084687069 0.14798284 -0.020290375
-0.084770069 0.18741781 -0.024242401
-0.083708078 -0.31832016 0.026452541
-0.084055081 -0.15306723 0.0098829269
-0.084177077 -0.095102191 0.0040707588
-0.090153068 -0.052790165 -0.0016441345
-0.089571074 -0.31861818 0.025015831
-0.096694082 0.23337078 -0.031808376
-0.096042082 -0.053027153 -0.0030941963
-0.09543708 -0.3189162 0.023575783
-0.10130708 -0.31921613 0.022137642
-0.10169807 -0.15384817 0.0055456161
-0.10842007 0.18669182 -0.030088425
-0.10853307 0.23302883 -0.034735203
-0.10758407 -0.15411019 0.0040988922
-0.10772607 -0.096091151 -0.0017223358
-0.11445607 0.23285681 -0.036200047
-0.11383808 -0.010435164 -0.011788368
-0.11393107 0.026149809 -0.015461445
-0.12006707 0.11282784 -0.025638103
-0.11906707 -0.26773918 0.012559891
-0.12631308 0.23250979 -0.039132118
-0.12565207 -0.010896206 -0.014700413
-0.12639408 0.26254779 -0.042148113
-0.12541808 -0.096843243 -0.0060753822
-0.13156207 -0.011128187 -0.016155243
-0.13177107 0.063490808 -0.023647308
-0.13817908 0.23216182 -0.042067051
-0.13747407 -0.011361182 -0.017611027
-0.13826607 0.26221383 -0.04508543
-0.13673007 -0.26861823 0.0082268715
-0.14326108 -0.054955244 -0.014718056
-0.14339007 -0.01159519 -0.019068241
-0.14349908 0.025032818 -0.022747993
-0.14361307 0.063059807 -0.026568413
-0.14280008 -0.20966017 0.00082778931
-0.14313407 -0.097602248 -0.010432243
-0.14917608 -0.055200219 -0.016173363
-0.14886607 -0.15597224 -0.0060453415
-0.15600108 0.23163283 -0.04647541
-0.15546808 0.062625825 -0.029489994
-0.15460607 -0.21022522 -0.0020713806
-0.15496008 -0.098113179 -0.013341427
-0.16166808 0.1454618 -0.039301395
-0.16194707 0.23145682 -0.047943115
-0.16015008 -0.32227218 0.0077176094
-0.16051307 -0.21050918 -0.0035190582
-0.16087708 -0.098370194 -0.014796257
-0.16789708 0.23127884 -0.049415112
-0.16708307 -0.012538195 -0.024902344
-0.16733308 0.062188804 -0.032416344
-0.16604908 -0.32258415 0.0062727928
-0.16622408 -0.27010322 0.00099468231
-0.16642207 -0.21079421 -0.0049700737
-0.17343707 0.11098379 -0.038808346
-0.17233507 -0.21108019 -0.0064210892
-0.17907707 0.023666799 -0.031513214
-0.18545307 0.1446628 -0.045173168
-0.18501608 0.023435831 -0.032977104
-0.18376708 -0.32352519 0.001932621
-0.19128008 0.11035579 -0.043210983
-0.19066307 -0.056939244 -0.026382446
-0.18967807 -0.32384121 0.00048685074
-0.19009107 -0.21194315 -0.010778427
-0.19690406 0.022971809 -0.035906315
-0.20332107 0.14405578 -0.049583435
-0.20974508 0.26015681 -0.062766075
-0.20895606 0.060634792 -0.042676449
-0.21511206 0.10950881 -0.049089432
-0.21525007 0.14364779 -0.052527428
-0.21541008 0.18329281 -0.056519985
-0.21443507 -0.057951212 -0.032225132
-0.21475908 0.022270799 -0.04030323
-0.22121808 0.14344281 -0.054000378
-0.22056407 -0.014709175 -0.038069248
-0.22652107 -0.014955163 -0.039535046
-0.22667608 0.02179879 -0.043237209
-0.22683808 0.059956789 -0.047083378
-0.22520807 -0.3257612 -0.0082130432
-0.22543108 -0.27315223 -0.01351738
-0.22615707 -0.10125721 -0.030843258
-0.23316509 0.14302981 -0.056948185
-0.23229507 -0.058720231 -0.036615372
-0.23248309 -0.015201211 -0.041003227
-0.23366708 0.25945181 -0.06868124
-0.23914206 0.1428228 -0.058423996
-0.24496907 0.10843283 -0.056453228
-0.24564609 0.25909483 -0.071644306
-0.24301508 -0.32673621 -0.012571335
-0.25128809 0.1821118 -0.065379143
-0.24895608 -0.32706416 -0.014026165
-0.25652507 0.020604789 -0.050588131
-0.26349407 0.22834682 -0.073045254
-0.26084808 -0.32772219 -0.016936302
-0.26109907 -0.27503324 -0.02225399
-0.26907608 0.14177579 -0.065810204
-0.26926908 0.18151182 -0.06981945
-0.26964107 0.25837481 -0.07757616
-0.26848608 0.020121813 -0.053533077
-0.26705408 -0.27535021 -0.023712158
-0.26734307 -0.21579218 -0.029725075
-0.26788908 -0.10315216 -0.041097164
-0.27357408 -0.16184413 -0.03666544
-0.28127009 0.18110782 -0.07278204
-0.28150508 0.22777879 -0.077494144
-0.28027406 -0.017202199 -0.052761078
-0.28689906 0.10689479 -0.066791058
-0.28645208 0.019390821 -0.057955265
-0.28466907 -0.32905114 -0.022764206
-0.28493908 -0.27630913 -0.028092384
-0.28552106 -0.16242623 -0.039596081
-0.29290107 0.10667282 -0.06827116
-0.29307908 0.14092481 -0.071731091
-0.29368708 0.25764579 -0.083520412
-0.29264507 0.057410836 -0.063295364
-0.29864508 0.057173789 -0.064773083
-0.29659706 -0.32972324 -0.025682449
-0.29719207 -0.21731818 -0.037042141
-0.29748008 -0.16301215 -0.042531013
-0.30509907 0.14049482 -0.07469511
-0.30531406 0.18029279 -0.078717232
-0.30317107 -0.21762621 -0.038506031
-0.30377907 -0.10481322 -0.049912453
-0.31000608 -0.062145233 -0.055720329
-0.30977106 -0.10509324 -0.051383018
-0.31694308 0.10577381 -0.074198246
-0.31600708 -0.062415242 -0.057194233
-0.31625009 -0.018740177 -0.061610222
-0.31666806 0.056460798 -0.069212437
-0.32381508 0.25671881 -0.090966225
-0.32268208 0.056220829 -0.070693016
-0.32112908 -0.21855819 -0.042908192
-0.32967606 0.22623581 -0.089393139
-0.32801509 -0.062958241 -0.060145378
-0.32847807 0.01765579 -0.068299294
-0.32743207 -0.16449416 -0.04987812
-0.33543909 0.17925882 -0.086152077
-0.34029606 -0.019782186 -0.067522049
-0.33875906 -0.27924323 -0.041267395
-0.34631708 -0.020045161 -0.069002151
-0.34475607 -0.27957416 -0.042734146
-0.35310107 0.10440379 -0.083108425
-0.35355407 0.1786288 -0.090623379
-0.35112008 -0.22013116 -0.050256252
-0.35145208 -0.16569722 -0.055768013
-0.35836607 -0.020573199 -0.071965218
-0.35883206 0.054767787 -0.079593182
-0.35712808 -0.22044921 -0.051728249
-0.36243007 -0.33349717 -0.041778088
-0.36276308 -0.28057516 -0.047140121
-0.36313906 -0.22076821 -0.053200245
-0.37122509 0.1037088 -0.087573051
-0.36915508 -0.22108817 -0.054673195
-0.37727207 0.10347581 -0.089064121
-0.38250408 -0.021639168 -0.077898026
-0.39018208 0.22424781 -0.10433626
-0.39645508 0.25443178 -0.10891438
-0.39324409 -0.22237813 -0.060572147
-0.39361209 -0.1678412 -0.066105366
-0.40089607 0.014585793 -0.086112022
-0.40807506 0.17670482 -0.10407209
-0.40639308 -0.066572189 -0.079396248
-0.40452906 -0.33597219 -0.052066326
-0.40489608 -0.28295016 -0.057447433
-0.41386908 0.13649583 -0.10151339
-0.41244408 -0.066856146 -0.080883026
-0.41134807 -0.2233572 -0.065005302
-0.41969907 0.10182083 -0.099515438
-0.41738907 -0.22368515 -0.066485405
-0.42487508 -0.023540199 -0.088312149
-0.42541808 0.052026808 -0.095981121
-0.42262208 -0.3370502 -0.05648613
-0.42948207 -0.22434521 -0.069445133
-0.43030807 -0.1108942 -0.080961227
-0.43793309 0.10109979 -0.10400629
-0.43818706 0.13557482 -0.10750723
-0.43509108 -0.28468025 -0.064830303
-0.44457409 0.17538983 -0.11307526
-0.44515207 0.25285679 -0.12094307
-0.44882908 -0.068582177 -0.089814186
-0.4471921 -0.28537917 -0.06778717
-0.45646307 0.13487583 -0.11200905
-0.45676908 0.17494583 -0.11608124
-0.45524207 -0.024924219 -0.095771313
-0.4528431 -0.33886921 -0.063866138
-0.45324907 -0.2857312 -0.06926918
-0.45370808 -0.22567821 -0.075374126
-0.4625611 0.13464183 -0.11351204
-0.46287104 0.17472279 -0.11758614
-0.46098509 -0.06916523 -0.092798233
-0.4619101 0.050489783 -0.10495901
-0.45930806 -0.28608418 -0.070750237
-0.4683921 0.099882782 -0.11150503
-0.46934405 0.22156483 -0.12387609
-0.46706805 -0.069458246 -0.09429121
-0.46800408 0.050230801 -0.10645819
-0.46537009 -0.28643715 -0.072232246
-0.46584108 -0.22635114 -0.078342438
-0.47508505 0.1742748 -0.12059832
-0.47545806 0.22135383 -0.12538528
-0.4741011 0.049970806 -0.10795927
-0.47234508 -0.17195523 -0.08539629
-0.48060206 0.099390805 -0.11451244
-0.47708109 -0.34034717 -0.069786072
-0.48630807 0.049448788 -0.11096239
-0.49407008 0.25124079 -0.13302231
-0.49210009 0.010575831 -0.10853434
-0.49994805 0.22050279 -0.13142824
-0.4966881 -0.17325521 -0.091353416
-0.49717709 -0.11424923 -0.09735918
-0.50505912 0.098396838 -0.12053299
-0.50278211 -0.17358315 -0.092846394
-0.5114761 0.13273978 -0.12556219
-0.50745809 -0.34221923 -0.077201366
-0.50790811 -0.28894615 -0.082627296
-0.50841808 -0.22873914 -0.088757992
-0.51795012 0.17268282 -0.13116503
-0.5196321 -0.34297621 -0.080170155
-0.52061409 -0.22943223 -0.091741085
-0.52108812 -0.17457223 -0.097327232
-0.52987713 0.1320138 -0.13009405
-0.52809113 -0.07243824 -0.10926437
-0.53090811 0.25000083 -0.14211512
-0.53421509 -0.072741151 -0.11076546
-0.53282613 -0.23012817 -0.094727039
-0.53792208 -0.34412217 -0.08463335
-0.53995311 -0.11644614 -0.10784531
-0.54646909 -0.073350191 -0.11377001
-0.54720211 0.0080758333 -0.12207222
-0.54607809 -0.11676323 -0.10934544
-0.5526011 -0.073656201 -0.11527634
-0.55334312 0.0077937841 -0.12358141
-0.55369508 0.046517789 -0.1275301
-0.55166811 -0.17624223 -0.1048131
-0.56030113 0.096114814 -0.13412809
-0.55873811 -0.073963165 -0.11678028
-0.56170613 0.24894983 -0.14971733
-0.5594871 0.0075107813 -0.12509108
-0.56645912 0.095856786 -0.13564301
-0.56759411 0.21810579 -0.14811611
-0.5659951 0.045973837 -0.13055325
-0.56341612 -0.23188925 -0.10220623
-0.57102311 -0.074580193 -0.11979198
-0.57878208 0.095338821 -0.13867617
-0.57911009 0.13004482 -0.14221716
-0.57794213 0.0066568255 -0.12962341
-0.57510412 -0.29300022 -0.099036217
-0.58611912 0.2174378 -0.15268421
-0.58332109 -0.0752002 -0.12280703
-0.5837431 -0.03098321 -0.12732124
-0.58410108 0.0063698292 -0.13113499
-0.58290511 -0.11869121 -0.1183672
-0.5902651 0.0060828328 -0.13265038
-0.59063911 0.044875801 -0.13661003
-0.59729612 0.094556808 -0.14323044
-0.59763408 0.12929279 -0.14677715
-0.59350812 -0.29413021 -0.10352707
-0.59409708 -0.23367715 -0.10970545
-0.60347408 0.094294786 -0.14474916
-0.6017971 -0.076138139 -0.12733841
-0.6029821 0.044321835 -0.13964319
-0.59964913 -0.29450917 -0.10502815
-0.6002441 -0.23403823 -0.11120844
-0.60639513 -0.23440015 -0.11271143
-0.60694212 -0.17931414 -0.11833811
-0.6158421 0.093766809 -0.14779234
-0.61659509 0.16891181 -0.15547228
-0.61707008 0.2163108 -0.16031742
-0.61413312 -0.076769233 -0.13036108
-0.61534113 0.043763816 -0.14268017
-0.61194313 -0.2952702 -0.10802841
-0.61255008 -0.23476315 -0.11421633
-0.62327307 0.21608382 -0.16184616
-0.62358409 0.24679881 -0.16498709
-0.62152809 0.043483794 -0.14420128
-0.62648511 -0.077403188 -0.13338804
-0.62979209 0.24657983 -0.16651821
-0.62732011 0.0043398142 -0.14174843
-0.62370712 -0.34960818 -0.1055522
-0.63478309 0.12776983 -0.15592003
-0.63568813 0.21562582 -0.16490841
-0.63350809 0.0040457845 -0.14326715
-0.64062512 0.092702806 -0.15388823
-0.63602108 -0.35041118 -0.10855341
-0.63720709 -0.23622715 -0.1202383
-0.63778108 -0.18105817 -0.12588024
-0.64504111 -0.078361154 -0.13793612
-0.64338309 -0.23659515 -0.12174511
-0.64458412 -0.12198317 -0.1334734
-0.66089213 0.24547583 -0.17419004
-0.66363108 -0.079328179 -0.14249134
-0.66712409 0.24525279 -0.17572737
-0.66192609 -0.23770821 -0.12627411
-0.67169112 0.091353834 -0.1615262
-0.67302513 0.21423781 -0.17411232
-0.67791712 0.091081798 -0.16305637
-0.67926311 0.21400481 -0.17564917
-0.67364508 -0.2991482 -0.12308216
-0.67491508 -0.18318522 -0.13496017
-0.68453109 0.12569481 -0.1681633
-0.68550313 0.21376979 -0.1771884
-0.68584311 0.24458081 -0.18034315
-0.68359208 0.040636837 -0.15944719
-0.69076711 0.12543279 -0.16969728
-0.68938512 0.0013638139 -0.15698242
-0.68670708 -0.23920822 -0.13232517
-0.69561309 0.0010607839 -0.15850925
-0.69162512 -0.35408616 -0.12210035
-0.69420111 -0.12469018 -0.14561844
-0.70424908 0.21306181 -0.18180704
-0.70142108 -0.036814213 -0.1561861
-0.69782412 -0.35450125 -0.12361145
-0.6984331 -0.30073214 -0.12912607
-0.6997481 -0.18462515 -0.14103031
-0.70714509 -0.081619143 -0.15315104
-0.71085811 0.24367481 -0.18651342
-0.7040261 -0.35491717 -0.12512016
-0.70533311 -0.24034417 -0.13687325
-0.7059651 -0.18498814 -0.14254904
-0.71534908 0.089431822 -0.17225838
-0.72160113 0.089153826 -0.17379522
-0.72012913 -0.037766218 -0.16077232
-0.7184121 -0.18571615 -0.14559221
-0.72328311 -0.30233514 -0.13518429
-0.7246421 -0.18608224 -0.14711523
-0.73501009 0.16418684 -0.1846323
-0.73834509 -0.083286166 -0.1607933
-0.73509312 -0.35701418 -0.13268518
-0.73782408 -0.12711215 -0.15629339
-0.7484991 0.24229479 -0.19579506
-0.74558109 -0.001393199 -0.17076826
-0.74604911 0.037701786 -0.17478228
-0.74131811 -0.35743821 -0.134202
-0.74407208 -0.12746215 -0.15782022
-0.75292408 0.087751806 -0.18149328
-0.75478709 0.24206281 -0.1973443
-0.75231713 0.037403822 -0.17632103
-0.75920308 0.087468803 -0.18303633
-0.7585901 0.037104785 -0.17786121
-0.7544381 -0.30436623 -0.1427784
-0.75517911 -0.24342525 -0.14903831
-0.76641113 0.16289783 -0.1923604
-0.76392508 -0.040019214 -0.1715064
-0.76438612 -0.002328217 -0.17538023
-0.77176809 0.086899817 -0.18612337
-0.77270412 0.16263783 -0.19390917
-0.77959412 0.21016681 -0.20037222
-0.77591813 -0.085318208 -0.16999245
-0.77317709 -0.30559921 -0.14734411
-0.78530008 0.16211581 -0.19700813
-0.78219408 -0.085660219 -0.17152739
-0.77943212 -0.30601215 -0.14886808
-0.79160708 0.16185284 -0.19856024
-0.79791611 0.1615898 -0.2001133
-0.7934401 -0.19018018 -0.16392136
-0.80422813 0.16132581 -0.20166636
-0.80260909 0.034985781 -0.18866634
-0.80048609 -0.13066125 -0.17161798
-0.80956608 0.085174799 -0.19541025
-0.81001908 0.12028581 -0.1990242
-0.81116408 0.20892984 -0.208148
-0.80891412 0.034678817 -0.1902113
-0.8037951 -0.36173916 -0.14940643
-0.80677408 -0.13102221 -0.17315531
-0.8174901 0.20868081 -0.20970631
-0.8152231 0.034371793 -0.19176006
-0.81156313 -0.24697924 -0.16279221
-0.82382208 0.20843083 -0.21126509
-0.82683808 -0.043321192 -0.18691921
-0.83056611 0.2392208 -0.21602201
-0.82487512 -0.19208622 -0.17159605
-0.83484912 0.0840078 -0.2016201
-0.8369081 0.2389788 -0.21758509
-0.83117509 -0.19247115 -0.17313623
-0.83197212 -0.13247514 -0.17931509
-0.83997709 -0.0061522126 -0.19391346
-0.83673209 -0.24858916 -0.16893005
-0.83828211 -0.13284123 -0.18085814
-0.84751713 0.083418787 -0.20473003
-0.84918809 0.20742178 -0.21751213
-0.84579509 -0.04433018 -0.19156313
-0.84960711 0.2384938 -0.22071505
-0.84630513 -0.0064771771 -0.19546509
-0.84148109 -0.36438119 -0.1585722
-0.85212213 -0.044668198 -0.19311333
-0.8526361 -0.0068032146 -0.19701624
-0.84777611 -0.3648262 -0.16010332
-0.84851211 -0.31064022 -0.16569138
-0.8501001 -0.19363225 -0.1777544
-0.86020011 0.082826793 -0.20784616
-0.8618961 0.20691282 -0.22064114
-0.86232108 0.23800683 -0.22384834
-0.86703312 0.11774683 -0.21303606
-0.8658511 0.031882823 -0.20417929
-0.86273712 -0.19441116 -0.18083906
-0.87338912 0.11746079 -0.21459818
-0.86668712 -0.36616814 -0.16470242
-0.8682881 -0.25062823 -0.17662239
-0.8803221 0.15809882 -0.22038507
-0.87375808 -0.31236017 -0.17183638
-0.88736612 0.20588678 -0.22691202
-0.88490909 0.030933797 -0.2088542
-0.89198613 0.081331789 -0.21565008
-0.88640612 -0.31322718 -0.17491627
-0.88727409 -0.25186515 -0.1812501
-0.89885813 0.11630678 -0.22085619
-0.89763409 0.030296803 -0.21197319
-0.89196312 -0.36797523 -0.17084599
-0.90523809 0.11601681 -0.22242212
-0.91221213 0.15672082 -0.22822809
-0.90926212 -0.047758222 -0.2071023
-0.91335613 0.23602784 -0.23642015
-0.91749412 0.080119789 -0.22191238
-0.91675711 0.029334784 -0.21666336
-0.9231391 0.029011786 -0.21822834
-0.91810411 -0.31541717 -0.18262911
-0.91982108 -0.19797421 -0.194767
-0.9207021 -0.13769519 -0.20099735
-0.93027413 0.079508781 -0.22504902
-0.92772412 -0.093811154 -0.20713043
-0.92952609 0.028688788 -0.21979427
-0.9253611 -0.25437224 -0.19053125
-0.9341051 -0.0941782 -0.20868921
-0.93477112 -0.049157143 -0.21334505
-0.9389801 0.23502082 -0.24273109
-0.9353351 -0.011124194 -0.217278
-0.93591911 0.028363824 -0.22136211
-0.9317261 -0.25479424 -0.19208145
-0.93255609 -0.19877923 -0.19787312
-0.93344909 -0.13845718 -0.2041111
-0.9404881 -0.094546199 -0.21025133
-0.94539613 0.23476779 -0.24431229
-0.9423151 0.0280388 -0.22293043
-0.93809313 -0.25521719 -0.19363117
-0.95134908 0.20326978 -0.24266005
-0.94812316 -0.01180321 -0.2204113
-0.94621211 -0.13922524 -0.20722818
-0.94991213 -0.31763923 -0.19036722
-0.95168811 -0.19999421 -0.2025404
-0.95260006 -0.13961017 -0.20878839
-0.95546108 -0.37258625 -0.18627644
-0.96872407 0.077654839 -0.2344842
-0.96926612 0.11306679 -0.23815012
-0.96675915 -0.050928235 -0.22117329
-0.9653911 -0.1403842 -0.21191216
-0.97569305 0.1127668 -0.23973036
-0.97632605 0.15390581 -0.24399042
-0.97086316 -0.2012192 -0.20721626
-0.97179312 -0.14077222 -0.21347523
-0.97888607 -0.09677422 -0.21963644
