# .PCD v0.7 - Point Cloud Data file format
VERSION 0.7
FIELDS x y z
SIZE 4 4 4
TYPE F F F
COUNT 1 1 1
WIDTH 1
HEIGHT 1024
VIEWPOINT 0 0 0 1 0 0 0
POINTS 1024
DATA ascii
0.66441244 0.33700144 -0.85760546
0.64666343 0.30862546 -0.80100441
0.61933345 0.31042844 -0.78276014
0.62844044 0.38136643 -0.89719534
0.59984541 0.26442349 -0.69811821
0.60572541 0.31132448 -0.77367353
0.60937941 0.34046948 -0.82062435
0.61460739 0.38217646 -0.88780832
0.60770643 0.38258046 -0.8831234
0.58642042 0.26536947 -0.68924713
0.59215242 0.31221545 -0.76460743
0.59571439 0.34132648 -0.81143332
0.5797224 0.26584047 -0.68482018
0.58538043 0.31265944 -0.76008224
0.58889741 0.34175348 -0.80684853
0.58705544 0.38378644 -0.86909914
0.56154644 0.22600847 -0.61053944
0.56635243 0.26677948 -0.67598343
0.55172741 0.19891047 -0.56195641
0.57333744 0.38458544 -0.85978127
0.54636341 0.26818049 -0.66276217
0.53208345 0.20042145 -0.54917049
0.53516644 0.22796547 -0.59325743
0.5397194 0.26864445 -0.65836811
0.52555245 0.20092344 -0.54491711
0.5460124 0.38617146 -0.84121418
0.51446944 0.15956247 -0.47376156
0.53153443 0.31617546 -0.72408056
0.53920442 0.38656646 -0.83658457
0.50601041 0.20242149 -0.53218842
0.51322645 0.27049345 -0.64083433
0.52561545 0.38735247 -0.82734728
0.53008145 0.42949045 -0.89459848
0.49951443 0.20291847 -0.52795553
0.51148945 0.31747746 -0.71066952
0.49302641 0.20341349 -0.52372646
0.50003445 0.27141047 -0.63210011
0.50780445 0.34679943 -0.75225353
0.51206446 0.38813448 -0.8181324
0.52792543 0.45655745 -1.0634022
0.49817041 0.31833947 -0.70175314
0.50530142 0.38852447 -0.81353235
0.46941742 0.097987473 -0.34591722
0.47589543 0.16267449 -0.44887114
0.48007342 0.20440245 -0.5152812
0.48687443 0.27232349 -0.62338352
0.50275743 0.43094945 -0.87583828
0.46604642 0.12823045 -0.38913918
0.47361043 0.20489448 -0.5110693
0.49180543 0.38930148 -0.80435133
0.49934843 0.46575147 -0.92593527
0.46715543 0.20538545 -0.50685835
0.46981841 0.23277944 -0.5503974
0.49930042 0.50694746 -1.0324244
0.45053643 0.099628448 -0.33391047
0.44705242 0.12982243 -0.3769722
0.44073841 0.13035047 -0.37292624
0.47200042 0.46711046 -0.90700531
0.43172443 0.10125744 -0.32194233
0.43761742 0.16574544 -0.42414427
0.44760543 0.27503848 -0.59735823
0.42789143 0.059304476 -0.25545216
0.44525141 0.32175046 -0.66630411
0.45838341 0.46778446 -0.89757538
0.42859942 0.20830947 -0.48169756
0.42220241 0.20879346 -0.47751951
0.42457741 0.23608345 -0.52068043
0.40655041 0.028957486 -0.19310617
0.45308143 0.55654246 -1.0386262
0.43210641 0.32259345 -0.65749216
0.44480142 0.46845546 -0.88816929
0.40928242 0.13297248 -0.35275841
0.41581342 0.20927548 -0.47334623
0.41814843 0.23655146 -0.51645517
0.42159542 0.27682745 -0.5801053
0.40316841 0.061542451 -0.23987055
0.43151742 0.39275146 -0.76330614
0.44405341 0.50938547 -0.9947834
0.40301543 0.13349348 -0.34873533
0.41511443 0.27727246 -0.57580519
0.39085442 0.062654436 -0.23210239
0.41245741 0.32384944 -0.64431524
0.42449942 0.46945745 -0.87410355
0.39669442 0.21071547 -0.46085548
0.38470641 0.063208461 -0.22822332
0.40592241 0.32426745 -0.63993216
0.41774943 0.46978945 -0.86942625
0.39033842 0.21119344 -0.45670128
0.37856743 0.063761473 -0.22435045
0.36755341 0.0020284653 -0.12238932
0.38927141 0.27904046 -0.55865049
0.39288241 0.32509845 -0.63118315
0.39833441 0.39463747 -0.74069643
0.40160143 0.43630147 -0.80631018
0.36952642 0.10660946 -0.2823143
0.37764943 0.21214545 -0.44840527
0.35879642 -0.032791555 -0.062925339
0.37974241 0.23933446 -0.49119425
0.38283241 0.27948046 -0.55437422
0.38857642 0.35410649 -0.67181635
0.39172441 0.39501244 -0.73619032
0.39755642 0.47078046 -0.85543013
0.36819142 0.17126548 -0.3792243
0.35282141 -0.032196522 -0.059241295
0.38203341 0.35450345 -0.66739655
0.38512141 0.39538544 -0.73168755
0.38826543 0.43700147 -0.7971344
0.35717741 0.10766643 -0.27443552
0.36499143 0.21309447 -0.44012737
0.37338442 0.32633746 -0.61809635
0.37550142 0.35489947 -0.66298342
0.38413742 0.47143847 -0.84612656
0.35315442 0.13761747 -0.3167181
0.35867542 0.21356648 -0.43599415
0.34089643 -0.031010568 -0.051885128
0.34346643 0.0043404698 -0.10740423
0.34798542 0.066506445 -0.20503616
0.38596943 0.55741048 -1.0257125
0.37194541 0.39613044 -0.72270346
0.34486043 0.10871744 -0.26657629
0.34695643 0.13812846 -0.31273317
0.33746341 0.0049154758 -0.10366917
0.33580542 0.067596436 -0.19733953
0.36170241 0.43838948 -0.77885342
0.36707443 0.51530546 -0.89947653
0.33257243 0.10976344 -0.25873041
0.32547641 0.0060614347 -0.096203327
0.34162641 0.24208045 -0.46610022
0.34436443 0.28209645 -0.52881336
0.36636743 0.55708247 -1.0327654
0.34945342 0.35647547 -0.64537811
0.35224342 0.39724046 -0.70926428
0.36034241 0.51560545 -0.89476252
0.32840842 0.13965243 -0.30080748
0.31712943 -0.028653562 -0.037215233
0.34105441 0.32838345 -0.59638214
0.34847242 0.43907946 -0.76974154
0.32224143 0.14015746 -0.29684019
0.31351942 0.0072024465 -0.088755131
0.31550241 0.037423432 -0.13605452
0.33461443 0.32879049 -0.59205627
0.34187043 0.43942344 -0.76519632
0.31419843 0.11132449 -0.24699354
0.31608143 0.14066243 -0.2928772
0.32094142 0.21637845 -0.41129541
0.30949041 0.037977457 -0.13228035
0.33000743 0.35764647 -0.63222742
0.33527842 0.43976545 -0.7606554
0.30309743 -0.061636508 0.023513794
0.31209442 0.17568046 -0.34285927
0.29937741 -0.02690053 -0.026248455
0.32175541 0.32960045 -0.58341312
0.32869241 0.44010746 -0.75611925
0.30198443 0.11235946 -0.23918629
0.30589941 0.17616546 -0.33883953
0.31008342 0.24433947 -0.4453125
0.31957743 0.39907348 -0.68697023
0.32681942 0.51709145 -0.87128544
0.28857741 -0.10611755 0.10203362
0.29138041 -0.060441554 0.030694485
0.28757843 -0.025737524 -0.01895237
0.30379841 0.24478745 -0.44117022
0.30619043 0.28467643 -0.50342321
0.30893141 0.33040649 -0.57479334
0.31063443 0.35881048 -0.61912251
0.31758142 0.47467747 -0.79995346
0.32014242 0.51738644 -0.86660814
0.28553343 -0.059845507 0.034280777
0.29151642 0.14266944 -0.27706337
0.29353443 0.17713147 -0.33081341
0.29985541 0.28510249 -0.49920845
0.31610143 0.56255847 -0.93192434
0.30253243 0.33080846 -0.57049036
0.30657142 0.39980143 -0.67809153
0.27969342 -0.059250534 0.037862778
0.28736243 0.17761344 -0.32680655
0.27580643 -0.024580538 -0.011671543
0.27781743 0.010593474 -0.066493511
0.27953944 0.040730476 -0.11346436
0.30937642 0.56282449 -0.92716837
0.30437541 0.47531646 -0.79078531
0.27125242 -0.10427457 0.11253977
0.28348541 0.21915245 -0.38674927
0.27188942 0.011154473 -0.062792301
0.27356943 0.041277468 -0.10970926
0.28975442 0.33160949 -0.56189632
0.29133543 0.35996544 -0.6060605
0.29589841 0.44180548 -0.73352146
0.27727044 0.21961045 -0.38267517
0.26406142 -0.023428559 -0.004401207
0.28089944 0.28637648 -0.48658848
0.27249044 0.24701548 -0.42051649
0.28462943 0.47626847 -0.77707243
0.25639641 -0.05688554 0.052159786
0.25947142 0.11594343 -0.2119894
0.25415441 0.012829483 -0.051718235
0.26625243 0.24745846 -0.41639853
0.26830244 0.28722048 -0.47819948
0.25733742 0.07455945 -0.14766645
0.27211243 0.36111349 -0.59304333
0.27632442 0.44281447 -0.7200284
0.26001942 0.24790049 -0.41228437
0.26201344 0.28764147 -0.47401047
0.24976341 0.043453455 -0.094735146
0.27588543 0.56414747 -0.90346813
0.26429942 0.33319944 -0.54476833
0.25048742 0.18048048 -0.30284929
0.24236342 0.01393944 -0.044352531
0.25573441 0.28806049 -0.46982718
0.26921344 0.56441045 -0.89874649
0.25795543 0.33359444 -0.54049921
0.26331544 0.44348347 -0.71105623
0.24274142 0.14662844 -0.24562836
0.23647942 0.014493465 -0.040675163
0.24758242 0.24877948 -0.40407228
0.25487542 0.40267646 -0.64277029
0.25842243 0.47752845 -0.75886726
0.22908942 -0.14145058 0.20120859
0.23105241 -0.10002154 0.13694859
0.24013843 0.22233945 -0.35831022
0.22898942 -0.020002544 0.017323494
0.23060142 0.015045464 -0.036999226
0.23343642 0.076661468 -0.13250542
0.25189143 0.47784147 -0.75432825
0.22343042 -0.14083153 0.20461273
0.22932142 0.11846948 -0.1926775
0.23397642 0.22279143 -0.35426331
0.22473142 0.015596449 -0.033328533
0.22747941 0.077183485 -0.12872648
0.24925342 0.56519449 -0.88461542
0.24386743 0.44448048 -0.69764137
0.24536942 0.47815347 -0.74979639
0.21777941 -0.14021355 0.20801449
0.22781941 0.22324145 -0.35022354
0.21886542 0.016145468 -0.029660225
0.23069441 0.28973049 -0.45313549
0.24408442 0.59944248 -0.9325223
0.23562342 0.40374148 -0.62960625
0.23885442 0.47846547 -0.74526834
0.21020442 -0.18416852 0.28040648
0.21213242 -0.13959652 0.21141243
0.21392141 -0.098219573 0.14736557
0.21300842 0.016694486 -0.025994301
0.22445442 0.29014546 -0.44897413
0.23094141 0.44514143 -0.68872118
0.23412342 0.52115947 -0.8063035
0.20822342 -0.097620547 0.15083265
0.21249442 0.14906746 -0.22610855
0.20574242 -0.017743528 0.03174448
0.20964742 0.078744471 -0.11740446
0.23074342 0.59992045 -0.92300653
0.22283141 0.40444648 -0.62085819
0.19905742 -0.18290251 0.28704548
0.20253342 -0.097023547 0.15429544
0.20780542 0.18377548 -0.27508354
0.20940042 0.22458547 -0.33812237
0.20248643 0.047745466 -0.064954281
0.22275943 0.56623244 -0.86585236
0.21487142 0.36450744 -0.55425549
0.19349241 -0.18227249 0.29036188
0.19862242 -0.051064551 0.087680817
0.20044541 0.15003449 -0.21832514
0.20327441 0.22503245 -0.33409643
0.19415742 -0.01662153 0.038935661
0.19660641 0.048277438 -0.061246395
0.21615542 0.56648946 -0.86117411
0.21447742 0.52201343 -0.79252052
0.19116943 -0.095834553 0.16121387
0.19287942 -0.050489485 0.091217518
0.19337542 0.12146348 -0.16962433
0.19715641 0.22547746 -0.33007431
0.21079442 0.60063243 -0.90877533
0.20121542 0.33711147 -0.50227833
0.20518942 0.44645447 -0.67094517
0.18097542 -0.21964449 0.35657549
0.18237942 -0.18101555 0.29698563
0.19494942 0.33749747 -0.49805355
0.19877242 0.44678044 -0.6665144
0.18242642 0.15147746 -0.20668411
0.17683242 -0.014947534 0.049697876
0.18963742 0.36599445 -0.53713846
0.19349042 0.48062545 -0.71372557
0.17278641 -0.13531655 0.23512888
0.17549942 0.12294447 -0.15814734
0.17643543 0.15195644 -0.20281124
0.17753641 0.18609744 -0.25536919
0.17884842 0.22680646 -0.31803751
0.18983541 0.56751442 -0.84252739
0.16292141 -0.26708955 0.44229555
0.16575842 -0.17913955 0.30690145
0.16719042 -0.13471156 0.23850489
0.17150243 0.18655849 -0.25143719
0.17275842 0.22724748 -0.31403255
0.16639042 0.021038473 0.0032024384
0.16828442 0.082344472 -0.091114521
0.18431842 0.60157347 -0.88988113
0.17619942 0.33865047 -0.48540831
0.17706642 0.36673146 -0.52860832
0.18190542 0.52342343 -0.76965618
0.16427042 -0.047633588 0.10884857
0.16547742 0.18701845 -0.24751139
0.16667841 0.22768748 -0.31003141
0.16863042 0.29383546 -0.41172218
0.17772143 0.60180748 -0.88517237
0.17079341 0.36709946 -0.52435017
0.17318343 0.44807744 -0.64884043
0.15356742 -0.21645051 0.37277365
0.15601642 -0.13350254 0.24525166
0.15723242 -0.092295587 0.18189859
0.15945943 0.18747848 -0.24358749
0.16060442 0.22812647 -0.30603552
0.15480343 0.022111475 0.010468483
0.17113242 0.60204148 -0.88046932
0.16373841 0.33941448 -0.4770031
0.16452742 0.36746645 -0.52009726
0.17246142 0.64924848 -0.95299149
0.16774842 0.48184446 -0.69581318
0.16893442 0.52398348 -0.7605505
0.15159842 -0.091710508 0.18533564
0.15176043 0.12490445 -0.14289856
0.15630943 0.29464549 -0.40349245
0.16581643 0.64945245 -0.94819927
0.14324142 0.023181438 0.017722607
0.15015742 0.29504949 -0.39938211
0.14399943 0.053004444 -0.02803421
0.15407543 0.44904244 -0.63563728
0.13593942 -0.26382357 0.45805788
0.13817242 -0.17604154 0.32337666
0.13663243 -0.011086524 0.074699879
0.13818842 0.053524435 -0.024361134
0.13894342 0.084881485 -0.072439194
0.14852643 0.48275045 -0.68243456
0.14953943 0.52481747 -0.74692822
0.13174742 -0.21392053 0.38568687
0.13468543 0.15527844 -0.17580128
0.13545842 0.18930447 -0.22793245
0.13091542 -0.010539532 0.078258514
0.14409542 0.56928545 -0.81010437
0.14137742 0.44968247 -0.62685919
0.14309143 0.52509445 -0.74240017
0.12813142 0.12684643 -0.1277051
0.12594843 0.024775445 0.028578758
0.12725542 0.085888445 -0.064993382
0.12448542 -0.043687522 0.13340378
0.11950143 -0.0094495416 0.08536768
0.12142143 0.086390436 -0.061276436
0.13177742 0.60343045 -0.8523674
0.13271943 0.65046644 -0.92433548
0.12789543 0.40963447 -0.55585432
0.12937842 0.48365045 -0.66910124
0.11710042 -0.12931651 0.26877546
0.11882742 -0.04312855 0.1369009
0.11635642 0.12781143 -0.12013054
0.11828743 0.23117149 -0.27816916
0.12461843 0.5700345 -0.79629135
0.12162742 0.40997344 -0.55155754
0.11098042 0.15715349 -0.16044855
0.11156942 0.19111347 -0.2123394
0.10811143 -0.0083645582 0.092465878
0.10871342 0.026359439 0.039405823
0.11814243 0.57028347 -0.79169941
0.11872542 0.60388845 -0.84304523
0.11737843 0.52619547 -0.72433138
0.10375042 -0.25995153 0.47689772
0.10752842 -0.042014539 0.14388466
0.098748431 0.12925047 -0.10879517
0.10026042 0.23246145 -0.26628828
0.096748427 -0.0072845221 0.099550724
0.097256422 0.027409434 0.046608448
0.097691417 0.057127476 0.0012617111
0.098149419 0.088386476 -0.046438217
0.10188243 0.34318346 -0.43523932
0.10229042 0.37108743 -0.47781754
0.10457042 0.52674145 -0.71533155
0.094347425 -0.17115349 0.3496089
0.092309423 -0.31032854 0.56198359
0.093275428 0.15854847 -0.14897537
0.094265424 0.23288947 -0.26233625
0.092348427 0.088882446 -0.042739391
0.090628423 -0.040353596 0.15433788
0.092320427 0.57127249 -0.77337837
0.089933425 0.37180144 -0.46941519
0.082989424 -0.20830852 0.41460466
0.085006423 -0.039802492 0.15781784
0.080433428 0.058654487 0.01219368
0.083766423 0.37215745 -0.46522045
0.084973425 0.48572645 -0.63816643
0.078009427 -0.16934258 0.35940456
0.074417427 0.029495478 0.060977459
0.076567426 0.26068443 -0.29085255
0.074693426 0.059161484 0.015828609
0.077606425 0.37251246 -0.46103144
0.077976421 0.41232747 -0.52162123
0.079050422 0.52782643 -0.69738531
0.071282424 -0.3077125 0.57415867
0.070032425 0.19424045 -0.18519735
0.070353419 0.23459244 -0.24656343
0.068724424 0.030014455 0.064561844
0.071232423 0.34503645 -0.41452122
0.072093427 0.45314646 -0.57893229
0.072357424 0.48631346 -0.62937212
0.066117421 -0.41200751 0.56247044
0.068181425 -0.038155496 0.16823673
0.066040426 -0.30706149 0.5771966
0.064391419 0.23501647 -0.24262714
0.062806427 -0.004072547 0.12073565
0.063035421 0.030532479 0.06814146
0.064826421 0.30060244 -0.34230232
0.063232422 0.060171485 0.023096561
0.063439421 0.091346443 -0.024284363
0.066627428 0.57225245 -0.75514221
0.065308422 0.37322044 -0.45266342
0.065571427 0.41299248 -0.51311016
0.066336423 0.52836549 -0.68844414
0.061722424 -0.16754359 0.36918068
0.060888425 -0.41252059 0.5602026
0.062286422 -0.082520545 0.23996067
0.062583424 -0.037609518 0.17170382
0.058438424 0.23543847 -0.23869944
0.058578424 0.26191545 -0.27891111
0.057677425 0.091836452 -0.02060318
0.059170425 0.37357247 -0.44848633
0.059381425 0.41332448 -0.50886011
0.052083425 0.13303947 -0.07872057
0.052597426 0.26232445 -0.27493811
0.050422423 -0.41355151 0.55566168
0.046280425 0.13350844 -0.074977398
0.046012424 0.032077432 0.078866482
0.046622425 0.26273143 -0.27097034
0.046090424 0.061678469 0.033970833
0.047217425 0.48747846 -0.61184311
0.047328424 0.52916849 -0.67507315
0.045183424 -0.41407055 0.55338669
0.045832425 -0.035976529 0.18208885
0.045121424 -0.30447358 0.58933163
0.040522423 0.16267645 -0.11473942
0.040706422 0.30215544 -0.32614517
0.040765423 0.34686649 -0.39391136
0.040908422 0.45469248 -0.55734015
0.040088423 -0.1651625 0.38217783
0.034692425 0.16313046 -0.11095142
0.034692425 0.23711747 -0.22301722
0.034692425 0.033102453 0.086001873
0.034692425 0.26354349 -0.26304436
0.034692425 0.062677443 0.041204453
0.034692425 0.34723043 -0.3898015
0.034692425 0.45499945 -0.55303431
0.034692425 0.52970046 -0.66618252
0.034692425 -0.25173253 0.51744556
0.034692425 -0.079714596 0.25688744
0.028909424 0.13490844 -0.063768387
0.028871424 0.16358244 -0.10716915
0.028827423 0.19731843 -0.15823317
0.028963424 0.094266474 -0.0022482872
0.028592423 0.37532347 -0.42767048
0.028486423 0.45530546 -0.5487361
0.029419424 -0.25111049 0.52055073
0.029304424 -0.16398054 0.38866186
0.029442424 -0.4156335 0.54655361
0.029192423 -0.079156578 0.26026344
0.029133424 -0.034355521 0.19244766
0.023132425 0.13537246 -0.060036182
0.022393424 0.41529745 -0.48346138
0.022287425 0.45561045 -0.54444027
0.024151424 -0.25048858 0.52365255
0.024022423 -0.20159549 0.44969273
0.023921423 -0.16339058 0.39190149
0.024187423 -0.41615754 0.54426956
0.016698424 0.30369544 -0.31005144
0.017646424 0.064166486 0.05202961
0.016411424 0.37601745 -0.41937351
0.018888423 -0.24986857 0.52675247
0.018544424 -0.16280252 0.39513779
0.018878425 -0.45813352 0.52275372
0.018031424 -0.033280551 0.19934082
0.019066423 -0.30336851 0.59455872
0.011596425 0.13629848 -0.052586555
0.011445424 0.16493344 -0.095842361
0.010477424 0.34867644 -0.37340641
0.013630424 -0.24924952 0.52985048
0.013171423 -0.16221648 0.3983717
0.0058394242 0.13676047 -0.048866272
0.0054294243 0.19905543 -0.14290619
0.005164424 0.23919547 -0.20350313
0.0065054242 0.035643458 0.10378456
0.0044414233 0.34903544 -0.36931753
0.0042594243 0.37670946 -0.41109419
0.0083784238 -0.24863249 0.53294754
0.0080564246 -0.19979256 0.45921469
0.0078054238 -0.16163057 0.40160275
0.0083974227 -0.41773957 0.53740788
0.008627424 -0.30432957 0.59006166
-0.0004035756 0.19948745 -0.13908529
0.0004084222 0.096670449 0.01602459
-0.0024365745 0.45682544 -0.52730513
0.0027464218 -0.19919449 0.46238375
0.0020974241 -0.11713558 0.3385849
0.0030254237 -0.45977348 0.51583958
0.0017754249 -0.076387584 0.27711058
0.0014224239 -0.031677544 0.20965767
-0.0044085756 0.0022244453 0.16278267
-0.0029105768 -0.16046351 0.4080596
-0.0021485761 -0.41880256 0.53282166
-0.0041015781 -0.031144559 0.2130928
-0.0019645765 -0.35428351 0.56279659
-0.0099705756 0.002741456 0.16626644
-0.010332577 0.037155449 0.11441851
-0.012747575 0.26675445 -0.23149824
-0.010642577 0.066627443 0.070012569
-0.0073455758 -0.24678856 0.54222155
-0.0078065768 -0.53631848 0.47615671
-0.0087215751 -0.11600453 0.34517479
-0.017127577 0.13859546 -0.034020424
-0.018336575 0.24084044 -0.18795824
-0.015527576 0.0032574534 0.16975069
-0.015933577 0.037656486 0.11795664
-0.018647578 0.26715147 -0.22757244
-0.012577575 -0.24617654 0.54530859
-0.013154577 -0.19740659 0.47187853
-0.014604576 -0.074741542 0.28718662
-0.012296576 -0.30626851 0.58103991
-0.021076575 0.0037724376 0.17322874
-0.021528576 0.03815645 0.12149286
-0.025049575 0.30635548 -0.28203917
-0.022321578 0.09857446 0.030585766
-0.027041577 0.45802945 -0.51024437
-0.018473577 -0.53749257 0.47147274
-0.017537575 -0.30675751 0.5787797
-0.028572578 0.13950747 -0.026617527
-0.029468577 0.20163149 -0.12002516
-0.026620578 0.004286468 0.17670584
-0.030425575 0.26794344 -0.21973228
-0.027541578 0.068091452 0.080766678
-0.027988579 0.099047482 0.034219742
-0.032025579 0.37876344 -0.38635826
-0.032594573 0.41820645 -0.44566441
-0.023726575 -0.19622153 0.47819853
-0.023813576 -0.53808159 0.46912575
-0.023475576 -0.46253949 0.5042696
-0.026139576 -0.029028535 0.22679853
-0.023001578 -0.35631758 0.55368757
-0.034284573 0.13996148 -0.022920132
-0.035262574 0.20205647 -0.11622429
-0.038047578 0.37910348 -0.38225126
-0.028788578 -0.46309751 0.50194979
-0.028585579 -0.42148751 0.52131367
-0.031633575 -0.028502524 0.23021984
-0.028031576 -0.30773848 0.5742507
-0.041731577 0.24247044 -0.17247248
-0.042839576 0.30748248 -0.27009344
-0.039304573 0.099990487 0.041474819
-0.03450558 -0.53926653 0.46442556
-0.034926575 -0.1569925 0.42737246
-0.034106579 -0.46365756 0.49962568
-0.033886578 -0.42202955 0.51900482
-0.036364574 -0.072562516 0.30058765
-0.043217573 0.0058204532 0.18711853
-0.043846574 0.040147483 0.13560677
-0.048754577 0.30785644 -0.26611948
-0.049568575 0.35223347 -0.33271027
-0.050795574 0.41916245 -0.43314314
-0.038652573 -0.24313658 0.56071568
-0.039545577 -0.19445354 0.48765945
-0.039857578 -0.53986055 0.46207285
-0.040242579 -0.1564185 0.43058252
-0.038822573 -0.35785955 0.54683161
-0.051946577 0.16981047 -0.054576397
-0.053388577 0.24328047 -0.16475153
-0.048737574 0.0063294768 0.19058466
-0.049410578 0.04064244 0.13912773
-0.053903576 0.26951647 -0.20409441
-0.055534575 0.35258448 -0.32866335
-0.056074578 0.38011748 -0.3699522
-0.056847576 0.41947949 -0.4289794
-0.043851573 -0.24253255 0.56378984
-0.044806574 -0.19386655 0.49080944
-0.045553576 -0.15584654 0.43379068
-0.044498574 -0.42311758 0.51438189
-0.047209579 -0.071480572 0.30727148
-0.044103574 -0.35837656 0.54454184
-0.057670575 0.17024744 -0.0508461
-0.059207577 0.24368346 -0.16089725
-0.054251578 0.0068374872 0.1940465
-0.06056558 0.30860245 -0.25818348
-0.061493579 0.35293448 -0.32462025
-0.062892571 0.41979647 -0.42481852
-0.049045574 -0.24192959 0.56686354
-0.050858576 -0.15527457 0.43699789
-0.049068574 -0.30971855 0.56516552
-0.062756583 0.14221746 -0.0044865608
-0.065601572 0.27029747 -0.19630051
-0.061859574 0.10186446 0.055946827
-0.054233577 -0.24132854 0.56993484
-0.055314574 -0.19269758 0.49710178
-0.056508575 -0.62399453 0.41661358
-0.055939574 -0.54165548 0.45499754
-0.055415574 -0.46591359 0.49030781
-0.054338578 -0.31021756 0.56288958
-0.065263569 0.0078504682 0.2009635
-0.066758573 0.071467459 0.10574865
-0.067484573 0.10233045 0.059557438
-0.074039578 0.38112545 -0.35769033
-0.059418578 -0.24072748 0.57300568
-0.060448576 -0.42476255 0.50742769
-0.059973579 -0.35993654 0.53765869
-0.059613574 -0.31071752 0.56061077
-0.074807569 0.17155343 -0.039672375
-0.07075958 0.008354485 0.20441866
-0.07823357 0.30971348 -0.24630737
-0.072336569 0.071945488 0.10930681
-0.07310158 0.10279447 0.063164711
-0.065801576 -0.19153255 0.5033865
-0.067827582 -0.10987157 0.38124657
-0.084108576 0.31008244 -0.2423563
-0.077908576 0.072422445 0.11285973
-0.069769576 -0.23953158 0.57913589
-0.07206057 -0.54346651 0.44790173
-0.071102574 -0.42586654 0.50277853
-0.074224576 -0.068795502 0.32393646
-0.070574582 -0.36098355 0.53305769
-0.087114573 0.20584649 -0.082167149
-0.089977577 0.31045043 -0.23841047
-0.084318578 0.10372144 0.070370674
-0.074937582 -0.23893553 0.58219862
-0.07626757 -0.1903736 0.50966167
-0.079610571 -0.068262517 0.32726288
-0.075458571 -0.31222659 0.55376053
-0.092844576 0.20626247 -0.078400135
-0.094735578 0.27223349 -0.17687225
-0.089036569 0.073373437 0.11995983
-0.097108573 0.35501945 -0.30044556
-0.080101579 -0.23834056 0.58526087
-0.08357057 -0.6272065 0.40461969
-0.082830578 -0.54468256 0.44315767
-0.081192583 -0.3620376 0.52844763
-0.097567573 0.17328143 -0.024820328
-0.10301958 0.35536444 -0.29642916
-0.087116569 -0.42753559 0.49578953
-0.086507574 -0.36256653 0.52613878
-0.10235558 0.14533246 0.021187782
-0.10634258 0.27300245 -0.16913033
-0.10754558 0.31154948 -0.22659111
-0.090612575 -0.23908049 0.58178043
-0.093109578 -0.1507476 0.4625659
-0.092872575 -0.46992654 0.47390747
-0.091826573 -0.36309749 0.52382755
-0.091343582 -0.31374949 0.54688883
-0.11128658 0.24727243 -0.12636232
-0.10361858 0.01135844 0.22508669
-0.11213557 0.27338547 -0.16526318
-0.11338858 0.31191343 -0.22265911
-0.10568058 0.074791431 0.13058567
-0.10059358 -0.7012375 0.36369848
-0.098366573 -0.1501866 0.46575165
-0.099784583 -0.10658854 0.4008007
-0.10254158 -0.021766543 0.27443552
-0.11361358 0.14621347 0.028492451
-0.11457159 0.17456645 -0.013716221
-0.10907458 0.011855483 0.22852087
-0.11121657 0.075261474 0.13412189
-0.12071458 0.35639346 -0.28440952
-0.10606258 -0.7019245 0.36125755
-0.11923558 0.14665246 0.032141685
-0.11572358 0.046494484 0.18115568
-0.11074159 -0.63046652 0.39256144
-0.11039358 -0.10550457 0.40729952
-0.10899058 -0.47167152 0.4668417
-0.12484857 0.14709044 0.035786629
-0.12708858 0.20874047 -0.055871487
-0.11774758 -0.76748055 0.32633686
-0.11410758 -0.14851254 0.4752965
-0.11568958 -0.10496348 0.41054678
-0.11876857 -0.020239532 0.28457689
-0.11258258 -0.31580049 0.53769159
-0.12540957 0.01333946 0.23880959
-0.12669258 0.047454476 0.18812084
-0.13669358 0.31336343 -0.20696831
-0.12416558 -0.019733548 0.28795052
-0.11848858 -0.36577457 0.51223755
-0.13715857 0.17626643 0.0010428429
-0.13084358 0.013831437 0.24223566
-0.14100859 0.27528644 -0.14598227
-0.12230858 -0.24196953 0.56813765
-0.12709658 -0.63244551 0.38529444
-0.12457357 -0.14740354 0.48164749
-0.12955758 -0.019227564 0.29132271
-0.14279158 0.17668945 0.0047268867
-0.14572059 0.24962443 -0.10349846
-0.14676557 0.27566445 -0.1421361
-0.12828258 -0.18465048 0.54091454
-0.13429058 -0.76965755 0.31890678
-0.13150959 -0.55024356 0.42168379
-0.13001058 -0.43205851 0.47704268
-0.13494559 -0.018723547 0.29469347
-0.12918457 -0.36685652 0.50758362
-0.14979458 0.21037346 -0.040919304
-0.15251458 0.27604145 -0.13829613
-0.13693959 -0.5508706 0.41928387
-0.13682158 -0.10281354 0.42350674
-0.14032558 -0.018219531 0.29806089
-0.13389058 -0.31787556 0.52845955
-0.15282959 0.14926648 0.053966522
-0.15825658 0.27641648 -0.13445711
-0.15111858 0.10919243 0.11335182
-0.13862258 -0.18352157 0.54713964
-0.14237557 -0.55149955 0.41688251
-0.14209159 -0.10227853 0.4267416
-0.14570057 -0.01771754 0.30142546
-0.13989659 -0.36794454 0.50292063
-0.16110958 0.21118444 -0.033463478
-0.15252158 0.015790462 0.25590467
-0.15401758 0.049835443 0.20548344
-0.15529957 0.078988433 0.16230965
-0.14997758 -0.70749551 0.3416276
-0.14544559 -0.14519852 0.49432564
-0.14675258 -0.47580248 0.45026779
-0.15107058 -0.017216563 0.30478668
-0.16078357 0.079449475 0.16581964
-0.15640958 -0.7725895 0.30896044
-0.15064958 -0.14465052 0.49749184
-0.15216458 -0.47639948 0.44789076
-0.16332757 0.016762435 0.26272488
-0.16490857 0.050781488 0.21241045
-0.16626258 0.079909444 0.16932869
-0.16195258 -0.77332848 0.30646563
-0.15993458 -0.63645655 0.37068844
-0.15585057 -0.14410359 0.50065374
-0.15758358 -0.47699851 0.44550943
-0.16179457 -0.01621753 0.31150484
-0.15526758 -0.31997448 0.51918745
-0.17510659 0.15098846 0.06845665
-0.16872159 0.017247438 0.26612949
-0.18116558 0.27791244 -0.11914015
-0.17319658 0.11098343 0.1275835
-0.16104458 -0.14355749 0.50381279
-0.16300458 -0.47759956 0.44312763
-0.16714758 -0.015720546 0.31485748
-0.18366759 0.21279448 -0.018589497
-0.18560559 0.25232744 -0.076982498
-0.16438559 -0.18071955 0.56266785
-0.17305058 -0.77481252 0.30147076
-0.16962159 -0.55467051 0.40483665
-0.16777457 -0.43610257 0.46050882
-0.18620858 0.15184444 0.075680733
-0.17860658 -0.77555758 0.29896879
-0.17318758 -0.43668753 0.45813656
-0.17134658 -0.32156557 0.51220989
-0.19175258 0.15227044 0.079289436
-0.19491158 0.21359444 -0.011171341
-0.19694658 0.25309247 -0.06943512
-0.17465658 -0.17960757 0.56886482
-0.18416858 -0.77630454 0.29646254
-0.17860559 -0.43727356 0.45576143
-0.17753159 -0.37180251 0.48652458
-0.19728959 0.15269548 0.082895756
-0.20052359 0.21399343 -0.0074682236
-0.18864758 -0.71247858 0.32430744
-0.18402758 -0.4378615 0.45338488
-0.18208858 -0.32263249 0.50754452
-0.20434058 0.18127549 0.045017719
-0.20066358 0.11319947 0.14530563
-0.19530459 -0.77780551 0.29144382
-0.19293858 -0.64053756 0.35598564
-0.20097058 0.020132482 0.28651047
-0.20284557 0.054055452 0.23656464
-0.19698358 -0.55788857 0.39272356
-0.19210258 -0.14030856 0.52272749
-0.19562958 -0.48123854 0.42877674
-0.21386358 0.15396547 0.09369278
-0.20529158 -0.71464556 0.3168416
-0.20397659 -0.64191359 0.35106373
-0.19970858 -0.096475542 0.46216965
-0.20197858 -0.056315482 0.40308046
-0.22291359 0.21557844 0.0073137283
-0.21167758 0.021086454 0.29328251
-0.21707559 0.11451745 0.15590763
-0.20950457 -0.64260453 0.34859753
-0.20491658 -0.095954597 0.46537781
-0.20362759 -0.32478648 0.49818563
-0.21702257 0.021561444 0.29666567
-0.22073457 0.084453464 0.20425177
-0.21763659 -0.78083354 0.28136969
-0.21011758 -0.09543556 0.46858358
-0.21162757 -0.18125457 0.56160545
-0.21895757 -0.56049556 0.38298464
-0.21773058 -0.054801524 0.41287756
-0.22038257 -0.010803521 0.34826756
-0.21538657 -0.37573856 0.4700036
-0.23156059 0.085349441 0.21120167
-0.22050458 -0.094399512 0.47498655
-0.22211057 -0.44202358 0.43667269
-0.22567657 -0.010318518 0.35159445
-0.24313658 0.18413448 0.070462704
-0.22297958 -0.13710159 0.54156685
-0.22569159 -0.093883574 0.47818565
-0.23096558 -0.0098335147 0.35491943
-0.22523859 -0.32696551 0.4887867
-0.23871157 -0.71903557 0.30183172
-0.23624957 -0.0093505383 0.35824251
-0.23065257 -0.32751459 0.48643064
-0.25233859 0.15689546 0.11878347
-0.24366558 0.023920476 0.31353951
-0.24974558 0.11712545 0.17702866
-0.24276558 -0.64679259 0.33374357
-0.23850259 -0.44383353 0.42946959
-0.25122458 0.058191478 0.26743174
-0.24832559 -0.64749759 0.33125782
-0.24653259 -0.56379753 0.37074947
-0.24121857 -0.092342556 0.48776865
-0.24679959 -0.0083865523 0.36488056
-0.26058957 0.11798745 0.18404865
-0.24526957 -0.25351256 0.51505566
-0.24375358 -0.18414754 0.54779387
-0.25548759 -0.72125858 0.29428864
-0.25389159 -0.64820451 0.32876968
-0.25206158 -0.56446356 0.36829472
-0.25958759 0.025322437 0.32363462
-0.26600459 0.11841649 0.18755388
-0.25067058 -0.25403255 0.51271868
-0.25588158 -0.48807651 0.40221786
-0.25430459 -0.051309526 0.43565559
-0.25235558 -0.32972449 0.47698069
-0.27419958 0.15854847 0.13305569
-0.25607559 -0.25455254 0.51037884
-0.25450057 -0.1851235 0.54317045
-0.25367558 -0.13393658 0.56033182
-0.27681658 0.11927247 0.19455481
-0.27061859 -0.65033859 0.32128668
-0.25877458 -0.13341349 0.56345272
-0.26783857 -0.006472528 0.37812662
-0.28000858 0.089334488 0.24235153
-0.26689857 -0.25559849 0.50569248
-0.27792558 -0.72425252 0.28419065
-0.27620357 -0.65105349 0.31878757
-0.27422857 -0.5671466 0.35844564
-0.26990059 -0.049828589 0.44538355
-0.26986057 -0.38149959 0.4461875
-0.26868159 -0.33139855 0.46986675
-0.27978358 -0.56782252 0.35597563
-0.27793458 -0.4906165 0.3924799
-0.27691659 -0.44811553 0.41257381
-0.27533558 -0.38208455 0.44379187
-0.29071558 0.090209484 0.24924374
-0.28917557 -0.72576255 0.27912283
-0.28534257 -0.56849951 0.35350275
-0.28242359 -0.44873458 0.41014862
-0.28027457 -0.048847497 0.45185757
-0.29606059 0.090644479 0.25268555
-0.29837459 0.12097245 0.20852566
-0.28316957 -0.25717849 0.49864388
-0.29298958 -0.65321058 0.31127071
-0.28013757 -0.1348756 0.55650663
-0.28505257 -0.33308655 0.46273088
-0.29655159 0.028559446 0.34710073
-0.29916358 0.062243462 0.29808569
-0.30044457 -0.72728151 0.27404261
-0.28551659 -0.13534755 0.55420065
-0.29401958 -0.0041025281 0.39463186
-0.30673358 0.091513455 0.25956154
-0.30420557 -0.65465957 0.30624485
-0.29265159 -0.087279499 0.51957083
-0.29579359 -0.047383487 0.46155071
-0.30706659 0.029474437 0.35378456
-0.29766759 -0.18907958 0.52457857
-0.30762857 -0.57122952 0.34358549
-0.31504759 0.063575447 0.30825853
-0.31738657 0.092378438 0.26642752
-0.30308458 -0.1895805 0.52224445
-0.31321159 -0.57191652 0.34110069
-0.30287957 -0.086280525 0.52590656
-0.31116059 -0.49448055 0.37778759
-0.31003159 -0.45185453 0.3979845
-0.30827758 -0.38563055 0.42936087
-0.31671557 -0.49513155 0.37533045
-0.31126958 -0.045929492 0.47122669
-0.31378457 -0.38622659 0.42694664
-0.32561058 0.064459443 0.31502771
-0.31792057 -0.33650559 0.44838667
-0.32803258 0.031293452 0.3671217
-0.32130158 -0.26091653 0.48210859
-0.33233359 -0.65831751 0.29362965
-0.31818259 -0.084789574 0.53539371
-0.33615258 0.065338433 0.32178688
-0.33862859 0.094095469 0.28012848
-0.33033657 -0.38802749 0.41968584
-0.34141558 0.065776467 0.32516289
-0.33898559 -0.49775153 0.36547089
-0.34370357 0.032646477 0.37709856
-0.33771658 -0.26254159 0.47498465
-0.34332457 -0.45565754 0.38329649
-0.33993158 -0.33881754 0.43876982
-0.34891659 0.033095479 0.38042068
-0.34319758 -0.2630865 0.4726038
-0.35244057 -0.5767805 0.32361555
-0.33851957 -0.082817495 0.54801464
-0.34208658 -0.043050587 0.49051571
-0.34693259 -0.38984352 0.41240168
-0.35412559 0.033543468 0.38373852
-0.35574257 -0.49973553 0.35804462
-0.35932857 0.033990443 0.38705444
-0.35205257 -0.19415158 0.50111866
-0.35044459 -0.14111453 0.5263238
-0.35231957 -0.042099535 0.49692869
-0.35802257 -0.39106256 0.40753174
-0.35649157 -0.34056848 0.43152952
-0.36452657 0.034436464 0.39036989
-0.36933059 -0.57889456 0.31607866
-0.35588658 -0.14160353 0.52398586
-0.36357459 -0.39167458 0.40509176
-0.36971959 0.034881473 0.39368057
-0.37497059 -0.57960349 0.31356049
-0.36133257 -0.14209455 0.52164268
-0.35948157 -0.082726538 0.54987669
-0.37254357 -0.50173753 0.35059357
-0.36664858 0.0023904443 0.44053555
-0.36846158 -0.19570059 0.49402857
-0.38061658 -0.58031458 0.31103849
-0.36678359 -0.14258653 0.5192976
-0.36490658 -0.083190501 0.54755688
-0.37179857 0.0028464794 0.44379759
-0.37469357 -0.39290351 0.40020466
-0.37309557 -0.3423335 0.42426443
-0.38009158 0.035768449 0.40029764
-0.38898358 -0.66578954 0.26817274
-0.37033758 -0.083655536 0.54523373
-0.38377157 -0.50308055 0.34561253
-0.38239759 -0.46017557 0.3660326
-0.37272757 -0.040210545 0.50972986
-0.37694457 0.0033014417 0.44705868
-0.38026258 -0.39352053 0.39775658
-0.37864158 -0.34292549 0.42183781
-0.38526958 0.036210477 0.40360165
-0.38170657 -0.26694149 0.45586777
-0.39467657 -0.66654855 0.26561069
-0.37770158 -0.14357454 0.51460266
-0.37577257 -0.084121525 0.54290771
-0.38799959 -0.46082753 0.36355543
-0.37781659 -0.039740503 0.51292372
-0.38583457 -0.39413959 0.39530659
-0.38419157 -0.34351856 0.41940784
-0.40037557 -0.66730958 0.26304579
-0.38121158 -0.084587514 0.54058075
-0.39360657 -0.46148258 0.36107588
-0.39275259 -0.26805657 0.45106173
-0.39041159 -0.19778651 0.48454189
-0.40325159 -0.58317751 0.30092478
-0.38863859 -0.14456755 0.50989676
-0.39921859 -0.46213859 0.35859251
-0.38798058 -0.038804591 0.51930666
-0.39530659 -0.34471053 0.41454077
-0.40483859 -0.46279651 0.3561058
-0.39305657 -0.038337529 0.52249479
-0.40382159 -0.26917857 0.44624472
-0.40141758 -0.19883853 0.47978067
-0.41193059 -0.50647253 0.3331089
-0.40817657 -0.39663249 0.38547754
-0.40644357 -0.34590954 0.40966082
-0.40301958 -0.086469591 0.53124189
-0.41757858 -0.50715655 0.33059978
-0.42597157 -0.58607155 0.29076147
-0.42323059 -0.50784248 0.32808685
-0.40825257 -0.036944568 0.53204775
-0.41759959 -0.3471145 0.4047718
-0.41796157 -0.20042652 0.47262144
-0.42348757 -0.20095855 0.47023058
-0.43736559 -0.58753151 0.28566265
-0.43300658 -0.46611553 0.34363174
-0.41836157 -0.036020517 0.5384059
-0.42490759 -0.088372529 0.52186346
-0.42340758 -0.035560548 0.54158163
-0.44877857 -0.58899957 0.28054953
-0.44431058 -0.46745449 0.33862257
-0.43997559 -0.34954458 0.39495754
-0.45449358 -0.58973652 0.27799082
-0.44997057 -0.46812755 0.33611345
-0.46021557 -0.59047455 0.27542686
-0.45563757 -0.46880251 0.33360052
-0.46594161 -0.5912165 0.27285957
-0.44482359 -0.036387563 0.53822756
-0.45946658 -0.27487856 0.4219985
-0.46022159 -0.15116149 0.47905064
-0.45788959 -0.091266572 0.50771761
-0.47835356 -0.47151953 0.32352161
-0.4736976 -0.35324055 0.38015366
-0.4818716 -0.2772035 0.41222382
-0.49465656 -0.59495157 0.25998068
-0.49148858 -0.51622254 0.29770374
-0.4849816 -0.35448653 0.37519455
-0.48242056 -0.15323752 0.46946955
-0.49310559 -0.27837557 0.40731859
-0.5029406 -0.51764554 0.29259777
-0.51772857 -0.59797758 0.24962187
-0.51441759 -0.5190776 0.28747749
-0.51831961 -0.47634751 0.30576754
-0.51545757 -0.4088555 0.33816147
-0.51328456 -0.3576296 0.36274958
-0.5156396 -0.28073758 0.39747667
-0.52591461 -0.52051753 0.28234673
-0.52115756 -0.40951651 0.33564281
-0.52686357 -0.41017956 0.33312082
-0.5246436 -0.35889953 0.35775089
-0.53033257 -0.35953659 0.35524654
-0.53259659 -0.28252655 0.39006376
-0.54320359 -0.52269155 0.27462769
-0.5382936 -0.41151148 0.32806587
-0.53508359 -0.21191651 0.42182589
-0.54401559 -0.41217953 0.32553577
-0.54392856 -0.28372759 0.38510752
-0.5547576 -0.52415055 0.26946449
-0.55279458 -0.48056048 0.2904315
-0.56054455 -0.52488357 0.26687765
-0.55547959 -0.41352159 0.32046175
-0.56665957 -0.28614956 0.37516069
-0.57271558 -0.4155485 0.31283045
-0.57847255 -0.41622752 0.31028175
-0.58956158 -0.52857655 0.25390148
-0.60120857 -0.53006858 0.2486887
-0.60704058 -0.53081757 0.24607754
-0.59902656 -0.36732155 0.32496977
-0.61872458 -0.53232056 0.24084473
-0.6245746 -0.53307658 0.2382226
-0.62473756 -0.42172951 0.28976965
-0.64216256 -0.53535348 0.23033857
-0.6751036 -0.49585754 0.23585749
