# .PCD v0.7 - Point Cloud Data file format
VERSION 0.7
FIELDS x y z
SIZE 4 4 4
TYPE F F F
COUNT 1 1 1
WIDTH 1
HEIGHT 1024
VIEWPOINT 0 0 0 1 0 0 0
POINTS 1024
DATA ascii
0.41525188 -1.0482996 -0.14358282
0.40815687 -0.91424149 -0.1263876
0.40257686 -0.97770053 -0.13310289
0.38225088 -0.67913145 -0.094088554
0.38145787 -0.56875843 -0.080737591
0.37508088 -0.51701945 -0.073521614
0.37276286 -1.0455265 -0.13648176
0.37132886 -0.83974952 -0.11159563
0.36907586 -0.51673645 -0.072532654
0.36253488 -0.4380725 -0.062065601
0.36622488 -0.97542554 -0.12704182
0.35816488 -0.6778695 -0.090102673
0.35707188 -0.51617354 -0.07055378
0.35370186 -0.91095346 -0.11732054
0.34456488 -0.43728048 -0.059108734
0.34409088 -0.36483651 -0.05035162
0.34332186 -0.24733847 -0.036150932
0.34585488 -0.63424546 -0.082914829
0.34541386 -0.56700748 -0.074787617
0.33602986 -0.040938497 -0.01025486
0.33811387 -0.36458951 -0.049370766
0.34116286 -0.83802754 -0.10658455
0.34062487 -0.75449151 -0.096489906
0.33660388 -0.13013047 -0.021034718
0.33037487 -0.085647523 -0.014713764
0.33008987 -0.04075551 -0.0092878342
0.32960188 0.036233544 1.7166138e-05
0.33599687 -0.97357446 -0.12200356
0.33460787 -0.7541675 -0.09549284
0.33341888 -0.56643349 -0.072807789
0.32391587 -0.0027594566 -0.0037517548
0.32616487 -0.36409754 -0.047408581
0.32582086 -0.30885845 -0.040734768
0.32543388 -0.24666744 -0.033220768
0.32470587 -0.12972945 -0.01909399
0.32742286 -0.56614953 -0.071818829
0.31722388 0.12167352 0.012226105
0.31668788 0.20929754 0.022812366
0.32434788 -1.0424595 -0.12840176
0.32353187 -0.90918249 -0.11230373
0.32257986 -0.75352544 -0.09349966
0.31947687 -0.24644548 -0.032244682
0.32210487 -0.67601746 -0.084136963
0.32184187 -0.6330505 -0.07894659
0.31876087 -0.12953049 -0.018121719
0.32111686 -0.51451343 -0.064627647
0.31151786 0.086982489 0.0089740753
0.31078187 0.20943052 0.023766041
0.31255186 -0.085075438 -0.011806965
0.31059787 0.23995852 0.02745533
0.31033087 0.28430253 0.032813072
0.31181988 0.036734521 0.0029063225
0.31707188 -0.83667749 -0.10258675
0.31656986 -0.75320643 -0.092503548
0.31352186 -0.24622554 -0.031271935
0.31584588 -0.6327545 -0.077956676
0.31513286 -0.51424152 -0.063642979
0.30560088 0.087138534 0.0099372864
0.30539486 0.12197351 0.014144421
0.30487788 0.20956349 0.024722099
0.31185687 -0.97212249 -0.11798477
0.31148088 -0.90848547 -0.11030054
0.30687788 -0.12913448 -0.016181946
0.29897386 0.20969653 0.025677204
0.30042186 -0.03984946 -0.0044546127
0.30161586 -0.24578744 -0.029321671
0.30346787 -0.56502253 -0.06786871
0.29475087 -0.084511459 -0.0089039803
0.29405686 0.037229538 0.0057940483
0.29602087 -0.30770046 -0.035849571
0.29534686 -0.18920654 -0.02154398
0.29500186 -0.12874347 -0.014243603
0.29719287 -0.51343149 -0.060686588
0.28766587 0.12241852 0.017020226
0.28857088 -0.039493501 -0.0025248528
0.28631186 0.36490852 0.046292305
0.29078087 -0.43496543 -0.050263882
0.27930287 0.57114148 0.072123051
0.28019887 0.40773749 0.052398205
0.27977687 0.4847545 0.061694145
0.28481588 -0.43471354 -0.049284935
0.28441986 -0.36241049 -0.040556908
0.28313687 -0.12835449 -0.012305737
0.28524488 -0.51289743 -0.058719635
0.27604586 0.08790952 0.014736176
0.27585888 0.12271154 0.018937111
0.27455586 0.36511254 0.04818821
0.27432686 0.40783149 0.05334425
0.27368388 0.52736855 0.067770004
0.28173387 -0.97034651 -0.11297464
0.27927387 -0.51263243 -0.057737827
0.26995686 0.12285751 0.019893169
0.27104586 -0.083771527 -0.0050377846
0.26742187 0.60409552 0.077961445
0.26718387 0.64916849 0.083402157
0.26701888 0.68053949 0.087188244
0.26782587 0.52743948 0.068712234
0.27571487 -0.96999544 -0.11197376
0.27499986 -0.83437246 -0.095608711
0.27456087 -0.75101453 -0.085550785
0.27127886 -0.12796944 -0.010371685
0.27330387 -0.5123685 -0.056754589
0.26423886 0.08821249 0.016653061
0.26258788 0.40801752 0.05523634
0.26197088 0.52751148 0.069651127
0.26693386 -0.43396646 -0.046345711
0.26899886 -0.83404952 -0.094614983
0.26627588 -0.30656952 -0.030976772
0.26760188 -0.56337053 -0.06195879
0.25772086 0.21060753 0.032356262
0.25898087 -0.038616478 0.0022931099
0.25550288 0.64926755 0.085272312
0.26097786 -0.43371946 -0.045367718
0.26061288 -0.36146945 -0.036652565
0.26033387 -0.30634552 -0.030003548
0.26197186 -0.6301555 -0.069064617
0.26137286 -0.51184446 -0.054792881
0.25329086 -0.083225429 -0.0021457672
0.25121987 0.33517951 0.04831934
0.25106987 0.36551452 0.051978111
0.24950987 0.68066955 0.089988232
0.25801888 -1.0384195 -0.11735392
0.25736088 -0.90542549 -0.10131359
0.25439388 -0.30612344 -0.029029846
0.25599688 -0.62987345 -0.068078995
0.25380886 -0.18778449 -0.01475668
0.25350988 -0.1273995 -0.0074748993
0.25566489 -0.56282943 -0.059991837
0.24654388 0.088662505 0.019524097
0.24737588 -0.083044469 -0.0011816025
0.24580386 0.24132752 0.037936211
0.24420488 0.57152152 0.077755451
0.24367586 0.68071353 0.090924263
0.24499586 0.40829349 0.058071136
0.24478889 0.45090851 0.063210011
0.24146387 -0.082865536 -0.00021791458
0.23857087 0.52779353 0.073413372
0.24312186 -0.43298548 -0.042435646
0.24277988 -0.36077648 -0.033727646
0.24222586 -0.2436555 -0.01960659
0.24425587 -0.67217547 -0.071276665
0.24405286 -0.62931353 -0.066108704
0.24195886 -0.18738645 -0.012820721
0.23517188 -0.00022047758 0.010686398
0.23252288 0.5716455 0.079632282
0.23237187 0.60443753 0.083585262
0.23207486 0.68074453 0.091317177
0.23684087 -0.36054748 -0.032754898
0.23997587 -1.0373526 -0.11435175
0.23935986 -0.90443343 -0.098327637
0.23902687 -0.83245546 -0.089649677
0.23658586 -0.30546349 -0.026113987
0.23777387 -0.56202847 -0.057045937
0.23753688 -0.51081151 -0.050871849
0.22944388 -0.037759483 0.0071001053
0.22927287 -5.7458878e-05 0.011644363
0.22775388 0.33559549 0.052108288
0.22633389 0.64950955 0.089947224
0.22742388 0.40856653 0.060902119
0.22723088 0.45115852 0.066036224
0.23396587 -1.0370004 -0.11335278
0.23266187 -0.74889249 -0.078622818
0.23231187 -0.67160445 -0.069305897
0.22265089 0.16424853 0.03238821
0.22211286 0.28603154 0.047066212
0.22320387 0.039141536 0.017309189
0.22189286 0.33569854 0.053052425
0.22050586 0.64955747 0.090881348
0.22138289 0.45124051 0.066979408
0.22496787 -0.36009246 -0.030809879
0.22668487 -0.74859554 -0.077635765
0.22615486 -0.62848252 -0.063158989
0.22563189 -0.51030248 -0.048913956
0.21603289 0.33580053 0.05399704
0.21879587 -0.30481249 -0.023202896
0.22037587 -0.67103952 -0.06733799
0.22019088 -0.62820846 -0.062175751
0.21968088 -0.51004952 -0.047935963
0.21121287 0.089542508 0.025257111
0.21106589 0.12427652 0.029443264
0.21069887 0.21161252 0.03996706
0.21193388 -0.081980526 0.0045909882
0.21038488 0.28625351 0.048960209
0.21142289 0.039450526 0.01922226
0.20986888 0.40883452 0.063731194
0.20968989 0.45140451 0.068860054
0.21632689 0.71910155 -0.12119579
0.21260989 -0.24262649 -0.014765739
0.20518887 0.1244145 0.030395031
0.20603487 -0.081805527 0.0055513382
0.20323387 0.68065351 0.087816238
0.20402187 0.40892351 0.064673424
0.21235788 0.84151852 -0.18017483
0.20910788 -0.83089954 -0.08469677
0.20694786 -0.30438346 -0.021264553
0.20669389 -0.24242347 -0.013799667
0.20621589 -0.12591654 0.00023698807
0.20778888 -0.50954753 -0.045981884
0.19931388 0.12455249 0.031348228
0.20013788 -0.081632435 0.0065112114
0.19739488 0.60476851 0.089195251
0.20341787 -0.90249246 -0.092369556
0.20231888 -0.62739354 -0.059230804
0.19343889 0.12468851 0.032299995
0.19309887 0.21197951 0.042815208
0.19406688 -0.036757469 0.012856007
0.19249788 0.36648649 0.061424255
0.19186789 0.52834153 0.080917358
0.19794989 -1.0349236 -0.10736656
0.19636288 -0.62712449 -0.058250904
0.19441187 -0.1255545 0.0021600723
0.19610289 -0.56020254 -0.050190926
0.18817788 -0.036592484 0.013813019
0.18695489 0.28668952 0.052745342
0.18803588 0.0010625124 0.018348217
0.18591788 0.68059754 0.085719109
0.18632987 0.45172751 0.072619438
0.19237989 0.80728954 -0.11988688
0.18895489 -0.24182051 -0.010901928
0.18996489 -0.50880343 -0.043053627
0.18110287 0.28679752 0.053690434
0.18005288 0.57219052 0.088053226
0.17993188 0.60493147 0.091995239
0.18065187 0.40927351 0.068436146
0.18609488 0.80746949 -0.10969877
0.18605089 0.84240353 -0.1082778
0.18570787 -0.96493047 -0.09703064
0.18461987 -0.66937548 -0.061442852
0.18421689 -0.55969149 -0.04823494
0.18402886 -0.5085575 -0.042078972
0.17656687 -0.080946505 0.010347366
0.17640689 -0.036267459 0.015726089
0.17496687 0.36676949 0.064249992
0.17395487 0.64993155 0.098340034
0.17649686 0.72317755 0.012710094
0.18008688 0.8074975 -0.108253
0.17991388 0.8424775 -0.10242176
0.17924088 -0.82938045 -0.079758644
0.17894387 -0.74626654 -0.06975174
0.17851588 -0.62632543 -0.05531168
0.17827687 -0.55943853 -0.047258854
0.16996488 0.12522954 0.036104202
0.17039388 0.0015305281 0.021214008
0.16923189 0.3366015 0.061548233
0.16912687 0.36686254 0.065191269
0.16814587 0.64997751 0.099271297
0.16897988 0.40944654 0.070317268
0.17000988 0.72384155 0.034539223
0.17537889 0.75194252 -0.1518259
0.17379689 0.80769652 -0.096917629
0.17189088 -0.4301545 -0.030750751
0.17374289 -0.96428245 -0.095046997
0.17352289 -0.90091652 -0.087419987
0.17327389 -0.82908148 -0.078772545
0.17123589 -0.24122649 -0.0080080032
0.17233789 -0.55918652 -0.046282768
0.16355589 0.28711849 0.056523323
0.16438487 0.04065454 0.026859283
0.16259688 0.57236648 0.090855122
0.16281888 0.68051952 0.082929134
0.16356388 0.72450149 0.05623436
0.16274387 0.52867353 0.085597038
0.16596687 -0.42992646 -0.029779911
0.16514286 -0.18489045 -0.00028800964
0.16622889 -0.50782853 -0.03915596
0.15652987 0.65006852 0.10113239
0.15731287 0.40961754 0.072196007
0.15717489 0.45212251 0.077310085
0.16157886 -0.90029651 -0.085441589
0.16134489 -0.8284865 -0.076800823
0.15924889 -0.18470544 0.00067329407
0.15225288 0.16579652 0.043786049
0.15288687 -0.035624504 0.019550323
0.15200889 0.24319649 0.053099155
0.15276888 0.0019915104 0.024077415
0.15097088 0.57248253 0.092721462
0.15086788 0.60519648 0.096656322
0.15657488 0.75272751 -0.12127686
0.15534687 0.84282649 -0.074392796
0.15602788 -1.0325744 -0.1004076
0.15372789 -0.30250543 -0.012561798
0.15335587 -0.18452054 0.0016341209
0.15437388 -0.50734752 -0.037209988
0.14662689 0.091092527 0.035731316
0.14639887 0.16592151 0.044733047
0.14625588 0.21293253 0.05038929
0.14689788 0.0021445155 0.025029182
0.14677888 0.041093528 0.029716015
0.14492488 0.65015852 0.1029911
0.14529389 0.52886951 0.088398457
0.14955688 0.8427605 -0.080003738
0.14942586 -0.82789844 -0.074831963
0.14746588 -0.18433744 0.0025954247
0.14844888 -0.50710946 -0.036237717
0.14054587 0.16604549 0.045681
0.14040789 0.21304852 0.051335335
0.14113787 -0.03530848 0.021459103
0.13947889 0.52893353 0.089333057
0.14353287 0.80806249 -0.076542854
0.14208388 -0.3570295 -0.017241001
0.14322287 -0.74457854 -0.06385994
0.14299688 -0.66749543 -0.054587841
0.14267486 -0.55794448 -0.041409969
0.13456288 0.21316451 0.052280426
0.13526687 -0.035151482 0.022414207
0.13447687 0.24353153 0.055932045
0.13435188 0.28764153 0.061237335
0.13823387 0.75318849 -0.10345459
0.13751289 -0.82731646 -0.072863579
0.12951988 -0.07961446 0.01800108
0.12765089 0.60540354 0.10038042
0.12838188 0.33727652 0.068135262
0.12752789 0.6502915 0.10577726
0.12732089 0.72629851 0.11492014
0.12797487 0.48670951 0.0861063
0.13047287 -0.42857844 -0.023965836
0.13027588 -0.35660845 -0.015310764
0.13226289 -1.0847304 -0.10287285
0.13211688 -1.0312696 -0.096442699
0.13133287 -0.74402744 -0.061899662
0.12980387 -0.18379146 0.0054731369
0.13082388 -0.55745643 -0.039463997
0.12310887 0.12627953 0.043693066
0.12225287 0.45258352 0.082928181
0.12600788 0.75355554 -0.089194775
0.12559187 0.80818152 -0.070102692
0.12545788 0.8429625 -0.06397295
0.12406888 -0.23968643 -0.0003118515
0.11726088 0.12640852 0.044639111
0.11704088 0.21350849 0.055112362
0.11747388 0.041811526 0.034469128
0.11672888 0.33746552 0.070014
0.11665288 0.3676815 0.073646069
0.12371387 0.88336754 -0.26343584
0.11847588 -0.35619253 -0.013381004
0.12030888 -1.0840695 -0.10088873
0.11945087 -0.74348146 -0.059942722
0.11833788 -0.30129951 -0.0067806244
0.11102288 0.28805053 0.065002441
0.11171088 0.0030415058 0.030741215
0.11014888 0.65042353 0.10856199
0.11028387 0.72591555 0.10184336
0.11275088 -0.42792052 -0.021062851
0.11433288 -1.0837414 -0.099897861
0.11293788 -0.50570446 -0.030413628
0.10604288 -0.078968465 0.021817207
0.10491388 0.41036654 0.080631256
0.10783588 0.7540105 -0.071556568
0.10836088 -1.0834155 -0.098908901
0.10793187 -0.89758545 -0.076571941
0.10628288 -0.18307751 0.0093050003
0.10714488 -0.55649549 -0.03557682
0.099637881 0.16689754 0.052299023
0.10017888 -0.078808486 0.022772312
0.09910088 0.41044754 0.081566334
0.099007875 0.45288253 0.086667061
0.098931879 0.48705751 0.090774059
0.10378788 0.88390952 -0.17416096
0.10094688 -0.42748743 -0.019130707
0.10078788 -0.35557646 -0.010489941
0.10239088 -1.0830915 -0.097918987
0.10164088 -0.74267346 -0.05700779
0.10053088 -0.23893851 0.0035281181
0.093702875 0.21395952 0.058884144
0.093040876 0.52943754 0.096790314
0.095838875 0.8083055 -0.063491821
0.096421875 -1.0827684 -0.096928596
0.095708877 -0.7424075 -0.056031704
0.094781876 -0.30051547 -0.0029349327
0.094651878 -0.23875445 0.004486084
0.094408877 -0.12262052 0.0184412
0.09521088 -0.50501746 -0.027507782
0.087871879 0.2140705 0.05982542
0.088453881 -0.078492463 0.024676323
0.088365875 -0.03392446 0.030030251
0.087001875 0.65059555 0.11226845
0.089424878 0.7549715 -0.033842564
0.090058878 0.80815852 -0.072096825
0.090453878 -1.0824463 -0.095938683
0.090083875 -0.8967095 -0.073624611
0.089775875 -0.7421425 -0.055054665
0.089537881 -0.62250549 -0.040682793
0.08854188 -0.12245554 0.019395351
0.089303881 -0.50479144 -0.026539803
0.082131878 0.16725349 0.055129051
0.082043879 0.21418154 0.06076622
0.081902876 0.2885505 0.069699287
0.081365876 0.57315552 0.10388803
0.081219874 0.65063751 0.11319542
0.08159288 0.45310351 0.089466095
0.082436875 0.72393548 0.035712242
0.084096879 0.8428995 -0.069956779
0.08436688 0.8844375 -0.087155819
0.08311788 -0.35496944 -0.007601738
0.084003881 -0.82476848 -0.064036846
0.082897879 -0.23838848 0.0064034462
0.083399877 -0.50456554 -0.025570869
0.076163881 0.24460953 0.065348148
0.076592878 0.0039114952 0.036437988
0.075867876 0.4107675 0.085305214
0.076801881 0.72353452 0.022325039
0.075730875 0.48732951 0.094501019
0.075655878 0.52962148 0.099581242
0.078045875 0.8430025 -0.061547756
0.078370877 0.88446051 -0.083413601
0.078431875 -1.0284295 -0.087551594
0.077783875 -0.66467351 -0.04386282
0.076923877 -0.1822055 0.014086246
0.070596881 0.092815518 0.048048019
0.070471875 0.1674875 0.057013988
0.070392877 0.21440053 0.062648296
0.070342876 0.24471354 0.066287994
0.070680879 0.042922497 0.042056084
0.069791876 0.57326353 0.10574436
0.070134878 0.36837852 0.081139088
0.069935881 0.48739651 0.095433235
0.069864877 0.5296815 0.10051107
0.072277881 0.80815953 -0.072309971
0.072412878 0.88447052 -0.08198595
0.071347877 -0.35457045 -0.0056786537
0.072566874 -1.0814934 -0.092975616
0.071866877 -0.66442448 -0.042888641
0.071795881 -0.62177652 -0.037769794
0.071057878 -0.18203348 0.015040398
0.070957877 -0.12196654 0.02225399
0.06503088 -0.077869475 0.028482437
0.063955881 0.6059525 0.11059046
0.064141877 0.4874635 0.096363068
0.065884881 -0.62153643 -0.036798954
0.06577988 -0.55486053 -0.028791904
0.065699875 -0.50389749 -0.022672653
0.05892688 0.093070507 0.049937248
0.058639877 0.2889415 0.073451996
0.058222875 0.57337052 0.10759926
0.058174878 0.60600054 0.11151743
0.05861488 0.75774455 0.075468063
0.06051188 0.88448453 -0.079776764
0.059329875 -0.18169349 0.01695013
0.052929878 0.21472549 0.065469265
0.053327881 -0.077563465 0.03038311
0.052396879 0.60604852 0.11244345
0.052719876 0.3686325 0.083944321
0.054032877 0.72191155 -0.031774998
0.052572876 0.75828755 0.096915245
0.054522879 0.80811751 -0.07498455
0.053703874 -0.35397953 -0.0027976036
0.054693878 -1.0805554 -0.090017796
0.054343879 -0.82340354 -0.059148788
0.054230876 -0.7405805 -0.04920578
0.053629875 -0.29918343 0.0037784576
0.054125875 -0.66368645 -0.039975643
0.053469881 -0.18152446 0.017903328
0.053907879 -0.50345749 -0.020742893
0.046620876 0.60609651 0.11336899
0.046564877 0.65088749 0.11874533
0.047084875 0.68008953 0.069058418
0.046812877 0.45353451 0.095058441
0.048623875 0.84280849 -0.077863693
0.048655875 0.88447851 -0.08096981
0.048740879 -1.0802464 -0.08903265
0.048162878 -0.62082249 -0.033889771
0.041397877 0.12801653 0.056916237
0.041633874 -0.077260435 0.032282352
0.040883876 0.57352853 0.11038017
0.041119881 0.36879951 0.085811138
0.041287877 0.68006653 0.068368435
0.041070879 0.4112345 0.090904236
0.042620875 0.84289849 -0.070568562
0.042667881 0.88451254 -0.075389862
0.042647876 -0.95757443 -0.073361874
0.042492881 -0.82286853 -0.057196617
0.041888878 -0.2988115 0.0056943893
0.041753881 -0.18118948 0.019809246
0.035405878 0.28932351 0.077199459
0.035703879 0.0048925281 0.043070316
0.035107877 0.5735805 0.11130619
0.029669877 0.21515054 0.069224358
0.029553879 0.33881849 0.084061146
0.029445879 0.4537445 0.097849369
0.029373877 0.53009748 0.10700941
0.030787878 0.80815452 -0.073074818
0.030889876 -1.0793273 -0.08607769
0.030714877 -0.89388853 -0.063830853
0.030394878 -0.55350751 -0.022994995
0.023932878 0.12837154 0.059740067
0.024003878 0.043986499 0.049618244
0.02355988 0.5736835 0.11315823
0.023532879 0.60628551 0.11706924
0.024665877 0.72151554 -0.045191765
0.023631878 0.48792052 0.10287142
0.024943877 -1.0790243 -0.085093975
0.02465988 -0.73931748 -0.044344902
0.024141878 -0.12069947 0.029862404
0.024503879 -0.55328649 -0.022029877
0.018140879 0.093940496 0.056537151
0.018265877 -0.076663435 0.036075115
0.018232878 -0.032178462 0.041410446
0.017996877 0.28960454 0.080006123
0.018205877 0.0053015351 0.045906067
0.01778888 0.57373548 0.11408329
0.017820876 0.53021252 0.10886431
0.018750876 -0.73906845 -0.043373585
0.018694878 -0.66224653 -0.034158707
0.018341877 -0.18052953 0.023617268
0.018297877 -0.12054545 0.030812263
0.012320876 0.094062507 0.057479382
0.012352876 0.044244528 0.051505089
0.012281876 0.6799475 0.064923286
0.011906877 0.75929952 0.13661909
0.013049878 0.80800754 -0.081663609
0.012646876 -0.42438048 -0.0046949387
0.012980878 -0.95615643 -0.068466663
0.012940876 -0.89307147 -0.060900688
0.012528878 -0.23627347 0.017864227
0.012694877 -0.5019545 -0.013996601
0.0064838771 0.12872154 0.062561035
0.0064378772 0.21556652 0.072975159
0.0063358769 0.41168654 0.096491337
0.0070508774 -0.95587748 -0.06748867
0.0069378782 -0.73857647 -0.041433811
0.00060387701 0.28988051 0.082808018
0.00053487718 0.45408753 0.10249424
0.00095587783 -0.55241352 -0.018173695
-0.0050891228 -0.031621456 0.045193195
-0.0053031221 0.6512475 0.1270504
-0.0046701226 0.8842755 -0.11477566
-0.004989123 -0.35207945 0.0067782402
-0.0048411228 -0.82078344 -0.049407959
-0.0048671216 -0.73808843 -0.039493561
-0.0050251223 -0.23576647 0.020721436
-0.0050431229 -0.17988449 0.027420044
-0.010949122 0.1290645 0.065379143
-0.010906123 -0.075936496 0.040808201
-0.010943122 0.67984855 0.062172413
-0.010982122 0.75797951 0.084307194
-0.011024122 0.48829851 0.10843515
-0.010618122 0.88422054 -0.12384701
-0.010696122 -1.0772445 -0.079204559
-0.010722122 -0.95504946 -0.064558983
-0.010767122 -0.73784643 -0.038525581
-0.010859122 -0.29718953 0.014290333
-0.010783122 -0.66108352 -0.029325962
-0.010792122 -0.61852652 -0.024224758
-0.010884122 -0.17972547 0.028369427
-0.016735122 -0.075794518 0.041754246
-0.016768122 0.2462185 0.080343246
-0.016580122 0.88414752 -0.13601685
-0.016630122 -1.0769525 -0.078224659
-0.016674122 -0.66085452 -0.02835989
-0.016724123 -0.17956752 0.029317379
-0.022564122 0.16927153 0.072047234
-0.022564122 0.045004487 0.05715704
-0.022564122 0.45435452 0.10620642
-0.022564122 0.8840515 -0.15181589
-0.022564122 -0.73736745 -0.036589622
-0.022564122 -0.29684049 0.016197205
-0.022564122 -0.66062647 -0.027393818
-0.028364122 0.16937852 0.072983265
-0.028377123 0.045127511 0.058097363
-0.028375123 0.6797725 0.060112
-0.028338123 0.4121235 0.10206509
-0.028326122 0.53066254 0.1162672
-0.028542122 0.80714649 -0.13154554
-0.028583122 0.8838945 -0.17786884
-0.028426122 -0.42301649 0.0020112991
-0.028418122 -0.35134846 0.010597229
-0.028481122 -0.95423645 -0.061632633
-0.034162123 0.16948354 0.07392025
-0.034137122 0.29041952 0.088406086
-0.034196123 0.0064874887 0.054394245
-0.034187123 0.67974752 0.059426308
-0.034102123 0.45448551 0.10806036
-0.034327123 -0.61764449 -0.020370007
-0.03431312 -0.55114144 -0.012403965
-0.03994412 0.21637052 0.080459118
-0.03992112 0.29050851 0.089338303
-0.039998122 0.045373499 0.059978008
-0.040294122 0.7212835 -0.053003788
-0.039859124 0.48860452 0.11306429
-0.040144123 -0.42263645 0.0039243698
-0.040122122 -0.35098952 0.012504101
-0.040105123 -0.29632348 0.019052029
-0.04008612 -0.23477846 0.026423454
-0.040049121 -0.11904854 0.04028511
-0.045736123 0.21646851 0.081393242
-0.045839123 -0.030676484 0.051796436
-0.045684122 0.33990353 0.09617424
-0.045817122 0.67969549 0.058056355
-0.046208121 0.7212615 -0.053712845
-0.045487121 0.81206053 0.15272522
-0.045973122 -0.35081154 0.013458252
-0.046199121 -0.89044648 -0.051167011
-0.046102121 -0.65972954 -0.023536682
-0.045876123 -0.1189025 0.041230202
-0.051634122 0.6796695 0.057370186
-0.051383123 0.48872352 0.11491442
-0.051360123 0.53088051 0.11996317
-0.052066125 -0.81879252 -0.041646957
-0.05189912 -0.4997105 -0.0034399033
-0.057341121 0.16990054 0.077661037
-0.057467122 -0.030413508 0.053678989
-0.057265121 0.29076952 0.092132092
-0.057141121 0.48878351 0.11583805
-0.057125121 0.81147552 0.11894608
-0.057667121 -0.35045844 0.015363216
-0.058006123 -0.88993949 -0.049225807
-0.057961121 -0.81855053 -0.040678978
-0.057595123 -0.2342965 0.029269218
-0.057834122 -0.61678249 -0.016522884
-0.057560124 -0.17848653 0.035951138
-0.057761122 -0.49951452 -0.0024828911
-0.063132122 0.17000353 0.078597069
-0.06307812 0.88549751 0.087435246
-0.063564122 -0.42188948 0.0077443123
-0.064042121 -1.0746844 -0.070399761
-0.063952118 -0.95265251 -0.055791855
-0.063906118 -0.88968843 -0.04825592
-0.063738123 -0.65907043 -0.020648956
-0.063386127 -0.17833549 0.036897182
-0.068983123 0.095694542 0.070624352
-0.069056123 0.0072445273 0.060037136
-0.069024123 0.04597652 0.064673424
-0.068583123 0.57447052 0.12792921
-0.068555117 0.6069985 0.13182211
-0.068560123 0.65141052 0.13112402
-0.069089122 0.67958951 0.055317402
-0.068889126 0.88547653 0.083964348
-0.069960117 -1.0744085 -0.069424629
-0.069806121 -0.88943952 -0.047285557
-0.069746122 -0.81806952 -0.038743973
-0.069677122 -0.73550647 -0.028862
-0.074779123 0.095805526 0.071560383
-0.074596122 0.29102552 0.094922066
-0.074862123 0.007368505 0.060978413
-0.07519412 0.84398651 0.018723011
-0.074954122 0.88526654 0.049284458
-0.075829118 -1.0209656 -0.062086582
-0.075638123 -0.81783146 -0.037776947
-0.075147122 -0.29531747 0.024754047
-0.075338125 -0.49893051 0.0003862381
-0.080573127 0.09591651 0.072497368
-0.080286123 0.37044352 0.1053462
-0.080198124 0.45499653 0.11546326
-0.081113122 -0.42134148 0.010604382
-0.081038117 -0.34976548 0.019168377
-0.08179412 -1.0738616 -0.067474842
-0.081667125 -0.95188147 -0.05287981
-0.081601121 -0.88894445 -0.045347691
-0.081360124 -0.65842348 -0.017764568
-0.081316121 -0.61594051 -0.012681961
-0.081247121 -0.54951245 -0.0047326088
-0.086191125 0.24733251 0.091534138
-0.085778125 0.60712552 0.13458109
-0.085830122 0.65132153 0.12912226
-0.087633125 0.7211045 -0.05866766
-0.085865125 0.53119648 0.12549639
-0.086743124 -0.23351246 0.034006119
-0.086679123 -0.17774147 0.040679455
-0.092062123 0.17050654 0.083264351
-0.091911122 0.29127753 0.097711086
-0.091324121 0.75972551 0.15376043
-0.091610119 0.53124851 0.12641716
-0.093760125 0.80805153 -0.078856945
-0.093764119 0.88448852 -0.079278946
-0.093467124 -0.95137447 -0.050937653
-0.093299121 -0.8171255 -0.034877777
-0.092498124 -0.17759544 0.041622162
-0.092963122 -0.54911751 -0.0028195381
-0.09768112 0.2913605 0.098640442
-0.098066121 0.0078555346 0.064731121
-0.097252123 0.60720849 0.13641834
-0.097573124 0.3706615 0.10812521
-0.098211125 0.67945451 0.051902294
-0.098647125 -0.42080349 0.013461113
-0.098752119 -0.49816746 0.0042071342
-0.10380612 0.046675503 0.070297241
-0.10327012 0.41302049 0.11410809
-0.10301212 0.7592535 0.1352253
-0.10315912 0.4892455 0.1232233
-0.10309713 0.53135049 0.12825823
-0.10711312 0.84131449 -0.20038271
-0.10536412 -1.0196555 -0.057225704
-0.10928212 0.24768651 0.095254421
-0.10908912 0.3708055 0.10997725
-0.11133412 0.72101051 -0.061493874
-0.10883812 0.53140152 0.12918043
-0.11324112 0.92053151 -0.20715857
-0.11126512 -1.0193975 -0.056254864
-0.11081912 -0.73394853 -0.022121906
-0.11013112 -0.29434747 0.030442238
-0.11063212 -0.6149165 -0.0078897476
-0.11044912 -0.4977935 0.0061154366
-0.11489512 0.34083551 0.10730934
-0.11477512 0.4131515 0.11595726
-0.12000512 0.88340151 -0.25863791
-0.11616612 -0.42027551 0.016316414
-0.11705112 -0.9503805 -0.047063828
-0.11585312 -0.2327525 0.038734436
-0.11656212 -0.65716344 -0.01200676
-0.11576013 -0.17701846 0.045398235
-0.11629512 -0.49760848 0.0070681572
-0.12108612 0.096673489 0.079041004
-0.12102512 0.1311065 0.083155155
-0.12130912 -0.029023468 0.064014435
-0.12081812 0.24785954 0.097112179
-0.12117412 0.047015488 0.073104382
-0.12023813 0.57488155 0.13620424
-0.12065312 0.34090954 0.10823631
-0.12177912 -0.29403144 0.032334328
-0.12664212 0.2177785 0.094436169
-0.12703511 0.0084475279 0.069417
-0.12627512 0.41328251 0.1178031
-0.12912512 0.72093952 -0.0636096
-0.12613213 0.4894675 0.12690926
-0.13076112 0.80650651 -0.16774082
-0.13341112 0.83965349 -0.33644485
-0.12906313 -1.0717394 -0.059691906
-0.12871611 -0.88702446 -0.037613869
-0.12760311 -0.29387552 0.033281326
-0.13264912 0.096883535 0.080907345
-0.13282412 0.0085635185 0.070352077
-0.13193813 0.65107453 0.12379742
-0.13319811 0.67928553 0.047814369
-0.13202211 0.41334653 0.11872721
-0.13193813 0.45554152 0.12376928
-0.13326412 0.72417855 0.043847084
-0.13187112 0.48952252 0.12783146
-0.13367313 -0.41975647 0.019164085
-0.13459812 -0.88679045 -0.03664875
-0.13342312 -0.29371947 0.034227371
-0.13392712 -0.54777247 0.0038661957
-0.13827312 0.17128152 0.090718269
-0.13878211 -0.072980464 0.06152916
-0.13869011 -0.028660476 0.066826344
-0.13802111 0.2919265 0.10513401
-0.13853112 0.047348499 0.075908184
-0.14331013 0.80598152 -0.19788265
-0.14767113 0.88225651 -0.44773579
-0.13966613 -0.49687845 0.010878086
-0.14412913 0.1315065 0.086884022
-0.14394012 0.21804452 0.097224236
-0.14448012 -0.028541505 0.067763329
-0.14431313 0.047458529 0.076842308
-0.14347711 0.65101153 0.12247133
-0.14487013 0.67922753 0.046452045
-0.14342013 0.45565853 0.12561226
-0.14676213 -1.0709705 -0.056780815
-0.14602211 -0.73266751 -0.01636076
-0.14585412 -0.65614945 -0.0072197914
-0.14925012 0.65097952 0.1218071
-0.14925611 0.4135375 0.12149429
-0.15116611 -0.41924852 0.022012234
-0.15100312 -0.34778553 0.030548096
-0.15146011 -0.54721445 0.006726265
-0.15596813 0.0090205073 0.074093342
-0.15587512 0.04767549 0.078710079
-0.15453213 0.60760856 0.14558935
-0.15481511 0.48973852 0.13151121
-0.15794313 -0.8146475 -0.024285793
-0.15774512 -0.73225147 -0.014445782
-0.16165313 0.047783494 0.07964325
-0.16091812 0.3414185 0.11471128
-0.16239113 0.67913949 0.044414997
-0.16342211 0.75569153 -0.0048155785
-0.16445011 -1.0702164 -0.053872585
-0.16235211 -0.23158544 0.046281338
-0.16710714 0.17174554 0.095365047
-0.16774312 -0.072362483 0.066218376
-0.16823313 0.67910951 0.043736458
-0.16647613 0.41372454 0.12425804
-0.16637513 0.72672451 0.12888432
-0.17020413 -1.0169134 -0.046569824
-0.17254212 0.29239249 0.11068821
-0.17177612 0.57526952 0.1444602
-0.17168811 0.60772347 0.14833403
-0.17407712 0.67907953 0.043058395
-0.17221412 0.41378552 0.1251812
-0.17209911 0.45594451 0.13021421
-0.17244211 0.72630453 0.11512136
-0.18163413 0.8043775 -0.28992367
-0.17623311 -1.0697215 -0.051936626
-0.17396113 -0.23130244 0.048163414
-0.17511013 -0.65516752 -0.0024437904
-0.17364913 -0.11592644 0.061938286
-0.17467812 -0.49581844 0.016582012
-0.17783213 0.45600051 0.13113308
-0.17773712 0.48994851 0.13518715
-0.18140513 -0.81378847 -0.020445824
-0.18450713 0.13218254 0.093396187
-0.18439111 0.1720165 0.098151207
-0.18510312 -0.07200247 0.06902504
-0.18497413 -0.027726471 0.074310303
-0.18321413 0.57535255 0.14629221
-0.18312013 0.60779852 0.15016508
-0.18577111 0.67901951 0.041701317
-0.18831813 0.75421953 -0.062510967
-0.18785712 -1.0161996 -0.043671608
-0.18574613 -0.29236645 0.042723179
-0.19027013 0.13227654 0.094325066
-0.19064012 0.0096845031 0.079695225
-0.18883312 0.60783648 0.15107918
-0.18963712 0.34176749 0.11932516
-0.19353113 -0.94731849 -0.034514904
-0.19119811 -0.17524344 0.057626247
-0.19101813 -0.11555153 0.064750195
-0.19231811 -0.54595345 0.013384342
-0.19613811 0.097992539 0.091151237
-0.19576013 0.21881253 0.10556936
-0.19537613 0.34183651 0.12024832
-0.19528213 0.37182552 0.12382841
-0.19746813 0.67895854 0.040346146
-0.20775911 0.80328155 -0.35266066
-0.19872811 -0.73083645 -0.0077476501
-0.19735712 -0.29207653 0.044607162
-0.19835612 -0.61203247 0.0064291954
-0.19699112 -0.1751135 0.058563232
-0.19814911 -0.54577845 0.014334202
-0.20190313 0.098089516 0.09208107
-0.20036113 0.57547551 0.14903831
-0.20111513 0.34190452 0.121171
-0.20332113 0.67892849 0.039669037
-0.20088214 0.41408753 0.1297822
-0.20063713 0.49015251 0.13885927
-0.20356813 -0.41778153 0.030534267
-0.20333812 -0.34639746 0.039050102
-0.20575112 -1.0694125 -0.050153732
-0.20457813 -0.73063952 -0.0067925453
-0.20278412 -0.17498344 0.059503078
-0.20596611 0.60794652 0.15382242
-0.21364811 0.75272053 -0.12120581
-0.22100112 0.80272651 -0.38445663
-0.21186411 -1.0202994 -0.0573349
-0.21093711 -0.88389343 -0.024142742
-0.20875913 -0.23047847 0.053803444
-0.21017113 -0.65403146 0.0032782555
-0.20980912 -0.54543048 0.016234398
-0.21385613 -0.027167499 0.078977108
-0.21233913 0.41420549 0.13162231
-0.21519712 -0.41746646 0.03242445
-0.21495211 -0.34610051 0.040935993
-0.21679911 -0.88368052 -0.023183823
-0.21821511 0.3720805 0.12751102
-0.21791711 0.45638251 0.13756418
-0.22647911 0.75196052 -0.15093374
-0.21779713 0.4903025 0.14160919
-0.22771111 -1.0591915 -0.1924386
-0.22240713 -0.81234151 -0.01374197
-0.22211611 -0.73005754 -0.003929615
-0.22439212 0.24932551 0.11378622
-0.22281012 0.6835525 0.16556931
-0.23293713 0.75157851 -0.16589594
-0.24108812 0.80188251 -0.43268585
-0.23341912 -0.98840743 -0.18168259
-0.22613913 -0.23007745 0.056620121
-0.22768113 -0.65348047 0.0061330795
-0.22752711 -0.61113447 0.011182308
-0.22593611 -0.17447549 0.063250065
-0.23024711 0.2192995 0.11112022
-0.22997111 0.29312754 0.11992311
-0.23103014 0.010425508 0.086217403
-0.22891212 0.57567453 0.15360928
-0.22967413 0.3722055 0.12935114
-0.23263112 -0.41700345 0.035257339
-0.23932013 -0.92525643 -0.17758799
-0.23193112 -0.22994643 0.057557106
-0.23693812 -0.026734471 0.082705021
-0.23587412 0.24947751 0.11563301
-0.23664612 0.049119532 0.091748238
-0.24090612 0.72156549 -0.040162563
-0.23478511 0.5324375 0.14936304
-0.25000611 -1.0273995 -0.32188988
-0.23772013 -0.2298165 0.058495998
-0.23918712 -0.61078352 0.013082027
-0.23873714 -0.49398249 0.027006149
-0.24191612 0.1728825 0.10741615
-0.24032313 0.5757525 0.15543604
-0.24124613 0.34236753 0.12761927
-0.24729213 0.7211225 -0.054641724
-0.24049413 0.53248048 0.15027905
-0.25855413 -1.0474975 -0.39415073
-0.24712011 -0.66669244 -0.049473763
-0.24305212 -0.11447352 0.073167324
-0.24455214 -0.49382252 0.027951241
-0.24747211 0.21953553 0.11389208
-0.24865013 -0.070740461 0.079297066
-0.24847013 -0.026522458 0.084569454
-0.24816212 0.049314499 0.093605995
-0.24589512 0.60819554 0.16021109
-0.26166713 -0.88726443 -0.30304766
-0.24929413 -0.22955745 0.060371399
-0.25442013 -0.070630491 0.080230236
-0.25159511 0.60823047 0.16112328
-0.25270113 0.3424955 0.12945843
-0.25257611 0.37245053 0.13302803
-0.25240111 0.4146055 0.13805103
-0.25208512 0.49059251 0.14710522
-0.25585914 -0.41640145 0.039031029
-0.27031511 -0.90587944 -0.37494659
-0.26682311 -0.79708248 -0.27493477
-0.25533614 -0.29068643 0.054007053
-0.25914913 0.17313051 0.11019135
-0.25918111 0.65033251 0.10927439
-0.25922012 0.68139255 0.10820913
-0.26661712 0.71978152 -0.098457813
-0.26241213 -0.42046446 0.019007206
-0.26086512 -0.22930354 0.062245369
-0.26037413 -0.11412948 0.075965405
-0.26595414 -0.07041347 0.082093239
-0.26415011 0.34262151 0.13129711
-0.26498112 0.65029651 0.10861826
-0.26550412 0.68087351 0.09436512
-0.27311513 0.71933055 -0.11318874
-0.27895612 0.74884748 -0.27249384
-0.26772612 -0.34779149 0.033776283
-0.26691511 -0.29041952 0.055887222
-0.26664713 -0.22917753 0.063182354
-0.27096114 0.099200487 0.10321426
-0.27063012 0.17329252 0.11203814
-0.27135512 0.011130512 0.092724323
-0.26868412 0.60833251 0.16385746
-0.27181512 0.6803515 0.080463409
-0.27191412 -0.11390454 0.077832222
-0.27748314 -0.07019949 0.083956242
-0.27526414 0.41482449 0.14171839
-0.28446314 -0.37292653 -0.097746849
-0.30257413 -0.86978346 -0.56919289
-0.27795511 -0.17338151 0.07167244
-0.27768213 -0.11379248 0.078766346
-0.28210813 0.1734525 0.11388731
-0.28189012 0.21999151 0.11942911
-0.29642713 -0.47479945 -0.25055695
-0.28535014 -0.1800825 0.031357288
-0.30260012 -0.63905054 -0.40767288
-0.28803414 0.13377851 0.11007738
-0.28591913 0.57605147 0.16273403
-0.28555113 0.6528945 0.17189121
-0.30590713 0.7472465 -0.33490992
-0.28632712 0.49087051 0.15259314
-0.28612614 0.53281748 0.1575861
-0.29926914 -0.33174354 -0.16964865
-0.29638413 -0.25726753 -0.097824574
-0.31180412 -0.65536648 -0.48174858
-0.30922213 -0.5886845 -0.41744184
-0.29555213 -0.029197514 0.067669392
-0.29320514 0.2502045 0.12485123
-0.29418314 0.050066531 0.1010294
-0.29157612 0.65257847 0.16453314
-0.29219514 0.45704353 0.14947414
-0.31448412 -0.50365144 -0.39366579
-0.29931313 0.17368752 0.11665821
-0.30618712 -0.090046465 -0.047353745
-0.30406812 -0.038486481 0.0031981468
-0.29893112 0.25027454 0.12577105
-0.29871312 0.29394352 0.13096905
-0.29773012 0.49095953 0.15441942
-0.31717113 -0.35734552 -0.30942488
-0.32799214 -0.62065643 -0.56760979
-0.30299813 0.57615948 0.16546822
-0.30403313 0.37297553 0.14128733
-0.31025812 0.67717153 -0.0041999817
-0.32644314 0.74602449 -0.38246489
-0.30343214 0.49100453 0.15533304
-0.33330613 -0.53373545 -0.54285955
-0.32022914 -0.22465152 -0.23724699
-0.31357512 0.12700051 0.054472446
-0.31970114 -0.013744473 -0.085855007
-0.30974412 0.3730315 0.14220428
-0.33582214 -0.38402551 -0.45506763
-0.32620314 -0.16309851 -0.23477077
-0.32404813 0.079839528 -0.049855709
-0.31793213 0.21642053 0.087483406
-0.31644112 0.24970454 0.12095118
-0.31587213 0.29413754 0.13373232
-0.31420612 0.60859454 0.17113924
-0.31693912 0.65025651 0.10977221
-0.31523114 0.4151935 0.14813232
-0.34189814 -0.31871444 -0.45065784
-0.32509214 0.24317849 0.057503223
-0.32006612 0.5762645 0.16819906
-0.32093513 0.41524452 0.14904928
-0.32070813 0.45728153 0.15404844
-0.33969614 0.71469951 -0.26409483
-0.34726012 0.74478453 -0.43066263
-0.34213313 0.062910497 -0.18481064
-0.35185713 -0.14241248 -0.39488554
-0.34927112 -0.087801516 -0.33901167
-0.33391213 0.23652554 -0.0071806908
-0.32622114 0.49117851 0.15898943
-0.32599014 0.53309655 0.16397429
-0.35444412 -0.19704646 -0.45078468
-0.35887414 -0.098282516 -0.41172695
-0.35337412 0.71374655 -0.29508877
-0.33168212 0.53313553 0.164886
-0.35654312 0.13361549 -0.23333979
-0.36867613 -0.10898143 -0.48594379
-0.34958512 0.27272451 -0.08849287
-0.34273714 0.64789152 0.054084301
-0.37379414 -0.024710476 -0.4617219
-0.35597712 0.32206851 -0.09741497
-0.35424712 0.35573453 -0.062049866
-0.36531413 0.31604153 -0.16519594
-0.36351812 0.35007352 -0.12912273
-0.37412113 0.71229953 -0.34209394
-0.37484312 0.30989051 -0.23436356
-0.36982614 0.67223454 -0.13533163
-0.36330613 0.52279651 -0.0066337585
-0.36996514 0.56603456 -0.021657944
-0.36802214 0.60097849 0.01606226
-0.38262814 0.33840454 -0.26737165
-0.36898112 0.64548349 -0.0025529861
-0.38811213 0.7113235 -0.37378979
-0.37259114 0.51882756 -0.07261467
-0.38692912 0.4295195 -0.23279572
-0.38206112 0.51477849 -0.13990974
-0.38889712 0.55886054 -0.15554476
-0.40252614 0.32625151 -0.41132593
-0.39021012 0.67054152 -0.18018961
-0.39962712 0.37573153 -0.3569169
-0.40223014 0.71033752 -0.40576792
-0.39172214 0.51064754 -0.20856094
-0.39354214 0.64012456 -0.13020897
-0.40977812 0.37002653 -0.43001556
-0.40635514 0.58783448 -0.25406885
-0.43147513 0.66338348 -0.37210798
