# .PCD v0.7 - Point Cloud Data file format
VERSION 0.7
FIELDS x y z
SIZE 4 4 4
TYPE F F F
COUNT 1 1 1
WIDTH 1
HEIGHT 1024
VIEWPOINT 0 0 0 1 0 0 0
POINTS 1024
DATA ascii
0.78055012 0.11899793 -1.07338
0.75546914 0.17378789 -0.87987471
0.73883414 0.29438388 -0.70389605
0.7531001 0.13502693 -0.9252491
0.73692113 0.32350391 -0.75247908
0.73009712 0.3238439 -0.74904013
0.74607611 0.074549913 -0.99371576
0.73431009 0.13383293 -0.93821287
0.70822513 0.1902439 -0.72274208
0.7198301 0.028579891 -1.0005941
0.6960851 0.32553589 -0.73188686
0.69056511 0.095044911 -0.81781101
0.67977411 0.16041589 -0.69322777
0.67089212 0.25150388 -0.59066486
0.67806512 0.29754591 -0.67349291
0.70014811 -0.011073112 -1.0060511
0.6757651 0.32654089 -0.72163296
0.66464114 0.29823989 -0.66676712
0.65367413 0.16922992 -0.61264277
0.6622541 0.32720691 -0.71480894
0.6718201 0.0014569163 -0.90769482
0.65515411 0.10793394 -0.7071228
0.63877612 0.21254289 -0.51001596
0.64438814 0.25296992 -0.5775528
0.65124309 0.29893088 -0.66005373
0.64646912 0.11109293 -0.67997789
0.64637214 0.058279932 -0.75782204
0.66726214 -0.068302095 -1.014648
0.63766211 0.061646938 -0.73030376
0.6312021 0.29996091 -0.65000582
0.63532114 0.32853091 -0.70120192
0.6412251 0.3694759 -0.77457905
0.63443714 0.36978692 -0.77110815
0.61141312 0.25478292 -0.56122398
0.61787415 0.30064392 -0.64331913
0.62189513 0.32918793 -0.69441509
0.6119231 0.071592927 -0.64899492
0.59553009 0.18828893 -0.43834972
0.58907712 0.18867588 -0.4352088
0.61412311 0.37071294 -0.76072311
0.62571913 0.40696591 -0.91142082
0.60182911 0.029919922 -0.68449593
0.58262813 0.18906289 -0.43207073
0.57927114 0.13551593 -0.46994495
0.6189031 -0.15156204 -0.99702883
0.58498812 0.036759913 -0.63080215
0.56975412 0.18983394 -0.4258008
0.57666111 0.040140927 -0.60425615
0.58611113 -0.030352116 -0.73294687
0.56839609 0.043495893 -0.57790899
0.56038612 0.21750093 -0.46751595
0.58510309 -0.08299011 -0.80817413
0.57145011 0.30300891 -0.62000608
0.5915761 0.4081459 -0.89737797
0.57519513 -0.13046712 -0.8527379
0.54747111 0.21824288 -0.46117496
0.56095809 -0.019398093 -0.65166187
0.56183314 0.3321079 -0.66401482
0.5793891 0.4458499 -0.91197014
0.53806514 0.1000939 -0.4156971
0.53767914 0.19174594 -0.41016912
0.5666551 -0.12634903 -0.82455111
0.54102415 0.21861291 -0.45800781
0.5459711 0.25834888 -0.52875805
0.52627015 0.15132588 -0.334445
0.5664891 -0.18909603 -0.91690302
0.53458411 0.21898091 -0.45484209
0.53946412 0.25870091 -0.52552605
0.54507214 0.30434293 -0.60674381
0.52796811 0.059898913 -0.44901085
0.52230412 0.10616791 -0.36592817
0.54310012 -0.063711107 -0.67097807
0.53849512 0.30467492 -0.60343504
0.54687113 0.37375492 -0.72629404
0.5185101 0.1928829 -0.40081787
0.54142112 -0.11418611 -0.74127007
0.52172011 0.21971589 -0.44851875
0.53488612 -0.059944093 -0.64414978
0.53192312 0.30500591 -0.60012913
0.54514509 0.41553891 -0.79660702
0.55174309 0.44711992 -0.89464092
0.51213413 0.19325989 -0.39770603
0.54095012 -0.17606813 -0.83155394
0.51998115 0.25975293 -0.51584196
0.52027011 -0.0016940832 -0.52019787
0.52870715 0.33370394 -0.64722395
0.53839713 0.41581988 -0.79310989
0.54889411 -0.24304014 -0.95114994
0.50440913 0.069444895 -0.37392998
0.49907911 0.11511093 -0.29260111
0.50102311 0.15290189 -0.32226181
0.50576413 0.19363588 -0.3945961
0.52491611 -0.10623509 -0.68680286
0.50888515 0.2204479 -0.44220591
0.51231116 0.0017648935 -0.49449015
0.51880312 0.30566591 -0.59352493
0.4914481 0.11804789 -0.26850891
0.51550514 0.33433789 -0.64052677
0.50264013 -0.045165062 -0.53885889
0.50891215 0.3346529 -0.63718176
0.51350611 0.37524992 -0.70919085
0.4866901 0.19475991 -0.38527679
0.50779915 -0.15917212 -0.72078609
0.51509714 -0.22485012 -0.83678818
0.47377813 0.081845939 -0.27632284
0.47213313 0.12042791 -0.24980593
0.47587511 0.15446293 -0.31011295
0.49966711 -0.15503007 -0.69361973
0.49263713 -0.09069711 -0.58030081
0.48328811 0.22190088 -0.42960596
0.49575111 0.33528191 -0.63050175
0.51521415 0.4921419 -0.94423199
0.46591812 0.12082994 -0.24682999
0.48471612 -0.086887062 -0.55417109
0.47337011 0.018686891 -0.36867094
0.48611611 0.30730093 -0.57706118
0.48358512 -0.14684206 -0.63989878
0.47959912 0.30762589 -0.57377577
0.46904612 -0.079352081 -0.50248194
0.48031512 0.37672693 -0.69215775
0.48465711 0.41804188 -0.76524401
0.44432312 0.093202889 -0.1869421
0.45082411 0.15601093 -0.29799604
0.46950713 0.33653194 -0.61717176
0.47369713 0.3770209 -0.6887598
0.48974413 0.49111891 -0.96290016
0.44871211 0.19698489 -0.36670208
0.43204111 0.094018936 -0.18109989
0.45359412 0.30891794 -0.56066084
0.46801811 0.45274192 -0.81467485
0.47742912 0.49011591 -0.98041296
0.42874911 0.12321889 -0.22901106
0.44440511 -0.12691206 -0.50904512
0.43873611 0.22441292 -0.40764713
0.4334411 -0.013497114 -0.31294012
0.42587012 0.1575439 -0.28591394
0.43674111 -0.12301713 -0.4834528
0.43085712 -0.061006129 -0.37653494
0.43239713 0.22476792 -0.40452099
0.44336912 0.33776891 -0.60388708
0.45129511 0.41940993 -0.74792385
0.42351711 0.19845092 -0.35436201
0.44787511 0.45351192 -0.80412483
0.43496811 -0.18180805 -0.56579876
0.42157912 -0.11531407 -0.43282986
0.41973713 0.22547692 -0.39827204
0.43034011 0.33838391 -0.59726
0.43413213 0.37876689 -0.66843176
0.41095611 0.19917989 -0.34820509
0.41705513 0.26523989 -0.46457195
0.42123511 0.31051689 -0.54432487
0.43136212 0.42022294 -0.7375679
0.4275161 -0.26138407 -0.66418505
0.40101111 0.15906394 -0.27386189
0.39687613 0.0032029152 -0.19361782
0.41478112 0.31083393 -0.54106474
0.42099613 0.37934393 -0.66167879
0.41206512 -0.16952711 -0.48837805
0.40430212 0.26591194 -0.45820379
0.41810513 0.42076188 -0.73067904
0.42111513 0.45453092 -0.79009771
0.41204113 -0.2524721 -0.61096096
0.40454313 -0.16549605 -0.46294975
0.39189911 -0.10024709 -0.33374977
0.38260511 0.0097149014 -0.14705801
0.40189511 0.31146693 -0.53455305
0.41817412 0.49740291 -0.86155176
0.37705311 0.097646892 -0.15489817
0.38243011 0.16019493 -0.26484489
0.3796311 -0.036431074 -0.20760584
0.38819411 0.22723389 -0.38268805
0.4114401 0.4976359 -0.85798216
0.37251511 -0.033022106 -0.18414974
0.36852813 0.016134918 -0.10113478
0.36727113 0.12712991 -0.19946718
0.37007111 0.16094393 -0.2588439
0.36545011 -0.029638112 -0.16086292
0.37561813 0.2279309 -0.37647009
0.38261312 0.31240994 -0.52480412
0.38494012 0.34051192 -0.57414675
0.39167413 0.42183191 -0.71693277
0.39798912 0.49810091 -0.85085201
0.38833112 -0.31769603 -0.64605713
0.36718112 0.20170194 -0.32672215
0.37253213 0.26757789 -0.44233274
0.35464412 0.022461891 -0.055850029
0.38508311 0.42209792 -0.71350479
0.38782012 0.45579192 -0.77263498
0.37433711 -0.23078209 -0.48132706
0.3630681 0.22862488 -0.37026072
0.36619711 0.26790893 -0.43916512
0.34953213 0.058690906 -0.072182178
0.38456813 0.4985629 -0.84373283
0.34892613 -0.078456104 -0.19029808
0.34454712 -0.019630075 -0.09196806
0.35986811 0.2682389 -0.43599987
0.34353912 0.059099913 -0.069349766
0.3745501 0.45629191 -0.76567078
0.36570212 -0.3038221 -0.56698418
0.35336712 -0.13809913 -0.29001284
0.34284112 0.1286689 -0.18770313
0.34542412 0.16243291 -0.24686575
0.34193611 -0.074915111 -0.16697073
0.33518413 0.028578937 -0.012322903
0.36792311 0.45654091 -0.76219177
0.33460212 0.10041791 -0.13462114
0.33674812 0.12905091 -0.18476772
0.33927712 0.16280293 -0.24387598
0.34428713 0.22965991 -0.36096382
0.33156711 0.059916914 -0.063691139
0.33066112 0.12943292 -0.18183184
0.33609313 0.20347893 -0.31144094
0.34091613 0.26922393 -0.42651701
0.32252511 0.10120094 -0.12884378
0.32125813 -0.064448059 -0.097983837
0.31733111 -0.006614089 -0.0022931099
0.33461112 0.26955092 -0.42336082
0.31961912 0.060728908 -0.058038712
0.3378441 0.31458694 -0.50214291
0.33985612 0.34260589 -0.55115986
0.34273812 0.38274789 -0.62138271
0.34567612 0.4236809 -0.69299078
0.3511351 0.49970892 -0.82599306
0.33628911 -0.28580815 -0.46423817
0.33085713 -0.20580715 -0.33188677
0.32523811 -0.12305909 -0.19496107
0.32555911 0.23068792 -0.35168505
0.31148213 0.030246913 -0.0012078285
0.3391301 0.42394292 -0.68958092
0.34148911 0.4575319 -0.74830914
0.31243113 0.13057292 -0.17303991
0.32201812 0.27020389 -0.41705513
0.32703012 0.34319788 -0.54461479
0.32776511 -0.36773211 -0.56332111
0.3218981 -0.27700204 -0.41397715
0.3009991 -0.054202139 -0.030405998
0.32831311 0.45802292 -0.74138689
0.31478012 -0.27264804 -0.38912106
0.29843512 0.10275793 -0.11730909
0.29184413 0.0022029281 0.058237076
0.29376411 0.031488895 0.0071120262
0.31953612 0.42472392 -0.67937088
0.30771312 -0.2683261 -0.36444283
0.30067411 0.23204792 -0.33934498
0.30317712 0.27117592 -0.40761375
0.32072413 0.54543591 -0.88613701
0.30784112 0.34408092 -0.53481674
0.31040412 0.38413793 -0.60470676
0.31516212 0.4585129 -0.73447514
0.30605611 -0.35351413 -0.48612213
0.30069512 -0.26403707 -0.33994293
0.28642213 0.10353088 -0.11154985
0.30395511 0.3844139 -0.60137987
0.31123611 0.50106692 -0.80480576
0.29064414 0.27181989 -0.40132999
0.2999981 0.42549992 -0.66918516
0.28680712 -0.25555009 -0.29145479
0.28240514 -0.17802113 -0.16540098
0.27784914 -0.097765148 -0.034921169
0.28206912 0.23305988 -0.33011198
0.28438711 0.27214092 -0.39819193
0.27021113 0.033130884 0.018184185
0.27203813 0.063942909 -0.035492897
0.29107913 0.38496393 -0.59473276
0.28480911 -0.33961207 -0.41058683
0.27993712 -0.25135309 -0.26747179
0.27009311 0.13320392 -0.15258789
0.26595414 0.16717792 -0.208148
0.25682214 0.004719913 0.074573994
0.27822614 0.38551193 -0.5880971
0.28051713 0.42626989 -0.65902281
0.27089512 -0.33051413 -0.36112881
0.26633713 -0.24305111 -0.22000504
0.25260112 0.034352899 0.026473045
0.28060311 0.54665589 -0.86458206
0.27817214 0.50218391 -0.78723288
0.27394113 0.54685795 -0.86100197
0.26933911 0.46020791 -0.71037102
0.27158013 0.50240588 -0.78372812
0.23762712 -0.028063118 0.14184713
0.24088812 0.035161912 0.031991005
0.26728514 0.54705894 -0.85742378
0.26109612 0.42703491 -0.64888573
0.26281911 0.46044791 -0.70694017
0.24370012 0.20868891 -0.26590395
0.23357913 0.0063788891 0.08543396
0.26233312 0.5811789 -0.91275215
0.23263612 0.1069659 -0.085729122
0.23564214 0.16896492 -0.19334173
0.23068413 0.066706896 -0.015850067
0.25184011 0.50306791 -0.77322817
0.22959614 0.16931993 -0.19038773
0.23147613 0.20937091 -0.25986576
0.22198611 0.0072029233 0.090857983
0.23794913 0.3472659 -0.4990778
0.24172911 0.42779392 -0.63877296
0.23031512 -0.30401009 -0.21693087
0.22074312 0.1077199 -0.080008984
0.21752211 0.03677094 0.043010235
0.21891713 0.067488909 -0.010252953
0.22019213 -0.21491009 -0.058959961
0.21752211 0.17002791 -0.18448114
0.22043213 0.23638093 -0.29946804
0.22214013 0.27531093 -0.36693096
0.20463613 0.0084308982 0.098981857
0.21429911 0.23670894 -0.29641485
0.21783814 0.32031792 -0.44122696
0.22383013 0.4618749 -0.68640804
0.20180711 -0.058387101 0.21471691
0.19747713 -0.025112092 0.16046286
0.20005113 0.03796792 0.051258087
0.20130312 0.068654895 -0.0018658638
0.21158212 0.32061291 -0.43804407
0.21599612 0.4287979 -0.62532711
0.21907014 0.50416088 -0.75578785
0.19813514 0.13761491 -0.1177268
0.19309512 0.0092459321 0.1043911
0.20205212 0.23736191 -0.29031372
0.21427414 0.54865092 -0.82891083
0.20533213 0.32090592 -0.43486404
0.20798513 0.38847893 -0.55177784
0.21253613 0.5043779 -0.75230885
0.20049614 -0.35945505 -0.22175789
0.19479114 -0.19944614 0.029642105
0.19047311 -0.057530105 0.21993113
0.19343612 0.17143291 -0.17269182
0.18733111 0.0096518993 0.10709286
0.20013613 0.34896892 -0.47970581
0.18481213 -0.057102144 0.22253704
0.18262711 0.039156914 0.059494019
0.19529411 0.38900989 -0.54520893
0.19796613 0.46281591 -0.67277479
0.19948614 0.50481093 -0.7453599
0.19093013 -0.45405203 -0.33688307
0.18026611 0.13869894 -0.1090498
0.18142512 0.1721319 -0.16680717
0.17789012 0.070196927 0.0092940331
0.17350513 -0.056251109 0.22774506
0.17542914 0.17247891 -0.16386795
0.18038812 0.32207489 -0.42216492
0.18130812 0.3498109 -0.47005272
0.17475712 -0.34167606 -0.12886477
0.17005712 -0.18440813 0.11588717
0.16943812 0.17282593 -0.16093111
0.17070013 0.21272892 -0.22979498
0.17416713 0.32236594 -0.41899395
0.16843212 -0.33731109 -0.10604286
0.16159312 0.1114369 -0.05150795
0.16465312 0.21306092 -0.22679806
0.15756913 -0.022208095 0.17901611
0.15858912 0.011666894 0.12058401
0.17120013 0.43053293 -0.60189676
0.17220011 0.46374691 -0.65918493
0.16214913 -0.33297604 -0.083375931
0.16012913 -0.25828105 0.032328129
0.15746912 0.17351788 -0.15506077
0.15935913 0.23962593 -0.26902676
0.15368412 0.041120887 0.073193073
0.16577312 0.46397892 -0.65579414
0.16697013 0.50588292 -0.72803497
0.15328312 0.23994589 -0.26599503
0.14791211 0.041509926 0.075928211
0.15628713 0.35092491 -0.45721388
0.15845513 0.43102288 -0.59522581
0.15935312 0.4642089 -0.65240574
0.16048712 0.50609589 -0.7245779
0.14394812 0.11253589 -0.042987823
0.14053713 -0.02097708 0.18695021
0.14140213 0.012865901 0.12866402
0.14721212 0.24026591 -0.26296377
0.14292511 0.072483897 0.025989056
0.13956013 0.17454892 -0.14626884
0.14051712 0.21437991 -0.21482992
0.14753813 0.50652087 -0.71767378
0.13586313 -0.24250907 0.11845016
0.13360012 0.17489094 -0.14334297
0.13449712 0.21470791 -0.21184206
0.12996912 0.013659894 0.13404417
0.13131112 0.073238909 0.031541824
0.13696012 0.32409489 -0.40002584
0.13938513 0.43175393 -0.58523893
0.12989613 -0.23863405 0.13962221
0.12830111 -0.15906304 0.26142406
0.12847012 -0.052884102 0.248528
0.12764412 0.17523193 -0.1404171
0.13135913 0.35202891 -0.44441175
0.13219112 0.39162892 -0.51250172
0.13373512 0.46512792 -0.63888073
0.12049513 0.11398894 -0.031651974
0.11855412 0.014450908 0.13941908
0.11911912 0.043446898 0.089583874
0.12460312 0.3246659 -0.3937211
0.12514111 0.35230291 -0.44121695
0.11671212 -0.15203911 0.30180311
0.11515313 0.14261091 -0.077367783
0.11575212 0.17591292 -0.13457203
0.11224712 -0.018945098 0.20014524
0.11285512 0.014844894 0.1421051
0.10879912 0.11471093 -0.025994778
0.10660312 -0.018541098 0.2027812
0.10763712 0.044215918 0.095036983
0.10814112 0.07473892 0.042631149
0.11458612 0.46581092 -0.62876511
0.10527012 -0.14510912 0.34166193
0.10295913 0.11506993 -0.023168087
0.10652412 0.35312194 -0.43164682
0.10286412 -0.38862306 -0.012243748
0.10063313 -0.21964604 0.24343014
0.097951129 0.17692691 -0.12581778
0.098486125 0.21665794 -0.19395685
0.095783129 0.016020894 0.15015316
0.099359125 0.28143293 -0.30504704
0.092503123 0.21698093 -0.19098282
0.087667122 0.32636189 -0.37485695
0.087956123 0.35393488 -0.42209578
0.085051119 -0.37542313 0.053378105
0.083520129 -0.20855707 0.30411291
0.080554128 0.21762389 -0.18504
0.078757122 0.01718992 0.15818787
0.082132123 0.3936789 -0.48651075
0.082789123 0.4669379 -0.61195707
0.079192124 -0.37108403 0.074954033
0.073830128 0.11685491 -0.0090551376
0.075605124 0.35447389 -0.41574001
0.076200128 0.43415391 -0.55211115
0.076446123 0.46716192 -0.608603
0.068189122 0.14539289 -0.054450035
0.069674127 0.3941859 -0.48003578
0.069914125 0.4343909 -0.54881191
0.061620124 -0.015344083 0.22382402
0.061900124 0.047253907 0.11679506
0.063278124 0.35500991 -0.40939283
0.061843127 -0.35824615 0.13883924
0.061279126 -0.091528118 0.35408306
0.056794126 0.24497092 -0.21772814
0.057041124 0.32775789 -0.35919476
0.057458125 0.46782991 -0.59855795
0.056135125 -0.35402507 0.15985203
0.055891126 -0.25986606 0.29973221
0.056598123 -0.53277808 -0.10569191
0.056410126 -0.46034211 0.0019030571
0.050619125 0.11826789 0.0022058487
0.050866123 0.28380191 -0.28052187
0.050515123 0.048004925 0.12222004
0.050560124 0.078429937 0.070251942
0.050342124 -0.25606114 0.31971788
0.050373126 -0.047138095 0.28472805
0.044827126 0.11861992 0.0050201416
0.044827126 -0.01416111 0.23169708
0.044827126 0.078794897 0.07300806
0.044827126 0.32831091 -0.35294485
0.044827126 -0.34566706 0.20147324
0.044827126 -0.25228006 0.33958006
0.038951125 0.18025792 -0.096745014
0.038892124 0.21984893 -0.16429377
0.038796123 0.28438789 -0.27441072
0.038630124 0.39544189 -0.46389198
0.038570125 0.4355669 -0.53235292
0.039353125 -0.089861095 0.36415625
0.039094124 -0.44649905 0.067193031
0.033178125 0.14744592 -0.03732872
0.033079125 0.18058693 -0.093847752
0.032439124 0.39569092 -0.46066999
0.033883125 -0.089447081 0.36667109
0.028755125 -0.17314607 0.49820328
0.021546124 0.14812392 -0.031633854
0.022502124 -0.012595117 0.24217606
0.020959124 0.24680793 -0.19974995
0.021950124 0.080243886 0.084011078
0.020468125 0.32941091 -0.34046984
0.020305125 0.35686791 -0.38724709
0.019832125 0.43626493 -0.52250576
0.023189124 -0.12817508 0.43908596
0.015738124 0.14846194 -0.028789997
0.017791124 -0.12775308 0.44154406
0.0096411258 0.1818949 -0.082272053
0.011367124 -0.011818111 0.24740887
0.008077126 0.35739291 -0.38093805
0.0077271238 0.39668292 -0.44780302
0.012460124 -0.23011512 0.45612097
0.012396123 -0.12733108 0.44400406
0.0019711256 0.35765392 -0.37778807
0.0011471249 0.43695891 -0.51268196
0.0048441254 -0.48933405 0.092471123
-0.0013218746 0.12140089 0.027460098
-0.00084987655 0.081678927 0.094993114
-0.0038038753 0.33049893 -0.32803011
0.0019351244 -0.22291809 0.49399996
0.0021251254 -0.16898304 0.52116203
0.001620125 -0.12649006 0.44891596
-0.0098598748 0.3307699 -0.32492495
-0.0043058768 -0.3094191 0.38222599
-0.003279876 -0.21935314 0.51276922
-0.0073128752 -0.57355112 -0.00060606003
-0.010849874 -0.010273099 0.25786209
-0.012223877 0.082391918 0.10047626
-0.016314875 0.35843492 -0.36834812
-0.016896877 0.3976649 -0.43497276
-0.0085108764 -0.16812307 0.52595901
-0.0091398768 -0.12565404 0.4538269
-0.012914877 -0.5685491 0.021286011
-0.009724874 -0.086166084 0.38676023
-0.010368876 -0.042750061 0.31302118
-0.018548876 0.12242991 0.035850048
-0.019544877 0.18351191 -0.067837715
-0.020609878 0.24891692 -0.17886209
-0.021234877 0.28727293 -0.24396896
-0.017408874 0.052438915 0.15466785
-0.014512874 -0.12523705 0.45628214
-0.018479876 -0.56358212 0.043034077
-0.017195877 -0.47087103 0.17681599
-0.024281874 0.12277192 0.038645267
-0.026066877 0.22327393 -0.13187075
-0.027208872 0.2875579 -0.24093676
-0.029173873 0.39815193 -0.42857313
-0.018733874 -0.20879811 0.56837082
-0.019127876 -0.16726714 0.53075409
-0.024008878 -0.55864912 0.064635277
-0.021354876 -0.041964114 0.31815195
-0.030549876 0.15113592 -0.0060839653
-0.027466878 -0.0091251135 0.26568985
-0.032442875 0.24951392 -0.17290878
-0.029503874 -0.55374807 0.086100101
-0.026841879 -0.041572094 0.3207159
-0.028005876 -0.46182615 0.21816492
-0.026897877 -0.39388508 0.31577492
-0.039143875 0.28812593 -0.23487473
-0.034912877 0.083807886 0.11142492
-0.041431874 0.39863694 -0.42217779
-0.030608878 -0.12399215 0.46363783
-0.036019877 -0.60929114 0.020828247
-0.034961879 -0.54888207 0.10741615
-0.041451879 0.12379193 0.047019958
-0.043677874 0.2241919 -0.12306404
-0.038520873 -0.0083630681 0.27090311
-0.045101874 0.28840792 -0.23184776
-0.039901875 0.053888917 0.16544104
-0.036839873 -0.084146082 0.39928627
-0.038676873 -0.45290309 0.25897598
-0.047164872 0.12412989 0.049808025
-0.047826879 0.1521259 0.002404213
-0.049537875 0.2244969 -0.12013197
-0.042249873 -0.083745062 0.40178728
-0.043274872 -0.040403068 0.32840014
-0.053576879 0.1524539 0.0052309036
-0.054404877 0.1854279 -0.050570965
-0.055392876 0.22480088 -0.11720085
-0.049557872 -0.0076060891 0.27611113
-0.056042872 0.25069791 -0.16102695
-0.058792874 0.36023492 -0.34639406
-0.059775874 0.3993609 -0.41260672
-0.045724876 -0.27895206 0.53446722
-0.047655873 -0.083344042 0.4042902
-0.047801875 -0.37726706 0.3944459
-0.061244875 0.22510391 -0.11427212
-0.064115874 0.33317691 -0.29706812
-0.049909875 -0.20147103 0.60727692
-0.054209873 -0.039628088 0.33351994
-0.064278878 0.12513989 0.058166027
-0.067814879 0.25128591 -0.15509415
-0.055134878 -0.20104104 0.60962105
-0.056163877 -0.16430312 0.5475111
-0.063118875 -0.58416504 0.12810516
-0.059669875 -0.039242089 0.33607721
-0.069973879 0.12547493 0.060947895
-0.072929874 0.2257089 -0.10841894
-0.074820876 0.28981191 -0.21673489
-0.076919876 0.36099792 -0.33701706
-0.071579874 -0.0061001182 0.28651524
-0.072615877 0.027349889 0.230021
-0.082950883 0.36125094 -0.33389616
-0.065691873 -0.26429611 0.60781002
-0.066708878 -0.16346508 0.55229282
-0.070577875 -0.038472116 0.34119129
-0.083322875 0.18700391 -0.036224842
-0.077075876 -0.005726099 0.289114
-0.085434876 0.25216192 -0.1462121
-0.08667288 0.29036891 -0.2107029
-0.079089873 0.056394935 0.18424892
-0.070786878 -0.19975609 0.61665106
-0.073348872 -0.12071413 0.48322201
-0.074624874 -0.081356108 0.41678429
-0.092590876 0.29064691 -0.20768976
-0.085691877 0.086944938 0.13598585
-0.075995877 -0.19933003 0.61899185
-0.077238873 -0.16263014 0.55707216
-0.084177874 -0.56466907 0.21143484
-0.092706881 0.12680793 0.07206583
-0.094855882 0.18762892 -0.030497074
-0.096242882 0.22690892 -0.096733093
-0.088051878 -0.0049800873 0.29430819
-0.089232869 0.028439939 0.23794889
-0.10005187 0.3347519 -0.27858496
-0.080356874 -0.25354511 0.66166019
-0.083167873 -0.34920603 0.52746487
-0.094761871 0.028800905 0.2405901
-0.095815875 0.057455897 0.19229221
-0.10702487 0.36225593 -0.32142878
-0.090074874 -0.41001815 0.45540524
-0.10885688 0.25332189 -0.13439083
-0.11031487 0.29147494 -0.1986618
-0.11198988 0.33527189 -0.27244186
-0.093002878 -0.16138607 0.56423283
-0.10970988 0.12779993 0.080389023
-0.11367788 0.22780192 -0.087985039
-0.11470187 0.2536099 -0.13143778
-0.10821188 -0.65235609 0.14395618
-0.10148788 -0.079392135 0.42925596
-0.10975987 -0.54102415 0.312603
-0.10862488 -0.035806119 0.35905313
-0.12102088 0.12845689 0.085930824
-0.12220787 0.15633589 0.039038181
-0.11541788 -0.0031321049 0.30727291
-0.12985888 0.33604789 -0.26323795
-0.10717187 -0.19679409 0.63302803
-0.11477988 -0.53638905 0.33245087
-0.13580486 0.3363049 -0.26017475
-0.12358988 -0.63711208 0.20629025
-0.11396687 -0.15974003 0.57377386
-0.13231486 0.12911093 0.091469288
-0.13975888 0.29284191 -0.18364906
-0.11635188 -0.24976104 0.68137884
-0.12865287 -0.63209707 0.22680521
-0.12472988 -0.52720815 0.37177515
-0.13178688 -0.0020331144 0.31504107
-0.14563286 0.29311389 -0.1806531
-0.12165088 -0.25048608 0.67791414
-0.12749988 -0.46664411 0.46851015
-0.12824887 -0.077450097 0.44170523
-0.13027287 -0.034303069 0.3692379
-0.14493588 0.15760493 0.050261021
-0.15361387 0.33707392 -0.25099277
-0.12695587 -0.25121206 0.67444515
-0.12787887 -0.19512206 0.64237404
-0.12964988 -0.15851611 0.58092403
-0.13567388 -0.03392911 0.37178326
-0.12776488 -0.32424313 0.64635801
-0.15223888 0.1907109 -0.0019521713
-0.14267689 -0.00130409 0.32021284
-0.14433688 0.032017887 0.26430321
-0.14575988 0.06059593 0.21635485
-0.14725786 0.090689898 0.16586113
-0.15484586 0.13040888 0.10252619
-0.15128687 0.060940921 0.21902084
-0.13820988 -0.19429308 0.64704323
-0.16193387 0.15854889 0.058663845
-0.15530688 0.032723904 0.26956224
-0.15839487 0.091360927 0.171278
-0.14291087 -0.25340313 0.66400623
-0.14670289 -0.44964904 0.54333591
-0.14438087 -0.37485105 0.61722422
-0.14379588 -0.32657903 0.635818
-0.17147988 0.2307319 -0.058932781
-0.14852586 -0.19346613 0.65171003
-0.15278688 -0.11472803 0.51980209
-0.15143189 -0.44546908 0.56175613
-0.14915287 -0.32736212 0.63229609
-0.17324287 0.15917492 0.064258099
-0.17723387 0.23102093 -0.056036949
-0.15804988 -0.11433715 0.52223396
-0.16022688 -0.075149119 0.45661688
-0.15513489 -0.37648207 0.61012888
-0.17730689 0.13169491 0.11356306
-0.18075588 0.19222391 0.012266159
-0.18298286 0.23130894 -0.053142071
-0.18444687 0.2570129 -0.096158981
-0.17506588 0.092360914 0.17939186
-0.16135687 -0.44090313 0.58203506
-0.16554287 -0.07476908 0.45909929
-0.18291187 0.13201493 0.11631918
-0.18872887 0.23159689 -0.0502491
-0.19022986 0.25729191 -0.093227863
-0.16397187 -0.1922341 0.65870714
-0.16610587 -0.15569109 0.597579
-0.16591689 -0.3781231 0.60301495
-0.19446889 0.23188388 -0.047356129
-0.16963187 -0.25709313 0.64651394
-0.17129886 -0.15529209 0.59995604
-0.17616287 -0.074010074 0.46406221
-0.18811187 0.034820914 0.28530884
-0.20177788 0.25784791 -0.087373734
-0.18229187 -0.57907909 0.44402313
-0.17603686 -0.33130509 0.6146121
-0.19148088 0.0019308925 0.34344101
-0.19723389 0.093682885 0.19019508
-0.17938587 -0.19102806 0.66560507
-0.18699089 -0.57444614 0.46303511
-0.18167189 -0.15449506 0.60470724
-0.18676588 -0.073256075 0.46901989
-0.18213788 -0.38059908 0.59230804
-0.21166089 0.23274094 -0.038691998
-0.19688189 0.0022858977 0.34601593
-0.19901288 0.035512924 0.29054785
-0.21330687 0.25840193 -0.08152771
-0.20084089 0.064006925 0.24298096
-0.18955287 -0.11200613 0.53681517
-0.18911588 -0.48625308 0.54817629
-0.18850687 -0.44524604 0.56404018
-0.18755788 -0.38142806 0.58872795
-0.21906587 0.2586779 -0.078605175
-0.20632589 0.064343929 0.24563885
-0.19458187 -0.48715705 0.54454184
-0.19735488 -0.072505057 0.47397709
-0.21381488 0.094665885 0.1982851
-0.19546688 -0.19314104 0.6551199
-0.20002288 -0.11123604 0.54166889
-0.20005387 -0.48806304 0.54090309
-0.20264289 -0.072131097 0.47645283
-0.22881389 0.23359191 -0.030038834
-0.23056689 0.25922793 -0.072767735
-0.20191687 -0.2615841 0.62537003
-0.20083988 -0.19384915 0.6516161
-0.20671788 -0.56348211 0.50838804
-0.22758588 0.13454491 0.13831806
-0.23452088 0.2338739 -0.027157784
-0.20621988 -0.19455904 0.64810705
-0.20754087 -0.15252012 0.61657524
-0.24205089 0.25977492 -0.066935062
-0.2158289 -0.4496451 0.54591894
-0.23161989 0.037570894 0.30624628
-0.21815088 -0.26385504 0.61473227
-0.22543988 -0.65204304 0.44777584
-0.22131389 -0.45053214 0.54227924
-0.2237559 -0.070643127 0.48635197
-0.22687587 -0.0277071 0.4148922
-0.25161889 0.23471689 -0.018522739
-0.23914587 0.066346884 0.26155329
-0.22240087 -0.19669908 0.63755083
-0.22485387 -0.33853203 0.58247423
-0.25436988 0.1960749 0.049062252
-0.25730887 0.2349959 -0.015647888
-0.24245489 0.03824991 0.31146908
-0.22900689 -0.26537913 0.60761595
-0.23428887 -0.069905102 0.49129629
-0.23752889 -0.026992083 0.41994619
-0.23031187 -0.33934611 0.57887793
-0.24135989 -0.65045506 0.45465326
-0.23989889 -0.56929308 0.48620319
-0.23781088 -0.45320612 0.53133202
-0.24284887 -0.02663511 0.422472
-0.26307687 0.16407293 0.10882092
-0.26867589 0.23555291 -0.0099020004
-0.23989087 -0.26691109 0.60048103
-0.24408188 -0.49539512 0.51161098
-0.24332488 -0.4541021 0.52767229
-0.26865488 0.16437292 0.11159611
-0.25603589 0.0061389208 0.37428904
-0.24764287 -0.39069706 0.54903221
-0.2467289 -0.34179908 0.56806087
-0.27198389 0.13702691 0.16024017
-0.26138988 0.0064839125 0.37685299
-0.26638189 0.067994893 0.27478504
-0.25080189 -0.26845104 0.59332609
-0.24950489 -0.20030314 0.61986208
-0.25813589 -0.65356904 0.44336891
-0.2553089 -0.068438113 0.50117588
-0.25878787 -0.025571108 0.43004417
-0.25221488 -0.34262007 0.56444693
-0.27751389 0.13733393 0.16297388
-0.27979589 0.16497093 0.11713791
-0.26673889 0.0068278909 0.37941599
-0.26947188 0.03993392 0.32451105
-0.25626788 -0.26922411 0.58974218
-0.26374289 -0.65461212 0.43959904
-0.25394189 -0.14928311 0.63646984
-0.25733489 -0.10706812 0.56831598
-0.26070887 -0.49818307 0.50054121
-0.26409289 -0.02521807 0.43256521
-0.27724788 0.068647921 0.28007221
-0.26174289 -0.26999909 0.58615208
-0.26039487 -0.20175809 0.61275196
-0.26935789 -0.65565807 0.43582106
-0.25937289 -0.14997715 0.632936
-0.26252288 -0.10669404 0.57073593
-0.29701489 0.23693389 0.0044350624
-0.27497888 -0.65670711 0.43203688
-0.26970187 -0.3941341 0.53444624
-0.27131188 -0.20322007 0.60562325
-0.27998489 -0.024163067 0.44012928
-0.2995939 0.13855392 0.17389917
-0.30489588 0.19867092 0.074397087
-0.28809687 0.0081979036 0.38966084
-0.2910139 0.041266918 0.33492613
-0.29351488 0.069621921 0.287992
-0.28624287 -0.65881211 0.42445707
-0.2757009 -0.15206605 0.62231112
-0.28297988 -0.50193506 0.48570824
-0.31048688 0.19895589 0.077205181
-0.2918869 -0.65986806 0.42065907
-0.28323489 -0.10520905 0.58039999
-0.28856489 -0.50287908 0.481987
-0.28527987 -0.34759611 0.54264784
-0.31311989 0.1667459 0.13373995
-0.29875389 0.008877933 0.39477921
-0.2957809 -0.57918304 0.4488039
-0.28662288 -0.15346807 0.615201
-0.29187489 -0.39760512 0.51977587
-0.29081687 -0.34843308 0.53899717
-0.3161099 0.13946092 0.18208027
-0.31865889 0.16703993 0.13650084
-0.32165989 0.19952291 0.082817078
-0.30974689 0.0705899 0.29590321
-0.30475387 -0.7331931 0.38519812
-0.29357088 -0.10447115 0.58523083
-0.29716688 -0.065546095 0.52089882
-0.31249189 0.042586923 0.34532595
-0.31514889 0.070909917 0.29853821
-0.3179459 0.10073191 0.24927711
-0.31044587 -0.73431009 0.38134623
-0.30238187 -0.065189064 0.52336121
-0.30639389 -0.022423089 0.45271587
-0.32972288 0.16762489 0.14202309
-0.31453687 -0.66412312 0.405406
-0.30857888 -0.40023309 0.50872183
-0.33838388 0.20036989 0.091227055
-0.32881987 0.10135388 0.25462008
-0.3085489 -0.15629405 0.60092592
-0.31303188 -0.35180205 0.52434206
-0.3407729 0.16820592 0.14753819
-0.34395188 0.20065093 0.094027996
-0.31686288 -0.27785808 0.54997683
-0.32590789 -0.6662671 0.39774704
-0.32399687 -0.58422512 0.42990208
-0.31404889 -0.15700513 0.59734392
-0.32223588 -0.50859612 0.45954514
-0.31800589 -0.064121068 0.53074312
-0.33062688 0.010896921 0.41010904
-0.33671889 0.072185934 0.30906725
-0.32966289 -0.58524114 0.42610502
-0.3193419 -0.10264307 0.59729195
-0.32787287 -0.50955707 0.45578527
-0.32688689 -0.46782309 0.47215128
-0.32418388 -0.35350007 0.51698303
-0.35507187 0.2012099 0.099623203
-0.33270687 -0.020703077 0.46528101
-0.34121987 0.011563897 0.4152112
-0.33186188 -0.21139604 0.56606007
-0.33058888 -0.15914911 0.58657122
-0.3599709 0.14184791 0.20384598
-0.33911288 -0.28105909 0.5353651
-0.34873989 -0.67058915 0.38235903
-0.34670588 -0.58830506 0.41468
-0.33878589 -0.062710106 0.54057407
-0.34165287 -0.16058809 0.57936192
-0.35049888 -0.51342803 0.44069195
-0.36675489 0.10350889 0.27329016
-0.36020088 -0.6727671 0.37463284
-0.3581059 -0.59036213 0.40703726
-0.34719488 -0.16131014 0.57574987
-0.36895388 0.074075937 0.32483101
-0.36185688 -0.51537806 0.43311405
-0.35781488 -0.35864514 0.49477816
-0.36763689 0.013216913 0.42795324
-0.38725087 0.14331591 0.21741104
-0.36908588 -0.36037809 0.48733521
-0.37270787 -0.28592211 0.51328993
-0.36943787 -0.1642161 0.56125307
-0.36785787 -0.10540706 0.58443022
-0.36984387 -0.060618103 0.55530024
-0.37606689 -0.41094905 0.46401787
-0.39813387 0.1438989 0.22282887
-0.39373088 0.10502589 0.28659391
-0.38674089 -0.59555012 0.38782597
-0.38352087 -0.47727007 0.43446493
-0.3750079 -0.060272038 0.55775309
-0.40356988 0.14418793 0.22553492
-0.38870388 0.014524937 0.43813086
-0.3839649 -0.28756005 0.50588894
-0.39249089 -0.59659511 0.38396788
-0.3806029 -0.16568106 0.55397511
-0.3903859 -0.52029914 0.41406822
-0.38922587 -0.47822911 0.43066502
-0.40900287 0.1444779 0.22824287
-0.40056589 -0.68048006 0.34740305
-0.3917169 -0.36387104 0.47238207
-0.42311189 0.17247993 0.18875313
-0.41216889 -0.68271011 0.33957005
-0.39740688 -0.16789204 0.54301691
-0.39562687 -0.058898032 0.56755304
-0.40657189 -0.29086107 0.49102497
-0.40130788 -0.10957307 0.56270599
-0.4189449 0.048996925 0.39709711
-0.42236888 0.077165902 0.3510251
-0.42597288 0.10682088 0.30252504
-0.42422888 0.049309909 0.39967585
-0.43133387 0.10711789 0.30517626
-0.42715988 -0.60292715 0.36069012
-0.41251788 -0.11097711 0.55542183
-0.44151089 0.14619893 0.24445724
-0.43300688 0.077774882 0.35625315
-0.43296587 -0.60399204 0.35679007
-0.41991687 -0.17086607 0.52833414
-0.43065488 -0.52729613 0.38716698
-0.43877989 -0.60506004 0.35288525
-0.43588388 0.017420888 0.46098185
-0.43500188 -0.29503506 0.47232199
-0.43734488 -0.37096614 0.44221497
-0.4504329 -0.60720414 0.3450551
-0.44670889 -0.48794907 0.39236593
-0.4333559 -0.060278118 0.56202984
-0.45041588 -0.42294008 0.41470003
-0.45953387 0.079283893 0.36930418
-0.46341491 0.10888189 0.321064
-0.4499189 -0.22766215 0.48879719
-0.4611029 0.051473916 0.41770411
-0.45255187 -0.013057113 0.52283096
-0.45590186 -0.062981069 0.54742718
-0.45771891 -0.012734115 0.52532387
-0.46776086 -0.42576414 0.40318489
-0.46611691 -0.37547511 0.4231801
-0.47970486 -0.61261207 0.32537889
-0.46530187 -0.17690808 0.49871111
-0.46155888 -0.063661039 0.54376316
-0.47685087 0.052390933 0.42541599
-0.48472589 0.11004388 0.331635
-0.4727869 -0.23086113 0.4738121
-0.46901888 -0.11810106 0.51869488
-0.4830029 -0.53648108 0.35216284
-0.46722186 -0.064343035 0.5400939
-0.48089486 -0.30182809 0.44211006
-0.47852391 -0.23166507 0.47005415
-0.47470987 -0.11882311 0.51499414
-0.48741889 -0.49490505 0.36521292
-0.4866659 -0.30268604 0.43830919
-0.48426789 -0.23247212 0.46628809
-0.49736589 -0.61589104 0.31350088
-0.47857088 -0.065712035 0.53273916
-0.49100089 -0.42956513 0.38775015
-0.50067091 0.11090791 0.33955526
-0.49244791 -0.30354804 0.43450022
-0.48611891 -0.12027413 0.50757408
-0.48425788 -0.066399038 0.52905512
-0.48350286 -0.011132061 0.53777885
-0.50647986 -0.54063207 0.33645105
-0.48995191 -0.067088068 0.52536392
-0.50090688 -0.3809641 0.40014791
-0.49966586 -0.18152112 0.47626686
-0.50824887 0.054202914 0.44082022
-0.4993099 -0.010850072 0.54097986
-0.51437086 -0.4334051 0.37222004
-0.51310891 -0.23653811 0.44737816
-0.51386589 0.022106886 0.49892282
-0.51868689 0.054800928 0.44594908
-0.52281988 0.082828939 0.40053606
-0.53009087 -0.54482704 0.32064295
-0.51280791 -0.069861114 0.51054811
-0.5280689 0.083119929 0.40313196
-0.5360139 -0.54588312 0.31667614
-0.53443789 -0.50301105 0.33382702
-0.52852088 -0.1854201 0.45741129
-0.54194486 -0.5469411 0.31270313
-0.54035187 -0.50403613 0.3298769
-0.52428186 -0.071259081 0.50310707
-0.53598887 -0.38653809 0.37690926
-0.52936488 0.02302289 0.50648928
-0.5462749 -0.50506407 0.32592106
-0.53003091 -0.071960032 0.49938107
-0.52786189 -0.014128089 0.52254105
-0.54376888 -0.43826205 0.35267496
-0.54483289 -0.31139904 0.39997721
-0.54011989 -0.18699414 0.44983006
-0.54362988 -0.12763911 0.47014713
-0.53933889 -0.015452087 0.51512814
-0.55558789 -0.44022208 0.34481525
-0.55174989 -0.18857509 0.44222593
-0.56409585 -0.50816411 0.31401491
-0.54998291 0.024233937 0.51656914
-0.5594939 0.084847927 0.41869402
-0.55967486 -0.24315411 0.41682625
-0.55522788 -0.12913507 0.46259499
-0.5634129 -0.1901651 0.43459892
-0.57771486 -0.55334908 0.28873396
-0.5588969 -0.075494111 0.48065615
-0.56070489 0.024175882 0.51723194
-0.58199286 -0.51128811 0.30205297
-0.56238687 -0.018118083 0.50023699
-0.5751099 -0.19176406 0.42694998
-0.57268691 -0.13139409 0.4512229
-0.57395786 -0.019462109 0.49275923
-0.59124386 -0.44616514 0.32109118
-0.58917385 -0.39506406 0.34164906
-0.59996688 -0.51443607 0.2900362
-0.5797559 -0.020136118 0.48901129
-0.59721589 -0.44716412 0.31711626
-0.58796787 -0.079073131 0.46179104
-0.58960986 0.020960927 0.49860716
-0.59541488 0.020312905 0.49486399
-0.61984187 -0.56095403 0.26048422
-0.59965187 -0.080518067 0.45420599
-0.61303288 -0.39891809 0.32581997
-0.60782689 -0.13596314 0.42832899
-0.62168491 -0.32306606 0.34927416
-0.61862791 -0.25161809 0.37811613
-0.62501287 -0.40085906 0.31787014
-0.63615286 -0.52080709 0.26583004
-0.61724186 -0.08269912 0.44278717
-0.6147179 -0.024219096 0.46640825
-0.63926888 -0.45423406 0.28911209
-0.63962489 -0.32581514 0.33742809
-0.63409287 -0.19987911 0.38835192
-0.64003789 -0.20070308 0.38445902
-0.64842391 -0.25593311 0.3585372
-0.64920586 -0.14138407 0.40135527
-0.66349286 -0.45833212 0.27297115
-0.66040188 -0.25767511 0.35066319
-0.65515089 -0.14216608 0.3974781
-0.65264791 -0.087112129 0.41979122
-0.66957086 -0.45936304 0.26891994
-0.66969991 -0.33044404 0.3175621
-0.67328888 -0.40872914 0.28581524
-0.6757409 -0.33137709 0.31357002
-0.66989189 -0.20485014 0.36490917
-0.68179286 -0.33231312 0.30956984
-0.67843586 -0.26030403 0.33880711
-0.67588991 -0.20568603 0.36098003
-0.69153988 -0.41172308 0.27369022
-0.69391888 -0.33419114 0.30155611
-0.70009691 -0.46456009 0.24856806
-0.69654787 -0.26295406 0.32689524
-0.69393188 -0.20820707 0.34915924
-0.70260388 -0.26384205 0.32290983
-0.72213787 -0.41676408 0.25335312
-0.72439486 -0.33893007 0.28140688
-0.74678189 -0.42084509 0.23696518
