# .PCD v0.7 - Point Cloud Data file format
VERSION 0.7
FIELDS x y z
SIZE 4 4 4
TYPE F F F
COUNT 1 1 1
WIDTH 1
HEIGHT 1024
VIEWPOINT 0 0 0 1 0 0 0
POINTS 1024
DATA ascii
0.4882403 -1.0276837 -0.32788944
0.4653303 -0.94588572 -0.26148033
0.46147731 -0.88327068 -0.29662418
0.4429833 -0.96471268 -0.10322142
0.43427831 -0.95260578 -0.060008049
0.43852431 -0.90955979 -0.12748432
0.44931132 -0.80018276 -0.29893923
0.43461531 -0.84798771 -0.16129017
0.41719931 -0.92885178 0.024788857
0.41728032 -0.82522374 -0.073950291
0.41403031 -0.7555787 -0.11954403
0.39607731 -0.85206074 0.084708691
0.40549231 -0.74478775 -0.076128006
0.41037232 -0.68917876 -0.15950203
0.41754231 -0.60748774 -0.28198624
0.38429531 -0.88310176 0.18816376
0.38790432 -0.84099275 0.12557173
0.39209029 -0.79215175 0.052974701
0.40845531 -0.48800474 -0.33815241
0.37339631 -0.9211027 0.27925491
0.3959673 -0.63723975 -0.1182251
0.3684403 -0.86106271 0.26689386
0.39159331 -0.57765073 -0.14723015
0.39102629 -0.46939474 -0.24628115
0.3955763 -0.41232973 -0.32896233
0.36782929 -0.76030976 0.17522573
0.3724013 -0.70297271 0.092149734
0.4032163 -0.31651074 -0.46779633
0.38316631 -0.56796378 -0.10346603
0.38248229 -0.46027476 -0.20124722
0.3869023 -0.40347773 -0.28285408
0.3710233 -0.60753268 0.010338783
0.35274431 -0.74262875 0.24304581
0.38554531 -0.29985768 -0.37255001
0.36291832 -0.59788078 0.052116871
0.36953029 -0.51078874 -0.071984291
0.3657243 -0.44238573 -0.11290932
0.35264832 -0.61892277 0.13659382
0.35491329 -0.58834976 0.093379974
0.35750329 -0.43361169 -0.069571972
0.36154932 -0.37760669 -0.14807844
0.3403973 -0.86189872 0.26236677
0.3409113 -0.80634171 0.25238991
0.34218031 -0.66924375 0.22777081
0.35331529 -0.36920673 -0.10430717
0.35990131 -0.27569669 -0.23433018
0.34259829 -0.52133769 0.10724258
0.34525231 -0.48366779 0.054856777
0.36346731 -0.094695747 -0.42830229
0.36574832 -0.061472714 -0.47412825
0.33024731 -0.74337572 0.23898458
0.34815931 -0.31762069 -0.12080812
0.3515763 -0.26785475 -0.18945599
0.3334623 -0.40795773 0.057171822
0.3230443 -0.92293578 0.27019787
0.32357532 -0.86250275 0.25933981
0.3252683 -0.66978568 0.22471476
0.3258743 -0.60082275 0.21232462
0.32621232 -0.56239671 0.20542097
0.32923231 -0.34463972 0.023737907
0.33822131 -0.20681077 -0.16340303
0.34148231 -0.15679377 -0.23130798
0.34717631 0.069002271 -0.481112
0.31792831 -0.39138371 0.13907766
0.3128233 -0.80732578 0.24733067
0.34092629 0.11168724 -0.48230505
0.32982031 -0.067828715 -0.24236441
0.33394429 -0.0011607409 -0.3314724
0.3077293 -0.74414271 0.23492575
0.31932431 -0.23747879 -0.015588284
0.3092373 -0.56291372 0.20234966
0.32212129 -0.19226772 -0.076022148
0.3251853 -0.14275473 -0.14221001
0.3194043 -0.099152744 -0.14721441
0.3216823 -0.061331749 -0.19738197
0.30112532 -0.86332768 0.25530291
0.3026993 -0.67052573 0.22064066
0.30380329 -0.22286373 0.068093777
0.3064273 -0.17809373 0.0091609955
0.3157883 0.12800926 -0.33983135
0.3035813 -0.086016715 -0.060233116
0.30945832 0.017024279 -0.19484425
0.29416731 -0.31930572 0.15537262
0.2894173 -0.92422074 0.26415968
0.29032931 -0.80813676 0.24328279
0.2961843 -0.21569175 0.10916901
0.29225031 -0.56344169 0.19927788
0.29272431 -0.50303668 0.18841362
0.31386831 0.24576324 -0.43938923
0.2847023 -0.80834275 0.2422719
0.30338731 0.20915729 -0.33883142
0.31196731 0.36822426 -0.54352331
0.28276131 -0.31960768 0.15329981
0.28063029 -0.60226077 0.20414782
0.28397229 -0.1589157 0.12439585
0.30580232 0.41403228 -0.54821205
0.3076013 0.44834927 -0.59204435
0.27705631 -0.31975979 0.15226269
0.27391431 -0.74533278 0.22883463
0.2744593 -0.67147869 0.21554756
0.2837843 0.14878428 -0.15841341
0.2688053 -0.67167276 0.21452856
0.2695823 -0.56416172 0.19518089
0.27035531 -0.45730168 0.17595196
0.27604032 0.15380925 -0.11451435
0.2674703 -0.061244726 0.10360861
0.2794753 0.22325426 -0.20192432
0.29524529 0.54213327 -0.60330629
0.29692331 0.5760653 -0.64601326
0.28376532 0.31000328 -0.31111813
0.2651723 -0.38630575 0.16211271
0.26178831 -0.86482269 0.24823856
0.26599932 -0.26925069 0.14104366
0.26364031 -0.60281879 0.20108175
0.26434031 -0.50390369 0.18327761
0.26201332 -0.019085705 0.094946861
0.28854531 0.57851225 -0.59568644
0.27721831 0.34256929 -0.30084944
0.2827653 0.45811728 -0.44524097
0.26068032 -0.21189076 0.12965393
0.25625631 -0.019204736 0.093892574
0.2640453 0.23234826 -0.113585
0.28028029 0.5809263 -0.54604435
0.26803932 0.31810927 -0.21998215
0.26935831 0.34642929 -0.25511837
0.2824553 0.62762225 -0.6039753
0.2747083 0.46128526 -0.39761305
0.25377232 -0.38663274 0.16004562
0.2501283 -0.92578369 0.25711584
0.25091332 -0.80960578 0.2361989
0.25049731 -0.019325733 0.092841625
0.2582753 0.27661127 -0.11928606
0.27062431 0.55002028 -0.45606709
0.27212831 0.58330828 -0.49706936
0.2742233 0.62970328 -0.55421925
0.26525429 0.43113226 -0.30962229
0.2480703 -0.38679773 0.15901279
0.2488433 -0.26969975 0.13792658
0.2460293 0.17328024 0.055617809
0.2444623 -0.06174475 0.099406719
0.2507363 0.28079325 -0.075875282
0.2449653 0.016319275 0.085347652
0.2661013 0.63175726 -0.50512409
0.2589103 0.46749726 -0.30422401
0.2409693 -0.6035797 0.19699192
0.23973331 0.10126626 0.06897068
0.2404913 0.21881729 0.047252655
0.2387073 -0.061871707 0.09835577
0.2452013 0.32987827 -0.087625027
0.2463823 0.35771227 -0.12142706
0.25809032 0.63378328 -0.45670319
0.2511673 0.47054026 -0.25845337
0.2339993 -0.81025571 0.23316288
0.2348633 -0.67286271 0.2084136
0.2355403 -0.56527573 0.18903494
0.23592031 -0.50479871 0.17814064
0.2483173 0.59026229 -0.35403109
0.25018632 0.63578129 -0.40892744
0.2405393 0.40083927 -0.12559319
0.2309543 -0.38729876 0.15591192
0.2292023 -0.67306572 0.20739603
0.2316733 -0.27015775 0.13480759
0.2296253 -0.60396773 0.19494677
0.2288703 0.21868825 0.045656681
0.2271913 -0.062127709 0.096255779
0.2293043 0.29124629 0.032586575
0.2392993 0.56005126 -0.26872921
0.24058931 0.59251827 -0.30761337
0.23155031 0.36499327 -0.035126209
0.23310931 0.40423024 -0.082117081
0.2455003 0.71613127 -0.45565033
0.2359803 0.47650927 -0.16868019
0.23760131 0.5173173 -0.21754932
0.22564331 -0.3211717 0.14293289
0.22202231 -0.92694169 0.25208473
0.2214303 -0.062256753 0.095205784
0.2329613 0.59474528 -0.26178598
0.22577131 0.40757924 -0.039179325
0.2285313 0.47943726 -0.12464333
0.2174423 -0.74741572 0.21868277
0.22055331 -0.21290976 0.12235498
0.2170023 0.17295027 0.051735878
0.21794631 0.33962029 0.021695614
0.2181143 0.36934727 0.016339779
0.22117931 0.48232526 -0.081180096
0.22267631 0.52265024 -0.12881231
0.2117873 -0.74763173 0.21766663
0.2122063 -0.67368072 0.20433903
0.2128163 -0.56604069 0.18493557
0.2114533 0.21840626 0.042457581
0.2101393 -0.020186722 0.085472584
0.2103363 0.015604258 0.079018593
0.2122843 0.36927229 0.015264034
0.22071931 0.67485929 -0.26080132
0.20436831 -0.02031374 0.08441782
0.2058033 0.24785328 0.036067009
0.20456031 0.01548326 0.077964783
0.2062933 0.33946127 0.019549847
0.20690231 0.45325127 -0.00096416473
0.2148383 0.72180724 -0.26835299
0.20391931 -0.10424978 0.099551678
0.20177031 -0.50590974 0.17197275
0.1993973 0.13386828 0.055538654
0.1983763 -0.062781751 0.091001034
0.1985963 -0.020439744 0.083365917
0.2002133 0.29082024 0.027235031
0.19897531 0.052562237 0.070199966
0.20046531 0.33938229 0.018476963
0.20061931 0.36912125 0.013113976
0.2012333 0.48719227 -0.0081763268
0.19702931 -0.32198972 0.1377449
0.19729431 -0.27109772 0.12856674
0.19816031 -0.10438675 0.098502636
0.19417131 0.24766827 0.033930779
0.1976763 0.64905131 -0.091536045
0.1949943 0.41103625 0.0044670105
0.1953783 0.48713127 -0.0092582703
0.20571931 0.81004024 -0.37948942
0.1921123 -0.16114873 0.10766602
0.1923973 -0.10452574 0.097453594
0.1883543 0.24757624 0.032862663
0.1855723 -0.32232374 0.1356678
0.1819973 0.13354325 0.052351952
0.1821803 0.17233825 0.045352936
0.18239531 0.21792525 0.037127972
0.18253531 0.24748224 0.031795979
0.1833073 0.41089326 0.0023107529
0.1867073 0.75972629 -0.12752008
0.17984231 -0.32249171 0.13463068
0.1781773 -0.6749447 0.19821978
0.17604131 0.10005128 0.057313919
0.17548931 -0.020954728 0.079149723
0.1767143 0.24738824 0.030727863
0.17691131 0.29047126 0.022951603
0.17713331 0.33905828 0.014183998
0.1785593 0.65112728 -0.042127132
0.1774613 0.41082126 0.0012350082
0.1776533 0.45292425 -0.0063633919
0.1778093 0.48694825 -0.012502193
0.17411131 -0.3226617 0.13359165
0.1729933 -0.56742471 0.1777606
0.17484631 -0.16159075 0.10452795
0.1697073 -0.021084726 0.078095913
0.16986531 0.014739275 0.071628571
0.1700293 0.051965237 0.064909935
0.1719473 0.48688626 -0.013585091
0.1668213 -0.67537576 0.19618177
0.1693363 -0.1050877 0.093255997
0.1649413 0.21763027 0.033926964
0.1664523 0.57286227 -0.030197144
0.1671133 0.72818226 -0.058231354
0.1672543 0.76133728 -0.06421423
0.1660863 0.48682427 -0.01466608
0.17347531 0.81094128 -0.32819319
0.1603193 -0.86897379 0.23006868
0.1608263 -0.74962777 0.20852566
0.1614363 -0.60639077 0.18266964
0.16185731 -0.50725478 0.16477489
0.1589333 0.17191827 0.041092873
0.15912031 0.21753025 0.032858849
0.15844131 0.051721275 0.062792778
0.1566333 -0.38957375 0.14246368
0.1544193 -0.9298647 0.24000883
0.1551573 -0.7498557 0.20751095
0.1571143 -0.27223772 0.12127972
0.1559023 -0.56803578 0.17468357
0.1563413 -0.46090978 0.15534401
0.1521893 -0.063867748 0.082585812
0.15389331 0.36849827 0.0045137405
0.1543593 0.48669827 -0.016829967
0.16100331 0.84710127 -0.32134819
0.14923531 -0.81368273 0.21797657
0.1494863 -0.75008577 0.20649481
0.15159531 -0.21475679 0.10983086
0.1502023 -0.5682407 0.17365885
0.1520253 -0.10551769 0.09010601
0.15062431 -0.46110171 0.15431166
0.1470283 0.099473238 0.052007675
0.1471543 0.13287926 0.045974731
0.1467053 0.014229238 0.06740284
0.14684631 0.051475286 0.060675621
0.14894231 0.60560429 -0.03939724
0.14836431 0.45258826 -0.01176405
0.1433613 -0.86970872 0.22703981
0.1447303 -0.50784773 0.16168785
0.1407803 -0.021748722 0.072821617
0.1433343 0.68254828 -0.054394245
0.14234731 0.41038126 -0.0052342415
0.14262331 0.48657125 -0.018995285
0.1484583 0.84724629 -0.30965137
0.1398703 -0.27273971 0.11815786
0.1387973 -0.56865579 0.17160702
0.13541031 0.099237263 0.049884796
0.1355263 0.13265228 0.043847561
0.1349903 -0.021884739 0.0717659
0.1359223 0.24671525 0.023240566
0.1363433 0.36825728 0.0012845993
0.13770631 0.76121426 -0.06970644
0.13675331 0.48650727 -0.020079136
0.13690031 0.52882427 -0.027722359
0.13371231 -0.39030868 0.13832378
0.13246231 -0.75078171 0.20344496
0.13431931 -0.21523875 0.10669661
0.1346983 -0.10595471 0.08695364
0.1333033 -0.50824875 0.15963078
0.1298393 0.17138028 0.035764694
0.12999031 0.21702325 0.027517796
0.1290583 -0.06442976 0.078372955
0.12919831 -0.022019744 0.070709705
0.12944031 0.051100254 0.057497978
0.13116731 0.57255423 -0.03672123
0.13039231 0.33838826 0.005589962
0.1304903 0.36817628 0.00020885468
0.13076931 0.45238125 -0.015007019
0.12797831 -0.39049476 0.13728857
0.1235183 0.01370728 0.063172817
0.12363631 0.05097425 0.056438923
0.1222433 -0.39068276 0.13625193
0.1224523 -0.32423073 0.12424278
0.12072831 -0.87070769 0.22299957
0.1218703 -0.50865477 0.15757275
0.1179723 0.098878264 0.046696663
0.1180723 0.13230729 0.040655613
0.11818831 0.17116129 0.033631802
0.11841431 0.24641925 0.020030022
0.11962631 0.65072525 -0.053046227
0.1198573 0.72794628 -0.06700325
0.1154233 -0.7514897 0.20039701
0.1121563 0.09875828 0.045633793
0.1124913 0.21671325 0.024312019
0.1119143 0.013442278 0.061057568
0.1137233 0.65068328 -0.054138184
0.11304031 0.41000324 -0.010630131
0.1139433 0.72791624 -0.068099976
0.1133773 0.52858829 -0.032068253
0.1107653 -0.3910597 0.13418102
0.1097413 -0.75172776 0.19937992
0.1065333 0.17093927 0.031498909
0.1066553 0.21660829 0.023241997
0.1061103 0.013308287 0.059998989
0.1078203 0.65064126 -0.055232048
0.10790531 0.68232822 -0.060961246
0.1115733 0.89043027 -0.30819511
0.10502531 -0.39124972 0.13314581
0.1042563 -0.67783469 0.18495989
0.10563631 -0.16343778 0.091954708
0.1048333 -0.46267277 0.14605761
0.10052031 0.098514259 0.043509007
0.1001073 -0.065149724 0.073104858
0.1002143 -0.022709727 0.065429688
0.1003983 0.050462246 0.052198887
0.1014123 0.45203027 -0.020418167
0.10210931 0.72785527 -0.070298195
0.098372303 -0.75220877 0.19734669
0.099858306 -0.16359669 0.090905666
0.10000131 -0.10685068 0.080645561
0.094699301 0.098391294 0.04244566
0.094778299 0.13183928 0.036396027
0.094412304 -0.022850752 0.064373016
0.094497301 0.013039291 0.057881832
0.095536307 0.45195827 -0.021500111
0.093696304 -0.32513577 0.11904478
0.092402302 -0.87198776 0.21794987
0.092860304 -0.6782977 0.18291903
0.093024306 -0.6089837 0.17038298
0.093370304 -0.46307677 0.14399385
0.090166301 0.68221629 -0.064249992
0.089826301 0.52834827 -0.0364151
0.093070306 0.84735125 -0.301929
0.086730301 -0.87224776 0.21693897
0.086994305 -0.75269574 0.19531298
0.088179305 -0.21656269 0.098331928
0.084091306 0.60507524 -0.05139637
0.086885303 0.81149524 -0.29764128
0.086830303 0.84746426 -0.292768
0.081059299 -0.87250978 0.21592999
0.081802301 -0.51010877 0.15036392
0.077225305 0.098018289 0.039253712
0.077587306 0.2888943 0.0047159195
0.077134304 0.049939275 0.047954559
0.077895306 0.45174128 -0.024751186
0.0784183 0.72773129 -0.074692249
0.080655307 0.81165826 -0.28825903
0.0807973 0.84735429 -0.30183601
0.076628305 -0.21690279 0.096239567
0.075957306 -0.57102078 0.1603179
0.076728307 -0.16424376 0.08671093
0.076072305 -0.51032168 0.14933395
0.071397305 0.097893238 0.038190842
0.0714553 0.13136029 0.032133579
0.071523301 0.17025924 0.025094986
0.071113303 -0.065889716 0.067830563
0.071865305 0.36734027 -0.010574341
0.0745783 0.84746027 -0.29318333
0.071040303 -0.10762078 0.075383663
0.070340306 -0.5105347 0.14830303
0.070421301 -0.46389776 0.13986301
0.065621302 0.1312393 0.031067848
0.065492302 0.049673259 0.04583168
0.066441305 0.6503433 -0.062894344
0.066615306 0.76090628 -0.0829072
0.066181302 0.48571128 -0.033094406
0.064223304 -0.75368279 0.19124603
0.064511307 -0.57146579 0.15826273
0.065154307 -0.1645717 0.084611893
0.060521305 0.65029925 -0.063990116
0.060287304 0.48564327 -0.034181118
0.060755301 0.81502324 -0.093808174
0.059038304 -0.39281076 0.1248517
0.058268301 -0.93435568 0.22289181
0.059205305 -0.27519673 0.10355902
0.059443302 -0.1079337 0.073279858
0.053945303 0.13099527 0.028934956
0.053994302 0.16991025 0.021887779
0.053695302 -0.066341758 0.064666748
0.054544304 0.60482323 -0.05685997
0.054393303 0.48557428 -0.035268307
0.054446302 0.5279783 -0.042946339
0.053282302 -0.39300972 0.12381458
0.052598301 -0.93463272 0.22188473
0.053056303 -0.57191569 0.15620899
0.053192303 -0.46452373 0.13676357
0.048105303 0.13087225 0.027867794
0.048148304 0.16979325 0.02081871
0.048198301 0.21553028 0.012537956
0.047933303 -0.023999751 0.055913925
0.048279304 0.28840327 -0.00066137314
0.047973301 0.011932254 0.049407005
0.048592303 0.57179523 -0.051982403
0.048801303 0.76082528 -0.086214066
0.047055304 -0.81819075 0.19973993
0.047125302 -0.75443774 0.1881938
0.047655303 -0.2755627 0.10147095
0.042412303 0.28830326 -0.0017352104
0.042185303 0.049133241 0.041582584
0.042681303 0.57173824 -0.05307436
0.042487305 0.36690527 -0.015973091
0.042567302 0.45129725 -0.031260014
0.041829303 -0.3268277 0.1096797
0.041932303 -0.21794468 0.089957714
0.041654304 -0.51161879 0.14315081
0.036391303 0.097126245 0.031800747
0.036792304 0.60467029 -0.060142994
0.036916304 0.76077127 -0.088421345
0.036960304 0.81494224 -0.098658085
0.037894305 0.89040726 -0.31266022
0.035718303 -0.75494677 0.18615961
0.036096305 -0.27593178 0.099383831
0.036228303 -0.10857075 0.069064617
0.035910305 -0.51183873 0.14211893
0.030572303 0.13049829 0.024665833
0.030644305 0.24486327 0.0039448738
0.030497305 0.011505246 0.046226025
0.030775305 0.45114627 -0.033430099
0.030950304 0.72747624 -0.083497047
0.030823305 0.52772528 -0.047306061
0.031024303 0.81483829 -0.10468721
0.031720303 0.84733129 -0.30410719
0.031762306 0.8903873 -0.3160944
0.029898304 -0.93575472 0.21785593
0.030315302 -0.2761187 0.098338604
0.030103303 -0.61151272 0.15910769
0.024709303 0.096865237 0.029670715
0.024651304 -0.024591744 0.051679611
0.024823304 0.33677125 -0.013803005
0.024986304 0.68178827 -0.07632637
0.024857305 0.40880728 -0.02685833
0.024877302 0.45107028 -0.034516335
0.025008302 0.72744328 -0.084599972
0.025077306 0.81473428 -0.11072922
0.025590304 0.84729528 -0.30702305
0.025634304 0.89034224 -0.32358027
0.024476305 -0.39402372 0.11862564
0.024373304 -0.61174875 0.15808201
0.024391305 -0.57306069 0.15106964
0.024442304 -0.46559078 0.13159561
0.018888304 0.16919827 0.015470982
0.018827304 -0.024741709 0.05062294
0.019026304 0.60451329 -0.063428402
0.019040305 0.64998829 -0.071669102
0.019065304 0.72741026 -0.085702419
0.018524304 -0.98308676 0.22431564
0.018575303 -0.81952077 0.19467068
0.018595304 -0.75572067 0.1831069
0.018619303 -0.68143076 0.16964293
0.013031304 0.16907728 0.014401913
0.013095304 0.57145226 -0.058540344
0.013125304 0.76066124 -0.092838287
0.013335304 0.89027625 -0.334445
0.012856305 -0.93661171 0.21483278
0.012866303 -0.87575573 0.20380163
0.012970304 -0.21883768 0.084718704
0.012913303 -0.57352668 0.1490159
0.0071703042 0.096469283 0.026471615
0.0071703042 0.21474129 0.0050287247
0.0071703042 -0.025044739 0.048502922
0.0071703042 0.60440826 -0.065618038
0.0071703042 0.33648729 -0.017044067
0.0071703042 0.64989728 -0.073868275
0.0071703042 0.68166727 -0.079627037
0.0071703042 0.48500925 -0.043971062
0.0071703042 0.5274663 -0.051668167
0.0071703042 -0.82006174 0.19264174
0.0071703042 -0.10938579 0.063792706
0.0071703042 -0.51295573 0.13696194
0.0013163039 0.12986428 0.019325733
0.0012913039 0.28758925 -0.0092754364
0.001241304 0.60435528 -0.06671524
0.0012833038 0.33639127 -0.018125057
0.0012213038 0.7273103 -0.089011192
0.0014663041 -0.82033473 0.19162798
0.0014443039 -0.68218273 0.16657686
0.001363304 -0.16643971 0.07305479
0.0014183042 -0.5131827 0.13593102
-0.0044916961 -0.025349736 0.046384811
-0.0045766961 0.24420625 -0.0025033951
-0.004502696 0.010631263 0.039857864
-0.0046156961 0.36618626 -0.024627209
-0.0047046961 0.64980531 -0.07606411
-0.0048186956 0.81420928 -0.14110231
-0.0044296961 -0.21938473 0.081573963
-0.0043056961 -0.61295277 0.15295172
-0.0044466965 -0.16661471 0.072003841
-0.0044646962 -0.10971671 0.061683655
-0.010567696 0.48479128 -0.047240257
-0.010587697 0.52726924 -0.054944992
-0.010064696 -0.57447273 0.14490175
-0.010115695 -0.46690577 0.12538958
-0.016239695 0.095931292 0.022204876
-0.016135696 -0.068225682 0.051984787
-0.016410697 0.36600226 -0.026793003
-0.016437694 0.40821624 -0.034451008
-0.016463697 0.45052728 -0.042127132
-0.016512696 0.52720225 -0.05603838
-0.015554695 -0.98487276 0.21828461
-0.015790697 -0.61344177 0.15089989
-0.022096697 0.095795274 0.021135807
-0.022153694 0.16833925 0.0079727173
-0.022286694 0.33600324 -0.02244997
-0.022343695 0.40813029 -0.035538197
-0.022596695 0.72717524 -0.093429089
-0.023723695 0.84674823 -0.35189199
-0.021479696 -0.68320471 0.16248703
-0.021534696 -0.61368877 0.14987278
-0.021888696 -0.16714472 0.068845749
-0.021933697 -0.11022073 0.058518887
-0.021613695 -0.51410168 0.13180161
-0.021650694 -0.46735376 0.12331963
-0.028024696 0.16821325 0.0069007874
-0.027487695 -0.39591378 0.10927868
-0.026927698 -0.98547977 0.21627378
-0.027083699 -0.82171875 0.18655396
-0.027214698 -0.68346268 0.16146374
-0.027599696 -0.27803379 0.08788681
-0.033633698 -0.068713725 0.048810959
-0.034115698 0.36572224 -0.030043125
-0.034516696 0.72710729 -0.095640182
-0.034247696 0.48449627 -0.051603317
-0.033270698 -0.39612871 0.1082406
-0.033344697 -0.32941371 0.096129894
-0.032798696 -0.82199973 0.18553877
-0.033465698 -0.22031373 0.076327801
-0.033524696 -0.1675027 0.066741943
-0.039720695 0.12894827 0.011838913
-0.039470699 -0.06887871 0.047752857
-0.039866697 0.24353027 -0.0089621544
-0.040323697 0.6039753 -0.074397087
-0.040128697 0.45020726 -0.046482086
-0.040479697 0.72707224 -0.096744061
-0.041084696 0.7583673 -0.18349123
-0.040171698 0.48442125 -0.052694321
-0.038307697 -0.98609275 0.21426296
-0.045887697 0.33560729 -0.026780128
-0.045930699 0.36553329 -0.032214165
-0.046099696 0.48434627 -0.053786278
-0.047123697 0.81346226 -0.184093
-0.044235695 -0.82256573 0.18350983
-0.045011695 -0.27862674 0.084746838
-0.045169696 -0.16786379 0.0646348
-0.045250695 -0.11090368 0.054293633
-0.051464695 0.12868124 0.0096969604
-0.051150698 -0.069209754 0.045633793
-0.051714696 0.28663528 -0.018987179
-0.051973697 0.45004526 -0.048663139
-0.052027699 0.48427126 -0.054877281
-0.052095696 0.52679729 -0.062600136
-0.049696699 -0.98671168 0.21225071
-0.050910696 -0.22088176 0.073177814
-0.057279699 0.094964266 0.014724731
-0.057486698 0.21344525 -0.0067939758
-0.056993701 -0.069376767 0.044574738
-0.0570677 -0.026761711 0.036833763
-0.057130694 0.0092702508 0.03028965
-0.057195693 0.046712279 0.023489952
-0.057824694 0.40760529 -0.042057991
-0.059736699 0.75690526 -0.2412262
-0.055678695 -0.82313675 0.18147898
-0.055920698 -0.6847747 0.15634775
-0.056728698 -0.22107369 0.072127819
-0.056041695 -0.61519378 0.14370966
-0.056109697 -0.57642275 0.13666773
-0.056820698 -0.16822773 0.062529564
-0.056215696 -0.51551372 0.12560463
-0.063150696 0.094823241 0.013655663
-0.062837698 -0.069544733 0.043514729
-0.0629187 -0.026922762 0.035771847
-0.0660237 0.75641227 -0.26067924
-0.065415695 0.81313825 -0.20268726
-0.062341698 -0.33045274 0.090911865
-0.061296694 -0.87949973 0.19065094
-0.061403699 -0.82342476 0.18046284
-0.062649697 -0.16841179 0.0614748
-0.061988696 -0.51575273 0.12457275
-0.0700057 0.57061225 -0.07388401
-0.069581695 0.36514926 -0.036554337
-0.066793695 -0.98765069 0.20923281
-0.067131698 -0.82371372 0.1794467
-0.067559697 -0.61570579 0.14165497
-0.067861699 -0.46918672 0.11503458
-0.074898697 0.094540238 0.011516571
-0.075161695 0.21307927 -0.010024071
-0.075955696 0.57054925 -0.074982166
-0.075432695 0.33510226 -0.032198429
-0.075857699 0.52652025 -0.066981316
-0.077667698 0.81292027 -0.2151432
-0.072734699 -0.88009769 0.18862486
-0.074440695 -0.1117757 0.049008846
-0.080485694 -0.027409732 0.032584667
-0.081519701 0.40724629 -0.046413422
-0.082279697 0.72682625 -0.10449505
-0.0798847 -0.27983969 0.078461647
-0.079084694 -0.61622173 0.1395998
-0.079176694 -0.57742578 0.13254881
-0.080148697 -0.16896874 0.058313847
-0.079433694 -0.46965569 0.11296177
-0.0865307 0.045962274 0.018154621
-0.087340698 0.36485726 -0.039813042
-0.087447695 0.40715528 -0.047501087
-0.087642699 0.48381028 -0.061436176
-0.089963697 0.81270128 -0.22764301
-0.085403696 -0.39811379 0.098879814
-0.0848497 -0.61648172 0.13857174
-0.085984699 -0.16915578 0.057257652
-0.0852217 -0.46989268 0.11192465
-0.092853695 0.21270925 -0.013256073
-0.092090696 -0.070394695 0.038214684
-0.092205696 -0.027737737 0.030458927
-0.092934698 0.24247724 -0.018667221
-0.093492694 0.44946626 -0.05629921
-0.097991697 0.75390428 -0.35956526
-0.093699694 0.52630925 -0.070271015
-0.089739695 -0.94202667 0.19668198
-0.090227693 -0.7608977 0.16375303
-0.091680698 -0.22224075 0.06581974
-0.099778697 0.57029724 -0.079379082
-0.099873699 0.60341126 -0.085399151
-0.099105693 0.33468926 -0.03653717
-0.10022569 0.72671825 -0.10782337
-0.0996527 0.52623826 -0.071368217
-0.0970117 -0.39856571 0.096795559
-0.095792696 -0.82517976 0.17436886
-0.096805699 -0.47036773 0.10985184
-0.1043027 0.093819261 0.0061650276
-0.1045217 0.16653025 -0.007060051
-0.1039347 -0.028069735 0.028330803
-0.1047507 0.24223727 -0.020829201
-0.1040437 0.0080112815 0.02177
-0.10281669 -0.39879376 0.095752716
-0.10117669 -0.94265777 0.194664
-0.10172369 -0.76147074 0.16171265
-0.1024597 -0.51746076 0.1173358
-0.10991669 0.0078502893 0.020703793
-0.1111837 0.40678829 -0.05186224
-0.11680169 0.75353825 -0.37373734
-0.11156169 0.52609527 -0.073562145
-0.1088367 -0.33216673 0.082551956
-0.1070917 -0.88192278 0.182549
-0.1072697 -0.82577568 0.17233658
-0.10747369 -0.7617597 0.16069174
-0.1089997 -0.28087574 0.073221684
-0.1091847 -0.22283679 0.062664032
-0.1079307 -0.61753374 0.13445759
-0.1163207 0.16626227 -0.0092110634
-0.11567169 -0.028403759 0.026203632
-0.1177777 0.60323626 -0.088708401
-0.1168807 0.33437526 -0.039795399
-0.11698069 0.36436027 -0.045250416
-0.1226237 0.92780125 -0.35312605
-0.1144347 -0.39925271 0.093670845
-0.1124647 -0.99022168 0.20118189
-0.11282469 -0.88223273 0.18153572
-0.1148287 -0.28108674 0.072172642
-0.1150227 -0.22303778 0.061611652
-0.1140387 -0.5179587 0.1152668
-0.1220877 0.12702328 -0.0031709671
-0.1223847 0.21207929 -0.018648148
-0.1226407 0.28529626 -0.031970978
-0.12180069 0.04503727 0.01174593
-0.12402169 0.68072331 -0.10392141
-0.12024769 -0.39948374 0.092628002
-0.11834669 -0.94361478 0.19163561
-0.1185607 -0.88254279 0.18052292
-0.11898069 -0.76233977 0.15865183
-0.12124869 -0.11321479 0.040539742
-0.12812869 0.16599125 -0.011363983
-0.1282967 0.21195126 -0.019729137
-0.1285637 0.28518128 -0.033055305
-0.12874269 0.33416229 -0.041968346
-0.13360469 0.92785126 -0.2841773
-0.12390269 -0.99087971 0.19916868
-0.12670569 -0.22344071 0.059507847
-0.12710769 -0.11339873 0.03948164
-0.13329269 -0.02891171 0.023009777
-0.1344897 0.28506625 -0.034138203
-0.1347907 0.36405724 -0.048517227
-0.1361727 0.72649729 -0.11448622
-0.13738869 0.84891528 -0.17255306
-0.1300357 -0.88316876 0.17849684
-0.1396547 0.092932284 -0.00026607513
-0.1399437 0.16571826 -0.013518333
-0.1389997 -0.071796715 0.029720783
-0.1404177 0.28495026 -0.035223007
-0.1408997 0.40632027 -0.057318211
-0.1410677 0.44878125 -0.065047264
-0.1471097 0.75432628 -0.34194326
-0.14353269 0.84884727 -0.17797899
-0.1379617 -0.33327073 0.077319622
-0.1353467 -0.99154276 0.19715595
-0.1357757 -0.88348275 0.1774826
-0.13599969 -0.82729071 0.16725302
-0.1365497 -0.68861574 0.14200878
-0.1369817 -0.58001679 0.12223959
-0.1388337 -0.11376876 0.037360668
-0.1448727 -0.071976721 0.028657913
-0.1461677 0.24138027 -0.028395176
-0.1463467 0.28483325 -0.036309242
-0.14785069 0.64863026 -0.10254622
-0.1473417 0.5256573 -0.08015728
-0.1426117 -0.61914974 0.12828302
-0.14469969 -0.11395472 0.036300659
-0.1516007 0.12630427 -0.0085453987
-0.15209369 0.24125528 -0.029478073
-0.1522807 0.28471625 -0.037393093
-0.1535037 0.56971323 -0.089292049
-0.15261969 0.36374927 -0.051784992
-0.15397869 0.68049526 -0.10946703
-0.1529837 0.44860625 -0.067238331
-0.1541757 0.72638428 -0.11782312
-0.1468007 -0.99221271 0.19513988
-0.1470027 -0.94523972 0.18658686
-0.1477807 -0.76381475 0.15354872
-0.1503237 -0.17127377 0.045643806
-0.15681569 -0.029598713 0.018747807
-0.1594837 0.56964725 -0.090396404
-0.1585667 0.36364627 -0.052875996
-0.1627167 0.81276327 -0.22270298
-0.1611817 0.84906226 -0.15989637
-0.1525297 -0.99254972 0.1941328
-0.1561847 -0.1714707 0.044586658
-0.16342069 0.12601227 -0.010697365
-0.1638127 0.21117324 -0.026210308
-0.1641507 0.28448129 -0.039564133
-0.1630417 0.043927252 0.0042567253
-0.16437669 0.33351427 -0.0484972
-0.1670447 0.84913427 -0.15388918
-0.16015969 -0.5810867 0.1181097
-0.1620477 -0.17166978 0.043529987
-0.1683857 -0.072699726 0.024405003
-0.1685897 -0.029947758 0.016614914
-0.17182669 0.64842129 -0.10697937
-0.17087169 0.44834027 -0.070525169
-0.17123869 0.52535927 -0.08455801
-0.1645097 -0.88507873 0.17241478
-0.16508469 -0.76471668 0.15048456
-0.1659587 -0.58135778 0.11707878
-0.16791269 -0.1718697 0.042471886
-0.1752497 0.12571728 -0.012849331
-0.17603169 0.28424329 -0.041736126
-0.17743769 0.56944627 -0.093707085
-0.1779847 0.6803093 -0.1139102
-0.1770097 0.48260126 -0.077881336
-0.1788177 0.84924227 -0.14468718
-0.16973069 -0.99357074 0.19110966
-0.18160069 0.21077627 -0.029456139
-0.1817527 0.2406233 -0.034896374
-0.18342669 0.56937826 -0.094812393
-0.1823767 0.36322826 -0.057240009
-0.1832017 0.52520823 -0.086760998
-0.1757077 -0.94690174 0.18153381
-0.1766317 -0.7653237 0.14844179
-0.1872927 0.16460127 -0.022145271
-0.18753369 0.21064228 -0.030537128
-0.1883347 0.36312228 -0.058331013
-0.1889607 0.48243427 -0.080080032
-0.1812077 -0.9942587 0.18909502
-0.1849387 -0.28368574 0.059568882
-0.1831667 -0.62108976 0.12107277
-0.19322069 0.16445827 -0.023225307
-0.1938667 0.28388226 -0.044997215
-0.19601069 0.68016726 -0.11724615
-0.19452469 0.40544927 -0.06716013
-0.19475469 0.44798025 -0.074913979
-0.18753469 -0.88638169 0.1683569
-0.1913957 -0.17267674 0.038239956
-0.1917057 -0.11547476 0.027810574
-0.18950969 -0.52130872 0.10179996
-0.1897637 -0.47433668 0.093236923
-0.1978247 -0.073622763 0.019080639
-0.1980627 -0.030832708 0.011278629
-0.19981569 0.28376126 -0.046085358
-0.1982647 0.0053492785 0.0046806335
-0.19847369 0.042946279 -0.0021734238
-0.20025669 0.36290926 -0.060517311
-0.2007297 0.44788927 -0.076012135
-0.19295369 -0.94791573 0.17850399
-0.19697669 -0.22594172 0.046854973
-0.1949887 -0.58272773 0.11191273
-0.19727169 -0.17288071 0.037180901
-0.1953297 -0.52157468 0.10076284
-0.2048597 0.12496924 -0.01823616
-0.2050847 0.16417128 -0.02538538
-0.2053487 0.21023828 -0.033788204
-0.20396569 -0.03101176 0.01020956
-0.20646569 0.40525126 -0.069351196
-0.2071517 0.52490222 -0.091172218
-0.2097567 0.81358027 -0.17407417
-0.2022187 -0.33578974 0.065793991
-0.2107877 0.12481827 -0.019314289
-0.2110187 0.16402727 -0.026465416
-0.20961669 -0.073997676 0.016949654
-0.20767769 -0.40307778 0.076975822
-0.21695569 0.16388226 -0.027546406
-0.2172347 0.20996624 -0.035953045
-0.21960869 0.60220027 -0.10750914
-0.21841469 0.40505129 -0.071543217
-0.2214167 0.81378227 -0.16202402
-0.2105917 -0.8877067 0.16429758
-0.21280269 -0.5223797 0.097649574
-0.2214157 -0.074375689 0.014817715
-0.2254117 0.56889725 -0.10255432
-0.2261017 0.67992628 -0.12281227
-0.2248717 0.48192325 -0.086684227
-0.2251367 0.52466929 -0.094484329
-0.22115369 -0.11645168 0.022495747
-0.21892269 -0.47563571 0.088033676
-0.22837269 0.090606272 -0.016390324
-0.2288377 0.16359025 -0.029710293
-0.2273197 -0.074566782 0.013751984
-0.2293217 0.23958224 -0.043577194
-0.2295997 0.28314626 -0.051527977
-0.2316317 0.60207325 -0.10973024
-0.2324207 0.72587824 -0.13232231
-0.23113869 0.52459025 -0.095590115
-0.22522169 -0.40382475 0.073839664
-0.22597669 -0.2852667 0.052202702
-0.2337417 0.00430125 -0.0017442703
-0.2358837 0.33216429 -0.06158638
-0.2366357 0.44733426 -0.082608223
-0.24234369 0.75677824 -0.24208021
-0.23686069 0.48174927 -0.088888168
-0.2282757 -0.83236974 0.15096664
-0.2291837 -0.6933127 0.12558603
-0.2391327 -0.074949682 0.011617661
-0.2399137 0.041770279 -0.0096883774
-0.24185669 0.33204824 -0.062678337
-0.24314469 0.52443326 -0.097799301
-0.2349907 -0.69361669 0.12455797
-0.2361297 -0.52346879 0.093496799
-0.24640569 0.12389427 -0.025788307
-0.24667469 0.16314727 -0.032956123
-0.2471967 0.23918229 -0.046839237
-0.24558368 0.0039462447 -0.0038881302
-0.24803871 0.36203825 -0.06926918
-0.23984669 -0.83302969 0.14892769
-0.24028769 -0.76876169 0.13719368
-0.2439957 -0.22768372 0.038401604
-0.24127969 -0.62396568 0.11075783
-0.24228969 -0.47669572 0.08386898
-0.2523497 0.12373829 -0.026868343
-0.2526257 0.16299927 -0.034038067
-0.2509537 -0.075335681 0.0094838142
-0.2517727 0.041427255 -0.011837006
-0.25402069 0.36192727 -0.070365429
-0.2560257 0.64766127 -0.12254524
-0.25461769 0.44705227 -0.08591032
-0.25485969 0.48148626 -0.092198372
-0.2491127 -0.33769876 0.057395935
-0.24563569 -0.83336169 0.14790869
-0.2498827 -0.22790569 0.037344933
-0.25829771 0.12358129 -0.027950287
-0.2585797 0.16284925 -0.035122395
-0.2571767 -0.032660723 0.00058794022
-0.25943869 0.28251928 -0.056978226
-0.2614907 0.56847227 -0.10920525
-0.2597917 0.33169824 -0.065961361
-0.26000771 0.36181629 -0.071461201
-0.26061869 0.44695726 -0.087011337
-0.2657477 0.75737524 -0.21755123
-0.25102371 -0.89008278 0.15718794
-0.25142869 -0.83369571 0.14688873
-0.25577369 -0.22812873 0.036287785
-0.2532087 -0.58556074 0.10156965
-0.2561557 -0.17497069 0.026578903
-0.2565667 -0.11765271 0.016109943
-0.25398669 -0.47723275 0.081783772
-0.26399869 0.089632273 -0.022858143
-0.26541269 0.28239226 -0.058070183
-0.26336569 0.0034072399 -0.0071072578
-0.27157271 0.75752425 -0.21144438
-0.2668727 0.48130926 -0.094405174
-0.26036671 -0.40534872 0.067561626
-0.2608597 -0.33818668 0.055292606
-0.25769371 -0.76972777 0.1341238
-0.2616657 -0.22835273 0.035229683
-0.2620557 -0.17518479 0.025516987
-0.25983769 -0.47750276 0.080741882
-0.26957971 0.040907264 -0.015065193
-0.27378368 0.60162026 -0.11750841
-0.27175871 0.33146226 -0.06814909
-0.2743687 0.67953026 -0.13174105
-0.27848569 0.72281826 -0.23206711
-0.26623169 -0.40560669 0.066514969
-0.26406071 -0.69515973 0.11941671
-0.26569068 -0.47777373 0.079699993
-0.2795597 0.56825626 -0.112535
-0.27981469 0.60155427 -0.11862135
-0.28016669 0.64743531 -0.1270051
-0.2693077 -0.77037877 0.13207579
-0.27386269 -0.17561477 0.023392677
-0.2765587 -0.58672673 0.097426891
-0.28779569 0.088970244 -0.027175426
-0.2897287 0.33110428 -0.071436405
-0.28437871 -0.33917373 0.051086903
-0.28208971 -0.62605375 0.10352468
-0.2824007 -0.58702177 0.096389771
-0.2924037 -0.076713741 0.0020036697
-0.29275268 -0.033795714 -0.0058422089
-0.2933557 0.040204287 -0.019371033
-0.2982977 0.64726329 -0.1303544
-0.2902647 -0.33942372 0.050033569
-0.29115969 -0.22948569 0.029934883
-0.28792769 -0.62635678 0.10249281
-0.29899171 0.0023092628 -0.013552189
-0.29930469 0.040027261 -0.020448208
-0.3039647 0.60128826 -0.12307644
-0.3029637 0.48076928 -0.10103798
-0.30331969 0.52362323 -0.10887432
-0.29657969 -0.28808874 0.039548874
-0.30426571 -0.077115715 -0.00013637543
-0.3097257 0.56789029 -0.11809397
-0.3103967 0.6471473 -0.13258934
-0.3148807 0.7228483 -0.22947502
-0.30390871 -0.11930174 0.0075798035
-0.30046171 -0.52655977 0.082061768
-0.31057268 -0.03437376 -0.0090603828
-0.31398171 0.36079228 -0.08134222
-0.3143487 0.40338928 -0.089133263
-0.31501469 0.48058626 -0.10325241
-0.30838069 -0.28857368 0.037436008
-0.3088837 -0.23017675 0.02675581
-0.3093437 -0.1769287 0.017014027
-0.30983868 -0.11951274 0.0065116882
-0.31759569 0.088125288 -0.032580376
-0.32073969 0.44598427 -0.098047256
-0.32356969 0.75884128 -0.15695906
-0.3210437 0.48049328 -0.10435915
-0.31323871 -0.40770775 0.058131695
-0.3152647 -0.17715079 0.01595068
-0.3238647 0.12181228 -0.039855003
-0.32421771 0.16116428 -0.047056198
-0.3288517 0.67906827 -0.141819
-0.3274577 0.52329028 -0.11331511
-0.32071069 -0.23064274 0.024633884
-0.32841271 -0.03495872 -0.012281418
-0.3342067 0.60094929 -0.12865305
-0.33201569 0.36044228 -0.08464098
-0.33462569 0.64691329 -0.13706541
-0.33240369 0.40306425 -0.092440128
-0.33564469 0.75881124 -0.15753698
-0.33310771 0.48030826 -0.10657597
-0.33349869 0.52320623 -0.11442709
-0.3366127 0.20711124 -0.057699203
-0.33505368 0.038946271 -0.026918411
-0.33254871 -0.23111171 0.022513866
-0.34147871 0.087438285 -0.036909103
-0.34031969 -0.035352707 -0.014430046
-0.34288868 0.23696429 -0.064280987
-0.34600669 0.56744027 -0.12477922
-0.34705868 0.67891026 -0.14518499
-0.3481577 0.16053128 -0.051406384
-0.3458637 -0.078545749 -0.0076313019
-0.3462767 -0.035551727 -0.01550436
-0.35206169 0.56736326 -0.12589407
-0.35238171 0.60074228 -0.13200521
-0.3534337 0.087089241 -0.039075375
-0.35295871 0.038395286 -0.030158043
-0.36014271 0.16021228 -0.053583145
-0.3629697 0.44527927 -0.10579443
-0.36670271 0.72442025 -0.17471409
-0.36373869 0.5227803 -0.11999035
-0.36660668 0.20636028 -0.063155174
-0.3710447 0.64655423 -0.14379215
-0.36936268 0.47974327 -0.11323643
-0.37138671 0.086563289 -0.042322159
-0.37173471 0.12047428 -0.048537254
-0.37630871 0.5670563 -0.13035917
-0.37387371 0.32937628 -0.086814404
-0.37745169 0.67864323 -0.15080404
-0.37541369 0.47964728 -0.11434603
-0.3802177 0.35948825 -0.093457222
-0.38320369 0.64643323 -0.1460371
-0.38353771 0.67858922 -0.15193033
-0.38962671 0.67853427 -0.15305519
-0.38715771 0.44486725 -0.1102314
-0.38797671 0.52243328 -0.12444639
-0.3909677 0.23579925 -0.073029995
-0.3940427 0.5223453 -0.12556124
-0.3983357 0.35912228 -0.096765041
-0.40181369 0.67842525 -0.15530825
-0.40011269 0.52225727 -0.12667704
-0.4131307 0.60003531 -0.14320612
-0.4197447 0.64606225 -0.15278435
-0.4244127 0.52190226 -0.13113642
-0.43140671 0.59981728 -0.1465683
