# .PCD v0.7 - Point Cloud Data file format
VERSION 0.7
FIELDS x y z
SIZE 4 4 4
TYPE F F F
COUNT 1 1 1
WIDTH 1
HEIGHT 1024
VIEWPOINT 0 0 0 1 0 0 0
POINTS 1024
DATA ascii
0.92051601 0.21663046 -0.10042477
0.91873997 0.24922246 -0.087115765
0.87313098 0.31921446 0.16666555
0.87994498 0.36368942 0.11491251
0.90140498 0.21753144 -0.094445705
0.88607699 0.25137347 -0.07019949
0.87697899 0.21788847 -0.094218731
0.84192801 0.27747446 0.18130445
0.83618402 0.31654543 0.13381433
0.84498101 0.018181443 0.015901566
0.82483798 0.19580746 0.13029528
0.832048 0.36046147 0.071998596
0.82573199 0.14950645 0.075035572
0.81387597 0.27684546 0.17159939
0.826693 0.36009842 0.067205429
0.830679 0.38777047 0.034744263
0.821859 0.14754945 0.058088303
0.81493098 0.31499946 0.11492729
0.82553601 0.02015543 0.027927399
0.80779201 0.24205345 0.12514257
0.80960101 0.31461143 0.11019325
0.793859 0.27917242 0.19208145
0.813236 0.02074945 0.030781269
0.81061399 0.062564433 0.052601337
0.81059098 0.35900545 0.05279541
0.81450599 0.38672346 0.020205498
0.82008702 0.42623842 -0.026255608
0.82574499 0.46630144 -0.073355675
0.80543298 0.18656445 0.046099186
0.80000001 0.23860246 0.091663361
0.79719698 0.31522644 0.11517143
0.82486498 0.49872944 -0.11685562
0.80267602 0.10838842 0.019043446
0.79015201 0.31622744 0.12486029
0.79170698 0.064026475 0.061495304
0.79442799 0.35790443 0.03833437
0.79827201 0.38566744 0.005613327
0.78646499 0.11314148 0.055478573
0.80381501 0.46507245 -0.093330383
0.77842498 0.11549747 0.073550224
0.78074998 0.26524246 0.053459167
0.78255099 0.022219419 0.037893295
0.77949399 0.064583421 0.064310551
0.80841899 0.53877246 -0.18568182
0.770432 0.11783946 0.091517448
0.76793802 0.14871144 0.061505318
0.77617002 0.22803044 -0.010745525
0.80309099 0.58143044 -0.24702168
0.79171699 0.49698946 -0.14720058
0.75996202 0.15096343 0.079535484
0.76630402 0.18451643 0.023434162
0.74833298 0.32216245 0.18239832
0.76438302 -0.066866517 -0.012671471
0.764669 0.25844646 -0.015221596
0.78061301 0.49640346 -0.15736341
0.74413699 0.15543044 0.11530638
0.78620201 0.58070147 -0.26268148
0.76457703 0.42348844 -0.068359375
0.77504802 0.49611044 -0.16245556
0.76947802 0.49581546 -0.16755247
0.74639499 0.25889647 -0.012817383
0.73974198 0.38975143 0.047937393
0.75023699 0.42518944 -0.04789257
0.73365998 0.024520457 0.049200535
0.76365697 0.53661942 -0.2269268
0.711106 0.19940645 0.14902449
0.71799499 0.23883247 0.084564209
0.72746402 -0.064977527 -0.0040426254
0.71874702 0.39241046 0.077530384
0.75239199 0.53607446 -0.2373004
0.69540101 0.32838845 0.24199247
0.70484 0.36885446 0.15293121
0.70302802 0.12161344 0.11452818
0.71198499 -0.015355527 0.029308319
0.735443 0.53525341 -0.25290346
0.690983 0.12211043 0.11727238
0.68496698 0.12235743 0.11864138
0.69680399 -0.063432574 0.0031104088
0.68985701 0.31214643 0.070922375
0.71178001 0.49783045 -0.14305544
0.72371298 0.57798445 -0.3206315
0.67733902 0.39764446 0.13591719
0.68681002 0.43269444 0.042674541
0.67894298 0.027036428 0.061817169
0.67987299 0.43351346 0.052582264
0.66693902 0.12309247 0.12274122
0.66675901 0.31747842 0.12453651
0.67287999 0.027311444 0.063214302
0.670268 0.069425464 0.089387417
0.65729201 0.37513143 0.21939135
0.69033998 0.50003648 -0.1117115
0.65605098 0.20281643 0.17349339
0.67234302 -0.062215567 0.0088071823
0.65914601 0.31923443 0.14221144
0.664235 0.069686472 0.090769291
0.69313699 0.53857446 -0.20137644
0.66076899 0.027857423 0.065999508
0.65820497 0.069945455 0.092148304
0.64671499 0.16074145 0.14976549
0.68903702 0.58001447 -0.28578663
0.64341003 0.40192342 0.18378258
0.66151303 0.47258344 -0.0025267601
0.66306603 -0.1101625 -0.018509388
0.65111703 -0.012470543 0.04339838
0.648673 0.028401434 0.068783283
0.64615703 0.070462465 0.094904423
0.68176198 0.58063042 -0.27485943
0.62933397 0.25306445 0.20950556
0.63869202 0.43836844 0.11142159
0.65505898 0.50365949 -0.060118675
0.65081602 -0.10953259 -0.01564455
0.63658899 0.028940439 0.071559429
0.63412201 0.070974469 0.097653389
0.640751 0.47485644 0.027525425
0.62285399 0.16165543 0.15515518
0.620386 0.20411342 0.18150949
0.61567497 0.28515244 0.23181152
0.62810999 0.071230471 0.099028587
0.61663502 0.40529346 0.22156763
0.650298 0.54259944 -0.13790369
0.63858098 -0.10890758 -0.012785435
0.61901999 0.12501746 0.13362217
0.61445403 0.20432645 0.1828413
0.62452 0.029475451 0.074329376
0.634157 0.50580245 -0.02954483
0.61094302 0.16210747 0.15784359
0.60852402 0.20453942 0.18417263
0.62018102 0.47710544 0.057304382
0.627231 0.50651145 -0.019413471
0.60707402 0.12549043 0.13633156
0.59392202 0.25425446 0.21740341
0.60872298 -0.010509551 0.053182602
0.59018099 0.40861845 0.25891352
0.59310502 0.16277945 0.16186762
0.59075898 0.20517343 0.18815756
0.60537702 -0.05895257 0.02436018
0.58627999 0.28609246 0.23833847
0.61175102 -0.17411351 -0.047050476
0.60805601 -0.10736358 -0.0056595802
0.60826999 0.54653746 -0.075611591
0.57625902 0.25483942 0.22133827
0.57206798 0.33212447 0.26924944
0.61027503 0.58667541 -0.16746569
0.57529598 0.16344446 0.16588163
0.57132 0.12689042 0.1444273
0.564502 0.25522643 0.22395658
0.57936102 0.51140642 0.05063343
0.58724201 -0.17281353 -0.041298389
0.58370101 -0.10614657 1.5258789e-05
0.55862802 0.25541943 0.2252636
0.58927399 0.58844644 -0.13590574
0.57260698 0.51209641 0.060520172
0.55942798 0.12735045 0.14711618
0.55275601 0.25561142 0.22657061
0.56902897 -0.057224512 0.032778263
0.588835 0.61926448 -0.20308781
0.56298399 -0.056940556 0.034175396
0.54526401 0.28737944 0.24743319
0.54030198 0.38380146 0.30715132
0.53964603 0.41367745 0.3150444
0.55297399 0.48443246 0.1546464
0.54352802 0.20683146 0.19873619
0.55239701 0.032612443 0.090852261
0.53435498 0.41331846 0.31030941
0.56279099 -0.17153156 -0.035563469
0.53568703 0.12826043 0.15247917
0.533858 0.16496944 0.17520428
0.54486901 -0.056093574 0.038361549
0.52546602 0.33347845 0.27951431
0.538342 0.074952424 0.11948156
0.52293599 0.38426143 0.31095457
0.53320801 0.48658144 0.18328762
0.54669201 0.55228841 0.015696526
0.54786003 0.59193242 -0.073652744
0.54121101 -0.10405958 0.009894371
0.53280699 -0.055533528 0.041146278
0.54103398 0.59250641 -0.063390732
0.51174998 0.25693446 0.23568344
0.54848999 0.66529244 -0.23640442
0.51500797 0.48743144 0.19382143
0.51199603 0.12915742 0.15782738
0.508241 0.20804447 0.20662451
0.53327399 0.62354743 -0.11870241
0.506006 0.44885844 0.23567343
0.50237 0.20824444 0.20793438
0.51054901 0.034381449 0.10040617
0.52068102 0.59421444 -0.0327878
0.50419003 0.48679346 0.18401051
0.52307498 -0.2318666 -0.064252377
0.49650297 0.20844346 0.2092452
0.49422297 0.25749147 0.23957443
0.50872499 -0.054426551 0.04669857
0.51096499 -0.10260057 0.016911507
0.49862298 0.034878433 0.10312748
0.52066898 0.66715848 -0.19353867
0.51084799 -0.23121059 -0.061378479
0.48669398 0.16666645 0.18579245
0.49077097 0.076857448 0.13027954
0.48790896 0.48583144 0.16924858
0.50190401 -0.16840661 -0.021324635
0.47327596 0.33495545 0.29098845
0.48876497 0.55623949 0.077519417
0.49285796 -0.10173857 0.021103382
0.48469698 -0.053334594 0.052231312
0.48255196 -0.0049085617 0.082156181
0.48324698 0.55596149 0.072453499
0.46905896 0.16729045 0.18974638
0.47155997 0.48486143 0.15442848
0.45593396 0.33543748 0.29479456
0.46886298 0.036105454 0.10990334
0.45724297 0.38162142 0.2760725
0.48033896 -0.22959161 -0.05421257
0.45412996 0.40782148 0.23856163
0.46876097 -0.10060251 0.026679516
0.45299298 0.13134444 0.17111254
0.44762197 0.25894845 0.24990225
0.46722296 0.62768948 -0.037627697
0.44648898 0.38084346 0.26650953
0.46274498 -0.10032058 0.028068542
0.44180897 0.25912744 0.25118828
0.44931397 0.078480422 0.13966656
0.45672998 -0.10004056 0.029458523
0.43570498 0.38006145 0.25692034
0.44100296 0.44469047 0.17716217
0.43217298 0.21058446 0.22358227
0.43019497 0.25948346 0.25375843
0.45032299 0.62698543 -0.053337574
0.43865898 0.48290145 0.12461758
0.44991297 -0.22800159 -0.04708147
0.44739297 -0.16568959 -0.008626461
0.44471496 -0.099483609 0.032231331
0.42947796 0.13219643 0.17639542
0.43679598 -0.051199555 0.06323719
0.43486798 -0.0028845668 0.093048573
0.45069098 0.70175946 -0.1516304
0.43566996 0.51409948 0.080656528
0.42360598 0.13240844 0.17771339
0.42569298 0.07938844 0.14500523
0.43901598 0.62651348 -0.063849449
0.41947398 0.37888145 0.24249458
0.43776497 -0.2273736 -0.04423666
0.43531397 -0.16509855 -0.0058197975
0.43270996 -0.098929524 0.035001278
0.41157797 0.29138845 0.27695847
0.43089098 0.59469342 -0.030012608
0.43677998 0.67030048 -0.12362051
0.41909596 0.44327444 0.15745926
0.41047797 0.16932046 0.2028513
0.40305299 0.21152943 0.23005724
0.41292098 -0.05015552 0.068709373
0.40957797 0.038493454 0.12336922
0.42217997 -0.29570055 -0.082680702
0.41722196 -0.16421854 -0.001616478
0.40015396 0.13324445 0.18297434
0.40695998 -0.049897552 0.070075512
0.42193899 0.70084047 -0.1783824
0.41060698 0.62532449 -0.090251446
0.39424998 0.40366447 0.18507957
0.41616598 0.70065248 -0.18381977
0.40998697 -0.29504454 -0.079814434
0.38712898 0.17011142 0.2080636
0.38561496 0.21208745 0.23393154
0.39504698 -0.049383521 0.072802544
0.40490097 0.62508446 -0.095551491
0.38259396 0.13386345 0.18691063
0.38909498 -0.049127579 0.074163437
0.38326496 0.40289646 0.17527533
0.39314297 -0.16306257 0.0039644241
0.37674797 0.13406843 0.18821859
0.39659196 0.66883743 -0.16125774
0.37719998 -0.048619509 0.076882362
0.36191097 0.33153242 0.24808025
0.37420496 0.51064742 0.024688244
0.37956297 -0.29342651 -0.072667599
0.36371297 3.9458275e-05 0.1092453
0.37624598 0.62387645 -0.12217474
0.37348798 -0.29310656 -0.071241379
0.34922197 0.26190346 0.27163839
0.35098898 0.33066946 0.23846436
0.35512197 0.082032442 0.16091442
0.34755597 0.13508147 0.19474936
0.34503096 0.21336544 0.24293041
0.34302697 0.29222345 0.28117132
0.34551698 0.33023643 0.23364639
0.35989496 0.54966342 -0.040695667
0.35499096 -0.095433593 0.052876472
0.34172496 0.13528144 0.1960535
0.34057099 0.17165744 0.21843719
0.35527897 -0.2921536 -0.066971779
0.35308996 -0.2231096 -0.024485588
0.34158897 -0.047117591 0.08501339
0.34008998 0.00098443031 0.11460638
0.34392697 0.47719344 0.03886652
0.34921697 -0.2918396 -0.065552711
0.34307897 -0.094911575 0.055607319
0.32667798 0.29084843 0.26688528
0.34104398 -0.22251952 -0.0216856
0.32974297 -0.046625495 0.087711334
0.32121396 0.29038846 0.26211119
0.32355097 0.32849348 0.21431541
0.32708699 0.041687429 0.14202738
0.33023697 0.43747348 0.0776124
0.33263198 0.47650644 0.028650284
0.31468797 0.26290143 0.27924728
0.32382298 -0.04638052 0.089060307
0.31574097 0.28992647 0.25733042
0.31999296 0.083309472 0.16880846
0.33577496 0.62216145 -0.15975857
0.32066697 0.37162447 0.15476847
0.32889497 0.50807846 -0.016537666
0.33131397 0.54818445 -0.066887379
0.32717797 -0.15997255 0.019210339
0.31414798 0.083519459 0.17012119
0.33260098 0.66648543 -0.22116041
0.31898698 0.43673247 0.067511559
0.31062797 0.0021454692 0.12128353
0.32673198 0.66626847 -0.22665262
0.31562698 0.47546944 0.013273239
0.30474398 0.0023744702 0.12261343
0.31406698 0.54728842 -0.082687378
0.31097996 -0.22106254 -0.014706612
0.29518998 0.13685447 0.2064395
0.29419598 0.17315644 0.22874546
0.29592097 0.32629144 0.1900115
0.30855298 -0.35145354 -0.093614578
0.30031097 0.50644743 -0.042532444
0.30247897 -0.35113156 -0.092187405
0.29897398 -0.22048855 -0.011924744
0.28134596 0.26114845 0.26130533
0.29283997 0.47407544 -0.0073256493
0.27778396 0.13743246 0.21031618
0.28156498 0.36871642 0.12009859
0.28712198 0.47372445 -0.01249361
0.29095197 0.5460844 -0.10385847
0.28538996 -0.1580745 0.028833389
0.27657598 -0.044455528 0.099804401
0.28734398 0.58803946 -0.16257143
0.28139699 0.47337344 -0.017666817
0.28098997 -0.21963561 -0.0077605247
0.26619297 0.13781345 0.2128973
0.26426998 0.21582043 0.26078844
0.26809496 0.32406342 0.16554737
0.26850998 0.043864429 0.15521955
0.27669597 -0.28815353 -0.048614502
0.27499998 -0.21935356 -0.0063767433
0.26479098 -0.043983579 0.10247946
0.26250598 0.32361442 0.16063738
0.27562997 0.58748841 -0.17338037
0.26468697 0.36745542 0.10514116
0.26991898 0.47266746 -0.028037548
0.27352497 0.54517245 -0.1198144
0.27215996 -0.34953952 -0.085074425
0.26593998 -0.091613531 0.073243618
0.25277597 0.21615946 0.26332331
0.25890398 -0.043749571 0.10381556
0.25777397 0.0041774511 0.1332283
0.26465198 -0.28755653 -0.045811653
0.24823599 0.25822246 0.23256159
0.25468996 0.39380044 0.06066227
0.25840998 0.47195944 -0.038434505
0.26186597 0.54456145 -0.13048983
0.24223198 0.17478645 0.24026537
0.24129398 0.21649742 0.26586056
0.24713799 -0.043283582 0.10648251
0.25400597 -0.34860051 -0.080825806
0.25261897 -0.28696454 -0.043012619
0.24820799 -0.090876579 0.07728529
0.23555499 0.21666443 0.26712656
0.23832399 0.28335047 0.18976736
0.25209898 0.58638048 -0.19508553
0.25356597 0.61864144 -0.23605871
0.24374199 -0.1562295 0.038395405
0.23157598 0.25674343 0.21810341
0.24619499 0.58610141 -0.20053244
0.23932999 0.43144542 -0.0039515495
0.24108098 0.47088945 -0.054087639
0.24191599 -0.3479805 -0.077999592
0.23780398 -0.1559695 0.039756298
0.22495799 0.17531747 0.2440896
0.23315698 -0.21741056 0.0032835007
0.23186898 -0.15571153 0.041115284
0.21874499 0.21583545 0.25925541
0.23084998 0.50245142 -0.10565758
0.22460298 -0.0899086 0.082658291
0.22367498 0.46981144 -0.069806576
0.20770699 0.17584145 0.24790335
0.20764999 0.21479046 0.24970722
0.21184799 0.31952643 0.11614132
0.21361499 0.36361843 0.059910297
0.22077999 0.54239845 -0.16809273
0.21777199 -0.3467555 -0.072361469
0.20365198 0.25425547 0.19388723
0.20362198 0.087352455 0.19484758
0.21048598 0.42951345 -0.029806614
0.21329099 0.50143349 -0.12160444
0.21174298 -0.34645259 -0.070956707
0.20930699 -0.21632552 0.0087776184
0.20815298 -0.15468955 0.046542168
0.20692699 -0.08919251 0.08667326
0.21057999 0.58441448 -0.2333746
0.20619398 0.46872646 -0.085587502
0.20104098 -0.088955522 0.088010311
0.19204399 0.087738454 0.19742823
0.20461299 0.58413041 -0.23887539
0.18535998 0.14039546 0.23084641
0.18474199 0.17652947 0.25297737
0.18536898 0.21268642 0.23054123
0.18696199 0.046767473 0.1735096
0.17900799 0.17670047 0.25424433
0.18207899 0.27851844 0.14075232
0.18341999 0.31721747 0.091193199
0.18047498 0.088121474 0.20000458
0.19264999 0.58356142 -0.24990368
0.18590198 0.38885248 -0.00054645538
0.18725699 0.42795146 -0.050619602
0.18863198 0.46763244 -0.10143757
0.17770998 0.31675243 0.086182594
0.18011598 0.38843346 -0.005692482
0.18521999 0.54051542 -0.2006216
0.18294598 -0.42634058 -0.11376762
0.16987899 0.25123042 0.16461945
0.17017499 0.0074034333 0.15294123
0.16891798 0.088501453 0.2025795
0.17559199 0.42716444 -0.061069489
0.17688999 -0.4260236 -0.1123476
0.16422099 0.25072247 0.15971756
0.16506799 -0.040127575 0.12503242
0.17329399 0.53988147 -0.21152878
0.16187099 0.35969746 0.014127254
0.16270299 0.38717145 -0.021173477
0.16509499 0.46616244 -0.12267542
0.16607998 0.49868444 -0.16446543
0.16085298 -0.15269458 0.057340622
0.15072198 0.17568743 0.24507856
0.15288198 0.24970245 0.14989758
0.15802699 0.42597747 -0.076798439
0.15873699 -0.42508352 -0.10809755
0.15580599 -0.21394956 0.021063328
0.14607099 0.20895547 0.19676256
0.15269199 -0.4247725 -0.10668278
0.14006698 0.089437425 0.20899248
0.14521399 0.38589942 -0.036717415
0.14822899 0.49763945 -0.18066359
0.14315999 -0.15196455 0.061370373
0.13529699 0.0086384416 0.1607585
0.14038299 0.42478144 -0.092595577
0.12792899 0.14215046 0.24355316
0.13075998 0.27407044 0.096082211
0.12902498 0.048739433 0.18644762
0.13729899 0.53796041 -0.24443674
0.13209699 -0.21292257 0.026493549
0.12263398 0.17288744 0.22110844
0.12764598 0.38461846 -0.052328587
0.12694198 -0.28103459 -0.013938427
0.12548798 -0.15124357 0.065389633
0.11789398 0.0092434287 0.16465235
0.11926498 0.27306843 0.086083412
0.11703098 0.09017247 0.21410942
0.11209598 0.0094434619 0.16594934
0.11529598 0.35614043 -0.027043819
0.11588898 0.38375944 -0.062772751
0.10773498 0.27206242 0.07605648
0.10591998 0.049504459 0.19159555
0.10999798 0.38332844 -0.068005562
0.11161498 0.46280146 -0.17090368
0.11227998 0.49552643 -0.21327448
0.10001698 0.17062443 0.20182133
0.10067098 0.20461547 0.15777636
0.10409798 0.38289547 -0.073245525
0.094958976 0.20406747 0.15287542
0.094382979 0.049882472 0.19416237
0.09768898 0.35478842 -0.042600632
0.089238979 0.20351744 0.14796638
0.08992698 0.24400347 0.095416546
0.08861798 0.050069451 0.19544554
0.090704978 -0.21116757 0.035947323
0.08296898 0.16891247 0.18728828
0.083508976 0.20296645 0.14305019
0.085194983 0.30915642 0.0050964355
0.082852982 0.050256431 0.19672632
0.087608978 0.46128345 -0.19253969
0.083857976 -0.084428549 0.11451054
0.077269979 0.16833943 0.18243217
0.080357976 -0.42114651 -0.089819431
0.078900978 -0.21067655 0.038638592
0.071892977 -0.036744535 0.14597034
0.073475979 0.30818647 -0.0051646233
0.06548398 0.13814145 0.21053219
0.066780977 0.24189442 0.075404167
0.065811977 0.011011422 0.17628145
0.067865983 -0.33955657 -0.037605762
0.067107975 -0.21018958 0.041323185
0.061721981 0.30721247 -0.015452385
0.062334981 -0.42027056 -0.085634708
0.054388978 0.16603243 0.16294146
0.05542798 0.26747447 0.03059721
0.05632998 -0.41998053 -0.084243774
0.048382979 0.13635147 0.1960516
0.04832498 0.051359475 0.20439339
0.049724977 -0.27762461 0.003780365
0.04257898 0.051540434 0.20566845
0.045243979 0.45859146 -0.23070574
0.037141979 0.16428846 0.1482563
0.037654977 0.23922843 0.050237179
0.038877979 0.41783643 -0.18338776
0.037883978 -0.27711761 0.0064892769
0.031373981 0.16370445 0.14334726
0.031196982 0.01215142 0.18398952
0.032822981 0.41741842 -0.18879938
0.031783979 -0.20875454 0.049354553
0.031621981 -0.14755559 0.086652279
0.03257798 -0.50739455 -0.13265944
0.019752979 -0.034944534 0.15762854
0.020300981 0.30376345 -0.051695824
0.020688981 0.41658044 -0.19964266
0.020364981 -0.41827154 -0.075914383
0.01402498 0.16194344 0.12858438
0.01419698 0.23707342 0.029978275
0.01422898 -0.27611756 0.011890411
0.01409098 -0.14689255 0.090608597
0.01447398 -0.50648856 -0.12843847
0.0083969794 -0.4177115 -0.073148727
0.00241398 0.13151747 0.15715551
0.00241398 0.34741145 -0.12669039
0.00241398 0.45585346 -0.26926851
0.00241398 -0.1464566 0.093239307
0.00241398 -0.50589156 -0.12563276
-0.0035200198 0.26225847 -0.020577431
-0.0036170199 0.34694046 -0.13200855
-0.00348802 -0.27537954 0.015930176
-0.0036110198 -0.50559461 -0.12423038
-0.0092290202 0.15957546 0.10880518
-0.0093080197 0.19397146 0.063507557
-0.0094640199 0.26173043 -0.025732517
-0.0093890196 -0.27513659 0.017273426
-0.014963021 0.12968045 0.14246416
-0.015384019 -0.33586252 -0.018490791
-0.01528702 -0.27489352 0.018616199
-0.01565402 -0.5050056 -0.12143278
-0.020774022 0.12906545 0.13755226
-0.02067202 -0.033596575 0.16664028
-0.020572022 0.013803422 0.19548225
-0.021380018 0.26066947 -0.036068439
-0.020487022 0.053476453 0.21962643
-0.02208402 0.41361445 -0.23784971
-0.021485019 -0.41633654 -0.066257477
-0.02643802 -0.033406556 0.1679244
-0.027844019 -0.56301153 -0.15428448
-0.032419022 0.12783045 0.12771225
-0.032622021 0.15718544 0.088920593
-0.032753021 -0.20622551 0.063968182
-0.03255802 -0.1451726 0.10110617
-0.032352019 -0.080288529 0.14057541
-0.038254023 0.12721145 0.12278223
-0.03849202 0.15658444 0.0839324
-0.03778702 0.014338434 0.19929743
-0.037659019 0.053546429 0.22021437
-0.039084021 -0.33485055 -0.013071537
-0.044099022 0.12659043 0.11784649
-0.043722022 -0.032845557 0.17176819
-0.045318022 0.25853246 -0.056824684
-0.045346022 -0.41525853 -0.060766697
-0.045003019 -0.33460152 -0.011721611
-0.043922022 -0.079895496 0.14315844
-0.049481019 -0.032659531 0.17304754
-0.050921019 -0.33435249 -0.010371685
-0.052008022 -0.56181049 -0.1486578
-0.055815022 0.12534446 0.10795116
-0.056156021 0.15477246 0.068925381
-0.057344019 0.25745642 -0.067248821
-0.056153022 -0.20533752 0.069251537
-0.055829022 -0.14433551 0.10633135
-0.061686024 0.12471843 0.10299444
-0.062501021 0.18875945 0.017997265
-0.061153024 0.082911432 0.15848255
-0.062393025 -0.27299452 0.029316425
-0.063733019 -0.50270653 -0.11029243
-0.068658024 -0.33361351 -0.0063266754
-0.067839019 -0.2049005 0.071884632
-0.072489023 -0.031927526 0.17815542
-0.075451024 0.25583243 -0.082937717
-0.072823018 0.081604421 0.14871216
-0.073680021 -0.20468354 0.073200226
-0.072813019 -0.078929543 0.14960051
-0.077885024 0.015557468 0.20816326
-0.08289402 0.34071743 -0.20187044
-0.083354019 0.36896545 -0.23946047
-0.087569021 0.25474346 -0.093434811
-0.089059018 0.34023046 -0.2072978
-0.09025602 0.40884942 -0.29869461
-0.085892022 -0.27207255 0.034638405
-0.088182025 -0.56005061 -0.1402564
-0.089321017 0.015898466 0.21069241
-0.09364102 0.25419742 -0.098693371
-0.094384022 0.29410344 -0.15189362
-0.090670019 -0.14311254 0.11413336
-0.095629022 0.046814442 0.17200041
-0.096266024 0.078971446 0.12909746
-0.10022102 -0.55947554 -0.13746738
-0.10303102 0.12029946 0.068105221
-0.10761402 0.33876246 -0.22363472
-0.10165002 -0.077986598 0.1560154
-0.10693802 -0.030854523 0.18578863
-0.10996802 -0.33193254 0.0030655861
-0.10935702 -0.27116954 0.039943218
-0.11225302 -0.55890656 -0.13468361
-0.11561502 0.14863843 0.018458366
-0.12003202 0.33777845 -0.23456383
-0.11521702 -0.2709465 0.041266441
-0.11385502 -0.14231658 0.11931658
-0.12348203 0.22427148 -0.08872366
-0.11840502 -0.030504525 0.18832541
-0.12513201 0.29148644 -0.17872143
-0.11906102 0.044076443 0.15253353
-0.12032202 -0.2029866 0.083683491
-0.12513101 -0.63548052 -0.17869949
-0.12685502 0.11774045 0.048017502
-0.12761801 0.14739442 0.0082793236
-0.13028102 0.25088942 -0.13041353
-0.12543601 -0.1419245 0.12190247
-0.13283302 0.11709744 0.042978287
-0.13196301 -0.20257258 0.086294174
-0.13557701 -0.49942255 -0.093736649
-0.14369701 0.28990144 -0.19491243
-0.13941102 -0.33076751 0.009739399
-0.13700701 -0.14153659 0.12448263
-0.14358002 0.073630452 0.089543343
-0.14529201 -0.33053851 0.011071205
-0.14449002 -0.26984751 0.047865391
-0.14193502 -0.076706529 0.16495848
-0.15612301 0.28883743 -0.2057457
-0.14940701 -0.20196056 0.090201378
-0.14768101 -0.076527596 0.1662302
-0.15778302 0.14425743 -0.017288685
-0.15521902 -0.2017585 0.091501236
-0.16636501 0.22023243 -0.12562752
-0.15939102 0.0083994269 0.15973949
-0.16012701 -0.14077353 0.12963057
-0.17345501 -0.63315761 -0.16749763
-0.18109402 0.28669542 -0.22751141
-0.17167401 -0.14039755 0.13219929
-0.18336402 0.17676646 -0.085214615
-0.17638901 -0.07564652 0.17258358
-0.18818201 0.14108247 -0.043040752
-0.18321501 -0.1400255 0.13476419
-0.18212402 -0.075472593 0.17385054
-0.19147402 0.068186462 0.049555302
-0.19227701 -0.3287456 0.021682262
-0.20181902 0.17491746 -0.10095072
-0.20622501 0.28453147 -0.24940538
-0.19358802 -0.075128555 0.1763835
-0.20400201 -0.32830954 0.024324417
-0.20960702 -0.63147855 -0.1591506
-0.20819901 0.033577442 0.078590393
-0.21562701 -0.63120353 -0.15776348
-0.21750601 0.10792547 -0.02831459
-0.21882002 0.13786846 -0.068975449
-0.22036302 0.17305446 -0.11675644
-0.21728802 -0.4080646 -0.021550655
-0.21077201 -0.074618578 0.1801753
-0.22656301 0.17243046 -0.12203884
-0.21720502 -0.03512454 0.16004753
-0.22023802 0.032149434 0.06861639
-0.22318502 -0.4078356 -0.020214558
-0.22157702 -0.32766354 0.028278351
-0.21649602 -0.074450612 0.1814394
-0.22778201 0.064034462 0.019272327
-0.22618401 -0.26692152 0.066198349
-0.23468901 -0.67999256 -0.18361044
-0.23366801 -0.6303885 -0.15361261
-0.23731901 0.13592142 -0.084626675
-0.24099001 0.21314645 -0.18977261
-0.23084001 -0.00033956766 0.1008954
-0.23231602 0.030714452 0.058614254
-0.23386702 0.063337445 0.014198303
-0.24072701 -0.67971456 -0.1822176
-0.23967901 -0.63011956 -0.15222979
-0.22930001 -0.13857758 0.14498234
-0.24350402 0.13526946 -0.089858532
-0.23836902 0.029994428 0.053604603
-0.23365702 -0.073952556 0.18522024
-0.24819602 0.10457444 -0.054120541
-0.25494504 0.23951048 -0.23817444
-0.25279102 -0.6791625 -0.17943859
-0.25169304 -0.62958753 -0.14947271
-0.25769603 -0.6293236 -0.14809561
-0.26618302 0.21073842 -0.21140766
-0.25658202 0.027823448 0.038528442
-0.25829804 0.06052947 -0.0061597824
-0.25118402 -0.075018525 0.17904854
-0.26443204 0.059823453 -0.011268616
-0.26649803 -0.4939146 -0.063856602
-0.26505601 -0.041241527 0.12098646
-0.28260303 0.27791142 -0.31589079
-0.26689103 -0.2655406 0.075287342
-0.27107802 -0.042013526 0.11607361
-0.28674203 0.23657745 -0.26561975
-0.28903502 0.27735144 -0.32148457
-0.27488202 0.025637448 0.023388386
-0.27672404 0.058406472 -0.021506786
-0.27618003 -0.40583158 -0.0082573891
-0.28292102 -0.67781055 -0.17251062
-0.27835202 -0.49344659 -0.061170578
-0.28205901 -0.4056145 -0.0069355965
-0.29542804 0.16546643 -0.18067455
-0.28529602 -0.0070595741 0.056122303
-0.28713003 0.024171472 0.013258457
-0.28256902 -0.19757855 0.11984825
-0.28107202 -0.078989506 0.15484762
-0.29170004 -0.55105352 -0.093544483
-0.29961902 0.12932944 -0.13729048
-0.28920203 -0.044343591 0.10129356
-0.29326802 0.023435473 0.008184433
-0.29011202 -0.26477659 0.080457211
-0.29941502 0.022698462 0.0031023026
-0.30699003 -0.67675555 -0.16699171
-0.29247501 -0.13668954 0.15893126
-0.31442001 0.16353548 -0.19683266
-0.30133104 -0.045904517 0.091408253
-0.31164703 -0.62701261 -0.1357584
-0.32347104 0.20523244 -0.2605648
-0.32524204 0.23301142 -0.29883051
-0.32713404 0.16223943 -0.20764351
-0.31729603 -0.40434253 0.00097942352
-0.30966902 -0.13619459 0.16271639
-0.32913703 0.095670462 -0.12209272
-0.33350602 0.16158944 -0.21306276
-0.32202503 -0.011619568 0.025962353
-0.31724003 -0.083817601 0.12559032
-0.33969104 -0.76556361 -0.21444368
-0.33160603 -0.49140561 -0.049137592
-0.34628102 0.16028446 -0.22392178
-0.33249104 -0.32382059 0.053090572
-0.32866004 -0.19618356 0.1300354
-0.35566503 0.20212144 -0.28816557
-0.34052104 -0.013923526 0.010784626
-0.34342104 -0.49096656 -0.046476841
-0.35438204 0.092873454 -0.14326859
-0.35783604 -0.76476359 -0.21028042
-0.37064403 0.22878247 -0.33796453
-0.35758403 0.04902643 -0.08877182
-0.36388004 -0.7645005 -0.20889568
-0.37510702 0.20023644 -0.30482674
-0.36142904 0.01522547 -0.048118591
-0.35020703 -0.13656855 0.16248941
-0.36112902 -0.49031758 -0.042494774
-0.36531603 -0.01702255 -0.0095496178
-0.36768404 0.014468431 -0.053281784
-0.38812402 0.19897145 -0.31597757
-0.37154102 -0.017801523 -0.014652729
-0.38200304 -0.76372051 -0.20474958
-0.36232504 -0.1382736 0.15280342
-0.38616902 0.089340448 -0.16991282
-0.39464802 0.19833642 -0.32156658
-0.38280404 0.04608047 -0.10972452
-0.37588203 -0.40232158 0.014079571
-0.37116703 -0.2622385 0.098424435
-0.36839804 -0.13912952 0.14795017
-0.38110203 -0.056240559 0.026471615
-0.38401803 -0.019365549 -0.024877548
-0.38931203 -0.62388659 -0.11811876
-0.39027104 -0.020150542 -0.03000164
-0.38757902 -0.40193152 0.01668644
-0.39527404 -0.62365651 -0.11677074
-0.39351901 -0.05785954 0.016375542
-0.39342502 -0.40173852 0.017988205
-0.38849303 -0.26172256 0.10224962
-0.41178602 0.086482465 -0.19137383
-0.39426604 -0.26155257 0.10352325
-0.40909302 -0.022516549 -0.045419693
-0.41455904 0.042358458 -0.13609266
-0.41494003 -0.67231357 -0.14241457
-0.39890403 -0.14343953 0.12358856
-0.42727703 0.11565644 -0.24498081
-0.43035603 0.15164244 -0.29532671
-0.43402302 0.19449544 -0.35527754
-0.40802103 -0.32143152 0.069847584
-0.40580603 -0.26121652 0.10606527
-0.41910604 -0.62275052 -0.11139059
-0.44062302 0.19385046 -0.36092663
-0.42444104 0.0075714588 -0.10008574
-0.41117203 -0.14517856 0.11379528
-0.44027504 0.11425245 -0.25592947
-0.41961804 -0.32108152 0.07240963
-0.41480103 -0.19374549 0.14897251
-0.43287802 -0.67162156 -0.13835955
-0.42157102 -0.097873569 0.041369438
-0.42812201 -0.5458895 -0.06276083
-0.42593402 -0.48804259 -0.027979374
-0.42053103 -0.19359159 0.15022659
-0.43696302 -0.62208652 -0.10736847
-0.44657302 0.038590431 -0.16265154
-0.43994203 -0.54547453 -0.06011343
-0.44013804 -0.40024054 0.028364182
-0.45080003 -0.67094254 -0.13431549
-0.44885904 -0.62165058 -0.10469246
-0.44585001 -0.54526961 -0.058791637
-0.46352702 0.080682456 -0.23468256
-0.46639901 0.11142242 -0.27792645
-0.46035403 -0.76050961 -0.18692064
-0.45677102 -0.6707195 -0.13296938
-0.47004402 0.079948425 -0.24013472
-0.44821402 -0.1504426 0.084254265
-0.45906702 -0.10297155 0.011160374
-0.46119902 -0.48686957 -0.020119667
-0.48610902 0.10928243 -0.29451561
-0.45633903 -0.19635653 0.13661957
-0.48965603 0.077738464 -0.25653458
-0.46928301 -0.39934361 0.034815311
-0.48440802 -0.75957561 -0.18147755
-0.47164503 -0.10468757 0.0010323524
-0.47294202 -0.48648858 -0.017508507
-0.48848602 -0.0002695322 -0.15282154
-0.48093203 -0.39899361 0.037389278
-0.47750703 -0.3193996 0.085162163
-0.47492102 -0.25929153 0.12123919
-0.47486702 -0.19911051 0.12200022
-0.49044803 -0.6201725 -0.095366478
-0.49430802 -0.071090579 -0.065443516
-0.50669497 -0.8567996 -0.23616552
-0.50243199 -0.75889254 -0.17740965
-0.48067102 -0.25913751 0.12249851
-0.50457799 -0.034606576 -0.12351942
-0.49257302 -0.3986485 0.039958477
-0.48906702 -0.31907761 0.087699413
-0.48641902 -0.25898457 0.12375641
-0.49895504 -0.54348457 -0.046945572
-0.49641103 -0.48574257 -0.012299538
-0.50708997 -0.072780609 -0.07580471
-0.51793802 0.030139446 -0.2217927
-0.49484503 -0.31891751 0.088968277
-0.529181 0.073269427 -0.28956747
-0.52090299 -0.0042625666 -0.17948341
-0.50421101 -0.39830756 0.042523384
-0.52485597 -0.85608661 -0.23205137
-0.49791405 -0.25868356 0.12626839
-0.49970701 -0.20281255 0.10241461
-0.509628 -0.10988355 -0.029522419
-0.535806 0.072518468 -0.29510069
-0.52395898 -0.037077546 -0.13935041
-0.53105599 0.028577447 -0.23265457
-0.503658 -0.25853455 0.12752342
-0.510737 -0.15938461 0.034463406
-0.54583597 0.10276544 -0.34474373
-0.51218599 -0.20467651 0.092581272
-0.52603602 -0.61896157 -0.087418556
-0.52746701 -0.39764154 0.047641277
-0.52371699 -0.31813657 0.095293522
-0.540178 -0.5421735 -0.03779459
-0.56113601 -0.85470557 -0.22385979
-0.549734 -0.61818254 -0.082143784
-0.54237598 -0.1639365 0.0093026161
-0.57579899 0.067972422 -0.3284936
-0.566742 -0.0099335313 -0.21715164
-0.56241399 -0.75671756 -0.1639328
-0.53809702 -0.25766158 0.13503456
-0.54355901 -0.20937455 0.067875385
-0.55565399 -0.61799157 -0.080828667
-0.56399399 -0.6669575 -0.10895443
-0.56157297 -0.6178025 -0.07951355
-0.55650699 -0.39683652 0.054014206
-0.55618 -0.21127057 0.057943344
-0.567298 -0.11781955 -0.0758605
-0.59062803 0.02145642 -0.28193378
-0.58529502 -0.85381961 -0.2184267
-0.57587999 -0.66656959 -0.10630941
-0.57340902 -0.61742759 -0.076886654
-0.58636701 -0.75589156 -0.15857649
-0.57932401 -0.61724257 -0.075575829
-0.58022898 -0.11960649 -0.086240768
-0.59120798 -0.083966494 -0.14390469
-0.60646498 -0.014872551 -0.24976063
-0.61068797 0.019047439 -0.2985158
-0.59833699 -0.75548851 -0.15590572
-0.59369802 -0.66599751 -0.10235167
-0.58710599 -0.1704005 -0.026230812
-0.58790898 -0.21604753 0.032991409
-0.59006298 -0.48296857 0.0083642006
-0.63656098 0.061025441 -0.37917471
-0.60067201 -0.21797454 0.022961617
-0.60888201 -0.61633754 -0.069034576
-0.612746 -0.12411153 -0.11232662
-0.60174602 -0.48264456 0.0109272
-0.63759297 0.015808463 -0.32074165
-0.598625 -0.31623757 0.11162663
-0.60706902 -0.21894157 0.017933369
-0.61743599 -0.66525757 -0.097092628
-0.61479002 -0.61616051 -0.067730427
-0.612894 -0.1741426 -0.046695709
-0.65019399 0.059459448 -0.39053869
-0.64434999 0.014993429 -0.3263216
-0.60869801 -0.39546251 0.065425396
-0.60712498 -0.26825058 0.08270359
-0.634211 -0.75431657 -0.14792538
-0.62585402 -0.17602861 -0.056975842
-0.62028199 -0.39517057 0.067949295
-0.61588198 -0.31582654 0.11537361
-0.64615798 -0.75393856 -0.14527464
-0.641155 -0.66454053 -0.091850758
-0.66236198 -0.054887533 -0.25217676
-0.631863 -0.39488351 0.070470333
-0.63676602 -0.48170555 0.018594265
-0.63765001 -0.39474154 0.071730614
-0.645675 -0.2247926 -0.012377739
-0.64343703 -0.39460158 0.072987556
-0.65214598 -0.2257756 -0.017453671
-0.69196397 0.0092324615 -0.36562061
-0.65862697 -0.22676158 -0.022538662
-0.68928403 -0.058384538 -0.27408171
-0.69881302 0.0084014535 -0.3712697
-0.70073998 -0.026684582 -0.32703781
-0.66079199 -0.3941865 0.076756477
-0.68197399 -0.75284255 -0.13734961
-0.67669797 -0.66350961 -0.084020615
-0.71254897 0.0067324638 -0.38259745
-0.68793899 -0.75266457 -0.13603354
-0.67235601 -0.39391661 0.07926321
-0.69857001 -0.13608456 -0.18106937
-0.68687803 -0.53803158 -0.0055503845
-0.72809601 -0.030134559 -0.34942961
-0.69051999 -0.32485449 0.075031281
-0.706285 -0.66269052 -0.077527523
-0.73101503 -0.10279858 -0.25677061
-0.74709702 0.0025254488 -0.41107464
-0.70086098 -0.48010361 0.032557487
-0.70124799 -0.39326155 0.085515499
-0.70992601 -0.2845546 0.0029454231
-0.71745002 -0.23573959 -0.068639755
-0.71811199 -0.66237259 -0.07493782
-0.70668101 -0.47996557 0.033820629
-0.731089 -0.19143856 -0.14030838
-0.71613097 -0.53730357 0.00081825256
-0.716299 -0.32911158 0.055250168
-0.76948798 -0.035374582 -0.38328743
-0.727826 -0.53702259 0.0033602715
-0.77117801 -0.069084525 -0.34062958
-0.776429 -0.036255538 -0.38896084
-0.77188802 -0.1083585 -0.28969479
-0.76456201 -0.19637752 -0.16676378
-0.77129 -0.19737351 -0.17207861
-0.75120199 -0.53647554 0.0084295273
-0.76235199 -0.29294455 -0.037633419
-0.77048498 -0.24388456 -0.11013746
-0.76538002 -0.6611625 -0.06462574
-0.76210999 -0.61220658 -0.035476685
-0.80627501 -0.11305559 -0.31737041
-0.75914901 -0.39238453 0.096253395
-0.77718598 -0.66087461 -0.062057495
-0.76482898 -0.4786576 0.046397209
-0.82536298 -0.042483568 -0.42894459
-0.77492601 -0.33883953 0.010327339
-0.79055899 -0.24697959 -0.1258297
-0.82673401 -0.076397538 -0.38570452
-0.78149301 -0.33993351 0.0053005219
-0.83373302 -0.077321529 -0.39137983
-0.78807199 -0.34102952 0.0002655983
-0.78225601 -0.4782896 0.050152302
-0.83400297 -0.1168555 -0.3396697
-0.81073397 -0.25009751 -0.1415906
-0.79737097 -0.61138952 -0.027834415
-0.82746702 -0.15427852 -0.28403473
-0.79207301 -0.53556955 0.017262459
-0.78806198 -0.47816956 0.051402569
-0.80324501 -0.61125755 -0.026563644
-0.85480797 -0.080108523 -0.40846157
-0.815485 -0.30149555 -0.07869482
-0.81258601 -0.6600455 -0.054380417
-0.80911797 -0.61112857 -0.025294781
-0.803743 -0.53532255 0.019775391
-0.79967499 -0.47793353 0.053898335
-0.804672 -0.40030551 0.061854362
-0.81449902 -0.34544158 -0.019948483
-0.80547899 -0.47781754 0.055143356
-0.86192602 -0.12069261 -0.36211157
-0.81121898 -0.40144753 0.056913376
-0.82086003 -0.61087251 -0.022760391
-0.83559501 -0.30474555 -0.094218731
-0.84459102 -0.25534451 -0.16802073
-0.82673001 -0.61074758 -0.021495819
-0.85293901 -0.20950556 -0.23650265
-0.88308197 -0.083856583 -0.43136644
-0.83443701 -0.34877861 -0.035188675
-0.85982102 -0.21053255 -0.24192667
-0.82707202 -0.53484452 0.024794579
-0.84906 -0.30692554 -0.10460758
-0.82868803 -0.47736549 0.06012249
-0.84778398 -0.35101557 -0.045384407
-0.83448797 -0.47725558 0.06136322
-0.85447401 -0.35213959 -0.050494671
-0.86256897 -0.30911458 -0.11502647
-0.88053501 -0.2136296 -0.25824547
-0.89002401 -0.16319859 -0.33388758
-0.85038602 -0.53438759 0.02979517
-0.86789101 -0.3543936 -0.06073761
-0.876127 -0.31131554 -0.12547779
-0.88560802 -0.2617265 -0.20000744
-0.85188401 -0.4769336 0.065085411
-0.91837001 -0.12848353 -0.40743351
-0.911098 -0.16621661 -0.35066557
-0.92548198 -0.12946761 -0.41313839
-0.93974602 -0.13144457 -0.42458057
-0.89485902 -0.35893452 -0.081314564
-0.92929602 -0.2209456 -0.29662943
-0.95406002 -0.13343155 -0.43605947
-0.92705202 -0.26820159 -0.2322917
-0.92394298 -0.31910253 -0.1623106
-0.94333798 -0.22305858 -0.3076725
-0.89244801 -0.47622657 0.07373333
-0.96842599 -0.13542855 -0.44757748
-0.91073799 -0.41891456 -0.018090725
-0.95037699 -0.22411859 -0.31320763
-0.96070898 -0.17334557 -0.39013052
-0.97562897 -0.1364305 -0.45334959
-0.91746402 -0.42010152 -0.023150444
-0.94793898 -0.27147555 -0.2485466
-0.905514 -0.47838151 0.065233231
-0.91215199 -0.47960556 0.060307503
-0.93770599 -0.42367959 -0.038372517
-0.94935203 -0.36814857 -0.12284279
-0.97866303 -0.22838759 -0.33543968
-0.956218 -0.3693136 -0.12807083
-0.98576701 -0.22946155 -0.34102058
-1.00001 -0.23161757 -0.35220861
-1.0399461 -0.18480361 -0.4530654
