# .PCD v0.7 - Point Cloud Data file format
VERSION 0.7
FIELDS x y z
SIZE 4 4 4
TYPE F F F
COUNT 1 1 1
WIDTH 1
HEIGHT 1024
VIEWPOINT 0 0 0 1 0 0 0
POINTS 1024
DATA ascii
0.54329234 0.13525718 0.35441828
0.56147438 0.21775621 0.1067729
0.56593239 0.25550622 0.060046196
0.57102638 0.29863518 0.0066599846
0.55984634 0.25594819 0.064108849
0.54644138 0.19308019 0.14642096
0.54940438 0.21868724 0.11477089
0.52777737 0.095324218 0.28698206
0.51739538 0.13384223 0.34010601
0.53736734 0.21961421 0.1227479
0.51756835 0.094362199 0.27830601
0.51233137 0.13338822 0.33584023
0.52849334 0.19451523 0.15825319
0.54041338 0.30070221 0.027279854
0.51819736 0.15600324 0.21024227
0.52252835 0.19499123 0.1621871
0.53431636 0.30111223 0.031388283
0.51657039 0.19546622 0.16611719
0.51937735 0.22099519 0.13467312
0.49710536 0.13202119 0.32300186
0.51062238 0.19593924 0.17004108
0.5133974 0.22145319 0.13863802
0.50073135 0.048804224 0.28196716
0.5221504 0.30193019 0.039587021
0.49537736 0.094855189 0.28028488
0.50467938 0.19641221 0.17396116
0.50742334 0.22191119 0.14260006
0.48979735 0.095029235 0.28120518
0.51284039 0.32928419 0.01515007
0.47729737 0.17371023 0.36288309
0.48399734 0.049358189 0.28472185
0.50396234 0.30315024 0.051846981
0.50675434 0.32967222 0.019273281
0.48955739 0.2232762 0.15445185
0.47825438 0.013918221 0.28765821
0.49791735 0.30355424 0.055923939
0.47307235 0.095550239 0.2839613
0.46610439 0.17427719 0.3669343
0.47268438 0.014109194 0.28857708
0.46648234 0.12925124 0.2971549
0.46695739 -0.020014763 0.29143715
0.46711838 0.014299214 0.28949308
0.48854637 0.3308332 0.031619072
0.46135736 0.12878519 0.29282522
0.47176236 0.22463119 0.16625929
0.48249435 0.33121824 0.035721302
0.46332037 0.19969022 0.20126486
0.45583636 -0.019622803 0.29326725
0.45615834 0.050269186 0.28930807
0.4764514 0.33160222 0.039818287
0.45744437 0.20015419 0.20514393
0.45028037 -0.019427776 0.29418087
0.45043635 0.014864206 0.29224014
0.44571337 0.20107919 0.21290016
0.4481504 0.22642422 0.18194008
0.45583338 0.30635923 0.084311008
0.43986136 0.20154023 0.21677208
0.42857936 0.096908212 0.29129601
0.43401638 0.2020002 0.22063208
0.43989035 0.26458222 0.14429331
0.42838037 0.05116123 0.29388618
0.44388536 0.30715221 0.092375278
0.42316437 0.12885821 0.2904129
0.42021137 0.1704182 0.32923222
0.42817837 0.2024582 0.22449017
0.42283037 0.051338196 0.29479885
0.43792236 0.30754721 0.096401215
0.41747937 0.09724021 0.29312706
0.41508737 0.16997522 0.32493925
0.42235038 0.20291519 0.22834301
0.41681537 -0.058836758 0.30195618
0.42807436 0.26542419 0.15221119
0.41713336 0.015974224 0.29772425
0.41728437 0.051513195 0.29571199
0.42326036 0.3868722 0.21623707
0.41664538 -0.098755777 0.30421495
0.41144738 -0.018083811 0.30057526
0.41159138 0.01615721 0.29863691
0.41386938 0.32283622 0.26798105
0.41110936 -0.098549783 0.30512619
0.40652138 0.12933421 0.29315805
0.41071635 0.2038272 0.23603106
0.39967638 0.16863823 0.31202126
0.40195435 0.32402921 0.28062916
0.40900937 0.42477322 0.18339729
0.40004438 -0.098138809 0.30694485
0.38965437 0.21886623 0.37566185
0.40454137 0.26709419 0.16796494
0.39497936 0.016700208 0.301373
0.39512238 0.052210212 0.299366
0.38977137 0.098061204 0.29769707
0.38989836 0.12980521 0.2959013
0.39729238 0.4254072 0.19147491
0.38436237 0.12996024 0.29681396
0.37879738 0.21902621 0.37639523
0.38378137 -0.017146766 0.30512905
0.38967738 0.23083419 0.22080612
0.39270037 0.26809424 0.17758512
0.38391638 0.017058194 0.30319595
0.38524738 0.35262823 0.28415394
0.38832536 0.38891822 0.24014091
0.37882936 0.13011521 0.29772711
0.37368837 0.21861422 0.37217426
0.37825537 -0.016961813 0.30604029
0.38561037 0.42603722 0.19952393
0.37772936 -0.15166873 0.31365204
0.37794137 -0.097327769 0.31058216
0.37343937 0.16709322 0.2965579
0.37286338 0.017414212 0.30501699
0.37978137 0.42635021 0.20353603
0.36790738 0.16723919 0.297472
0.36345237 0.21778321 0.36367512
0.36720836 -0.016593814 0.30785894
0.37181437 0.27413923 0.23941231
0.36721838 0.32663119 0.30770206
0.36801538 0.35370821 0.29586697
0.36669636 -0.15124577 0.31546688
0.36690238 -0.096926808 0.31239796
0.36650836 0.23256719 0.23620605
0.36521035 0.27574319 0.25575399
0.36814436 0.4269782 0.21157694
0.37055337 0.45696422 0.17530489
0.36099437 -0.20150679 0.31922531
0.36118338 -0.15103585 0.31637287
0.36138737 -0.096727788 0.3133049
0.35685238 0.16753024 0.29929829
0.35319138 0.2169472 0.35515404
0.35602236 -0.056699812 0.31196308
0.35642937 0.053401232 0.30574417
0.36233938 0.42728922 0.21557188
0.35548636 -0.20128673 0.32012987
0.34805036 0.21652824 0.35088587
0.35016537 -0.15061778 0.3181839
0.34555736 0.0993402 0.30498791
0.34580436 0.16781819 0.30112028
0.34761035 0.27748322 0.27281427
0.34440136 0.32812423 0.32312202
0.34505337 -0.2024228 0.31289196
0.34015438 0.13118219 0.3041091
0.34028438 0.16796124 0.30203295
0.33774936 0.2156862 0.34232807
0.33871636 0.3284952 0.3269639
0.33463836 0.13133222 0.30501795
0.33656636 0.27765721 0.27394104
0.33919838 0.42852822 0.23151827
0.33365336 -0.14999777 0.32089996
0.33384338 -0.095743775 0.31783819
0.32912537 0.13148123 0.30592918
0.32438338 0.24787819 0.38344908
0.33059537 0.27845222 0.28188992
0.32757136 0.32894224 0.33134127
0.32958937 -0.20477277 0.29834318
0.32361436 0.13163024 0.30683804
0.32253736 0.35636622 0.32470226
0.32767436 0.4291442 0.23947906
0.31747636 -0.055389762 0.31830931
0.31410837 0.24707723 0.37498808
0.31784436 0.054558218 0.31210613
0.31698638 0.3565492 0.32655525
0.31931338 0.39292222 0.28738689
0.31188437 0.21356124 0.3208313
0.31144238 0.35672921 0.32837009
0.31827936 0.45957422 0.21157312
0.30836737 0.27910924 0.2874403
0.31044737 0.4300622 0.251369
0.30635437 -0.094780803 0.3223629
0.30170736 0.16894722 0.30840206
0.30149236 0.21270323 0.31219006
0.30122936 0.019655228 0.31682205
0.30472136 0.43036622 0.25531816
0.30068937 -0.14878076 0.32632208
0.29620337 0.1690852 0.30931187
0.29738638 0.2792362 0.28814602
0.29489037 0.35717821 0.33278608
0.29655737 0.3942312 0.30297422
0.30099738 0.46043122 0.22356796
0.30360636 0.49769822 0.1768899
0.29845735 -0.20953482 0.26900291
0.29520136 -0.14858073 0.32722521
0.29537237 -0.094400764 0.32417107
0.29049137 0.10087919 0.31407404
0.28831136 0.24505121 0.35367393
0.28950238 0.3571412 0.33204508
0.28971738 -0.14838177 0.32812786
0.28499636 0.10103023 0.31498003
0.28533638 0.2124272 0.30870008
0.28391737 0.3574062 0.33490705
0.28522637 0.39488122 0.31074429
0.28951636 0.46099922 0.23153305
0.29441237 -0.28923279 0.1411252
0.28203335 0.27743119 0.26842928
0.27957135 0.3952052 0.31462002
0.28189236 0.43157721 0.27107716
0.28908938 -0.29011375 0.13600206
0.27875638 -0.14798683 0.32993126
0.27410737 0.13294023 0.31501102
0.27434236 0.2126832 0.31051731
0.27377537 0.020484209 0.32134914
0.27387938 0.055839241 0.31935692
0.27447438 0.3271482 0.30800295
0.27620438 0.43187821 0.275002
0.27806535 0.46156523 0.23948622
0.28060436 0.4986172 0.19103384
0.27343836 -0.093651772 0.32778215
0.26861638 0.13308322 0.31591702
0.26807338 -0.053760767 0.32644606
0.26855835 0.32797319 0.31703997
0.27495837 0.49874321 0.19284916
0.26795837 -0.093465805 0.3286829
0.26312837 0.1332252 0.31682396
0.26323336 0.16990322 0.3147583
0.26259536 -0.053583801 0.32734919
0.26271036 -0.013245761 0.32507706
0.26324338 0.32777721 0.31454897
0.26931736 0.49886823 0.19466209
0.27306938 -0.29276973 0.12058306
0.26705337 -0.21437973 0.23934412
0.26248237 -0.093281806 0.32958603
0.25774536 0.17003822 0.31566429
0.25175637 -0.01290977 0.32688189
0.25184935 0.021135211 0.32496405
0.25194737 0.056463242 0.32297421
0.25204235 0.35638022 0.32102299
0.25811836 0.49902922 0.19679928
0.25652435 -0.21601373 0.2293849
0.25153536 -0.09291476 0.331388
0.24667636 0.13364619 0.31954002
0.24677536 0.17030519 0.31747484
0.24668938 0.24175423 0.31927204
0.24733436 0.32707822 0.30584812
0.24672836 0.35618722 0.31845522
0.25262338 0.49898121 0.19572496
0.25124636 -0.21683377 0.22439003
0.24111336 0.10221022 0.32222414
0.24129435 0.17043722 0.31838131
0.24147737 0.35587621 0.3144989
0.24239236 0.43342823 0.29509592
0.24715137 0.49890521 0.19418097
0.23571935 0.1339252 0.3213501
0.23581538 0.17056924 0.3192873
0.23044738 0.21368623 0.31777191
0.22987038 -0.012244761 0.33049011
0.23004737 0.057077229 0.32658815
0.23537138 -0.21930879 0.20935726
0.22966537 -0.092190802 0.33499098
0.22477138 0.13420022 0.32315826
0.22504038 0.24163622 0.31711102
0.22247937 0.2878682 0.37461185
0.22617838 0.32590121 0.29154825
0.22575235 0.35481423 0.30111217
0.22559738 0.39463422 0.30461025
0.23541036 -0.29905874 0.084264278
0.21922037 0.10278422 0.32583714
0.21893838 -0.011916816 0.33229303
0.21956238 0.24175322 0.31801701
0.21902236 0.022090197 0.33037901
0.21910936 0.057379186 0.32839298
0.22089237 0.32556921 0.28755522
0.22209936 0.46309122 0.25990009
0.22999635 -0.29996878 0.079033852
0.21874237 -0.09183377 0.33679008
0.21391737 0.1710912 0.32290411
0.21337935 -0.052024782 0.33545923
0.21347737 -0.011753798 0.3331933
0.21408737 0.24187022 0.318923
0.21635437 0.3236782 0.2659502
0.21549538 0.35358721 0.286026
0.21507537 0.39398822 0.29582691
0.22930938 -0.37352282 -0.036849022
0.22457537 -0.30087978 0.073797226
0.20828736 0.10306823 0.32764292
0.20836136 0.13460922 0.32586908
0.21042237 0.43221921 0.27670002
0.21161836 0.46234521 0.2481699
0.21914637 -0.30179375 0.06855011
0.21409038 -0.22264284 0.18917894
0.20965537 -0.15320784 0.29499722
0.20282337 0.10320818 0.32854509
0.20289636 0.13474423 0.32677126
0.20308036 0.21429521 0.32229614
0.20246637 -0.051686764 0.33725786
0.20314437 0.24210221 0.32073212
0.21370935 -0.30271083 0.063292027
0.20875037 -0.22348279 0.18411112
0.20237437 -0.091303766 0.33948612
0.19767436 0.24221724 0.3216362
0.19640437 0.2859292 0.35325193
0.19717836 0.022713184 0.33398199
0.19997236 0.3236022 0.26440907
0.20041436 0.43059021 0.25340796
0.20340136 -0.22432476 0.17903185
0.19435537 0.35213822 0.26788092
0.20065936 0.4530732 0.10742092
0.20280737 -0.30455273 0.052746296
0.19147137 -0.090954781 0.34128284
0.18644236 0.1036272 0.33125019
0.18619537 -0.010950804 0.33769226
0.20162937 -0.37848681 -0.064078808
0.19268137 -0.22601575 0.16884804
0.18420036 0.3503812 0.24654484
0.19606836 -0.37948877 -0.069559097
0.17521437 -0.050854802 0.34175014
0.18336537 0.45391122 0.11944628
0.18192837 -0.22771674 0.15862608
0.17513236 -0.09043777 0.34397507
0.17014237 0.13554221 0.33218098
0.17015837 0.28396624 0.3317399
0.16747637 0.33628219 0.40668297
0.17447537 0.38754621 0.21114492
0.17921937 0.49216622 0.078597069
0.18090437 -0.30826885 0.03152895
0.17653836 -0.22857076 0.15350199
0.16968837 -0.09026581 0.34487295
0.16484737 0.2151252 0.3286171
0.16432537 -0.050526798 0.34354496
0.16440436 -0.010320783 0.34128618
0.16447137 0.023626208 0.33937788
0.16759637 0.35071123 0.24987602
0.17062637 0.4242402 0.16311216
0.17932837 -0.38251275 -0.086061001
0.15952437 0.28342223 0.32568789
0.16766137 0.4926742 0.086695194
0.16573636 -0.23028678 0.1432209
0.16208237 -0.16024882 0.25053406
0.15880936 -0.089926779 0.34666586
0.15373537 0.10444719 0.33665228
0.15365037 0.059138238 0.33919716
0.15635937 0.35138619 0.25754309
0.16041037 0.45502022 0.13541603
0.16189237 0.49292722 0.09073925
0.16812436 -0.38454276 -0.097114086
0.16438837 -0.31108481 0.01551199
0.15337336 -0.0897578 0.34756231
0.14828937 0.10458124 0.33755207
0.14841236 0.17260224 0.33373117
0.14641036 0.33537722 0.39572287
0.15213637 0.38817221 0.21845198
0.15489937 -0.23201281 0.13290215
0.14290237 0.13619024 0.33668184
0.14257337 -0.049881816 0.34713221
0.14514937 0.35205823 0.26519299
0.15688337 -0.38658482 -0.1082139
0.14946936 -0.23287874 0.12772703
0.14256337 -0.089715779 0.3474803
0.13752237 0.17284518 0.33553028
0.13771337 0.28383523 0.32929802
0.13955536 0.35239321 0.26901007
0.14086337 0.3888002 0.2261982
0.14779237 -0.31392473 -0.00060176849
0.13219836 0.24355823 0.33246708
0.13226537 0.28393722 0.3302002
0.13396837 0.35272723 0.27282286
0.13757537 0.45611721 0.15130424
0.14560837 -0.38863975 -0.11935806
0.14224337 -0.31487781 -0.0059938431
0.12670937 0.2159282 0.33492517
0.12675437 0.24366719 0.3333683
0.12681937 0.2840392 0.33110094
0.12640037 0.024659216 0.34566212
0.12645736 0.059843242 0.3436861
0.13316336 0.49418423 0.11087704
0.12676737 -0.091915786 0.3329339
0.12114337 0.13669723 0.34027815
0.12120037 0.17320621 0.33822823
0.12085137 -0.049247801 0.35071421
0.12091437 -0.0090968013 0.3484621
0.12102337 0.05998224 0.34458303
0.11913437 0.36445719 0.41221189
0.11559236 0.060120225 0.34547997
0.11022937 0.10550421 0.34383917
0.11027537 0.13694721 0.34207296
0.11039236 0.21626419 0.33762312
0.11006136 -0.0087977648 0.35025215
0.11049236 0.2843402 0.33380318
0.11722736 0.53442824 0.076602936
0.11601436 0.4949322 0.12290287
0.12701337 -0.49362284 -0.29712772
0.11670737 -0.23813075 0.096475124
0.10484436 0.13707221 0.34297228
0.10489637 0.17356223 0.34092426
0.09937036 0.10576224 0.34563112
0.099159375 -0.048626781 0.35429287
0.099560365 0.24420124 0.33786821
0.099260375 0.025376201 0.35014105
0.099308372 0.060531199 0.34816885
0.097881362 0.36403221 0.40658903
0.10163037 0.39097622 0.25317192
0.10268237 0.42773321 0.21013212
0.10876037 -0.32065076 -0.038570881
0.10304737 -0.16910475 0.19517231
0.10027836 -0.095623791 0.30851126
0.093944371 0.10589123 0.34652901
0.094091371 0.21659523 0.34032011
0.093793362 -0.0083547831 0.35293627
0.093838364 0.025517225 0.35103607
0.092629373 0.36368823 0.40236521
0.09605436 0.39128423 0.25700617
0.097067371 0.42802021 0.21402216
0.097894371 0.45801422 0.17893124
0.098932371 0.49567321 0.1348753
0.10953137 -0.49709183 -0.31485176
0.10020937 -0.24079174 0.080711842
0.097631365 -0.16992384 0.19008398
0.094956368 -0.09637177 0.30360031
0.088520363 0.10601819 0.34742498
0.088607371 0.17391324 0.34361792
0.088324368 -0.04832077 0.35608006
0.088748366 0.28473622 0.3374033
0.091460362 0.42830622 0.217906
0.092255369 0.45828322 0.1828599
0.093253374 0.49591923 0.13886023
0.10368437 -0.49825579 -0.32078505
0.097528368 -0.3225978 -0.049513817
0.094693363 -0.24168378 0.075438023
0.08962737 -0.097121775 0.29867792
0.083098367 0.1061452 0.34832096
0.083233371 0.21681422 0.34211588
0.088585362 0.53554225 0.096838951
0.085859373 0.42859122 0.22178602
0.077714369 0.13768321 0.34745502
0.077757373 0.17414421 0.34541225
0.077807367 0.21692222 0.34301424
0.077496365 -0.048016787 0.35786629
0.077543363 -0.0079187751 0.355618
0.076831371 0.3626492 0.38963509
0.080998361 0.45881721 0.19070292
0.08191736 0.49640921 0.14681387
0.088674366 -0.39909583 -0.17575407
0.081332371 -0.17239577 0.174757
0.072458372 0.28502822 0.34009886
0.072167367 0.026076198 0.35461521
0.077180371 0.53598422 0.10489798
0.073819369 0.39250821 0.27230406
0.074678361 0.42916021 0.22953415
0.075378373 0.45908421 0.19461918
0.07809037 -0.24437577 0.0595541
0.075880364 -0.17322379 0.1696291
0.06687437 0.13792419 0.34924889
0.066913366 0.17437321 0.34720516
0.066717371 -0.0076307654 0.35740519
0.067032367 0.28512424 0.34099817
0.072157368 0.56605721 0.074113846
0.066262364 0.36195219 0.38111687
0.069098368 0.42944321 0.23339987
0.077174366 -0.40122479 -0.18717098
0.074953362 -0.32652575 -0.071534157
0.070421368 -0.1740548 0.16449118
0.068225369 -0.10014379 0.27890396
0.061425369 0.10664624 0.35190296
0.061538372 0.21724319 0.34570503
0.061308373 -0.0074887872 0.35829926
0.06156737 0.24492723 0.34415531
0.06134237 0.026351213 0.35640097
0.061378371 0.061466217 0.35443401
0.065805376 0.53642422 0.11293697
0.062744364 0.39311621 0.2799263
0.066978365 -0.24618274 0.048913002
0.062854365 -0.10090381 0.27394009
0.05605137 -0.049059808 0.35049725
0.056146372 0.24502921 0.34505129
0.055933375 0.026487231 0.35729504
0.060734373 0.56646025 0.082231998
0.05623037 0.3306722 0.34025192
0.050701369 0.21745521 0.34749889
0.05080637 0.33075923 0.34115124
0.049488369 0.40405121 0.42063904
0.052401375 0.43028921 0.24497414
0.04534537 0.28550422 0.34458923
0.045148369 0.061857224 0.35711718
0.048795369 0.53708023 0.12496185
0.049339373 0.5668602 0.090332031
0.048079368 0.49786723 0.17056322
0.056550372 -0.50768977 -0.36869383
0.039779369 0.10713822 0.35548115
0.03980637 0.13851523 0.3537221
0.039894368 0.24533123 0.34774113
0.039928373 0.28559822 0.34548712
0.039742369 0.061985195 0.35800886
0.039965373 0.33093321 0.34294605
0.042996373 -0.17824477 0.13865328
0.04128537 -0.10396981 0.25397921
0.034397375 0.13863122 0.35461807
0.034481373 0.24543118 0.3486371
0.037975375 0.56725919 0.098411083
0.034548368 0.33101922 0.34384394
0.033420373 0.40437722 0.42460012
0.03685737 0.49834821 0.178442
0.039040368 -0.25074774 0.022127151
0.029376369 -0.05265379 0.32612085
0.028909374 0.027160227 0.36175919
0.028935369 0.062241197 0.35979509
0.031852368 0.53773117 0.13694525
0.03068937 0.4611932 0.2257719
0.038709369 -0.5112868 -0.386868
0.023609374 0.17526519 0.35436726
0.023508374 0.027292192 0.36265087
0.023532372 0.062368214 0.36068821
0.027041372 0.56606323 0.073535919
0.023702372 0.35912722 0.34678602
0.022854369 0.40373522 0.41618729
0.024711374 0.43168521 0.26417303
0.02780037 -0.25259274 0.01133728
0.025020372 -0.10629177 0.23891115
0.018161375 0.10761923 0.35905409
0.018646371 -0.054105759 0.31630707
0.018133368 0.062495232 0.3615799
0.020673368 0.53777623 0.13765287
0.019194368 0.43196222 0.26800013
0.02676237 -0.51370281 -0.39904976
0.02361637 -0.33553582 -0.12172794
0.012261372 0.40308821 0.40772915
0.014045369 0.4619742 0.23738003
0.017865371 -0.33655077 -0.12736082
0.016526375 -0.25444776 0.00050830841
0.015352372 -0.18249577 0.11256504
0.0073803701 0.1392042 0.35908508
0.0074373707 0.24592119 0.35311508
0.0074833706 0.3314442 0.34832811
0.0074983723 0.35914123 0.34677887
0.0081813708 0.4325152 0.27564001
0.0085113719 0.46223322 0.24124002
0.008926373 0.49954021 0.19805717
0.0019823723 0.13931721 0.3599782
0.0020203702 0.21838123 0.35555506
0.0024923719 -0.056298792 0.30151892
0.0020543709 0.28624123 0.351758
0.0019273721 0.027815223 0.36621618
0.0019443706 0.062870204 0.36425495
0.0026853718 0.43279022 0.27945328
0.0039663725 0.49563122 0.13264322
-0.0033806302 0.2184822 0.35645008
-0.0033516288 0.28633124 0.35265303
-0.0033316277 0.33161122 0.35012007
-0.00280663 0.43306521 0.28326321
-0.0087966286 0.17591023 0.35972929
-0.0083206296 -0.057771802 0.29161406
-0.0070256293 0.49404722 0.10607195
-0.0061366297 -0.25819176 -0.021285057
-0.0020086281 -0.63686877 -0.61249781
-0.013739627 -0.05851078 0.28664684
-0.010312628 -0.41759783 -0.27430916
-0.011825629 -0.25913376 -0.026759148
-0.019595627 0.13976222 0.36354685
-0.019598629 -0.0065197945 0.36409903
-0.019617628 0.063361228 0.36782026
-0.019539628 0.33185822 0.35280609
-0.019672628 0.40082622 0.37833023
-0.018520627 0.45675123 0.15816212
-0.01537763 -0.52227479 -0.44209671
-0.016846627 -0.34270877 -0.16140413
-0.017523628 -0.2600798 -0.032246113
-0.024987629 0.13987219 0.36443901
-0.024964629 -0.0072127581 0.35924292
-0.025005629 0.063482225 0.36871004
-0.023982629 0.45516521 0.13416004
-0.022148628 -0.41983682 -0.28613615
-0.022667628 -0.34374684 -0.16712093
-0.02323263 -0.26102775 -0.037742138
-0.030381629 0.10866523 0.36708021
-0.030048629 -0.060741782 0.27168989
-0.030354628 0.24658722 0.35937119
-0.030338628 0.33202022 0.35459614
-0.030332629 0.35968822 0.35304928
-0.029720629 0.42555022 0.17764902
-0.029457629 0.45306122 0.10232925
-0.028080629 -0.4209618 -0.29206705
-0.028496629 -0.34478682 -0.17284679
-0.03576263 0.14009023 0.36622095
-0.035757631 0.17643321 0.3641901
-0.035746627 0.2466802 0.3602643
-0.035773627 0.063722193 0.37049007
-0.03573063 0.35976523 0.3539443
-0.035328627 0.38703421 0.20051289
-0.03524863 0.42499322 0.16980791
-0.040963627 -0.062239766 0.26167393
-0.041137628 0.24677223 0.36115694
-0.041155629 0.063841224 0.3713789
-0.041126627 0.35984123 0.35483789
-0.04018563 -0.34687573 -0.18433475
-0.04081763 -0.11578077 0.1777792
-0.039369628 -0.64515275 -0.65173483
-0.046536628 0.028951228 0.37422419
-0.04653563 0.063960195 0.37226915
-0.051915627 0.17673922 0.36686516
-0.051915627 -0.010704815 0.3348341
-0.051915627 0.24695623 0.36294222
-0.051915627 -0.52976781 -0.47951794
-0.051915627 -0.34897774 -0.19587183
-0.051915627 -0.19295281 0.048910141
-0.057295628 0.14051819 0.36978388
-0.057297628 0.1768412 0.36775589
-0.057291627 0.064195216 0.37404728
-0.05747363 0.38437021 0.1661582
-0.062678628 0.17694122 0.36864614
-0.06266363 0.029318213 0.37689114
-0.062667631 0.064311206 0.3749361
-0.062926628 0.34905022 0.22626209
-0.063305631 0.41355422 0.0092611313
-0.064180627 -0.53229576 -0.49209785
-0.06325563 -0.19473177 0.038155079
-0.068052627 0.14072919 0.37156391
-0.068063632 0.21964419 0.36715698
-0.068187624 -0.012823761 0.32008028
-0.068035632 0.029439211 0.37777805
-0.069087625 0.4111962 -0.023820877
-0.06936463 0.43772221 -0.12959003
-0.070329629 -0.53356582 -0.4984107
-0.069899626 -0.42892677 -0.33393812
-0.068939626 -0.19562477 0.032762051
-0.068627626 -0.1198318 0.15188885
-0.070817627 -0.65217382 -0.68484116
-0.073880628 0.32217324 0.24323606
-0.074483633 0.3769592 0.070688248
-0.074929625 0.40881321 -0.057245731
-0.075916633 -0.4300788 -0.33997202
-0.074217632 -0.1206488 0.14667988
-0.078796625 0.10966223 0.37508917
-0.078804627 0.14093822 0.37334299
-0.078812629 0.17723924 0.37131691
-0.07944563 -0.067549765 0.22631407
-0.078785628 0.064657211 0.37760115
-0.080830626 0.40640822 -0.090979099
-0.082663625 -0.53611678 -0.51107597
-0.081943631 -0.43123382 -0.34601593
-0.081414625 -0.3542878 -0.22492313
-0.080840632 -0.2706638 -0.093325138
-0.080337629 -0.19741875 0.021940231
-0.079815626 -0.12146884 0.1414609
-0.087362632 0.43079922 -0.23418999
-0.088845626 -0.5373978 -0.51742887
-0.087344632 -0.35535878 -0.23076916
-0.086654633 -0.27164274 -0.098946095
-0.089827627 -0.65643877 -0.70488501
-0.089537628 0.10987723 0.37686491
-0.089575633 0.22001421 0.37071896
-0.091234624 0.33837122 0.099132061
-0.094027624 -0.43355483 -0.35814571
-0.093285628 -0.35643274 -0.2366271
-0.092478633 -0.27262479 -0.10457802
-0.096971631 -0.73937684 -0.84002495
-0.094949633 0.22010618 0.37161016
-0.095481634 -0.016395807 0.29530287
-0.094888628 0.064997196 0.38026285
-0.097076625 0.33566821 0.066964149
-0.097970627 0.36672324 -0.061120987
-0.097504631 -0.20012873 0.0056300163
-0.10255863 -0.6593048 -0.71832371
-0.10028863 0.14134723 0.37689829
-0.10030463 0.17762923 0.37487411
-0.10042263 0.026939213 0.35981989
-0.10519963 -0.35859174 -0.248384
-0.10565563 0.1414482 0.37778616
-0.10646263 -0.017838776 0.28532505
-0.10691963 0.27485824 0.23292398
-0.10585463 0.026260197 0.35493708
-0.10561863 0.065220237 0.38203812
-0.10815562 0.30872321 0.091342926
-0.10893863 0.3301782 0.0016460419
-0.11007863 0.36144423 -0.12905598
-0.11001363 -0.27558881 -0.12154293
-0.11533862 -0.66218776 -0.73182201
-0.11106363 0.22037619 0.37427807
-0.11277863 -0.072186768 0.19562387
-0.11196563 -0.018563807 0.28032303
-0.11098063 0.065331221 0.38292503
-0.11622563 0.35876721 -0.16350889
-0.11640663 0.17791522 0.37753916
-0.11836563 -0.072966814 0.19047594
-0.11728063 0.2398712 0.29403925
-0.11674564 0.024895191 0.34514713
-0.12104063 0.3245762 -0.064991951
-0.12618063 -0.54516882 -0.55584383
-0.12175162 -0.27757984 -0.13291311
-0.11926463 -0.12727183 0.10464907
-0.12177263 0.17801023 0.37842798
-0.12448263 0.26589221 0.13949108
-0.12170163 0.065551221 0.38469887
-0.12613763 0.30006719 -0.0063729286
-0.13244464 -0.54647774 -0.56229877
-0.12915163 -0.36294776 -0.2720418
-0.12763862 -0.27857882 -0.13861513
-0.12713563 0.17810422 0.37931585
-0.12852862 -0.020749807 0.26525927
-0.13045363 0.2628442 0.10773087
-0.12767263 0.023523211 0.33531904
-0.13353363 -0.27958184 -0.14432907
-0.13210362 -0.20562178 -0.027289867
-0.13062063 -0.12895173 0.094036102
-0.14263363 -0.75024384 -0.88914776
-0.13247062 0.14194524 0.38222504
-0.13518363 -0.075321794 0.17496824
-0.13482364 0.2304762 0.2024312
-0.13648362 0.25976521 0.075655937
-0.13241462 0.065768242 0.38647223
-0.13966763 0.31595123 -0.16754007
-0.14500463 -0.5491088 -0.57524776
-0.14280462 -0.4429788 -0.40719175
-0.13943863 -0.28058678 -0.15005398
-0.13790363 -0.20654577 -0.032815933
-0.13776962 0.065875232 0.38735723
-0.14467363 0.29114223 -0.10707903
-0.14371362 -0.20747381 -0.038352013
-0.14201362 -0.1306408 0.083383083
-0.15579163 -0.7533918 -0.90332985
-0.14385962 0.1734392 0.33853531
-0.14644063 -0.076902807 0.1645813
-0.14412762 0.021450222 0.320508
-0.15097962 0.28810519 -0.14133883
-0.15127963 -0.28260678 -0.16154003
-0.14772463 -0.13148874 0.078041077
-0.16044863 -0.67241985 -0.77956295
-0.14854263 0.14223522 0.38488626
-0.15735362 0.28503519 -0.17596292
-0.15721662 -0.28362077 -0.16730213
-0.15540762 0.16842622 0.29465294
-0.15917763 -0.13319284 0.067323208
-0.15921862 0.11121422 0.38839722
-0.15970764 0.13928121 0.36038685
-0.16138263 0.16497624 0.26442814
-0.16523662 0.21418321 0.043645859
-0.16756363 0.2438882 -0.089637756
-0.16066363 0.019360185 0.30561399
-0.17203163 0.30096424 -0.34564114
-0.16912062 -0.28565878 -0.17885971
-0.16705664 -0.21121079 -0.060611725
-0.18226463 -0.75974876 -0.93189669
-0.17996763 -0.67687482 -0.80026102
-0.16907063 -0.080092788 0.14368105
-0.16749263 -0.025923789 0.22977304
-0.16487762 0.063847184 0.37244797
-0.17985164 -0.4501968 -0.44453907
-0.19220464 -0.87428278 -1.118576
-0.17066664 -0.13490683 0.056563854
-0.16991863 0.1114102 0.39016819
-0.17138663 0.13367319 0.31374121
-0.17351063 0.15797323 0.20308685
-0.17475262 -0.080895782 0.13843012
-0.18044764 0.23730421 -0.15815306
-0.17035262 0.063189209 0.36757088
-0.18367063 -0.37294084 -0.32601595
-0.19903363 -0.87604183 -1.126132
-0.19558063 -0.76295775 -0.94628572
-0.19304264 -0.6798678 -0.8141408
-0.17966363 0.1544202 0.17196894
-0.18239763 0.18410718 0.035774231
-0.17728163 0.017251194 0.29063416
-0.19229263 0.29157519 -0.45714712
-0.18705663 -0.28873879 -0.19629002
-0.18219763 -0.13663083 0.045759201
-0.18154263 0.10605723 0.34750223
-0.18351464 0.1264202 0.25337887
-0.18587764 0.15083122 0.14054489
-0.18875962 0.18059123 0.0029830933
-0.18614264 -0.082509816 0.12789917
-0.18132663 0.061867237 0.35778809
-0.19919263 0.28837723 -0.49511909
-0.21272863 -0.87957674 -1.1412969
-0.20616764 -0.68287879 -0.82808399
-0.18966663 0.12274021 0.22275829
-0.19518563 0.17703921 -0.030137062
-0.18996063 -0.02892679 0.20927906
-0.18682763 0.061203241 0.35288286
-0.20477663 -0.45508176 -0.46970987
-0.20203863 -0.37633175 -0.34423685
-0.21564963 -0.76780874 -0.96799183
-0.21274863 -0.68439084 -0.83508015
-0.19757164 -0.084131777 0.11732388
-0.19233763 0.060538232 0.34796906
-0.20818363 -0.37746984 -0.35033798
-0.20237464 -0.21689874 -0.094342709
-0.20330164 -0.084946811 0.11202192
-0.21047764 0.18992919 -0.19249582
-0.19785763 0.059870243 0.34304619
-0.22135763 -0.56523174 -0.65417385
-0.20537563 -0.14010876 0.024023056
-0.20691164 -0.03120178 0.19380426
-0.22779863 -0.56660181 -0.66084814
-0.22359264 -0.45878476 -0.48873711
-0.23583964 -0.77270573 -0.98985815
-0.21239263 0.08707124 0.19605827
-0.21478863 -0.086583793 0.10138416
-0.21258064 -0.031964779 0.18862486
-0.21076363 0.012981236 0.26041508
-0.20892264 0.058522224 0.33310795
-0.22321463 -0.29497975 -0.23148012
-0.22135863 0.10377723 0.065061092
-0.23089263 0.17898023 -0.29902887
-0.21511963 0.054561198 0.30329323
-0.23932563 0.24553019 -0.6211009
-0.22612764 -0.22074682 -0.117064
-0.22286263 -0.14274377 0.0076050758
-0.23116364 0.12466323 -0.088433743
-0.23516063 0.15493321 -0.23615599
-0.22394763 -0.033496797 0.17823696
-0.22199863 0.011541188 0.25026512
-0.23908164 -0.38320678 -0.381042
-0.25251263 -0.69356781 -0.87740707
-0.23448563 0.095920205 -0.00024795532
-0.23789963 0.1207692 -0.12248611
-0.24206963 0.1511122 -0.27175093
-0.22964564 -0.034265816 0.17302895
-0.24529463 -0.38436478 -0.38722181
-0.23457363 -0.14451379 -0.0033979416
-0.23818563 0.071190238 0.069466114
-0.24114864 0.091931224 -0.03339386
-0.25196663 0.16767722 -0.4089489
-0.24044363 -0.14540178 -0.0089149475
-0.26975963 -0.78097278 -1.0266538
-0.26587063 -0.69666475 -0.89164877
-0.24052164 0.038315237 0.18103504
-0.26670662 -0.57491475 -0.70121908
-0.25775462 -0.3866908 -0.39962387
-0.25364563 -0.30026573 -0.26114893
-0.25004864 -0.22463983 -0.13997507
-0.24632363 -0.14629275 -0.014442921
-0.26323661 0.13940424 -0.38077974
-0.24679564 -0.036586761 0.157341
-0.27116764 0.1909132 -0.64036179
-0.24458063 0.0086371899 0.229846
-0.27323464 -0.57631582 -0.70800304
-0.26790664 -0.46755677 -0.53362608
-0.26400262 -0.38785881 -0.40584612
-0.25605562 -0.22562081 -0.14573288
-0.28342363 -0.78431576 -1.0414968
-0.25821963 0.058850229 -0.028844833
-0.27869463 0.18706119 -0.68035984
-0.25025162 0.0079051852 0.22471619
-0.27977663 -0.57772082 -0.71480083
-0.27026361 -0.38903075 -0.41208315
-0.28600964 -0.70134777 -0.91314173
-0.27265263 0.1006732 -0.29814816
-0.25665963 0.004055202 0.19698429
-0.26810262 -0.22759074 -0.15728474
-0.26697361 -0.094066799 0.052989006
-0.28864563 0.14799124 -0.60028601
-0.29399961 0.17922819 -0.76169109
-0.27414164 -0.22857982 -0.16307974
-0.26994863 -0.14988381 -0.036668777
-0.30402464 -0.78937179 -1.0638981
-0.28707361 0.092331231 -0.37103081
-0.29622564 0.14392221 -0.63982391
-0.27371761 0.017069221 0.021266937
-0.29947561 -0.58196181 -0.735291
-0.29349363 -0.47265476 -0.55959511
-0.28911161 -0.39256781 -0.43087101
-0.28976363 0.062817216 -0.27519798
-0.29440263 0.088093221 -0.40805578
-0.27868262 -0.095755816 0.042114258
-0.28056061 0.01268822 -0.011662006
-0.29992262 -0.47393984 -0.56612682
-0.28182462 -0.15169483 -0.047852993
-0.29300463 0.03741622 -0.19950294
-0.31164464 0.13564318 -0.72024298
-0.30636165 -0.47522682 -0.57267094
-0.29232562 -0.23156482 -0.18053579
-0.31984362 -0.70925075 -0.94930696
-0.28716063 -0.042079806 0.12036896
-0.31929263 -0.58624178 -0.75592804
-0.29840863 -0.23256582 -0.18637896
-0.31171462 0.049664199 -0.38435507
-0.31686464 0.075098217 -0.52153111
-0.32592362 -0.58767778 -0.76283789
-0.31927764 -0.47781473 -0.58580303
-0.30912462 -0.30998284 -0.31536293
-0.30450264 -0.2335698 -0.19223404
-0.29971462 -0.15443081 -0.064713955
-0.33864164 -0.79790479 -1.1016011
-0.33347163 -0.71244782 -0.96389294
-0.31476063 0.024004221 -0.30622101
-0.33256865 -0.58911783 -0.76976395
-0.31534564 -0.31107873 -0.32145309
-0.31060764 -0.23457676 -0.198102
-0.30569965 -0.15534884 -0.0703578
-0.34560764 -0.79962879 -1.1091981
-0.33225664 0.066190243 -0.59929085
-0.32157964 -0.31217784 -0.32755613
-0.31672463 -0.23558682 -0.20398378
-0.35259062 -0.80135781 -1.116816
-0.34007964 0.061662197 -0.63881302
-0.31823564 -0.036478758 -0.094928741
-0.32311463 -0.014563799 -0.2164011
-0.33350864 -0.4009468 -0.4751997
-0.31770363 -0.15719181 -0.081679821
-0.35402063 -0.71728081 -0.98590899
-0.34210864 0.031450212 -0.53543615
-0.35519862 0.088490188 -0.85440969
-0.32543063 -0.041217804 -0.12903309
-0.35258162 -0.59346575 -0.79064178
-0.34526062 -0.48303884 -0.6122489
-0.33407962 -0.31438583 -0.33979893
-0.32899064 -0.23761576 -0.21578312
-0.36089763 -0.71890181 -0.99328375
-0.34991664 0.026769221 -0.57424879
-0.33789864 -0.024036765 -0.28752089
-0.34034762 -0.31549484 -0.34594202
-0.32974863 -0.15904576 -0.093050003
-0.37361863 -0.80657679 -1.1397738
-0.36778864 -0.72052783 -1.0006738
-0.38065964 -0.80832773 -1.1474681
-0.38020262 0.074637234 -0.9831481
-0.34232864 -0.076223791 -0.11568308
-0.35300264 -0.033714771 -0.36016703
-0.36488163 -0.48699874 -0.63224316
-0.35914463 -0.40581483 -0.50084591
-0.38054362 0.038234234 -0.84320307
-0.34381562 -0.10522479 -0.018492699
-0.35497364 -0.06068176 -0.26904774
-0.39478263 -0.81184679 -1.162909
-0.38891664 0.033385217 -0.8854847
-0.35709262 -0.086201787 -0.18467188
-0.37021762 -0.070727766 -0.34128189
-0.39864063 -0.0024487972 -0.81641483
-0.36556363 -0.11983579 -0.11503077
-0.39122263 -0.49233681 -0.65911913
-0.38497862 -0.41074282 -0.52672291
-0.37982762 -0.10157079 -0.29089308
-0.39146864 -0.41198379 -0.53322792
-0.38455564 -0.3233518 -0.3893218
-0.39370662 -0.086210787 -0.45256996
-0.40447062 -0.49502975 -0.67265081
-0.39796963 -0.41322881 -0.53974771
-0.39091864 -0.32448775 -0.39557314
-0.41764563 -0.039459765 -0.81064892
-0.40448463 -0.41447777 -0.54628372
-0.39729363 -0.32562774 -0.40183878
-0.38449863 -0.16752476 -0.14480877
-0.42619762 -0.044737816 -0.85256577
-0.44125363 0.0030642152 -1.1497808
-0.41679063 -0.074604809 -0.66687202
-0.42700362 -0.60976082 -0.86848116
-0.39063862 -0.16848081 -0.15062094
-0.43484563 -0.050076783 -0.89495373
-0.42516762 -0.079976797 -0.70714188
-0.41008264 -0.3279168 -0.41441298
-0.40355062 -0.25004476 -0.28765488
-0.39678863 -0.16943973 -0.15644598
-0.44454664 -0.73876375 -1.0832009
-0.44071364 -0.61278373 -0.88285494
-0.43112564 -0.50046676 -0.69990396
-0.40416265 -0.17402476 -0.18542099
-0.45244563 -0.060942769 -0.98120975
-0.42753863 -0.13383681 -0.51374578
-0.43782264 -0.50183684 -0.70675611
-0.45869264 -0.74214774 -1.0984449
-0.46140164 -0.066472769 -1.025095
-0.42753562 -0.16295081 -0.3997817
-0.43579662 -0.13942283 -0.55231094
-0.44305262 -0.11874676 -0.68629169
-0.45964164 -0.10208976 -0.87285185
-0.45259064 -0.15078574 -0.63073778
-0.44226763 -0.33370084 -0.44609499
-0.48891264 -0.083462775 -1.159903
-0.49721864 -0.061609805 -1.3061891
-0.45217663 -0.18010277 -0.51297092
-0.46057063 -0.18594676 -0.55152512
-0.45522863 -0.33603877 -0.45886707
-0.45190662 -0.20814079 -0.40125895
-0.46905762 -0.19185573 -0.59050369
-0.48678765 -0.1475988 -0.89338875
-0.47764164 -0.19783276 -0.62992716
-0.49612662 -0.6250698 -0.94105291
-0.46824163 -0.33839077 -0.47169685
-0.46058363 -0.25966281 -0.34280491
-0.52716762 -0.10709476 -1.347331
-0.48631963 -0.20387584 -0.66977882
-0.50499862 -0.15961677 -0.97961283
-0.50311762 -0.62662774 -0.9484067
-0.49188963 -0.51294976 -0.76216888
-0.47476664 -0.33957273 -0.47813606
-0.46698162 -0.26074773 -0.34900093
-0.52395362 -0.14336175 -1.1819029
-0.49870962 -0.51435882 -0.76916981
-0.47339064 -0.26183575 -0.35520887
-0.48549163 -0.23215073 -0.55305576
-0.52363861 -0.17191881 -1.0678549
-0.48785463 -0.34194678 -0.49105215
-0.51294762 -0.22241884 -0.7920289
-0.53312761 -0.17818183 -1.1127729
-0.54333562 -0.15580481 -1.2750249
-0.51239359 -0.5171898 -0.78322315
-0.49441963 -0.34313875 -0.49753475
-0.5220266 -0.22874278 -0.83371115
-0.54272664 -0.18451875 -1.1582141
-0.51166964 -0.25087184 -0.67135191
-0.55244261 -0.19093376 -1.2042017
-0.56319165 -0.16855377 -1.3704157
-0.50758564 -0.34553474 -0.51054192
-0.54050064 -0.24161273 -0.91852093
-0.56227565 -0.19742578 -1.2507429
-0.54537761 -0.63607877 -0.99291897
-0.52961463 -0.26370782 -0.75243473
-0.56176662 -0.22468978 -1.140336
-0.57222861 -0.20399779 -1.297852
-0.5399276 -0.52290374 -0.81152773
-0.52429563 -0.29879683 -0.57617188
-0.5468486 -0.52434379 -0.81864786
-0.58150566 -0.23805875 -1.2324419
-0.55378264 -0.52578777 -0.82578516
-0.5443266 -0.44161075 -0.68707991
-0.53407663 -0.35036975 -0.53673601
-0.59155363 -0.24486583 -1.279325
-0.55113363 -0.44294673 -0.69395685
-0.56675565 -0.29027575 -0.92019796
-0.55795461 -0.44428784 -0.70085192
-0.57467163 -0.5301488 -0.8472991
-0.55539161 -0.35724276 -0.5749917
-0.56968564 -0.33238584 -0.77687073
-0.58598161 -0.30403382 -1.0070357
-0.60868466 -0.28912979 -1.2314649
-0.59536862 -0.64733583 -1.0456939
-0.60566264 -0.31811982 -1.0959201
-0.59569162 -0.53455085 -0.86896992
-0.59817666 -0.35347277 -0.90280581
-0.61773062 -0.36794978 -0.98923111
-0.62695664 -0.45792574 -0.77071714
-0.66076362 -0.66218477 -1.114924
-0.66867763 -0.40567774 -1.2143669
-0.65240663 -0.54649478 -0.92754793
-0.67105961 -0.44541973 -1.0762849
-0.68144661 -0.45334178 -1.1212811
-0.68113166 -0.55258173 -0.95727301
-0.69203562 -0.50204879 -1.0081639
-0.71010661 -0.5587458 -0.9872961
-0.72555465 -0.56371278 -1.0121269
