# .PCD v0.7 - Point Cloud Data file format
VERSION 0.7
FIELDS x y z
SIZE 4 4 4
TYPE F F F
COUNT 1 1 1
WIDTH 1
HEIGHT 1024
VIEWPOINT 0 0 0 1 0 0 0
POINTS 1024
DATA ascii
1.0878692 -0.062871575 -0.42110777
1.0575922 -0.034777582 -0.52628183
1.0510992 -0.034613609 -0.52590704
1.0245571 -0.055419564 -0.37526369
1.0446081 -0.034452617 -0.52554178
1.0076661 -0.096845627 -0.39075089
1.0026231 -0.011010587 -0.35218573
0.99650115 -0.098255634 -0.40211201
0.99718016 -0.059318602 -0.40737104
0.99090719 -0.098962545 -0.40780497
0.99203819 -0.060494602 -0.41662884
0.98686916 -0.013900578 -0.37627888
0.98249215 -0.18963158 -0.39139462
0.9765932 -0.016139567 -0.39466095
0.97585416 -0.1890986 -0.38880587
0.96496618 0.04210639 -0.35228968
0.96052617 0.082833409 -0.31689692
0.95734417 0.12782139 -0.29152584
0.97407818 -0.10109556 -0.42492962
0.95069915 0.12830043 -0.28811264
0.96845317 -0.10181057 -0.43065166
0.97767317 0.1868844 -0.50466681
0.94523215 0.1276924 -0.29417086
0.97093815 0.18723643 -0.50203562
0.95153117 -0.10396361 -0.44786787
0.95312816 -0.065896571 -0.46097183
0.95069516 -0.021797597 -0.44101
0.92964315 0.076806426 -0.371418
0.91466117 0.21386838 -0.24670076
0.94518316 0.23529643 -0.50077486
0.93651915 -0.19453263 -0.42865896
0.91380417 0.050440431 -0.29128075
0.91249716 0.087876379 -0.28032684
0.93268418 -0.1511606 -0.44961786
0.90808517 0.21429139 -0.24332571
0.90718919 0.050961435 -0.28786278
0.90589416 0.088374436 -0.27691984
0.90264815 0.18214041 -0.24949694
0.92885715 -0.10685956 -0.47093201
0.89929819 0.088871419 -0.27351665
0.90695918 -0.13419354 -0.33872795
0.92566615 0.2357834 -0.49797297
0.90388817 -0.044772565 -0.31258583
0.89398319 0.05199939 -0.28103781
0.90030515 -0.13356161 -0.33525896
0.88739115 0.052516401 -0.27763176
0.89063919 -0.043619573 -0.30570984
0.88921517 -0.0014646053 -0.29339695
0.89958018 -0.30818164 -0.38297892
0.89527917 -0.18090856 -0.34580564
0.8840282 -0.043044567 -0.302279
0.88261616 -0.00091660023 -0.28997898
0.86988318 0.1843304 -0.23266792
0.90025818 0.2359404 -0.49925995
0.87602419 -0.00036859512 -0.28656387
0.90413314 0.28642941 -0.53326988
0.88846719 -0.37463665 -0.39577484
0.86335415 0.18476439 -0.2293129
0.8795352 -0.30597258 -0.37244463
0.85847718 0.13489741 -0.24063301
0.87086314 -0.24388957 -0.35105896
0.86871815 -0.17828262 -0.33193207
0.85194618 0.13536042 -0.23727083
0.85765719 -0.04076159 -0.28859186
0.86209518 -0.17762959 -0.32847166
0.8468082 0.092802405 -0.24644566
0.84364218 0.21764141 -0.21776676
0.85815716 0.25066942 -0.34924603
0.84028119 0.093288422 -0.24308062
0.8445192 -0.039627612 -0.28177404
0.87293917 0.28603244 -0.54127264
0.83493716 0.056607425 -0.25053406
0.84434915 -0.24112856 -0.33716869
0.83419418 -0.12732255 -0.30080795
0.82508516 0.2179994 -0.21626997
0.81941217 0.13765544 -0.22053099
0.81785417 0.18777639 -0.20594978
0.83513719 -0.36847556 -0.36767101
0.81138414 0.18820238 -0.20262909
0.82106519 -0.12609363 -0.29396772
0.81272417 0.21823639 -0.21526575
0.81833315 -0.037378609 -0.26818895
0.80645216 0.13856542 -0.21386385
0.79998314 0.13901842 -0.210536
0.80037016 0.21847141 -0.21425676
0.79998517 -0.076150537 -0.26977873
0.83130717 0.28364241 -0.57287979
0.80866015 -0.36544156 -0.35372591
0.80481017 -0.23703957 -0.31646681
0.80146515 0.25170243 -0.34443665
0.79102618 0.0066224337 -0.24255276
0.7829662 0.060617387 -0.22369671
0.78977418 -0.1705606 -0.29071808
0.77159119 0.0082033873 -0.23249578
0.78036219 -0.2951746 -0.32036591
0.77672315 -0.16929662 -0.28390884
0.76359916 0.062099397 -0.21369886
0.77631915 0.25215042 -0.34226799
0.7663222 -0.0329476 -0.24121571
0.77381217 -0.29446959 -0.31692982
0.77003717 0.2522614 -0.34172106
0.7598542 -0.032399595 -0.23786402
0.75867218 0.0092514157 -0.22581005
0.75222415 0.0097734332 -0.22247505
0.75902915 -0.23234761 -0.29250669
0.75720417 -0.16741264 -0.27372503
0.74430019 0.063571393 -0.20373678
0.77225018 0.29110038 -0.49401283
0.73568815 0.14348942 -0.17746162
0.7416032 -0.070994616 -0.23945284
0.73871017 0.21961939 -0.20912981
0.7364592 -0.11825562 -0.24991894
0.7325542 0.2197324 -0.20861101
0.74117517 -0.29097056 -0.29980803
0.73952019 -0.23036158 -0.28230095
0.72406918 0.10182738 -0.18318796
0.72291815 0.14436942 -0.17089605
0.73128116 -0.1649226 -0.26020479
0.71768218 0.10229039 -0.17989779
0.72024918 0.2199564 -0.20756483
0.71017319 0.14524543 -0.16434383
0.70885819 0.19487339 -0.1500268
0.72611815 0.25302738 -0.33786297
0.71368319 0.012876391 -0.20253563
0.74910218 0.31604838 -0.58800364
0.70251119 0.19528139 -0.14677191
0.72738814 0.29183239 -0.48987675
0.68678617 0.067919433 -0.17406273
0.68351418 0.19649839 -0.13703108
0.68813515 0.014918387 -0.18932486
0.68043017 0.068396389 -0.1707859
0.67843914 0.14741641 -0.14803362
0.68337119 0.22061741 -0.20439768
0.69480318 0.25356144 -0.3350668
0.68782115 -0.22513962 -0.25526381
0.67408216 0.068872392 -0.16751194
0.67723119 0.22072643 -0.20386505
0.67540115 0.015931427 -0.18273973
0.66579515 0.1482774 -0.14153576
0.66457719 0.19770741 -0.12732077
0.67105019 -0.064850569 -0.20282793
0.67006516 -0.024877608 -0.19133377
0.69540215 0.29234439 -0.48688507
0.67809719 -0.35072863 -0.28502798
0.65948415 0.14870644 -0.13829184
0.66467917 -0.064300597 -0.19952297
0.67603719 0.2538774 -0.33337593
0.66269815 0.016940415 -0.17617273
0.67309415 -0.40933955 -0.29869699
0.67002314 -0.28342664 -0.26249886
0.66698414 -0.15880656 -0.22668266
0.65508014 0.070292413 -0.15771198
0.65635514 0.017442405 -0.172894
0.64788818 0.10730839 -0.14394903
0.63942516 0.1993044 -0.11442709
0.64672714 -0.1100986 -0.20324183
0.64560717 -0.062658608 -0.18962669
0.64655715 0.22126442 -0.20118189
0.64466619 -0.022776604 -0.17817974
0.65076917 -0.28140557 -0.25240898
0.64783317 -0.15700257 -0.21670485
0.63335717 0.1994344 -0.11370802
0.64037114 -0.10952663 -0.19993782
0.62730819 0.19954139 -0.11318779
0.63950217 -0.34645963 -0.26474285
0.62475115 0.019934416 -0.15655994
0.63309318 -0.34575355 -0.2613759
0.63021016 -0.21939158 -0.22515583
0.62874615 -0.15521157 -0.20676184
0.66298819 0.35301739 -0.71919584
0.62519717 -0.27873564 -0.23901272
0.62239915 -0.15461755 -0.20345497
0.60916716 0.19986242 -0.11160994
0.61501515 -0.10725558 -0.186759
0.61882216 -0.27807164 -0.2356739
0.60677719 -0.019665599 -0.15856266
0.61521316 -0.40266454 -0.26819372
0.61245418 -0.27740955 -0.23233795
0.59673917 0.15293342 -0.10606098
0.60237819 -0.10612762 -0.18019009
0.63254118 0.31781143 -0.5767107
0.59140718 0.11131042 -0.11488295
0.59050214 0.15335041 -0.10285664
0.59104115 0.2001794 -0.11002207
0.62608415 0.31790638 -0.57607174
0.5984512 -0.21625459 -0.20856762
0.58593714 0.075409412 -0.12205887
0.60112816 0.25510442 -0.32648277
0.57893014 0.11218739 -0.10846281
0.61317515 0.31809342 -0.57479095
0.62348318 0.35356241 -0.71516085
0.58579618 -0.21501064 -0.20196009
0.57183218 0.15459442 -0.093269825
0.57922518 0.22241038 -0.195158
0.57539117 -0.017109573 -0.14231873
0.60027218 0.31827939 -0.57350492
0.57186013 -0.14992058 -0.17713785
0.55941713 0.15541941 -0.086895943
0.56086415 0.20069939 -0.10734606
0.56463414 -0.10278058 -0.16057968
0.56089514 0.22271442 -0.19348669
0.55582315 0.025307417 -0.12095165
0.58737916 0.3184644 -0.57221508
0.59718519 0.35391843 -0.71245003
0.54785413 0.11436039 -0.092476845
0.55040216 -0.015087605 -0.12938976
0.57428318 0.29419738 -0.47523594
0.59061515 0.35400641 -0.71176672
0.55790317 -0.3961426 -0.23801994
0.55427718 -0.21192956 -0.18550491
0.54165816 0.11479139 -0.089290619
0.54585314 -0.1011256 -0.15082598
0.57449216 0.31864738 -0.57091999
0.55043113 -0.3367486 -0.21796703
0.53960514 -0.10057759 -0.14758062
0.56157118 0.29438442 -0.47398281
0.56161213 0.3188284 -0.56961966
0.53892314 -0.3940016 -0.22803164
0.52311015 0.11607939 -0.079752922
0.52233016 0.15786743 -0.067858696
0.52552015 -0.013086617 -0.11651802
0.56435513 0.35435438 -0.70903492
0.53151917 -0.33471358 -0.20804167
0.53029215 -0.2689606 -0.18933201
0.55779517 0.3544414 -0.70834684
0.51468217 -0.09839654 -0.13464069
0.51818413 0.2234084 -0.18953896
0.52000517 -0.39187753 -0.21808004
0.51552314 -0.1447506 -0.14782
0.50664616 0.20160842 -0.10244083
0.50846916 -0.097854614 -0.13141489
0.51371318 -0.3911736 -0.21477175
0.49847013 0.11778039 -0.067083836
0.51405013 0.2564624 -0.31820869
0.50784314 0.25655639 -0.31760788
0.51713616 0.29502642 -0.46956062
0.49899614 -0.26578557 -0.1729598
0.49686414 -0.14305365 -0.13811398
0.48906612 -0.04945457 -0.10848284
0.49065816 -0.14249063 -0.13488579
0.47935516 0.16067642 -0.045805931
0.48288918 -0.048944592 -0.10528278
0.49543214 0.25674343 -0.31640291
0.48154116 0.030999422 -0.082596779
0.50445515 0.29520643 -0.46828699
0.48552418 -0.20528865 -0.14963388
0.51192415 0.35503441 -0.70350981
0.47555214 0.22408342 -0.18552494
0.49732018 0.31971341 -0.56304789
0.50537914 0.35511738 -0.70281363
0.47311014 -0.20410061 -0.14315987
0.46103418 0.1618644 -0.036406994
0.46456313 0.20229238 -0.098547935
0.46946913 0.22417742 -0.18494606
0.46377015 -0.0081725717 -0.084590912
0.48544914 0.2954734 -0.46636486
0.46072018 -0.2029196 -0.13669968
0.44949615 0.12113041 -0.041910648
0.45545614 -0.26140761 -0.15019703
0.45355117 -0.13914359 -0.115592
0.45122516 0.22445941 -0.18320084
0.47921515 0.35544741 -0.70002174
0.43313414 -0.0057615638 -0.068751812
0.45380318 0.29591143 -0.46313763
0.42455614 0.16421443 -0.017697811
0.42759514 -0.04440558 -0.076654911
0.42692113 0.22482944 -0.1808548
0.41302913 0.1235984 -0.023174763
0.41655618 0.20304841 -0.094017029
0.41482717 -0.0043295622 -0.05929184
0.41667616 -0.13584864 -0.096426964
0.40746713 0.088228405 -0.03015995
0.40927714 -0.042915583 -0.067174911
0.40873814 -0.0038545728 -0.056145668
0.40818113 0.036518395 -0.044754028
0.41492218 0.25791943 -0.30843687
0.40210617 0.036970437 -0.041620731
0.43349516 0.35601044 -0.69508982
0.40528613 -0.19767857 -0.10781002
0.39857715 0.20332539 -0.092292786
0.38930613 0.089500427 -0.020817757
0.38884014 0.1252234 -0.010749817
0.39258713 0.20341641 -0.091714859
0.39050514 -0.0024386048 -0.046729088
0.38280815 0.12562639 -0.0076518059
0.38494015 -0.040947616 -0.054583073
0.39638215 0.25818038 -0.30656672
0.38392514 0.038320422 -0.032245636
0.40325415 0.2965914 -0.45790863
0.37678313 0.12602943 -0.0045580864
0.37626517 0.1672914 0.007060051
0.38061315 0.20359838 -0.090558052
0.39694417 0.29667443 -0.45724964
0.37232816 -0.0010325909 -0.037339687
0.36474818 0.12683141 0.0016212463
0.36864215 0.20377839 -0.089395046
0.37785417 0.25843942 -0.30468607
0.36628115 -0.00056660175 -0.034218788
0.37009913 -0.31771457 -0.12343693
0.36124516 -0.08526361 -0.055051804
0.36024117 -0.00010156631 -0.031098843
0.37171417 0.2970044 -0.45460081
0.34714317 0.092431426 0.00086593628
0.34817618 0.00082540512 -0.024870872
0.33515018 0.093259394 0.0070319176
0.34700418 0.25886142 -0.30152607
0.35280818 0.29724741 -0.45260286
0.33885115 -0.24991763 -0.089298725
0.33822113 -0.19143665 -0.07288599
0.33102214 -0.082736611 -0.039391994
0.35009617 0.3216064 -0.54747772
0.33277613 -0.24932861 -0.086129665
0.32281715 0.1296044 0.023147106
0.32499516 -0.082235575 -0.036270618
0.33467513 0.25902742 -0.30025101
0.32412216 0.0026634336 -0.012454987
0.34371513 0.32168442 -0.54678583
0.32737213 -0.31333065 -0.10107374
0.32610714 -0.19032061 -0.066578865
0.31720516 0.094493389 0.01625824
0.31684917 0.12999743 0.026210308
0.32389516 0.22632843 -0.17064285
0.33733416 0.32176143 -0.54609299
0.32186815 -0.37021756 -0.11401272
0.32762218 0.2975654 -0.44991779
0.31340516 -0.12678564 -0.042797089
0.30493316 0.13077843 0.032326221
0.30454215 0.17179042 0.043813229
0.30695117 -0.080739617 -0.026923656
0.30651116 -0.034688592 -0.014019966
0.30614215 0.0040293932 -0.0031747818
0.30798015 -0.18865764 -0.057147026
0.29931414 0.09571743 0.025454044
0.29693913 0.20482343 -0.082293987
0.29382315 0.044915438 0.014183044
0.30874816 0.29780042 -0.44789267
0.31183016 0.32206738 -0.54331207
0.29645115 -0.24582565 -0.067178726
0.29536116 -0.12522662 -0.033434868
0.28741315 0.096528411 0.031569004
0.28855413 -0.033273578 -0.0047388077
0.29367116 0.22674739 -0.16756487
0.30246013 0.29787838 -0.44721603
0.30545816 0.32214344 -0.54261208
0.28147316 0.096932411 0.034623146
0.28117016 0.1323294 0.044518948
0.28191015 0.045775414 0.020318031
0.29617417 0.29795539 -0.44653702
0.28543013 -0.36635363 -0.094905853
0.27524415 0.13271439 0.047559261
0.27837014 -0.24409461 -0.057747841
0.27737117 -0.12368059 -0.02410078
0.27308315 0.20515841 -0.079882622
0.27034116 0.0067304373 0.015295982
0.27393913 -0.44037759 -0.10960293
0.27188715 -0.18536961 -0.038371086
0.25768515 0.1726324 0.049784184
0.25845316 0.0076214075 0.021427155
0.27362016 0.32251543 -0.53910065
0.26182616 -0.4390316 -0.10323286
0.25185415 0.098935425 0.04983902
0.25159615 0.13424438 0.059689999
0.25184017 0.17271638 0.050368309
0.25251815 0.0080654025 0.024488926
0.25577915 -0.43836057 -0.10005283
0.25523016 -0.36317861 -0.079078674
0.25434315 -0.24180758 -0.045222759
0.24599615 0.17280042 0.050951958
0.25848514 0.29841143 -0.44243765
0.24920715 -0.36254859 -0.07592392
0.24004516 0.099729419 0.055905342
0.24328916 0.20556843 -0.076837063
0.24092615 -0.029555619 0.019869328
0.24066316 0.008949399 0.030601025
0.24039215 0.048750401 0.041694164
0.24319015 -0.3619206 -0.072769642
0.23935515 0.22747642 -0.16193581
0.24593316 0.29855943 -0.44106007
0.22803715 0.13575941 0.071772099
0.23624416 0.26030141 -0.28987265
0.22858216 0.049590409 0.047774315
0.23040916 -0.23954463 -0.032747746
0.23004316 -0.18159962 -0.016613007
0.22216216 0.1361354 0.074785233
0.22730015 0.22763342 -0.16067076
0.22292715 0.010266423 0.039746284
0.22408916 -0.18106663 -0.013517857
0.21948016 0.2058894 -0.074375629
0.21702616 0.010703385 0.042788029
0.22711715 0.29878038 -0.43898582
0.22911015 0.32302243 -0.53413773
0.21777916 -0.1186136 0.0068001747
0.21287616 -0.3018266 -0.041214943
0.20475516 0.10208642 0.074027061
0.21169215 0.26060438 -0.28722477
0.20690815 -0.30123663 -0.038098812
0.20625915 -0.17947555 -0.0042510033
0.20163515 0.20612544 -0.072515011
0.19915216 0.051671386 0.062918186
0.20831315 0.2989974 -0.43690062
0.20062116 -0.23674858 -0.017230034
0.19568916 0.2062034 -0.071891785
0.19347616 0.01243943 0.054927349
0.19328316 0.052084386 0.06593895
0.20370816 0.3233034 -0.53127289
0.19499116 -0.30006158 -0.031872749
0.19116315 0.22809643 -0.15684271
0.19735914 0.32337242 -0.53055286
0.18964516 -0.43110359 -0.065306664
0.18903916 -0.29947662 -0.028766632
0.18366815 -0.43045354 -0.062167645
0.18309414 -0.29889357 -0.025661945
0.17602816 -0.024568617 0.053375244
0.17665514 -0.17685258 0.011126995
0.17033815 -0.069647551 0.043780327
0.17490415 0.26104641 -0.283216
0.17173016 -0.42916059 -0.055902004
0.17144115 -0.35450959 -0.035203934
0.16430315 0.17392743 0.059291363
0.16416316 0.014583409 0.07003212
0.17198715 0.32364643 -0.52766562
0.16506216 -0.23344159 0.0012879372
0.15789115 0.14020944 0.10772991
0.16004016 0.20666242 -0.068123817
0.16448516 0.29949039 -0.43199062
0.15981415 -0.42787361 -0.049646854
0.15915415 -0.23289561 0.0043621063
0.15273716 -0.068250537 0.052879333
0.15325315 -0.23235154 0.0074353218
0.15297015 0.32384843 -0.5254879
0.14792216 -0.42659354 -0.04340601
0.14770615 -0.3520906 -0.022785664
0.14057115 0.10631341 0.10697222
0.14103216 -0.067324579 0.05892992
0.14091116 -0.021908581 0.071495056
0.14305314 0.22869039 -0.15166092
0.13544415 -0.17323756 0.032527924
0.12889415 0.14202243 0.1225872
0.13036615 0.2070334 -0.064944744
0.13103715 0.2288354 -0.150352
0.13396615 0.32404643 -0.52329683
0.12970215 -0.23018754 0.019691944
0.12957716 -0.17272556 0.035573959
0.12317815 0.10744542 0.11589718
0.12443615 0.20710641 -0.064303875
0.12351215 -0.065944612 0.067986012
0.12359916 -0.11077654 0.055597305
0.11850615 0.20717943 -0.063664913
0.11902815 0.2289784 -0.14903784
0.11796016 -0.22911358 0.025802135
0.11257815 0.20725143 -0.06302309
0.11218815 -0.29201055 0.011341095
0.11209716 -0.22857964 0.028850079
0.10702115 0.22911942 -0.14771795
0.10623816 -0.22804558 0.031898975
0.10072315 0.20739442 -0.061731815
0.10014816 0.019202411 0.10300016
0.10038515 -0.22751462 0.03494215
0.094463155 0.17482841 0.066665173
0.094798155 0.20746642 -0.061084747
0.094361156 0.019615412 0.10597897
0.094332151 0.058940411 0.1168232
0.094453156 -0.10839558 0.070683956
0.089246154 0.2620244 -0.27367592
0.088560157 0.059334397 0.11978912
0.089673154 0.3244974 -0.51814604
0.082840152 0.17497241 0.067913055
0.08335115 0.32455939 -0.51740503
0.077028155 0.14522642 0.14915133
0.077028155 -0.062319577 0.091999054
0.077028155 -0.34498858 0.014163017
0.070791155 0.30048639 -0.42126369
0.071156152 -0.4184376 -0.0031518936
0.071217157 -0.16768861 0.065863132
0.065189153 0.20781541 -0.057830811
0.059605151 0.17525643 0.070429325
0.058713153 0.26235539 -0.27020597
0.059482154 -0.34324753 0.023332119
0.059609152 -0.16669762 0.071883202
0.054078154 0.1118834 0.15133429
0.053642154 -0.34267056 0.026381016
0.048353154 0.11224639 0.15426636
0.048395153 0.14697438 0.16381025
0.048201151 -0.015017569 0.11929893
0.046507154 0.26248538 -0.26880789
0.045855153 0.30073738 -0.4183569
0.047720153 -0.41598558 0.0091280937
0.042189155 0.1754654 0.072329998
0.042562153 0.062447429 0.14342213
0.042322155 -0.10418761 0.097655296
0.036919154 0.11297143 0.16012812
0.036978155 0.14766639 0.16965199
0.036706153 -0.014176607 0.12522221
0.036358155 -0.22175765 0.068231106
0.036556154 -0.10372663 0.10063791
0.030586153 0.17560244 0.073605061
0.030967154 -0.013757586 0.12817907
0.028210152 0.26267743 -0.2667017
0.030795153 -0.1032666 0.10361719
0.025504153 0.11369139 0.16597795
0.025579154 0.14835542 0.17548609
0.016016155 0.26280344 -0.26529169
0.018854152 -0.28316855 0.059988022
0.014193155 0.1489414 0.18048
0.011146151 0.2301954 -0.13696098
0.0099211559 0.26286542 -0.26458406
0.013876155 0.025288403 0.14739418
0.01306615 -0.28262854 0.063003063
0.013381153 -0.16278565 0.095849991
0.0080571547 -0.012094617 0.13998127
0.0051641539 0.23025841 -0.13627672
0.0027351528 0.11512041 0.17764616
0.00014615059 0.20854741 -0.050546646
-0.0022658482 0.2629894 -0.2631669
0.0024581552 0.026081383 0.153265
0.0011001527 -0.41115761 0.033541203
0.0015031546 -0.28155255 0.06902504
-0.0029228479 0.1491434 0.18235826
-0.0038698465 -0.16133964 0.10479021
-0.0036668479 -0.10053158 0.12143326
-0.0087978467 0.065870404 0.16979504
-0.016400844 0.3013404 -0.41099787
-0.015561849 -0.21717262 0.095200062
-0.020027846 0.14934242 0.18425035
-0.023471847 0.2088024 -0.047855854
-0.020648845 -0.054867566 0.14241695
-0.024732843 0.2305724 -0.13283682
-0.026623845 0.2632314 -0.26031494
-0.021074846 -0.15990663 0.11370325
-0.020828843 -0.099181533 0.13030195
-0.027375847 0.17626244 0.080067158
-0.029374845 0.20886439 -0.047178745
-0.027868845 -0.40819359 0.048701286
-0.026540846 -0.098732591 0.133255
-0.031842843 -0.0092256069 0.16052723
-0.031495847 0.067365408 0.18144512
-0.033314846 -0.33419764 0.071770191
-0.03773585 -0.053587615 0.15122938
-0.043197848 -0.0084155798 0.1663723
-0.048468843 0.068476439 0.19015503
-0.050276846 -0.27678263 0.095977306
-0.055662841 -0.21368253 0.11602116
-0.05990985 0.14979142 0.18871498
-0.060701847 -0.096071601 0.15090132
-0.072511852 0.2310524 -0.12726068
-0.066737846 -0.15613854 0.13735104
-0.073670849 0.17676139 0.085340977
-0.076553851 0.20935142 -0.041719913
-0.08136785 0.26375538 -0.2538209
-0.077434853 -0.050641596 0.17169809
-0.07714884 -0.0060126185 0.18384409
-0.078468844 -0.21171761 0.12785435
-0.08195284 0.12034339 0.22101736
-0.097160846 0.30206841 -0.40124369
-0.084156841 -0.21122956 0.13080597
-0.094230846 0.20952642 -0.03964901
-0.088168845 0.032274425 0.19984436
-0.09115684 -0.4018116 0.081793308
-0.089841843 -0.21074355 0.13375425
-0.089452848 -0.15428555 0.14910698
-0.09316285 0.12102443 0.22675514
-0.094375849 -0.049395621 0.18042803
-0.094057843 -0.004825592 0.19254398
-0.096359849 -0.32819963 0.1046381
-0.11174485 0.26403344 -0.25016499
-0.11426584 0.23145342 -0.12231207
-0.10502484 0.033405423 0.20850229
-0.11092685 -0.0036475658 0.20122099
-0.11033185 0.072473407 0.22188616
-0.11680384 0.15039742 0.19522333
-0.12618485 0.23156339 -0.1208849
-0.11972685 -0.39897358 0.096721172
-0.11819185 -0.20833063 0.14845514
-0.12110685 0.12270939 0.24105692
-0.12567985 0.17729139 0.091383934
-0.12251684 -0.047341585 0.19492817
-0.12151785 0.073187411 0.22762299
-0.12668385 0.12304342 0.24390793
-0.12817185 0.15051341 0.19654226
-0.13544084 0.20992339 -0.034769058
-0.13225384 0.12337738 0.24675894
-0.14299984 0.17746043 0.093425274
-0.14249684 -0.39673162 0.10861206
-0.14078584 -0.20642364 0.16016912
-0.14453584 -0.0013225675 0.218503
-0.14890385 -0.47511864 0.090199947
-0.14893785 0.12437141 0.25529432
-0.15012285 -0.00093859434 0.22137403
-0.16635685 0.26450843 -0.243505
-0.16787684 0.23193944 -0.11584663
-0.15655784 -0.088761568 0.20037699
-0.17848085 0.26461041 -0.24200869
-0.16090985 0.037111402 0.23719311
-0.16835384 -0.14795661 0.18991804
-0.18247984 0.21035242 -0.029105663
-0.17241785 0.00058740377 0.23283434
-0.17395486 -0.14751363 0.1928153
-0.17732485 -0.47218359 0.10508204
-0.17717783 0.076698422 0.25614929
-0.18914683 0.17789441 0.098931313
-0.18313585 0.038565397 0.24859905
-0.18575184 -0.20267355 0.18346596
-0.18866186 -0.47102153 0.11101627
-0.19006686 -0.086262584 0.21765709
-0.19694586 -0.20174861 0.1892643
-0.20388784 -0.31825662 0.16061592
-0.20764886 0.15128142 0.20594215
-0.21772285 0.21065742 -0.024799824
-0.20949985 -0.31774759 0.16353607
-0.20676185 -0.085027575 0.226264
-0.21127684 -0.46871555 0.12284803
-0.21597685 -0.38961256 0.14695501
-0.21370585 -0.20037162 0.1979413
-0.22946285 0.21075642 -0.023354053
-0.21928285 -0.19991457 0.20082808
-0.22287084 -0.040177584 0.24659109
-0.24509986 0.26514143 -0.23369265
-0.22138084 0.079438388 0.27879
-0.22721083 -0.38853955 0.15281391
-0.22818886 -0.46700358 0.13169432
-0.23120783 -0.26074159 0.18998337
-0.23042484 -0.1990056 0.20659494
-0.23381786 -0.46643555 0.13463831
-0.25720185 0.2652334 -0.23216295
-0.23288386 0.041778386 0.27411509
-0.23238786 0.080114424 0.28442812
-0.23739685 0.12913841 0.29722404
-0.26929784 0.2653234 -0.23062897
-0.24337684 0.080786407 0.29005432
-0.24866186 -0.3142246 0.18389797
-0.24635585 -0.14186859 0.23021698
-0.25349283 -0.2588346 0.20154333
-0.25265384 -0.19720161 0.21809816
-0.27052784 0.21108842 -0.018245697
-0.25539285 0.0061584115 0.27545309
-0.25487983 0.043180406 0.28539419
-0.25435084 0.081454396 0.29567099
-0.25981182 -0.31323063 0.18969297
-0.25742882 -0.14101756 0.2359333
-0.26150787 -0.037487566 0.26646233
-0.26537985 -0.31273556 0.19258595
-0.26585186 0.04387641 0.29101706
-0.27197284 -0.38430858 0.17614222
-0.27094287 -0.31224155 0.19547701
-0.27570587 -0.25694859 0.21306133
-0.27481186 -0.1954186 0.22956133
-0.29397482 0.21127039 -0.015295982
-0.27800184 -0.036350608 0.27494335
-0.29277784 0.17877442 0.1116581
-0.29983383 0.21131438 -0.014554977
-0.28283286 0.0079644322 0.28953695
-0.28868586 -0.38274658 0.18484735
-0.28503287 -0.1389116 0.25018215
-0.28768182 0.1295734 0.30337
-0.28774583 0.045255423 0.30223799
-0.29424685 -0.38222957 0.18774223
-0.31154984 0.2114014 -0.01306963
-0.29993182 -0.034848571 0.28621531
-0.29924482 0.0090354085 0.29795933
-0.32973182 0.26575243 -0.22287369
-0.30241287 -0.19321656 0.24383402
-0.30154282 -0.13766265 0.25870132
-0.30442983 0.12971044 0.30544519
-0.32826787 0.23320943 -0.095787048
-0.32911986 0.21153039 -0.010829926
-0.31016684 0.0097444057 0.30356216
-0.31342387 -0.19234562 0.24952602
-0.32726282 0.17903942 0.11600399
-0.31501782 0.046957433 0.31621218
-0.31992483 -0.25324154 0.23597813
-0.32326585 -0.45756865 0.18136835
-0.32179683 -0.033364594 0.29745007
-0.34668285 0.21165544 -0.0085778236
-0.35991883 0.26595241 -0.21894693
-0.32990885 -0.1910466 0.25804615
-0.34449685 0.17916542 0.11819792
-0.35253584 0.21169543 -0.0078248978
-0.33270484 -0.032628596 0.30305195
-0.33344185 -0.075902581 0.29150105
-0.35023886 0.17920738 0.11893225
-0.35838687 0.21173638 -0.007068634
-0.36382687 0.23345339 -0.091190815
-0.34087682 -0.19018662 0.26371336
-0.36423784 0.21177644 -0.0063128471
-0.34218687 0.048635423 0.33012533
-0.38405085 0.26610643 -0.21577978
-0.35084683 -0.13397861 0.28412914
-0.35463583 0.13010043 0.31175613
-0.36048186 0.15253341 0.224895
-0.37593883 0.21185541 -0.0047950745
-0.35446984 -0.031169593 0.31423092
-0.36065584 -0.37612963 0.22230434
-0.36613083 0.15257442 0.22561836
-0.38178784 0.21189439 -0.0040340424
-0.38751882 0.23360842 -0.088101864
-0.36276382 -0.18848264 0.27502012
-0.37894183 0.17940843 0.12262535
-0.37034887 -0.30359364 0.24707937
-0.37309086 -0.45275557 0.20736313
-0.37742883 0.15265441 0.22706938
-0.36993682 0.013574421 0.33421135
-0.37155282 -0.073240638 0.31110525
-0.40527987 0.23372042 -0.085766792
-0.41420287 0.26628941 -0.21179295
-0.38130987 -0.30265963 0.25276423
-0.38005286 0.050944388 0.34951115
-0.38962382 -0.45117855 0.21598291
-0.38615286 0.014597416 0.34252214
-0.38782585 -0.072116613 0.31947327
-0.39512682 -0.45065653 0.21885204
-0.39364582 0.13038039 0.3167491
-0.39083487 0.05159539 0.35502815
-0.39911282 -0.3726666 0.24230003
-0.40566182 0.15284741 0.23071909
-0.41336286 0.17963642 0.12710333
-0.39547187 0.089804411 0.36784601
-0.40458983 -0.3721776 0.24514818
-0.40210986 -0.24651361 0.27852297
-0.39865285 -0.071371555 0.32503891
-0.41909784 0.17967343 0.12785435
-0.40233386 0.015612423 0.35081434
-0.40864086 -0.30034864 0.26693201
-0.40406287 -0.071001649 0.32781935
-0.42483085 0.17971039 0.12860823
-0.44078082 0.2339344 -0.081064701
-0.40621585 0.090421438 0.37333536
-0.41065687 -0.12960255 0.31494713
-0.42259485 0.15295839 0.23293018
-0.41309983 0.016284406 0.35632992
-0.44669485 0.23396844 -0.080276012
-0.45638084 0.26653039 -0.20615482
-0.41843683 -0.24520159 0.28696918
-0.41606987 -0.12921154 0.31773615
-0.44607782 0.21229541 0.0044269562
-0.42498982 -0.29897857 0.27540493
-0.43388081 0.15302938 0.23441029
-0.45191985 0.21232939 0.0052061081
-0.46842581 0.26659644 -0.20452881
-0.43191785 -0.36975455 0.25934696
-0.42803282 -0.18348563 0.30871391
-0.43459082 -0.49789262 0.22538614
-0.43262482 0.13063943 0.32181597
-0.42845082 0.053846419 0.3742733
-0.43586981 -0.29807162 0.28104115
-0.43228585 -0.12804556 0.32608604
-0.43819082 0.13067544 0.32254601
-0.43458682 0.017616391 0.36733627
-0.4338088 0.05416441 0.37701416
-0.44281983 -0.36879456 0.26500797
-0.44014984 -0.24347162 0.29819536
-0.43885481 -0.18266964 0.3142972
-0.43642884 -0.068800569 0.34445095
-0.44554782 -0.49683261 0.23110294
-0.46943581 0.2124294 0.0075473785
-0.47625685 0.23413444 -0.076309681
-0.48648685 0.26669139 -0.20208502
-0.43916184 0.054480433 0.37975216
-0.44307584 -0.12727356 0.3316412
-0.45644182 0.15316838 0.23738623
-0.44369084 0.092552423 0.39247799
-0.45161581 -0.024806619 0.36408615
-0.45066184 0.018605411 0.37556696
-0.48807782 0.23419839 -0.074714661
-0.49852586 0.26675344 -0.20044804
-0.44903082 0.092853427 0.39520407
-0.45639384 -0.24218655 0.30659294
-0.46083981 -0.44450164 0.25308323
-0.49398685 0.23422939 -0.073915005
-0.49861884 0.21258843 0.011479378
-0.50580186 0.23429143 -0.072310925
-0.47382385 -0.29493761 0.30069733
-0.47832483 -0.49369156 0.24819803
-0.47120786 0.056362391 0.39613724
-0.47034585 0.094049394 0.40608835
-0.48085481 -0.36548054 0.28475428
-0.48377484 -0.4931736 0.25103807
-0.49931085 0.18014443 0.13853025
-0.47837681 -0.023097575 0.37780714
-0.47566581 0.094345391 0.40880394
-0.48371786 -0.022758603 0.38054514
-0.49347985 -0.44150555 0.27006912
-0.49381584 0.13100642 0.32993221
-0.50153685 0.15342641 0.24341631
-0.48905486 -0.022421598 0.38327932
-0.49415785 -0.23923254 0.32610416
-0.49144185 -0.12385654 0.35653114
-0.49937481 0.13103741 0.33067799
-0.53533185 0.23443741 -0.068275928
-0.49249482 0.057598412 0.40701723
-0.49809784 -0.17826557 0.34484291
-0.50493485 0.1310674 0.33142614
-0.55266285 0.26701242 -0.19301367
-0.50620586 -0.29230261 0.3174572
-0.51096082 -0.49060464 0.26520729
-0.51843882 0.15351641 0.24570131
-0.5050438 -0.021413565 0.3914752
-0.54713982 0.23449343 -0.066652775
-0.55867481 0.26703942 -0.19218302
-0.55304283 0.23452139 -0.06583786
-0.50750381 0.09610641 0.42505312
-0.52970284 0.15357441 0.24723196
-0.55110884 0.21285039 0.018648148
-0.57069582 0.26709241 -0.19051266
-0.52101684 -0.23716056 0.33997393
-0.51952684 -0.17669964 0.35588598
-0.51673681 -0.063465595 0.38568497
-0.52722585 -0.48908257 0.2736783
-0.53533483 0.15360242 0.24800014
-0.54509383 0.18037844 0.14476109
-0.52099985 -0.020414591 0.39964914
-0.53173584 -0.23633957 0.34550905
-0.58872581 0.26716942 -0.18799973
-0.53708881 -0.23593163 0.34827137
-0.56225181 0.18045938 0.14712095
-0.58254784 0.2346524 -0.061747074
-0.54561484 -0.35995555 0.3183403
-0.53950185 -0.12052858 0.38124418
-0.54222083 -0.019097567 0.41052103
-0.55098581 -0.35950363 0.32112503
-0.54331881 -0.06173861 0.39932108
-0.55425781 -0.48657465 0.28775406
-0.55493885 0.1313234 0.33823013
-0.56348383 0.15373838 0.251863
-0.54751885 -0.018770576 0.41323519
-0.59434682 0.2347014 -0.06010294
-0.55155981 -0.17438459 0.37238503
-0.56911081 0.15376443 0.25264025
-0.57940584 0.18053639 0.14949512
-0.60024482 0.23472643 -0.059275627
-0.55545682 -0.11943865 0.38944292
-0.56372583 -0.43519163 0.30659103
-0.57473785 0.1537894 0.25341797
-0.58512282 0.18056142 0.15028906
-0.60614181 0.23475039 -0.058448792
-0.56521684 -0.28759265 0.34797335
-0.59083885 0.1805864 0.15108538
-0.62476683 0.26731241 -0.18293381
-0.56127381 0.061516404 0.44215107
-0.57243782 -0.3577106 0.33224106
-0.57055885 -0.28717256 0.35073519
-0.56912982 -0.23350656 0.36480427
-0.56451982 -0.060376585 0.41019535
-0.57581681 -0.48459554 0.29897404
-0.58599281 0.15383941 0.25497913
-0.57137781 -0.11835861 0.39762402
-0.57078785 0.099536419 0.45733213
-0.57815182 -0.17248762 0.38607407
-0.57922184 -0.016828597 0.42946625
-0.62972683 0.23484242 -0.055129051
-0.59057486 -0.43282855 0.32053614
-0.59380084 0.1314984 0.34360695
-0.60286885 0.15391141 0.25733232
-0.59593284 -0.43235958 0.323318
-0.58856785 0.026816428 0.44611216
-0.59406382 -0.17136264 0.39426136
-0.59093881 -0.058695614 0.42373896
-0.66079086 0.26744139 -0.17781878
-0.60450584 -0.3550626 0.34884691
-0.60253882 -0.2846756 0.36725616
-0.59621382 -0.058362603 0.42644215
-0.60664082 -0.4314276 0.32887506
-0.59749484 0.10032541 0.46615314
-0.60293883 0.10034841 0.46691418
-0.61316884 -0.28385365 0.37274599
-0.60674882 -0.057699621 0.43184233
-0.62154382 0.13161141 0.34749508
-0.63098586 0.1540224 0.26128531
-0.60838181 0.10037041 0.46767807
-0.61201185 -0.05736959 0.43453932
-0.62800986 -0.42957962 0.3399682
-0.63263881 0.13165438 0.34906197
-0.64223081 0.15406442 0.26287699
-0.62908882 -0.28262961 0.38096619
-0.62579286 -0.16914356 0.41058302
-0.67340881 0.21333843 0.035824299
-0.63644284 -0.35246158 0.36537838
-0.64373082 0.13169444 0.3506341
-0.65347183 0.15410441 0.26447296
-0.63634086 -0.16841364 0.41600704
-0.63474083 -0.11413658 0.43016005
-0.63302785 -0.056059599 0.44530535
-0.65909183 0.15412343 0.265275
-0.67081481 0.18088943 0.16238117
-0.69454283 0.23506343 -0.045880795
-0.64160883 -0.16804957 0.41871738
-0.63827384 -0.055734575 0.44799232
-0.65080982 -0.47785461 0.33796215
-0.64932185 -0.42775357 0.35102224
-0.70043385 0.23508143 -0.045032024
-0.65026581 -0.28101563 0.39189625
-0.64687586 -0.16768658 0.42142391
-0.6561408 -0.47738361 0.3407321
-0.65555084 -0.28061461 0.39462328
-0.65995783 -0.4268496 0.35653734
-0.66526985 -0.42639959 0.35929203
-0.6936478 0.18096143 0.16566229
-0.65551883 0.066694438 0.49024296
-0.67699885 0.13180643 0.35538816
-0.69935685 0.18097842 0.16648626
-0.66314882 -0.011821568 0.47240114
-0.6662358 -0.1120826 0.44632101
-0.66445184 -0.054124594 0.46139717
-0.67665881 -0.27902555 0.40551233
-0.67315084 -0.16589057 0.43492937
-0.72575581 0.21349543 0.043381214
-0.67261785 0.031108379 0.48572826
-0.67367184 0.10060441 0.47695208
-0.68026382 -0.22535861 0.42207527
-0.67670584 -0.11140656 0.4516921
-0.68804485 -0.47459161 0.35729933
-0.67910981 0.064595401 0.47773218
-0.68247384 -0.056240618 0.44992828
-0.72217983 0.18104339 0.16979694
-0.68764383 0.02620542 0.45311213
-0.68558282 0.099505424 0.47002029
-0.69486982 -0.23079157 0.39382792
-0.69166684 -0.11688364 0.42010403
-0.70186383 -0.47949362 0.33645916
-0.71527082 0.15429538 0.27337027
-0.72788584 0.18105841 0.17062807
-0.70604384 -0.35745454 0.34851217
-0.70962083 -0.48341858 0.31938028
-0.72088581 0.15431041 0.27418804
-0.75930381 0.23523939 -0.036459923
-0.72650081 0.15432543 0.2750082
-0.71955281 -0.29413164 0.33078623
-0.71298081 -0.067125618 0.38355017
-0.74499685 0.18110043 0.17313004
-0.76063383 0.2135824 0.048481941
-0.71946084 -0.027089596 0.37670135
-0.71819484 0.016229391 0.386796
-0.72736681 -0.29754758 0.31367636
-0.75070083 0.18111444 0.17396832
-0.7664448 0.21359539 0.049340248
-0.72374284 0.088041425 0.38735819
-0.73363185 -0.24699855 0.30908203
-0.72848582 -0.072662592 0.34981203
-0.73240882 0.13196039 0.36343193
-0.74334383 0.15436643 0.27747393
-0.73372483 0.0111534 0.35308409
-0.78283983 0.23529142 -0.032991886
-0.73263282 0.047804415 0.36166906
-0.74151582 -0.25029755 0.29184628
-0.74416685 -0.078265548 0.31569433
-0.74830681 0.042880416 0.32767916
-0.77351081 0.18116438 0.17733192
-0.8004868 0.23532742 -0.030376911
-0.75503784 0.078628421 0.31956625
-0.76354682 -0.1989466 0.25404596
-0.77921283 0.18117541 0.17817831
-0.79549783 0.21365541 0.053637981
-0.80636984 0.23533839 -0.029500961
-0.77158684 -0.20214355 0.23649597
-0.76986283 -0.14643264 0.249681
-0.78491384 0.18118644 0.17902327
-0.77331185 -0.0017976165 0.26714993
-0.78331584 -0.32203257 0.19116211
-0.80711585 0.21367639 0.055367947
-0.8181318 0.23535842 -0.027746677
-0.79149085 -0.32561457 0.1732583
-0.78975284 -0.27050459 0.18637419
-0.78603286 -0.1525526 0.21443701
-0.78546083 0.11855942 0.26206493
-0.81292385 0.21368641 0.056236267
-0.78945881 -0.0070855618 0.23209715
-0.80202383 -0.40183663 0.13792706
-0.80044883 -0.098402619 0.19322109
-0.82454085 0.21370542 0.057975292
-0.83577383 0.23538738 -0.025105953
-0.81341386 0.18123639 0.18327713
-0.82379681 -0.062840581 0.14993525
-0.82106185 0.019990385 0.16989994
-0.81976986 0.059125423 0.17933416
-0.83307785 -0.34385157 0.082180977
-0.82727581 -0.16817963 0.12453938
-0.82937783 0.017371416 0.15186691
-0.83756882 -0.22841561 0.092453957
-0.84054482 -0.068591595 0.11353207
-0.85357481 0.21374643 0.062348366
-0.84481484 0.051568389 0.12507629
-0.85669982 -0.29860461 0.039973259
-0.84892786 0.17553538 0.13760233
-0.85938084 0.21375239 0.063226223
-0.8532598 0.049018383 0.10678101
-0.86603081 -0.07734859 0.058133125
-0.86445284 -0.031681597 0.069291115
-0.88460481 -0.36647964 -0.030666828
-0.88038582 -0.2454946 -0.0010247231
-0.87836581 -0.18756759 0.013168335
-0.88165683 -0.037332594 0.03193903
-0.88029683 0.0013133883 0.041433334
-0.87889081 0.041275382 0.051249981
-0.88910282 -0.24897456 -0.020057678
-0.88487083 -0.12867856 0.009496212
-0.88571084 0.090025425 0.045173168
-0.88260084 0.21377641 0.066756248
-0.89358586 -0.13180959 -0.0094709396
-0.90668786 -0.25599754 -0.058450699
-0.90459383 -0.19753253 -0.044008732
-0.90310681 0.085064411 0.0075349808
-0.90181482 0.12083441 0.016394138
-0.90784085 -0.045938611 -0.024912834
-0.91998482 -0.38203859 -0.10815907
-0.91790086 -0.32434464 -0.093869686
-0.91555882 -0.25954163 -0.077817917
-0.91117185 -0.13812757 -0.047745705
-0.91836983 -0.09535563 -0.055644035
-0.91667485 -0.048844576 -0.044095039
-0.92234081 -0.20427954 -0.082698822
-0.92004585 -0.14131761 -0.067061901
-0.91606885 0.2062974 0.00088214874
-0.92411584 -0.012525618 -0.053611755
-0.93586081 -0.33190656 -0.13314962
-0.92897087 -0.1445266 -0.086485863
-0.93623286 -0.10150754 -0.0944767
-0.92393583 0.2354784 -0.011702061
-0.94249481 -0.27030957 -0.13663101
-0.93794888 -0.14775562 -0.1060257
-0.93560189 0.15304738 -0.049544811
-0.94524485 -0.10461164 -0.11406803
-0.93258888 0.2335574 -0.029386997
-0.94048184 0.022644401 -0.08219862
-0.94269985 0.19981039 -0.056549072
-0.94949085 0.019916415 -0.10172081
