# .PCD v0.7 - Point Cloud Data file format
VERSION 0.7
FIELDS x y z
SIZE 4 4 4
TYPE F F F
COUNT 1 1 1
WIDTH 1
HEIGHT 1024
VIEWPOINT 0 0 0 1 0 0 0
POINTS 1024
DATA ascii
0.99435735 0.011894166 -0.73019266
0.9763903 -0.023870885 -0.58491373
0.95329231 0.03433913 -0.55404329
0.9477213 0.033542156 -0.56114864
0.92875135 0.17653817 -0.45599031
0.94735533 -0.069125891 -0.61201048
0.92669636 0.072987139 -0.54633331
0.91615933 0.17662716 -0.45664167
0.91268432 0.21209216 -0.42705727
0.90567732 0.21278614 -0.42105246
0.92331332 -0.070920825 -0.62793827
0.89661634 0.12732315 -0.45187759
0.91637236 -0.11096382 -0.6239357
0.88473535 0.21485513 -0.40310574
0.87966931 0.18161511 -0.41384649
0.90616834 -0.031092882 -0.64824343
0.88027531 0.045155168 -0.47531366
0.87271035 0.18233216 -0.40787268
0.89722532 -0.15925086 -0.62642431
0.89828831 -0.11237681 -0.63590336
0.88341135 -0.011715889 -0.50327349
0.88515532 -0.16023886 -0.63440132
0.86449635 0.25764716 -0.44727755
0.88412535 -0.20632386 -0.62507153
0.85803235 0.25784516 -0.44591045
0.87669832 -0.26955688 -0.6163497
0.85227835 0.048549116 -0.45104551
0.8626793 -0.14681292 -0.54679155
0.85994631 -0.095484853 -0.52163553
0.87066734 -0.27010286 -0.62032652
0.84087431 0.13345611 -0.40383959
0.83810735 0.18589115 -0.37815952
0.85290235 -0.094496846 -0.51546955
0.83122635 0.18659812 -0.3722496
0.85486335 -0.26540482 -0.59342861
0.85120934 -0.19553185 -0.55923843
0.84151131 -0.14370191 -0.52819967
0.83220935 0.25863117 -0.44043732
0.83434433 -0.005402863 -0.46057844
0.8551473 0.29224616 -0.65685749
0.85798532 0.32326716 -0.68363571
0.85107231 0.32364315 -0.67986727
0.81932032 0.25902116 -0.43769932
0.84374535 0.32435912 -0.67205572
0.80645835 0.13722211 -0.37418938
0.8021453 0.22295517 -0.33245468
0.83719236 0.32445312 -0.6716013
0.82301331 -0.19120681 -0.53439426
0.83064336 0.32454711 -0.6711483
0.78341132 0.19148612 -0.33120251
0.79953635 -0.13755786 -0.4913435
0.80859834 -0.32248783 -0.58133841
0.80540735 -0.2573688 -0.54964972
0.79011935 -0.085731864 -0.46053457
0.78805131 -0.043129861 -0.43981838
0.79916835 0.30204612 -0.5512023
0.77450234 0.096350133 -0.36648464
0.77235931 0.14093715 -0.3448205
0.78564835 -0.1355319 -0.47915363
0.78320831 -0.084770918 -0.45448971
0.78073436 0.26017815 -0.42947531
0.77872533 -0.13452291 -0.47307634
0.77631134 -0.083812833 -0.44845772
0.77431536 0.26037014 -0.42810249
0.79869133 0.32435113 -0.67670441
0.79763532 0.36701715 -0.7327323
0.75152433 0.22454816 -0.32186747
0.74521035 0.22474414 -0.32054329
0.7537353 -0.038562834 -0.40989256
0.7517153 0.005141139 -0.38872337
0.76653534 0.30295616 -0.5440526
0.74236131 0.061760128 -0.35582352
0.74060136 0.10023016 -0.3372035
0.7600193 0.30313617 -0.54262352
0.77995235 0.36554515 -0.75349331
0.75956035 -0.31414282 -0.53776169
0.72712833 0.10176712 -0.32556868
0.72514236 0.14605516 -0.30415344
0.72282934 0.19763613 -0.2792244
0.73519331 -0.078118801 -0.41249847
0.74566835 -0.31178784 -0.52541971
0.74277532 -0.24726188 -0.49423838
0.74049234 0.30367416 -0.5383296
0.7474063 0.33003312 -0.61357355
0.71538532 0.064974129 -0.3324666
0.72899932 -0.24504888 -0.48205471
0.70867234 0.065772116 -0.32665443
0.71915334 -0.17540491 -0.44293451
0.70803231 -0.074374914 -0.38875437
0.70111531 0.22610617 -0.31125259
0.69365734 0.10557413 -0.29666567
0.70340735 -0.12360787 -0.40699434
0.72114331 0.33072114 -0.60769939
0.68860531 0.068153143 -0.3092823
0.68514431 0.15036511 -0.26972342
0.70160133 -0.24066091 -0.45782948
0.6898753 -0.1216588 -0.3951273
0.70153332 0.30473816 -0.5297327
0.68106931 -0.070670843 -0.3651886
0.69354135 -0.37355292 -0.51066732
0.69061434 -0.30249786 -0.47653151
0.66709632 0.10858417 -0.27372646
0.67639434 -0.11971986 -0.3833065
0.65871733 0.15320015 -0.24698162
0.65717733 0.22744215 -0.30193567
0.65935934 0.26372117 -0.40333033
0.65096033 0.017845154 -0.30117035
0.67531633 0.33190912 -0.59741163
0.66339135 -0.29792881 -0.45236874
0.64072531 0.11156017 -0.2509675
0.64763933 -0.066097856 -0.33598042
0.64465433 0.22781813 -0.29927063
0.66269833 0.30578417 -0.52112341
0.63248032 0.15600413 -0.22440863
0.64290333 -0.11491787 -0.3539443
0.63938636 -0.023492873 -0.3102355
0.65623832 0.30595613 -0.51968956
0.64479935 -0.16422284 -0.3775177
0.64978033 0.30612814 -0.51825237
0.64068735 -0.23096192 -0.40399551
0.64332634 0.30630016 -0.51681566
0.64920634 0.33257717 -0.59152651
0.63901532 -0.36389887 -0.46203661
0.61964232 0.22856617 -0.29393148
0.61956835 -0.020903885 -0.29297543
0.63225633 -0.36270785 -0.4560113
0.62728733 -0.2288388 -0.39215755
0.60642731 0.15877914 -0.20199537
0.61812735 -0.16023886 -0.35406351
0.60791731 -0.060689807 -0.30128431
0.60310835 -0.10924184 -0.31907129
0.60091633 0.22912115 -0.28992128
0.60861331 0.26515812 -0.39227629
0.58987033 0.079776168 -0.22384548
0.59179932 0.025225163 -0.2497983
0.60286236 -0.28782785 -0.39866734
0.58844936 0.22948915 -0.2872467
0.58677334 -0.016636848 -0.26441956
0.5986433 -0.35679889 -0.42605639
0.59164631 -0.1562978 -0.33078337
0.57724434 0.20550716 -0.21732473
0.57878035 0.026841164 -0.2384963
0.58954531 -0.28561783 -0.38685942
0.59715134 0.33389115 -0.57974243
0.58076036 -0.22149682 -0.3510685
0.57847631 -0.15434289 -0.31920671
0.56861937 -0.055369854 -0.2669735
0.59827036 0.37194514 -0.68574858
0.55753636 0.083547115 -0.1958847
0.59168434 0.37209916 -0.68422461
0.54988033 0.12173015 -0.17259932
0.55561233 -0.053615808 -0.25562048
0.5725553 0.30815715 -0.50099039
0.59273934 0.41126317 -0.79329348
0.54468232 0.085041165 -0.18477154
0.54208529 0.16558713 -0.14666748
0.54779935 -0.011590838 -0.23049355
0.57120734 0.33453614 -0.57384539
0.55870634 -0.34981287 -0.39048243
0.53999335 0.031638145 -0.20482635
0.55973029 0.30848813 -0.49810934
0.57938236 0.41155314 -0.79013634
0.53187132 0.086528122 -0.17369556
0.5341593 0.20680416 -0.20815372
0.53772235 -0.099981904 -0.26180029
0.5387013 0.23093814 -0.27652454
0.53356832 0.032430112 -0.19924927
0.54548836 -0.34750986 -0.37871265
0.5413413 -0.21531487 -0.31627464
0.52846432 -0.0090978742 -0.21366644
0.56604135 0.41184014 -0.78698063
0.53481233 -0.21429384 -0.31051254
0.51665735 0.16826016 -0.12480927
0.52187729 0.20716912 -0.20552874
0.5232923 -0.049269855 -0.22741556
0.53231835 -0.3452189 -0.36698627
0.51032633 0.16892415 -0.11936855
0.51686132 -0.048407853 -0.22180367
0.51562929 -0.0074468851 -0.20249939
0.55271232 0.41212612 -0.78382254
0.54605436 0.41226816 -0.78224468
0.49770033 0.17024714 -0.10851765
0.51401436 0.26776612 -0.3714757
0.50160933 0.036357164 -0.17152452
0.53256434 0.37346417 -0.67049026
0.51445633 -0.40368783 -0.37860441
0.49763834 -0.045835853 -0.20503235
0.49525133 0.037137151 -0.16600847
0.51494533 0.30963314 -0.48801231
0.53832936 0.44481015 -0.87032127
0.50233734 -0.2092309 -0.2818594
0.51946533 0.37376314 -0.66743565
0.48623234 -0.092751861 -0.21672773
0.48914534 0.23235512 -0.26576853
0.51945436 0.41283315 -0.7759285
0.49480632 -0.40012383 -0.36103964
0.48942533 -0.20722485 -0.27047157
0.48757634 -0.14095092 -0.23935652
0.47739333 -0.0025458336 -0.16922951
0.47623932 0.039462149 -0.1495204
0.50012636 0.33627415 -0.55759954
0.48942432 0.31027716 -0.48223352
0.49368432 0.33642912 -0.5561204
0.47179332 -0.26624787 -0.28251648
0.45490432 0.17265612 -0.089827538
0.45948532 -0.040751874 -0.1717577
0.46535832 -0.26519883 -0.27681971
0.46200934 -0.13721585 -0.21691036
0.44966534 0.095999122 -0.1026597
0.47031534 0.31075513 -0.47789764
0.47437632 0.33689213 -0.55168247
0.44248334 0.13358015 -0.080031395
0.45096034 -0.20127082 -0.23655558
0.45133534 0.26944315 -0.35755348
0.43954733 0.0022771358 -0.13631964
0.43850732 0.044058144 -0.1168046
0.44935733 -0.39192188 -0.32043839
0.43005133 0.13494015 -0.069320679
0.43622333 0.20967114 -0.18708372
0.44508433 0.26960814 -0.3561573
0.46067634 0.37508512 -0.65367937
0.46642134 0.41394311 -0.7632885
0.44291034 -0.39076281 -0.31468248
0.43661934 -0.13352191 -0.19462729
0.42384934 0.13561714 -0.063978672
0.42485234 0.17356515 -0.083442688
0.45416033 0.37523013 -0.65215063
0.42285934 -0.083928823 -0.16128635
0.43258932 0.26993716 -0.35336542
0.43853134 0.31154215 -0.47066069
0.42860532 -0.32733083 -0.27471542
0.42553732 -0.19735491 -0.21414566
0.41546533 -0.034921885 -0.13337231
0.42221934 -0.32623887 -0.26903772
0.41768733 -0.13077581 -0.17801762
0.41031432 -0.082191825 -0.15031528
0.41516834 0.23442012 -0.24957132
0.40735433 0.047832131 -0.089801311
0.42584032 0.31185412 -0.46776342
0.41139933 -0.12986588 -0.17249966
0.39996833 0.10166812 -0.059741497
0.40298232 -0.033275843 -0.12249136
0.40902132 0.23458815 -0.24821854
0.40795434 -0.25588584 -0.22600842
0.39968532 0.21071213 -0.17914343
0.39780933 -0.08046484 -0.13938332
0.39587533 0.0078071356 -0.098359585
0.40445834 -0.38387382 -0.28035641
0.39157432 -0.07960391 -0.13393164
0.40682432 0.31231815 -0.46341562
0.38534933 -0.078746915 -0.12849045
0.40382633 0.33855516 -0.53538656
0.41360033 0.41502714 -0.75064039
0.38901633 -0.25283086 -0.2092557
0.37691334 0.17499113 -0.07319355
0.38446733 0.23525816 -0.24280071
0.39743134 0.33870417 -0.5339036
0.40215233 0.37637216 -0.6399045
0.37093133 0.17516714 -0.07190752
0.37196034 -0.029198885 -0.095460415
0.38783532 0.31277716 -0.45906353
0.39103833 0.33885217 -0.53242064
0.39566433 0.37651312 -0.63837242
0.40042734 0.41529417 -0.74747658
0.37904233 -0.37934291 -0.25767851
0.36312833 0.10584211 -0.027940273
0.37220532 0.23559016 -0.24008656
0.36499333 0.011694133 -0.071526527
0.36896232 -0.18869388 -0.1643014
0.35897934 0.17551714 -0.069337368
0.35962433 -0.027583838 -0.084714413
0.37826434 0.33914715 -0.52945137
0.36522633 -0.31653583 -0.21838856
0.35023934 0.14360416 -0.0005903244
0.36887532 0.31323314 -0.45470858
0.35894832 -0.31547284 -0.21281052
0.35527432 -0.12178087 -0.12327957
0.35787332 0.27186817 -0.33657742
0.34658533 0.014003158 -0.055535316
0.37412232 0.41582316 -0.74114752
0.35142434 -0.24679387 -0.17600965
0.34506634 0.21223915 -0.16719341
0.35624832 0.31353515 -0.45180273
0.34519634 -0.24579787 -0.17050362
0.33270434 0.10927117 -0.001683712
0.33901134 0.21240616 -0.16586351
0.34160134 0.23641217 -0.23329639
0.33436534 0.015531123 -0.044921398
0.33363533 0.05669117 -0.025937557
0.35681033 0.37735015 -0.62917852
0.34124333 -0.37263691 -0.2239666
0.34017432 -0.31229889 -0.19613743
0.32664934 0.10995114 0.0035395622
0.32009333 0.14652914 0.022695541
0.32318431 0.17655617 -0.061609268
0.32285732 -0.022787869 -0.052694321
0.33103132 0.31413215 -0.44598532
0.34131333 0.41647613 -0.7332325
0.32149434 -0.30914986 -0.17955065
0.30833131 0.14688015 0.025206566
0.31068134 -0.021205842 -0.04209137
0.31420934 -0.24085391 -0.14311361
0.30252734 0.11265415 0.024351597
0.30877632 0.21323514 -0.15919971
0.30535033 -0.0677948 -0.058579445
0.30460933 -0.020418882 -0.036806583
0.31448132 0.27296215 -0.32675457
0.31844133 0.31442815 -0.44307566
0.30804333 -0.23987281 -0.13766432
0.29652134 0.11332613 0.029532433
0.30273733 0.21339911 -0.15786552
0.29926834 -0.066967845 -0.053267479
0.29794234 0.020069122 -0.01329565
0.31806731 0.37817115 -0.61997366
0.29342532 0.17740715 -0.055150509
0.29249233 -0.018848836 -0.026259422
0.30821735 0.34073615 -0.51310062
0.29573935 -0.2379179 -0.12679434
0.28748232 0.17757612 -0.053857327
0.29957634 0.31486917 -0.4387064
0.30517632 0.37844217 -0.6169014
0.28960434 -0.23694491 -0.12137365
0.27855933 0.11533016 0.045024395
0.27897334 0.14774811 0.031499386
0.28463632 0.21388817 -0.15385866
0.28974634 0.27357715 -0.32112837
0.27986234 0.022312164 0.0023984909
0.28060132 0.23801816 -0.21967173
0.27330133 0.063862145 0.026298523
0.27258235 0.21421212 -0.15118456
0.26732135 0.064569116 0.031472683
0.28073934 0.31530613 -0.43433571
0.27125734 -0.23404086 -0.10516548
0.26373231 0.17824513 -0.048676491
0.26655835 0.21437311 -0.14984655
0.27122432 0.27403414 -0.3169055
0.25474533 0.11797714 0.065558434
0.25299835 -0.23115981 -0.089042664
0.24382533 0.14877212 0.039075375
0.24850532 0.21485412 -0.14582872
0.24550033 -0.10617685 -0.027095318
0.23845333 -0.011887848 0.020766735
0.23801433 0.027476132 0.038713455
0.24227934 -0.35526991 -0.13578653
0.24020633 -0.1692729 -0.050994396
0.23949432 -0.10533082 -0.021836281
0.24041033 0.27478516 -0.30985546
0.23702233 -0.4326359 -0.16608334
0.22703433 -0.05721283 0.0097913742
0.23090133 -0.4315089 -0.16060638
0.23009133 -0.35314989 -0.12493563
0.22947833 -0.29377687 -0.097908497
0.22044232 0.14944416 0.044141293
0.22447033 0.21548712 -0.1404624
0.22592933 0.23942113 -0.2073617
0.22810434 0.27508211 -0.30703354
0.23221034 0.34240913 -0.49521351
0.22276533 -0.22640789 -0.062351704
0.21513133 -0.055616856 0.020177364
0.21431233 0.030385137 0.059274673
0.22808933 0.38002914 -0.59845829
0.21794432 -0.35104191 -0.11412239
0.20876433 0.14977711 0.046678543
0.21246633 0.21580112 -0.13777447
0.20919234 -0.054821849 0.025359631
0.21380833 0.23972714 -0.20461941
0.20803933 0.071537137 0.082761288
0.20961434 -0.10113788 0.0043196678
0.20251533 0.031828165 0.069504738
0.19734533 -0.053238869 0.035694599
0.20888333 0.38041615 -0.59384155
0.19825834 -0.16303384 -0.014115334
0.19772933 -0.099475861 0.01472044
0.19126734 0.15027213 0.050489426
0.19738433 0.27581614 -0.29996538
0.19075733 0.033263147 0.079702377
0.19939834 0.31715113 -0.41534567
0.19329834 -0.28779685 -0.065834522
0.18543833 0.15043616 0.051760674
0.18682334 0.18036413 -0.031761646
0.19316033 0.31729013 -0.4138813
0.18730032 -0.28680885 -0.060520649
0.17850834 0.12539417 0.12336349
0.18250534 0.21657711 -0.13104868
0.18511432 0.27610713 -0.29713535
0.18806234 0.34335613 -0.48475647
0.18970333 0.38080013 -0.58922052
0.17898433 0.27625114 -0.29571962
0.16759634 -0.0028578639 0.082381725
0.17285633 0.27639514 -0.29430342
0.17547433 0.34362316 -0.48176527
0.17023133 -0.42039287 -0.10633755
0.16937032 -0.28386188 -0.044631481
0.16175233 -0.0021178722 0.087460518
0.16543132 0.24093413 -0.19362831
0.16673133 0.27653915 -0.29288673
0.17055033 0.38118017 -0.58459854
0.16421834 -0.41929686 -0.10096264
0.15633532 0.15124917 0.058133602
0.15617132 -0.047760844 0.071599483
0.16060734 0.27668214 -0.29146957
0.15677333 -0.15690792 0.022337437
0.15642433 -0.093725801 0.050855637
0.14989033 0.038230121 0.11513138
0.15579233 0.31811315 -0.40509033
0.15222034 -0.41711485 -0.090236664
0.15182334 -0.33964491 -0.055298328
0.14471133 0.15157014 0.060684681
0.14663434 0.21749115 -0.12295532
0.15032932 0.34415114 -0.47577763
0.13866434 -0.045442879 0.086863518
0.13992733 -0.33760786 -0.044721603
0.13266432 0.0015521646 0.11273956
0.13527833 0.24167216 -0.18673944
0.13235533 0.080328166 0.14819241
0.13777433 0.34441316 -0.47278261
0.13350533 -0.21252191 0.016388416
0.12873134 0.21794212 -0.11889935
0.12673633 0.041027129 0.13519764
0.12806633 -0.33558083 -0.034177303
0.12785932 -0.27707589 -0.0078697205
0.12148933 0.15220714 0.06580162
0.12123633 -0.043143868 0.10205364
0.12109134 0.0030071139 0.12279367
0.12522833 0.34467316 -0.46978474
0.12157733 -0.15174687 0.053245544
0.11569034 0.15236515 0.067081451
0.11896034 0.34480214 -0.46828556
0.11624433 -0.33356583 -0.023670673
0.11590533 -0.2098099 0.031902313
0.11574333 -0.15089488 0.058366299
0.10946533 0.043106139 0.15016031
0.10937133 0.082974136 0.16805363
0.11269534 0.34493113 -0.46678448
0.11052833 -0.40956688 -0.052985668
0.10611733 0.31918615 -0.3933444
0.10410133 -0.14919686 0.068585396
0.098060332 0.12767613 0.14087439
0.09894333 0.21868312 -0.1121273
0.098053329 0.0058941245 0.14280653
0.099920332 0.31931812 -0.39187431
0.10017133 0.34518713 -0.46378565
0.098197334 -0.085692883 0.10176134
0.092331335 0.12783515 0.14213037
0.093167335 0.24268615 -0.17707157
0.093425333 0.27822715 -0.27584267
0.09264233 -0.27135789 0.023305416
0.092497334 -0.14750791 0.078771591
0.087161332 0.24282914 -0.17568636
0.087333329 0.27836412 -0.2744174
0.087659329 0.34544212 -0.46078348
0.08685033 -0.32857287 0.0024476051
0.086659327 -0.08411181 0.11184454
0.081013329 0.18315613 -0.0081453323
0.080886334 -0.037847877 0.13720942
0.081158333 0.24297112 -0.17430449
0.08097633 -0.26947188 0.03362751
0.080928333 -0.14582682 0.088922501
0.075155333 0.12830913 0.14590645
0.075155333 0.15345615 0.076070309
0.075155333 0.18330616 -0.0068273544
0.075155333 0.0087521672 0.16269064
0.075155333 0.047216117 0.17987871
0.06937433 0.15360916 0.077356339
0.069453329 0.0094611645 0.16764164
0.063595332 0.15376312 0.078644276
0.063724332 -0.035607874 0.15215635
0.063759327 0.010169148 0.17258549
0.062989332 0.27891016 -0.26871729
0.062790334 0.32010216 -0.38304329
0.063439332 -0.40110981 -0.010940552
0.06368833 -0.08097291 0.13191366
0.058021329 -0.034864843 0.15712357
0.056610331 0.32023114 -0.38156939
0.052043334 0.15406716 0.081221581
0.052067332 -0.20004487 0.088148594
0.040500332 0.15437013 0.083803654
0.03992033 -0.48002982 -0.027095318
0.034732331 0.15452117 0.085094452
0.033619329 0.22027212 -0.097173691
0.035521332 0.051931143 0.21419334
0.034844331 -0.1974299 0.10331249
0.035002332 -0.13919282 0.12920856
0.029633332 -0.031178832 0.18183947
0.029893331 0.052598119 0.21906567
0.02912033 -0.19656289 0.10835171
0.02340433 -0.1956979 0.11338329
0.023823332 -0.075556874 0.1667304
0.017441332 0.15497017 0.088973522
0.014419332 0.27998114 -0.25729036
0.012800332 0.34693515 -0.44273663
0.017697331 -0.1948359 0.11840534
0.01080633 -0.47453988 -0.00098133087
0.0070763305 -0.02826488 0.20147133
0.0074633285 0.055248141 0.23847628
0.006012328 -0.25744784 0.099922657
0.00016833097 0.15541512 0.092860699
0.0016843304 0.017837167 0.22645473
-0.0086096674 0.24505115 -0.15346766
-0.0047296658 -0.13349891 0.16404152
-0.014574669 0.24518615 -0.15207434
-0.011410668 -0.31207883 0.089663506
-0.010706671 -0.19055688 0.14340067
-0.012325667 -0.47019887 0.019756317
-0.020537667 0.24532115 -0.15067959
-0.014752671 0.095530152 0.26358843
-0.02349367 0.32187015 -0.36237431
-0.017577671 -0.38673091 0.061319351
-0.025522672 0.22166514 -0.083510399
-0.023297668 -0.38572383 0.066419601
-0.021629669 -0.13109088 0.17885065
-0.021226667 -0.06948781 0.20604944
-0.034316666 0.15629011 0.10065269
-0.035680667 0.18606716 0.018360615
-0.037324667 0.22193813 -0.080770493
-0.038846672 0.13134915 0.1712594
-0.03763967 -0.022525847 0.24037457
-0.044368669 0.24585414 -0.14509535
-0.037001669 0.06046617 0.2769413
-0.048057668 0.32235914 -0.35645151
-0.039391667 -0.25024891 0.14003658
-0.038456671 -0.12870085 0.19359255
-0.049116671 0.22220916 -0.078026295
-0.048037671 0.061754167 0.28648567
-0.061691672 0.34836715 -0.42463064
-0.058913663 0.18662614 0.023697376
-0.060900673 0.22247815 -0.075280666
-0.054273665 -0.020402849 0.25484037
-0.06788367 0.34848315 -0.42311954
-0.059040666 0.063035131 0.29599953
-0.067215666 0.13207614 0.17764759
-0.065321669 -0.018997848 0.26444674
-0.065096676 0.096886158 0.27474737
-0.078707665 0.32296216 -0.34903669
-0.066884667 -0.18216288 0.19280338
-0.070386663 0.026622117 0.28894758
-0.073090672 -0.24494791 0.16979027
-0.072456673 -0.18133581 0.1977005
-0.080178663 0.15742815 0.11108637
-0.08211267 0.18717617 0.029044628
-0.077430665 -0.12319589 0.22772455
-0.081834674 -0.016902864 0.27880239
-0.08566767 -0.3748188 0.12197351
-0.083578676 -0.1796869 0.20747566
-0.082964674 -0.12241781 0.23256826
-0.091622666 0.15770817 0.1137023
-0.10032366 0.28240615 -0.23001146
-0.10318567 0.32343614 -0.34309769
-0.091286674 -0.37384284 0.12697649
-0.089829668 -0.24232781 0.18456364
-0.094665676 -0.17804682 0.2172184
-0.10306066 0.15798515 0.11632252
-0.10527767 0.18771917 0.034404278
-0.098801672 -0.059162855 0.27370548
-0.10684867 0.13307416 0.18662643
-0.10319567 0.03057915 0.31737852
-0.12152067 0.32378715 -0.3386364
-0.10649566 -0.23972785 0.19926834
-0.11684667 0.18798816 0.037088394
-0.10863666 0.031233132 0.32209158
-0.10971268 0.098055124 0.28472662
-0.12262768 0.18812114 0.038431644
-0.11464767 -0.012761831 0.30731535
-0.12749267 0.24766111 -0.12547255
-0.13373066 0.32401913 -0.33566046
-0.11926067 -0.36900187 0.15187168
-0.11674567 -0.17479289 0.23661566
-0.11522067 -0.056998849 0.28801346
-0.11949366 0.032535136 0.33149767
-0.13341267 0.24778712 -0.1240654
-0.11899567 0.069965124 0.34781837
-0.13983166 0.32413411 -0.33417368
-0.12308668 -0.23714781 0.21390438
-0.12067766 -0.056281805 0.29276943
-0.13933267 0.24791217 -0.12265873
-0.14238867 0.28325915 -0.21990871
-0.13223667 -0.5016818 0.10313129
-0.13732167 0.15880615 0.12419748
-0.13032266 0.033830166 0.34087467
-0.15203066 0.32436311 -0.33119345
-0.13490267 -0.29178989 0.19908762
-0.13410968 -0.2354399 0.22362566
-0.13322267 -0.17237389 0.25108671
-0.14074066 0.13390917 0.19435549
-0.14302367 0.15894115 0.12551451
-0.15116367 0.24816114 -0.11984253
-0.13518567 0.071822166 0.36180449
-0.14042167 -0.29089487 0.20397234
-0.13869867 -0.17157185 0.25589466
-0.15150566 0.18878216 0.045157433
-0.15485467 0.22456312 -0.053216457
-0.14177766 -0.0093588829 0.3308835
-0.15707567 0.24828416 -0.11843348
-0.16038267 0.28361815 -0.2155714
-0.14309266 0.098910153 0.2922473
-0.14593267 -0.29000187 0.20885038
-0.14242966 -0.053428888 0.31172132
-0.14901868 -0.49850082 0.11818933
-0.15727566 0.18891215 0.046506405
-0.16298667 0.24840814 -0.11702347
-0.15143667 -0.28911185 0.21372128
-0.14876767 -0.11323285 0.29014635
-0.15257667 -0.008009851 0.34026241
-0.16889466 0.24853116 -0.11561251
-0.15158767 0.072582126 0.36788559
-0.15420067 -0.11247981 0.29489851
-0.16016766 -0.49639285 0.12819147
-0.15933867 -0.44307089 0.15134335
-0.16241966 -0.2873379 0.22343969
-0.17457166 0.18930113 0.050553322
-0.16789867 -0.28645492 0.22828531
-0.17041567 -0.44105983 0.16124344
-0.17720068 0.15974116 0.13342428
-0.17085767 0.099609137 0.29854059
-0.19464868 0.32515311 -0.32075262
-0.17460167 -0.35950387 0.20108938
-0.17337067 -0.28557384 0.23312473
-0.17139366 -0.16680181 0.28459549
-0.18289167 0.15987313 0.1347456
-0.18609267 0.18955815 0.053255558
-0.20072865 0.32526416 -0.31925869
-0.17788267 -0.22869289 0.26221132
-0.17681667 -0.16601384 0.28935337
-0.17482966 -0.049204886 0.33993673
-0.18697268 -0.43806183 0.17603731
-0.19144768 0.13512713 0.20600367
-0.20162967 0.22556013 -0.042119503
-0.18450066 0.073428154 0.37529039
-0.18663567 -0.10800481 0.32325554
-0.19341767 -0.49013782 0.15800571
-0.18933266 0.040838122 0.39196062
-0.19201466 -0.10726583 0.32795668
-0.20562968 0.16039413 0.14003849
-0.21330467 0.22580415 -0.039338589
-0.22502568 0.32570416 -0.31327772
-0.20197666 -0.35484791 0.22541571
-0.19627768 -0.046424866 0.35860872
-0.21130866 0.16052312 0.14136457
-0.21485966 0.19019216 0.060023308
-0.19996566 0.042091131 0.40116167
-0.22619668 0.28490013 -0.19962168
-0.20498967 -0.22454691 0.28609133
-0.20162067 -0.045733869 0.36325932
-0.22496867 0.22604716 -0.036554337
-0.22785968 0.24973416 -0.10147572
-0.20640668 0.07398212 0.38024759
-0.21038768 -0.22372389 0.29084635
-0.21686867 -0.27860689 0.27158737
-0.22833467 0.16090816 0.1453433
-0.24409968 0.28524011 -0.19525957
-0.22071767 0.10083312 0.30992126
-0.21760467 -0.04367286 0.37717056
-0.24245167 0.22640812 -0.032374382
-0.22203568 0.00059115887 0.40055037
-0.24550965 0.25008613 -0.097219467
-0.22527468 -0.15901387 0.33185959
-0.23062167 -0.15824687 0.33654833
-0.23730868 -0.48194885 0.19733143
-0.23621866 -0.42920887 0.22001171
-0.25409666 0.22664613 -0.029583454
-0.23261067 0.0018891692 0.40972471
-0.23843467 -0.27517688 0.2906456
-0.24275967 -0.48093688 0.20221472
-0.23788768 0.002536118 0.4143014
-0.26314068 0.25043416 -0.092960358
-0.23921067 0.074797153 0.38770962
-0.24283066 0.10136312 0.31500244
-0.24380666 -0.27432489 0.29539156
-0.24262068 -0.21883082 0.31922626
-0.26078668 0.19118112 0.070890427
-0.24220467 0.047039151 0.43769646
-0.24661767 -0.15595484 0.35057163
-0.24540067 -0.099977851 0.37459755
-0.25249666 -0.42630291 0.2345376
-0.25013268 0.075064123 0.39020348
-0.25387666 0.10162616 0.31754971
-0.25069866 -0.0992589 0.37922239
-0.27736366 0.22711712 -0.023993492
-0.25863668 -0.21641386 0.33332253
-0.25724468 -0.15443683 0.35988569
-0.25598967 -0.098542809 0.38384151
-0.25465068 -0.038924873 0.40939569
-0.26330867 -0.42437887 0.24418449
-0.27797568 0.19154412 0.074979305
-0.26254767 -0.1536808 0.36453247
-0.26870367 -0.42341983 0.2489953
-0.27561966 0.13706714 0.22556973
-0.27931568 0.16203415 0.15732765
-0.28370166 0.19166416 0.07634449
-0.26416466 0.0057431459 0.43708754
-0.29770067 0.28623813 -0.1821394
-0.26927766 -0.2148118 0.34268332
-0.26784268 -0.1529268 0.36917257
-0.26516867 -0.037582874 0.41854334
-0.28497267 0.16215712 0.15866232
-0.29479367 0.22746515 -0.019792557
-0.27760366 -0.34212589 0.29255772
-0.27458766 -0.21401381 0.34735537
-0.27313167 -0.15217483 0.37380648
-0.27708066 -0.095693827 0.40225649
-0.31553167 0.28656316 -0.17775536
-0.28285468 0.075854123 0.39771032
-0.28697166 0.10240012 0.32520962
-0.28368667 -0.15067685 0.3830533
-0.28089467 -0.035584867 0.43221569
-0.30658868 0.19213915 0.081807613
-0.28830168 0.075983167 0.39896536
-0.28895268 -0.14992988 0.3876667
-0.28612268 -0.034921885 0.43676043
-0.30358568 0.13768911 0.23213434
-0.30757368 0.16264313 0.16401339
-0.31800467 0.22792214 -0.014183521
-0.29026467 0.0089111328 0.45971346
-0.28974766 0.051085114 0.46854258
-0.29798767 0.10265416 0.32777071
-0.30091766 -0.41772091 0.27772236
-0.33334467 0.28688312 -0.17336559
-0.30425867 -0.33769286 0.3161993
-0.30242068 -0.2650969 0.34714651
-0.30932468 -0.53772092 0.23093128
-0.30176368 -0.032942832 0.45035553
-0.32034466 0.13805616 0.23608351
-0.31298167 -0.26344788 0.35646629
-0.31155068 -0.20848691 0.37986469
-0.32006967 -0.53566289 0.24058342
-0.31692567 -0.41490483 0.29198933
-0.31371668 -0.090777874 0.43422365
-0.31215566 -0.031632841 0.4593854
-0.32362166 -0.46607292 0.2745657
-0.32550368 0.10328013 0.33418751
-0.32895467 -0.46510184 0.27933264
-0.32756168 -0.41303885 0.30146646
-0.34656966 0.19295317 0.091400623
-0.35276768 0.22859514 -0.0057454109
-0.32135665 0.012658119 0.48665428
-0.32203966 0.051863134 0.47595263
-0.32638866 0.076877117 0.40777349
-0.32562268 -0.14475882 0.41977644
-0.33613366 -0.53259683 0.25500727
-0.35855368 0.22870612 -0.0043373108
-0.33816767 -0.41118288 0.31091452
-0.35797566 0.19318116 0.094148636
-0.33603567 -0.14329886 0.42889166
-0.34680468 -0.53056586 0.26458645
-0.33285868 -0.029031873 0.47737169
-0.34490368 -0.46220481 0.29358864
-0.36367667 0.19329417 0.095523357
-0.38075668 0.28772014 -0.16163254
-0.34748268 0.10377216 0.3393383
-0.34449768 -0.25854886 0.38426733
-0.34123167 -0.14257181 0.4334383
-0.35212967 -0.52955389 0.26936626
-0.35297468 0.10389411 0.34062672
-0.35178366 -0.32985687 0.35832167
-0.35402367 -0.40841687 0.32503653
-0.36495766 0.13901216 0.24664927
-0.35494766 -0.25693285 0.3934803
-0.35929468 -0.40749991 0.3297286
-0.35427067 0.052622139 0.48339939
-0.35678068 -0.14040089 0.44704437
-0.35963666 0.05274713 0.48464346
-0.36375567 -0.20076191 0.42573833
-0.38645867 0.16428316 0.18284559
-0.39901266 0.22946715 0.0055437088
-0.36500266 0.052871168 0.48588943
-0.40355867 0.25307316 -0.058660507
-0.36893865 -0.19999981 0.43029165
-0.36370867 -0.02517885 0.50416327
-0.37661266 -0.45647883 0.32191563
-0.39784366 0.19396514 0.10378933
-0.37060267 -0.083229899 0.48382473
-0.38030767 -0.40385485 0.34843349
-0.38920468 -0.52254486 0.30262566
-0.42103368 0.25338513 -0.054346561
-0.39136368 0.10473114 0.34968138
-0.39077166 -0.40204692 0.35774469
-0.39599267 -0.40114582 0.36239052
-0.41454968 0.16484612 0.18960953
-0.43267566 0.25359017 -0.051465511
-0.43985265 0.28872716 -0.14691067
-0.40231866 0.10496616 0.35227633
-0.38923168 -0.022013843 0.5263195
-0.39715767 0.053605139 0.49338341
-0.40231866 0.078589141 0.42552853
-0.40806466 -0.4508419 0.34999371
-0.40305868 -0.13398683 0.48751736
-0.42612165 0.14027715 0.26127052
-0.43138164 0.16517812 0.19367743
-0.41426367 -0.31968892 0.41363955
-0.42070568 -0.51663888 0.33086348
-0.40446568 -0.020133853 0.53953743
-0.45090067 0.23041314 0.01829958
-0.45593768 0.25399613 -0.045698643
-0.41146168 -0.077872872 0.51942158
-0.42458266 -0.3180238 0.42276859
-0.43115169 -0.5146898 0.34022141
-0.41653866 -0.07720983 0.52384329
-0.4288947 -0.44713187 0.36857843
-0.42732269 -0.24584985 0.4572463
-0.41964266 -0.018268883 0.55270433
-0.43235368 -0.39490581 0.39472771
-0.46031868 0.19515014 0.1190176
-0.43751967 -0.3940239 0.3993206
-0.46598768 0.19525516 0.12040854
-0.47391468 0.23082113 0.023987293
-0.42826867 0.025332153 0.57919741
-0.44606769 0.10588515 0.36269569
-0.4650057 0.16582912 0.20183849
-0.4399457 0.054555118 0.50342941
-0.44513768 -0.31472087 0.44094753
-0.43868065 -0.12909889 0.51865053
-0.44783467 -0.39226592 0.40848637
-0.4773227 0.19546413 0.1231885
-0.44182968 -0.073925853 0.54586363
-0.43978769 -0.015803874 0.5701766
-0.49657565 0.25469017 -0.03557539
-0.45636469 0.079751134 0.43832541
-0.48864865 0.19567013 0.12597132
-0.46176064 0.079864144 0.43961048
-0.45600867 -0.18734682 0.50670052
-0.45189965 -0.072623849 0.55462837
-0.46508366 -0.44073188 0.40084648
-0.46325368 -0.38964689 0.42218828
-0.49297965 0.16635811 0.20866156
-0.49996966 0.19587517 0.12875843
-0.50838768 0.23142016 0.032542706
-0.47781366 -0.50604582 0.38200474
-0.47350168 -0.38791192 0.43129158
-0.47197169 0.055245161 0.51100731
-0.4711777 -0.18517089 0.5199995
-0.48296469 -0.50509787 0.38661337
-0.52555168 0.25517213 -0.028325558
-0.47821766 -0.23817492 0.50203562
-0.48971069 -0.54724789 0.3732605
-0.48561567 -0.4371258 0.41914368
-0.51693666 0.19617915 0.13294649
-0.48327166 -0.23741782 0.50648069
-0.49073267 -0.43622983 0.42370033
-0.52259165 0.19627917 0.13434362
-0.50000769 -0.54530287 0.38249731
-0.48196167 -0.068756819 0.58078671
-0.52091265 0.16687512 0.2155056
-0.49949169 0.080643117 0.44863272
-0.52649468 0.16697717 0.21687651
-0.53389168 0.19647813 0.13714027
-0.5427987 0.23200315 0.04112339
-0.49839467 -0.23515987 0.51977873
-0.51027566 -0.54336786 0.39170647
-0.50861967 -0.50039482 0.4095645
-0.51025766 0.080861151 0.45121956
-0.51695067 0.10731012 0.3797493
-0.53130668 0.14232117 0.28677559
-0.55425668 0.23219413 0.043992519
-0.50844568 -0.23366284 0.52861738
-0.51621765 -0.43178689 0.4463973
-0.51459265 0.056137145 0.52116632
-0.56604767 0.25582814 -0.018143654
-0.5210197 0.081077158 0.45380831
-0.51346165 -0.23291886 0.53302431
-0.50766164 -0.067007899 0.59381533
-0.57182568 0.25592011 -0.016685486
-0.51847064 -0.23217487 0.53742743
-0.54786265 0.14262813 0.29083157
-0.56211567 0.19696814 0.14414644
-0.57142967 0.23247713 0.048296452
-0.53411067 -0.49575186 0.43235254
-0.53055066 0.056462169 0.52499151
-0.53034967 -0.23435986 0.52704763
-0.53395569 -0.12594283 0.54560232
-0.54601264 -0.53667283 0.42373943
-0.54118365 0.056677163 0.52754831
-0.54789567 0.081608117 0.4603014
-0.54172266 -0.18598485 0.52215242
-0.60069269 0.25637412 -0.0093874931
-0.56044364 0.10814512 0.39032459
-0.54806966 -0.1877228 0.51321268
-0.55297267 -0.38247585 0.46452236
-0.55180967 0.056889117 0.5301075
-0.60646069 0.25646317 -0.0079255104
-0.56227165 -0.49758387 0.42710829
-0.55015564 -0.021101832 0.54639244
-0.5593977 -0.38453484 0.45540857
-0.58779466 0.16806811 0.23201847
-0.55542767 0.018909156 0.54792356
-0.56393069 -0.3121289 0.4649353
-0.56875265 -0.49983788 0.41787767
-0.60156465 0.19763511 0.15398932
-0.56177169 0.017489135 0.5390563
-0.56243169 0.057100117 0.53267241
-0.57673067 0.10845011 0.39430666
-0.56858969 -0.24530888 0.47308445
-0.56723166 -0.19297385 0.48622131
-0.57632065 -0.54334784 0.39826345
-0.56432664 -0.080998898 0.51433039
-0.56813467 0.016064167 0.53016233
-0.58215564 0.10855114 0.3956337
-0.58285266 -0.54568589 0.38894463
-0.57071966 -0.082580805 0.50536346
-0.58008164 -0.43990791 0.41553736
-0.60447967 0.16835612 0.23616552
-0.58010066 0.082229137 0.46812534
-0.58331865 -0.31800783 0.43750334
-0.5801037 -0.1965059 0.46809053
-0.57854366 -0.13753486 0.48293447
-0.58091968 0.013198137 0.51229143
-0.58546269 0.082330167 0.46943235
-0.59300166 0.10875112 0.39829445
-0.58797568 -0.2508719 0.44572353
-0.59597766 -0.55038691 0.37021828
-0.61559767 0.16854513 0.23893642
-0.59447968 -0.25274086 0.43654346
-0.62969565 0.19809717 0.16104555
-0.60100168 -0.25461483 0.42733765
-0.61945164 0.14390713 0.30850172
-0.63531667 0.19818813 0.16245937
-0.59908068 0.051319122 0.49602365
-0.61288965 -0.4508419 0.36890554
-0.62494767 0.14400214 0.30986643
-0.61410868 -0.25838482 0.40883732
-0.62132066 -0.51815891 0.34298372
-0.62264764 -0.3299619 0.38185263
-0.61602968 -0.093819857 0.4417963
-0.64336365 0.16901112 0.2458744
-0.65778965 0.19854814 0.16812038
-0.62507969 0.045738161 0.45973635
-0.63392669 -0.26409185 0.38086462
-0.63951266 -0.45973384 0.3310585
-0.64692068 0.14437711 0.31533766
-0.63286269 0.0015271306 0.43968248
-0.64811069 -0.52752388 0.30480957
-0.66000468 0.16928416 0.25004864
-0.64928168 -0.33807683 0.34416151
-0.64067966 -0.042324841 0.41966152
-0.65149468 -0.41417086 0.32473469
-0.67462867 0.19881314 0.17237759
-0.65727568 -0.1581049 0.37225628
-0.65393865 -0.045446873 0.40109539
-0.66647768 -0.46875882 0.29272127
-0.69693768 0.23442912 0.080084324
-0.65932566 -0.0044368505 0.4026866
-0.70262468 0.23451215 0.081537724
-0.68539464 -0.42513192 0.27662039
-0.67579168 0.10838616 0.40484238
-0.68770367 -0.27962291 0.30494452
-0.68478268 0.03287816 0.37639952
-0.69452268 -0.2815969 0.2953167
-0.69037968 0.067955136 0.37642241
-0.69777566 -0.16873384 0.31531143
-0.69605768 -0.11376584 0.32950449
-0.70599568 -0.43180585 0.24737835
-0.71451068 -0.48487985 0.2244215
-0.71290767 -0.43404782 0.23756742
-0.71654868 -0.11889291 0.30074644
-0.72895366 -0.29157686 0.24669838
-0.72364765 0.14563113 0.33460236
-0.72554266 0.024065137 0.31949472
-0.72434169 0.060902119 0.32907438
-0.7230987 0.098986149 0.33897972
-0.73212767 -0.17777383 0.26700449
-0.72838366 -0.063027859 0.29684639
-0.72911769 0.14571714 0.33598566
-0.7324127 0.02257812 0.30990458
-0.73906469 -0.17960286 0.25724936
-0.73528266 -0.06466186 0.28718567
-0.74302667 0.17058915 0.27103567
-0.74806666 -0.24291182 0.23142242
-0.74498266 0.056607127 0.30029535
-0.76638567 -0.37394989 0.17838955
-0.76001465 -0.18512881 0.22778559
-0.76161969 -0.027600884 0.25965357
-0.75885367 0.053717136 0.28095341
-0.77347869 -0.37613189 0.16834641
-0.77614868 -0.45460689 0.14778662
-0.76511467 0.17091912 0.27666759
-0.77621967 -0.25074589 0.19173956
-0.77217466 -0.13284588 0.22267151
-0.78097665 0.20039713 0.19950533
-0.78331566 -0.25272286 0.18173742
-0.77715468 -0.074595809 0.22853851
-0.79043567 -0.25470781 0.17169952
-0.78818464 0.010473132 0.23203468
-0.78686965 0.047872126 0.24188852
-0.79539067 -0.19447982 0.17802763
-0.79079968 0.13474315 0.2553525
-0.78958368 0.16908014 0.26441145
-0.79525864 0.0089341402 0.22215652
-0.80929965 -0.38716888 0.11762428
-0.80671269 -0.31420684 0.13687849
-0.79785568 0.13341212 0.24554348
-0.81392467 -0.31631088 0.1266923
-0.80947965 0.005839169 0.20229864
-0.81690067 -0.20017588 0.1477704
-0.81203264 0.13073611 0.22583628
-0.81662369 0.0042821169 0.19232035
-0.82411766 -0.20208991 0.13761854
-0.81915665 0.12939012 0.21593332
-0.81789166 0.16396111 0.22510862
-0.82003266 0.20093912 0.20957851
-0.83820266 -0.00042283535 0.16218567
-0.84153068 -0.089925885 0.13835669
-0.84713268 -0.047092855 0.14005232
-0.84544265 -0.0020028353 0.15207434
-0.85109067 -0.15273285 0.11188459
-0.84880269 -0.091661811 0.12816763
-0.85270768 -0.0035888553 0.14192867
-0.85127264 0.034393132 0.15207052
-0.85705066 0.072199166 0.15244246
-0.86793369 -0.2137239 0.075978279
-0.86240268 0.12120813 0.1558094
-0.87992465 -0.33561885 0.033460617
-0.86834168 0.15481514 0.15505743
-0.86677766 0.19527715 0.16591072
-0.87640464 -0.053789854 0.099103451
-0.87464964 -0.0083848834 0.11128235
-0.87317365 0.029796124 0.12152433
-0.88051665 -0.16017485 0.070569515
-0.87700969 0.11843914 0.13549948
-0.87898266 0.067791164 0.12189436
-0.88789564 0.026702166 0.10098934
-0.88634169 0.066310167 0.11164427
-0.90284967 -0.1658318 0.039209366
-0.90040368 -0.10400188 0.055869579
-0.91747266 -0.34663892 -0.01958847
-0.91034365 -0.16773188 0.028686523
