# .PCD v0.7 - Point Cloud Data file format
VERSION 0.7
FIELDS x y z
SIZE 4 4 4
TYPE F F F
COUNT 1 1 1
WIDTH 1
HEIGHT 1024
VIEWPOINT 0 0 0 1 0 0 0
POINTS 1024
DATA ascii
0.89096969 0.13153559 -0.13569975
0.88379472 0.18082261 -0.12756681
0.8855527 0.21065658 -0.14110088
0.87879568 0.13165957 -0.13617659
0.88248271 0.25396156 -0.16476059
0.8762567 0.087168574 -0.16410589
0.87009072 0.087285578 -0.16390753
0.8656677 0.18090361 -0.12914085
0.85776669 0.08751756 -0.16351366
0.8422007 0.21164459 -0.13687086
0.84506273 0.25486261 -0.16001081
0.86479968 0.36922258 -0.31960773
0.84446973 0.46182659 -0.15522051
0.86916173 0.31676656 -0.40619755
0.84632868 0.42160857 -0.22023869
0.83305168 0.25481057 -0.1620326
0.83678472 0.29892659 -0.24352169
0.81734669 0.18109459 -0.13331652
0.81810772 0.21165961 -0.13965559
0.84007871 0.31964761 -0.37513351
0.8103447 0.25362259 -0.17725086
0.81499571 -0.0057523847 -0.21654463
0.82182872 0.37311459 -0.27427387
0.81108868 0.42450657 -0.18353176
0.77602273 0.23272657 0.062677383
0.81884968 -0.057706416 -0.30188847
0.80782968 -0.0045304298 -0.20808268
0.8143577 0.29739356 -0.26365471
0.76896471 0.2035256 0.072409153
0.7971077 0.42565259 -0.16897488
0.77099073 0.10864156 0.0037751198
0.81504369 -0.10757536 -0.3769598
0.7699967 0.32209158 0.012367249
0.79013968 0.42622358 -0.1617198
0.78192168 0.46655658 -0.090696812
0.76410973 0.1096766 0.01168251
0.79713368 -0.053805411 -0.27593088
0.74819571 0.16001457 0.09900856
0.7451117 0.20400858 0.074222088
0.74940473 0.23035157 0.036242485
0.75736773 0.39219457 -0.0341959
0.73929471 0.20399261 0.073413372
0.74104571 0.23263961 0.057803154
0.75467473 0.2650376 -0.063705444
0.7755937 -0.049944401 -0.25019646
0.73675972 0.11378157 0.043102264
0.73080671 0.15996259 0.096591473
0.7352137 0.23262358 0.056993484
0.75819373 0.0039066076 -0.14950466
0.75169468 0.31318259 -0.091108799
0.74859172 0.4296656 -0.11780453
0.71921468 0.15992558 0.094978333
0.74570572 0.38360161 -0.14691591
0.7160247 0.20392162 0.070178509
0.73720068 0.0074625611 -0.12475061
0.74284267 0.3057456 -0.17669249
0.74979872 -0.09529537 -0.2980876
0.71434969 0.27446759 0.030899525
0.73023671 0.0086395741 -0.11654282
0.7084977 0.27444959 0.030085087
0.73302072 -0.042339385 -0.19937372
0.72329372 0.0098136067 -0.10835981
0.73681968 0.3006826 -0.23492765
0.73677373 0.33235061 -0.23449278
0.69602269 0.15984356 0.091761112
0.68288571 0.1218316 0.10493755
0.69094068 0.27439362 0.027645111
0.70257068 0.013309598 -0.083943844
0.70434272 0.5101496 -0.10094357
0.7050097 -0.037353396 -0.1659627
0.69569671 0.014467597 -0.075847626
0.71275473 0.37661958 -0.24091291
0.69767869 0.3394106 -0.15401077
0.70203471 0.42443758 -0.19653273
0.66946667 0.20375562 0.063722134
0.71111369 -0.14831036 -0.34628868
0.67601168 0.32183862 -0.00071144104
0.7020607 0.3754496 -0.25716591
0.68726271 0.50962758 -0.11148262
0.66394371 0.082298577 0.059956551
0.69310671 -0.084692419 -0.22965956
0.69138771 0.42337659 -0.21258879
0.65782273 0.20370859 0.062111378
0.6616677 0.27429157 0.023587227
0.67671472 0.50875759 -0.12716389
0.65060472 0.084382594 0.075409412
0.64760768 0.12234956 0.10570431
0.68973672 -0.14408845 -0.32013369
0.67911768 -0.082085431 -0.21279049
0.70051968 -0.20704645 -0.42912674
0.64617771 0.20366061 0.060500145
0.65483069 0.021335602 -0.02774477
0.69330972 -0.20554346 -0.4201827
0.64035571 0.20363456 0.059695244
0.66520268 -0.079496443 -0.19601679
0.64808071 0.022465587 -0.019805908
0.64817172 0.35095358 -0.020739555
0.6302557 0.12226558 0.1033082
0.64985573 -0.027581394 -0.10024691
0.64134771 0.023593605 -0.011885643
0.6604827 0.45951459 -0.21061754
0.6241287 0.088511586 0.10606909
0.62446868 0.12223661 0.10251141
0.62641269 0.15954757 0.082135201
0.62067068 0.27412862 0.017911434
0.62946272 -0.023983419 -0.075973511
0.62671471 0.39227659 -0.046629906
0.6288467 0.43396258 -0.069402695
0.6090017 0.15946162 0.079733372
0.61123371 0.20350158 0.055673122
0.61481172 0.27410358 0.017101288
0.62079972 0.3922556 -0.047449589
0.63893372 0.45752159 -0.24292088
0.65044773 -0.1966334 -0.36704159
0.60319573 0.15943158 0.078933239
0.6335547 -0.13303739 -0.25146866
0.6238867 -0.071833432 -0.14625072
0.62661469 -0.13167745 -0.24299288
0.60309172 0.27405161 0.015481472
0.61104172 0.43390357 -0.071873665
0.6363107 -0.19370335 -0.34952974
0.58817071 0.090062618 0.1152153
0.60305268 0.39219159 -0.049910545
0.62927073 -0.19224638 -0.34081268
0.5823977 0.090027571 0.11442232
0.58932573 0.2320556 0.03678751
0.59137172 0.2739976 0.013863087
0.58808273 0.032482564 0.050714493
0.59511667 0.35075259 -0.028091908
0.62224972 -0.19079345 -0.3321166
0.58780771 0.3215006 -0.01293087
0.57764173 0.2319966 0.035177231
0.59461373 0.58682358 -0.15881157
0.56835568 0.1592406 0.074139118
0.58320373 -0.064322412 -0.097300529
0.56838071 0.035756588 0.07384634
0.57742172 0.35067761 -0.030538559
0.56595671 0.23193556 0.033568382
0.58605772 0.55056155 -0.20089865
0.5701527 0.32142156 -0.015369892
0.56206071 0.27385557 0.0098185539
0.56754571 0.39205158 -0.05482769
0.58741671 -0.18360537 -0.28901386
0.55599773 -0.011090398 0.011362553
0.57178968 0.58605659 -0.17669344
0.55972171 0.35059959 -0.032984734
0.5805037 -0.18218237 -0.2804637
0.57360971 -0.18076342 -0.27193975
0.54128969 0.20312756 0.046043396
0.54257971 0.23180759 0.030350208
0.5479207 0.35054457 -0.034614563
0.54313469 -0.056959391 -0.049143791
0.54201871 0.35051757 -0.035429478
0.54910469 0.50972056 -0.12254667
0.57179469 -0.2640844 -0.40150881
0.52604073 0.1216566 0.088989258
0.52768469 0.15899259 0.068556309
0.5296247 0.2030586 0.044440269
0.54471469 -0.11570543 -0.1431098
0.5229727 0.043271601 0.1271143
0.53611672 0.35048962 -0.036243439
0.53794068 0.39192361 -0.058919907
0.55303472 -0.17653745 -0.24651146
0.52024472 0.12161762 0.088195324
0.5380007 -0.11440235 -0.13493061
0.53530872 0.46745658 -0.10109568
0.5191927 0.23167157 0.02713728
0.52100068 0.27363658 0.0041661263
0.52430868 0.35043156 -0.037872791
0.5278917 0.4335866 -0.083391666
0.5086537 0.12153661 0.086610317
0.51675373 -0.052131414 -0.017468452
0.51840472 0.35040158 -0.038687706
0.5233897 0.46740958 -0.10274458
0.51600373 0.43353558 -0.085036755
0.49572569 0.089442611 0.10255527
0.50045073 0.2028746 0.040438175
0.50164568 0.23156458 0.024727345
0.49737072 -0.00088340044 0.080931187
0.49381769 0.043641567 0.12763548
0.51834369 0.63243461 -0.19478989
0.4935897 0.32103157 -0.025921822
0.50626373 0.6324026 -0.19647169
0.49816573 0.4334566 -0.087500572
0.50563371 -0.16684037 -0.18798876
0.48578271 0.27343059 -0.00067281723
0.49358171 0.46728659 -0.1068697
0.47534969 0.1586346 0.061394215
0.47710171 0.20271957 0.037242413
0.48627171 0.43340158 -0.089143753
0.48929772 0.50950062 -0.13083649
0.4680627 0.12123758 0.081067085
0.48633769 0.58651257 -0.17387676
0.48032272 0.4333736 -0.08996582
0.46101969 0.089171588 0.097823143
0.46371171 0.15854859 0.059805393
0.47114569 0.3501516 -0.045194626
0.4743737 0.43334559 -0.090786457
0.45265469 0.0068525672 0.13391542
0.46972272 0.46718159 -0.11016655
0.4713417 0.50942862 -0.13332176
0.45875269 -0.099105418 -0.03853178
0.45821771 0.32082659 -0.0307827
0.4656707 -0.15870744 -0.13871574
0.45225471 -0.097857416 -0.030637741
0.46100971 0.5532946 -0.1590538
0.4622477 0.58643258 -0.17721987
0.46396071 0.63228357 -0.20234346
0.45936769 0.50937963 -0.13497877
0.43915471 -0.038018405 0.075561523
0.4431147 0.23117459 0.016712189
0.45499972 0.55327159 -0.15988588
0.4346067 0.1583246 0.055836201
0.43930569 -0.095374405 -0.014910698
0.4387877 0.27312857 -0.0071167946
0.4304097 0.043100595 0.11901617
0.45019671 0.58639157 -0.17889261
0.4405207 0.32071757 -0.033211708
0.44461772 0.43319958 -0.094889641
0.44585171 0.46707159 -0.11346388
0.44739071 0.5093286 -0.13663578
0.43291071 0.27308857 -0.007920742
0.42703271 0.27304858 -0.0087256432
0.41887271 0.042993605 0.1174531
0.4369697 0.55320263 -0.1623826
0.43541169 0.50927663 -0.13829088
0.45061469 -0.31643647 -0.37339067
0.4074837 -0.032299399 0.11346626
0.40610969 0.0074706078 0.13531828
0.42494372 0.55315459 -0.16404867
0.4285517 -0.23270541 -0.22139359
0.4069857 0.2022016 0.027665138
0.40156069 0.042829573 0.11510849
0.42192072 -0.23126644 -0.21307755
0.39840269 0.12065756 0.071590424
0.4008387 -0.088021457 0.031767368
0.3957887 0.042773604 0.11432934
0.40748471 0.39124757 -0.07689476
0.41002369 0.46689558 -0.11840582
0.3925927 0.12060559 0.070802212
0.3938297 0.15798759 0.050285339
0.3962397 0.23082662 0.010313511
0.38884372 0.0072965622 0.13298655
0.39001569 0.042716563 0.11354733
0.41676471 -0.30858845 -0.3301487
0.38241869 -0.027789414 0.14343834
0.38424072 0.042659581 0.11276722
0.38181269 -0.084398448 0.054833412
0.39209771 0.46680358 -0.12087679
0.3763417 0.1578356 0.047911167
0.38885072 0.55300462 -0.16904163
0.3837257 0.39110458 -0.080156803
0.38504872 0.43287858 -0.10309076
0.38901171 -0.22413939 -0.17182446
0.37051171 0.15778357 0.047120094
0.3718867 0.20191461 0.022889137
0.36475271 -0.026912391 0.14853334
0.3740927 0.27266359 -0.015958786
0.37908772 0.43284458 -0.10390949
0.3899937 -0.30240446 -0.29598475
0.3635307 0.12033761 0.066864491
0.3660337 0.2018646 0.022093296
0.36292371 -0.080810368 0.077719212
0.36005071 0.0069925785 0.12910509
0.3768127 0.55295259 -0.1707058
0.3705667 0.34952861 -0.058996677
0.37184072 0.39103061 -0.081786633
0.37312371 0.43281057 -0.10472965
0.3741647 0.4667086 -0.12334585
0.37546271 0.50899863 -0.14656973
0.36375871 0.32020158 -0.043721676
0.3658987 0.39099258 -0.082601547
0.36716071 0.43277559 -0.10554981
0.35094669 0.088168561 0.082897186
0.35301369 0.1576246 0.044747353
0.3543267 0.20176458 0.020503521
0.3475177 -0.027107418 0.14621639
0.35871971 0.34944761 -0.060618877
0.34514672 0.088109612 0.082113266
0.35054269 0.27248061 -0.019169807
0.35523272 0.4327046 -0.10718775
0.3562257 0.4666096 -0.12581348
0.35746372 0.50890863 -0.14905071
0.33934471 0.088050604 0.081330299
0.33802369 0.042177618 0.10653448
0.34806469 0.3908776 -0.085045815
0.34926769 0.4326686 -0.10800648
0.33675769 0.2016086 0.018117428
0.34011069 0.32002759 -0.046951771
0.34094071 0.34932262 -0.06304884
0.34211671 0.39083856 -0.085861683
0.3454577 0.50884759 -0.15070581
0.35033971 -0.29328138 -0.24543667
0.3286297 0.11999559 0.062143326
0.32554969 -0.073737383 0.12296009
0.33827671 0.4665086 -0.12828159
0.33465371 0.55276155 -0.17652845
0.33136469 0.43255958 -0.11046553
0.3161287 0.087806582 0.078201294
0.31799671 0.15729058 0.040006161
0.31489471 0.041921616 0.10342121
0.32862771 0.5527336 -0.17735958
0.3223677 0.31989259 -0.049372673
0.31116772 0.1198166 0.05978632
0.3081727 0.0064035654 0.12213421
0.3164497 0.31984657 -0.050178528
0.31831971 0.39067757 -0.089119911
0.31433269 0.46636859 -0.13157272
0.31542972 0.50868857 -0.1548419
0.30537972 -0.12649542 0.058270454
0.3004747 0.15711659 0.037638187
0.3023307 0.23003256 -0.002456665
0.31054169 0.55264658 -0.17984962
0.30461469 0.31975359 -0.051791668
0.30748171 0.43240759 -0.11373949
0.30834469 0.46633258 -0.13239479
0.2957367 0.20122761 0.012559414
0.3045117 0.5526166 -0.18068075
0.30150869 0.43236858 -0.1145587
0.28708771 0.087488592 0.074293137
0.28987271 0.20117158 0.01176548
0.29160771 0.27198958 -0.027186871
0.28596371 0.041587591 0.099538326
0.2983827 -0.28140038 -0.1793189
0.28678671 -0.12280339 0.081050396
0.28127569 0.087423563 0.073511124
0.27754271 -0.067999423 0.1590085
0.28017369 0.041518569 0.098762512
0.2983357 -0.36899143 -0.31722164
0.27710071 0.15687561 0.034484386
0.27438369 0.041449606 0.097986221
0.2825987 0.39042461 -0.094003677
0.2669917 -0.028097391 0.13543844
0.27293772 0.22975856 -0.0064396858
0.27390769 0.27183259 -0.029588699
0.27936572 0.5084886 -0.15980148
0.27915969 -0.2770254 -0.15488768
0.26832369 -0.11914641 0.10365629
0.26974571 0.34878457 -0.072763443
0.26219872 -0.11793441 0.11115217
0.2605367 0.20088059 0.0077991486
0.26472372 0.39029258 -0.096443653
0.25619972 0.27167159 -0.031989574
0.25121471 0.041164577 0.094884396
0.2600767 -0.27269346 -0.1306529
0.25368869 0.43204558 -0.12110567
0.25530171 0.50834858 -0.16310978
0.24390671 -0.11432439 0.13352823
0.2429257 0.20069957 0.0054235458
0.24598271 0.34859157 -0.075999737
0.24271771 -0.1928274 0.0109725
0.23382971 0.04094559 0.092561245
0.24240971 0.46591559 -0.14143753
0.23174571 0.22935259 -0.01200676
0.22803071 0.040870607 0.091787338
0.2364077 0.4658756 -0.1422596
0.2372427 0.50824058 -0.16558647
0.22012471 -0.068804383 0.15137529
0.2215497 0.0053035617 0.11056042
0.2304067 0.4658356 -0.14308167
0.23122171 0.50820363 -0.16641188
0.2285777 -0.26556641 -0.090689659
0.2242227 -0.1889134 0.034011364
0.2222037 0.34839159 -0.079233646
0.21147271 0.086590588 0.064155102
0.21205971 0.11870462 0.04646349
0.21625571 0.34834057 -0.080041885
0.2251327 -0.43070537 -0.34762669
0.2079127 -0.10819441 0.17146111
0.20564771 0.086517572 0.06337738
0.2062197 0.11863357 0.045681477
0.2035927 -0.028969407 0.12700224
0.2097847 0.31894356 -0.064683914
0.2123957 0.46571258 -0.14554691
0.2098577 -0.26134735 -0.066962719
0.19982371 0.086443603 0.062597275
0.2010287 0.15603358 0.024251461
0.2017947 0.20025957 -0.00011968613
0.2030227 0.27116257 -0.039188862
0.1984127 0.0049855709 0.10748243
0.2038487 0.3188886 -0.065487862
0.20507771 0.38982761 -0.10457563
0.1951707 0.15596461 0.023465157
0.1959147 0.2001946 -0.0009098053
0.1963997 0.22898459 -0.016775608
0.1971087 0.27110356 -0.03998661
0.20038471 0.46562859 -0.14718866
0.20175971 -0.34555346 -0.19219446
0.1907177 -0.10846442 0.16918945
0.1881717 0.086293578 0.061043262
0.19245571 0.3481316 -0.083273888
0.1938207 0.43160859 -0.12928391
0.1828547 0.1183446 0.042555332
0.1810507 0.0047395825 0.10517645
0.18914771 -0.34251541 -0.17590475
0.18510671 -0.25578445 -0.035618782
0.1758067 0.040171564 0.08482933
0.1823567 0.46550059 -0.14965487
0.18646571 -0.42080241 -0.29674768
0.17238371 0.19992959 -0.0040717125
0.16836271 -0.06959039 0.1445303
0.1728137 0.22872961 -0.01995182
0.17634571 0.46545759 -0.15047455
0.1653187 0.11812258 0.040212154
0.16649871 0.19986159 -0.0048627853
0.16367771 0.0044885874 0.10287237
0.16419071 0.040008605 0.083284378
0.1692377 0.38952959 -0.10945177
0.1703337 0.4654136 -0.15129757
0.1737027 -0.41754442 -0.27997446
0.1666947 -0.25165945 -0.012322903
0.1590227 0.085908592 0.057155132
0.15947171 0.11804658 0.039430141
0.1616037 0.27074057 -0.044779778
0.1632607 0.38947856 -0.11026478
0.1638457 0.43137559 -0.13337088
0.1673457 -0.41592437 -0.27162266
0.1605857 -0.25029343 -0.0045967102
0.1520897 0.0043165684 0.10133743
0.1567197 0.34780657 -0.088120461
0.15787971 -0.33500844 -0.13555145
0.1497577 0.27061456 -0.046375751
0.1513017 0.38937557 -0.11188984
0.14841071 -0.24757439 0.010794163
0.1455587 -0.17238337 0.1318202
0.14383471 0.27055156 -0.0471735
0.1404987 0.0041435957 0.099803448
0.1453217 0.38932359 -0.11270046
0.13907871 -0.1093114 0.16239452
0.1356837 0.085589588 0.054050446
0.1370547 0.19951558 -0.0088105202
0.1384847 0.31826061 -0.07433176
0.13929771 -0.33056241 -0.11159563
0.13333571 -0.10940939 0.16164112
0.1311637 0.19944459 -0.0096006393
0.12804571 -0.070241392 0.13921928
0.1277377 -0.16866547 0.15393639
0.1247777 0.15509558 0.014046192
0.1222807 -0.070337415 0.13846254
0.1255877 0.22819459 -0.026296616
0.1260547 0.27035856 -0.049568653
0.12658471 0.31814057 -0.075939655
0.12698171 -0.32762235 -0.09572649
0.1242307 -0.24218839 0.041339397
0.1218227 -0.16743439 0.16127443
0.1185077 0.11750257 0.03397131
0.12094471 0.34746557 -0.092963696
0.1182207 -0.24085337 0.048926353
0.11347871 0.19922858 -0.011967659
0.1158237 0.43098459 -0.13990784
0.1103527 -0.10980743 0.15863037
0.1049827 -0.070629418 0.13619041
0.10569771 0.0036056042 0.095206261
0.1094117 0.38900161 -0.11757469
0.1012777 0.15478861 0.010911465
0.099212706 -0.070728421 0.1354332
0.1027707 0.31789559 -0.079152584
0.095399708 0.15470958 0.010127544
0.096033707 0.22784257 -0.030259609
0.097431704 0.38889056 -0.11919785
0.098405704 -0.39844841 -0.1812005
0.094316706 -0.23555344 0.079084396
0.092640705 -0.16330546 0.18574953
0.090380706 -0.31891638 -0.048621655
0.083350703 0.11701256 0.029298306
0.085125707 0.34710962 -0.097803593
0.077487707 0.11692959 0.0285182
0.077759705 0.15447158 0.0077772141
0.076921701 0.038708568 0.071731091
0.082128704 -0.49983436 -0.32602072
0.076532707 -0.23162335 0.10150146
0.072976701 0.31757861 -0.083168507
0.073739707 0.43062359 -0.14562368
0.070629701 -0.23032147 0.10893631
0.065990701 0.15430957 0.0062131882
0.067014702 0.31751359 -0.083970547
0.067198701 0.34692562 -0.10022354
0.067660704 -0.39071244 -0.14096355
0.066261701 -0.31320637 -0.017620564
0.061050706 0.31744862 -0.08477354
0.061461702 0.38854957 -0.12406683
0.061704703 0.4305166 -0.14725447
0.054607704 0.22732961 -0.035801888
0.053416707 0.0027545691 0.0883255
0.057071701 -0.49304038 -0.29245758
0.048684705 0.22725457 -0.036592484
0.048888706 0.2694726 -0.059930801
0.049261704 0.34673756 -0.10264158
0.049387705 -0.38613147 -0.11707878
0.048318703 -0.30897242 0.005420208
0.046796706 -0.16419643 0.1797924
0.041938704 0.038147569 0.067121506
0.043150704 0.3172496 -0.087181568
0.043277703 0.34667361 -0.10344982
0.043322705 -0.38461345 -0.1091547
0.036406703 0.11632657 0.023073196
0.036833704 0.22710156 -0.038175583
0.037294704 0.34660959 -0.10425472
0.038434703 -0.48800343 -0.2675209
0.035527702 -0.11118644 0.14886951
0.029896703 -0.071968436 0.12637234
0.031049702 0.26925659 -0.062321663
0.030147705 0.0023586154 0.085270405
0.030496705 -0.3047784 0.028286457
0.024766702 0.15372556 0.00073719025
0.024328705 0.0022575855 0.084507465
0.024431705 0.037858605 0.064819336
0.023844704 -0.16466147 0.17682123
0.018978704 0.19799662 -0.024577618
0.019336704 0.34641558 -0.10667372
0.019930702 -0.48301643 -0.24278355
0.019209702 -0.37859339 -0.077672482
0.018231705 -0.11152238 0.14662218
0.012903702 0.1159696 0.019965172
0.012751703 0.037662566 0.063285351
0.013291703 0.31691056 -0.091193676
0.013347703 0.3463496 -0.10747766
0.013428704 0.3880716 -0.13055849
0.012794702 -0.30062443 0.050980091
0.012360702 -0.16489846 0.17533731
0.0071437033 0.19783258 -0.026151657
0.0072467038 0.26896161 -0.065505505
0.0068597039 0.0019515753 0.082219124
0.0073157037 0.31684059 -0.091994762
0.0066177035 -0.16501743 0.17459631
0.0010347031 0.0018485785 0.081458092
0.0012717033 -0.37413043 -0.054276466
-0.0047362968 0.1156956 0.017637253
-0.0047182972 0.15329158 -0.0031685829
-0.0046832971 0.22655261 -0.043710709
-0.0046622967 0.26881057 -0.06709671
-0.004791297 0.0017445683 0.080696106
-0.0046392968 0.31670058 -0.093598843
-0.010621297 0.15320361 -0.0039496422
-0.010621297 0.037262619 0.060219288
-0.022497296 0.22630858 -0.046081543
-0.022280298 0.0014286041 0.078412533
-0.022584297 0.31648761 -0.096004486
-0.022170298 -0.1123324 0.14138842
-0.028230298 0.083082616 0.032383442
-0.028396297 0.19732857 -0.030871868
-0.028004296 -0.073082387 0.11884546
-0.028671298 0.38763261 -0.13623047
-0.028780296 -0.46995646 -0.17777157
-0.028356295 -0.36678642 -0.015676498
-0.034239296 0.15284258 -0.0070738792
-0.033802297 -0.073197424 0.11809254
-0.034381296 0.2261436 -0.047662735
-0.034463298 0.2684266 -0.071074486
-0.033946298 0.0012145638 0.076889515
-0.034015298 0.036852598 0.057156086
-0.034807298 -0.46834737 -0.16974068
-0.039978296 0.08288461 0.030841351
-0.039601296 -0.073313415 0.11734247
-0.039698295 -0.033064425 0.095052242
-0.039780296 0.0011065602 0.076129436
-0.039597295 -0.28840035 0.11803722
-0.039258298 -0.21516937 0.19590044
-0.045947295 0.11503458 0.012206554
-0.046185296 0.19706959 -0.033229828
-0.045400295 -0.073430419 0.1165905
-0.045719296 0.036643565 0.055626392
-0.051730298 0.082684577 0.029298306
-0.051839296 0.1149376 0.011431217
-0.057733297 0.11484057 0.010656357
-0.057878297 0.15247357 -0.010193825
-0.058326297 0.26810956 -0.074255466
-0.056645297 -0.16638535 0.16645432
-0.056851298 -0.11305636 0.13691139
-0.063630298 0.11474258 0.0098814964
-0.062809296 -0.073785424 0.11433935
-0.063133299 0.00066757202 0.073088169
-0.063472301 -0.35812742 0.030001163
-0.069708295 0.15228659 -0.011751652
-0.069923297 0.19671559 -0.036372662
-0.0706423 0.3453846 -0.11875677
-0.070670299 -0.45880538 -0.12199068
-0.075424299 0.11454457 0.0083322525
-0.075624295 0.15219158 -0.012531757
-0.074817292 0.00044357777 0.071569443
-0.073950298 -0.28044242 0.16191339
-0.081542298 0.15209562 -0.013312817
-0.080463298 -0.033866405 0.089762211
-0.081968293 0.22546357 -0.053977489
-0.080661297 0.00033056736 0.070808411
-0.087023295 0.082068563 0.024675369
-0.087463297 0.15199959 -0.014090538
-0.088419296 -0.45410436 -0.098392487
-0.086622298 -0.35244638 0.060071468
-0.093881294 0.22528857 -0.055556774
-0.094692297 0.34509361 -0.12197781
-0.091222294 -0.16717142 0.16202736
-0.091584295 -0.11380738 0.13244247
-0.098463297 0.035670578 0.048745155
-0.1007083 0.34501958 -0.12278175
-0.098119296 -0.34963447 0.074991226
-0.10468829 0.081752598 0.022365093
-0.1037893 -0.034340382 0.086744308
-0.1064973 0.3154366 -0.10722589
-0.1060473 -0.44944841 -0.074976444
-0.1027583 -0.1674394 0.16055346
-0.11115529 0.1516096 -0.017207623
-0.1125023 0.31535858 -0.10802555
-0.11274529 0.34487057 -0.12438869
-0.1167553 0.11383361 0.002913475
-0.1157593 -0.00036042929 0.066255093
-0.1185103 0.3152796 -0.10882759
-0.1187673 0.34479558 -0.1251936
-0.1177343 -0.44636947 -0.059463501
-0.11346529 -0.27134746 0.21229315
-0.1205223 -0.5606634 -0.23691988
-0.12092829 -0.075015426 0.10684538
-0.1274703 -0.00059640408 0.064738274
-0.1263663 -0.11458546 0.12798119
-0.1360503 0.26702559 -0.084587574
-0.13332731 -0.00071543455 0.063979149
-0.1351663 -0.44178838 -0.036346912
-0.1323133 -0.34130138 0.11931229
-0.13216729 -0.11471838 0.12723827
-0.1420413 0.26693857 -0.085381508
-0.1379703 -0.33992738 0.12663937
-0.1368783 -0.2175234 0.18347454
-0.1379723 -0.11485142 0.12649632
-0.1442173 -0.07552743 0.10385418
-0.14803129 0.2668516 -0.086177826
-0.14856729 0.31487757 -0.11283255
-0.14361329 -0.33855838 0.13394451
-0.1526513 -0.62969238 -0.31631947
-0.15024629 -0.55220336 -0.19647884
-0.14924429 -0.33719343 0.14123011
-0.14958329 -0.11512047 0.12501049
-0.1586543 -0.62789947 -0.30801868
-0.1577663 0.080770612 0.015444279
-0.15950429 0.22428662 -0.064231873
-0.1541473 -0.2179634 0.18128729
-0.1651143 0.19521457 -0.048931599
-0.1654793 0.22419256 -0.065018654
-0.16308829 0.034408569 0.040355206
-0.1639633 -0.43425041 0.0017991066
-0.15922929 -0.27185339 0.2103982
-0.17145729 0.22409761 -0.065807819
-0.16606529 -0.33312541 0.16298819
-0.1707013 -0.27216536 0.2089572
-0.1714313 -0.21841139 0.17910528
-0.1796343 -0.54388136 -0.15655851
-0.1791943 -0.076319396 0.099371433
-0.1807463 0.034050584 0.038070202
-0.1827783 -0.32909542 0.18458414
-0.19601929 0.26613456 -0.092529774
-0.18946929 -0.16955441 0.1495285
-0.20091629 0.1946156 -0.05363369
-0.20136629 0.22361559 -0.069748878
-0.19841829 0.033686578 0.035784245
-0.19449629 -0.21901935 0.17619753
-0.20290929 -0.53732044 -0.12498951
-0.2050533 0.079854608 0.0092992783
-0.2061753 0.1499576 -0.029657841
-0.2068883 0.19451356 -0.05441761
-0.20869529 -0.53569347 -0.11714888
-0.2121273 0.14984959 -0.030435562
-0.2048983 -0.32378036 0.2131381
-0.2126483 -0.17014843 0.14659739
-0.22281229 0.079500616 0.006998539
-0.2200743 -0.077275395 0.094152451
-0.22532329 0.22322059 -0.072899818
-0.22606529 0.2656706 -0.096497536
-0.2206233 -0.4195314 0.07667923
-0.2287353 0.079381585 0.0062322617
-0.2299953 0.14952159 -0.032766819
-0.2380953 0.26548159 -0.09808588
-0.2338053 0.03294158 0.03122139
-0.23005129 -0.17060238 0.14440012
-0.24127829 -0.60339743 -0.19404554
-0.24275829 0.19389158 -0.059118748
-0.2383813 -0.037283421 0.06944418
-0.23970829 0.032814562 0.030461311
-0.2330053 -0.32124537 0.22735929
-0.2470803 -0.6016894 -0.18606186
-0.2431463 -0.52604145 -0.070513725
-0.24874429 0.19378561 -0.059902668
-0.2387373 -0.32141846 0.22664738
-0.2416613 -0.17090946 0.14293718
-0.24270029 -0.11737841 0.11316538
-0.2524443 0.078897595 0.0031633377
-0.25308931 0.11128759 -0.014853477
-0.2590363 0.11116958 -0.015623569
-0.25980729 0.14896357 -0.036650658
-0.2643083 0.078652561 0.0016303062
-0.26103029 -0.078267395 0.088941097
-0.26334029 0.032301605 0.027421474
-0.2701633 -0.59491545 -0.15433168
-0.27024329 0.078528583 0.00086545944
-0.26688829 -0.078412354 0.088196278
-0.2650803 -0.40808839 0.1352644
-0.2638413 -0.22092539 0.16749954
-0.28186029 -0.69516641 -0.30154371
-0.26604229 -0.11797446 0.11021137
-0.2759023 -0.59323543 -0.14645052
-0.27771631 0.14862061 -0.038978577
-0.27869231 0.19324958 -0.063816547
-0.27274829 -0.078558385 0.087454319
-0.2705853 -0.40667742 0.14250946
-0.2821193 0.078279614 -0.00066757202
-0.28284329 0.11069059 -0.018707752
-0.2795133 -0.03825444 0.06419611
-0.28805831 0.07815361 -0.0014338493
-0.28618029 -0.0040494204 0.044327259
-0.2930443 -0.5882284 -0.12292576
-0.2870093 -0.22158736 0.16460848
-0.29398629 -0.51190835 -0.0018706322
-0.30161929 0.14815658 -0.042084694
-0.30268231 0.19280958 -0.06694746
-0.2979863 -0.0043253899 0.042820454
-0.29248831 -0.40108138 0.17130852
-0.29526031 -0.11873537 0.10652351
-0.30305529 -0.038825393 0.061201096
-0.30389029 -0.0044643879 0.042065144
-0.3146883 0.1925866 -0.06851244
-0.30894428 -0.038969398 0.060452461
-0.30337131 -0.39830941 0.1856041
-0.3030653 -0.27600342 0.19246531
-0.30440229 -0.2220934 0.1624403
-0.30695829 -0.11904544 0.10505009
-0.31778529 0.077516615 -0.005261898
-0.31020328 -0.2222634 0.16171932
-0.3128103 -0.11920136 0.10431433
-0.32373631 0.077387571 -0.0060276985
-0.32457229 0.10983062 -0.02410078
-0.3207283 -0.039260387 0.058956146
-0.3225393 0.030971587 0.019831181
-0.31600529 -0.22243446 0.16099834
-0.32969031 0.07725656 -0.0067915916
-0.33153731 0.14756256 -0.045962811
-0.32556129 -0.079901397 0.080768108
-0.3266243 -0.039407432 0.058208466
-0.33440131 0.030697584 0.018315315
-0.32617331 -0.27671736 0.18961143
-0.3435173 0.14732057 -0.047515869
-0.33731529 -0.080208361 0.079286098
-0.33066231 -0.32430536 0.2153163
-0.3319543 -0.27689844 0.18889952
-0.33836231 -0.49968344 0.057871342
-0.33773729 -0.27708036 0.18818521
-0.36278629 0.19167256 -0.074772835
-0.35496229 -0.080674469 0.077061176
-0.34794629 -0.32487243 0.21320009
-0.35085928 -0.22347838 0.15667439
-0.36823729 -0.66837746 -0.18054676
-0.36203229 -0.040302396 0.053723335
-0.35371131 -0.32506341 0.21249533
-0.3596893 -0.1204794 0.098426342
-0.3657203 -0.49219841 0.094620228
-0.37835729 0.10867959 -0.031028748
-0.3748883 -0.0061864257 0.033034325
-0.3759723 0.029716611 0.013010502
-0.3666783 -0.27800244 0.18462515
-0.36830831 -0.22401136 0.15451527
-0.39051229 -0.72885746 -0.25547075
-0.36980429 -0.17449743 0.12690115
-0.38434431 0.10854858 -0.031797886
-0.38081729 -0.006334424 0.032282352
-0.3691293 -0.38712245 0.2446723
-0.37247229 -0.27818936 0.18391514
-0.3962093 -0.72703737 -0.24740553
-0.38261628 -0.56232637 -0.00040769577
-0.3893173 0.075920582 -0.014438629
-0.3903313 0.10841662 -0.032566547
-0.3867473 -0.0064834356 0.031531334
-0.37826729 -0.27837735 0.18320322
-0.38149631 -0.17484337 0.12544727
-0.38317129 -0.12113744 0.095489502
-0.3881143 -0.56075042 0.0070900917
-0.39632028 0.10828459 -0.033335686
-0.39030328 -0.081626356 0.072618484
-0.3915883 -0.041067421 0.049990177
-0.39381731 0.029286563 0.010739326
-0.4020043 -0.65802342 -0.13343048
-0.4023113 0.10815161 -0.034105778
-0.40353128 0.14607656 -0.055267811
-0.4049713 0.19084358 -0.080246449
-0.39750528 -0.041223407 0.049244404
-0.3986133 -0.0067834258 0.03002739
-0.38833529 -0.32622939 0.20826912
-0.39907429 -0.55761546 0.022027493
-0.39279529 -0.48483139 0.13092613
-0.4020983 -0.081949413 0.071139336
-0.40342331 -0.041379392 0.048499107
-0.39210328 -0.38794047 0.2418952
-0.39566329 -0.27894741 0.18107128
-0.3974283 -0.22491735 0.15092134
-0.4188683 -0.71981746 -0.2153616
-0.4008013 -0.12163836 0.093287468
-0.41555831 0.14582062 -0.056815624
-0.4170433 0.19060159 -0.081809521
-0.42450431 -0.71802741 -0.20739985
-0.42157328 0.14569157 -0.057591915
-0.41390228 -0.082276404 0.069658279
-0.41526729 -0.041693389 0.04700613
-0.41763631 0.028702617 0.0077114105
-0.4090893 -0.22528642 0.14948416
-0.42518529 0.075087607 -0.019022465
-0.42119229 -0.041851401 0.046261311
-0.42981431 -0.64954835 -0.094708443
-0.43229631 0.10747761 -0.037948608
-0.42571229 -0.082605422 0.068180561
-0.42955729 0.02840656 0.0061993599
-0.44133431 -0.71269244 -0.18364286
-0.43534029 -0.64786941 -0.087022781
-0.42247429 -0.17607945 0.12036943
-0.4371573 0.074805617 -0.020549774
-0.43830028 0.10734057 -0.0387187
-0.42833731 -0.17625946 0.11964321
-0.43168628 -0.54832846 0.066407204
-0.4443053 0.1072036 -0.039486885
-0.44913629 0.074519575 -0.022076607
-0.43237931 -0.38940936 0.23704338
-0.43827331 -0.22622246 0.14589834
-0.45771131 0.14490658 -0.06223774
-0.4521063 -0.0081664324 0.023269176
-0.4381403 -0.38962346 0.23635149
-0.4421353 -0.28050441 0.17539835
-0.46361029 -0.70565838 -0.15224171
-0.44790131 -0.12300938 0.087422371
-0.45379731 -0.12318546 0.086688519
-0.44966829 -0.3900544 0.23496819
-0.47580731 0.14450556 -0.064561844
-0.46865928 -0.043144405 0.040299416
-0.45959431 -0.28110343 0.17327309
-0.46165529 -0.22698647 0.1430335
-0.46389729 -0.53921646 0.11014748
-0.47912028 0.073794603 -0.025892735
-0.4759323 -0.0088003874 0.020269394
-0.4773213 0.027196586 0.00015115738
-0.48512229 0.073648572 -0.026655674
-0.4805443 -0.043474436 0.038811207
-0.4669733 -0.39070743 0.23289537
-0.46938229 -0.32907647 0.19844818
-0.4798573 -0.53472537 0.13178349
-0.47238728 -0.46341139 0.23728228
-0.48705828 -0.17810339 0.1124053
-0.4892163 -0.12425143 0.082297325
-0.48429629 -0.39136845 0.23082638
-0.50760132 -0.69185942 -0.090372562
-0.5007723 -0.62813836 0.0037503242
-0.49007329 -0.39159042 0.23013639
-0.4945603 -0.28232545 0.1690321
-0.51810431 0.14354861 -0.069980621
-0.4984163 -0.33013743 0.19495249
-0.5003953 -0.28253239 0.16832733
-0.51454228 -0.085173428 0.057107449
-0.51625431 -0.044483423 0.034348488
-0.51687932 -0.62332243 0.02603054
-0.52521628 0.02594161 -0.0058917999
-0.5332213 0.072448611 -0.032756805
-0.51586127 -0.33078641 0.19285631
-0.54813731 -0.80184835 -0.22660875
-0.5356403 -0.010433435 0.012776375
-0.5189923 -0.39271837 0.22669315
-0.5237543 -0.28336841 0.16550446
-0.52828032 -0.17944437 0.10735035
-0.54010028 -0.04517144 0.031375408
-0.52960032 -0.28357941 0.16479731
-0.52716231 -0.52150136 0.19577026
-0.56464928 -0.79634041 -0.20286751
-0.54350632 -0.61539739 0.06280756
-0.54007727 -0.17983443 0.10590744
-0.54840732 -0.12609345 0.074991226
-0.53756028 -0.5186134 0.20980549
-0.55615127 -0.086431444 0.051953316
-0.56122428 0.024971604 -0.010417461
-0.54714531 -0.28421944 0.16268635
-0.56157631 -0.67510444 -0.01473856
-0.56938428 0.07152158 -0.037330627
-0.5508033 -0.33210737 0.18867445
-0.5810563 -0.79088539 -0.17930651
-0.55299729 -0.28443438 0.16198111
-0.56691331 -0.67345744 -0.0072755814
-0.55935431 -0.61070341 0.084658146
-0.57693928 0.10402459 -0.056380749
-0.5732463 0.024642587 -0.011927605
-0.58650428 -0.78907841 -0.17148972
-0.55885327 -0.28465039 0.16127634
-0.56461728 -0.60914737 0.091911316
-0.5751093 -0.60605246 0.10635853
-0.60116732 0.10341257 -0.059449673
-0.60818028 -0.78191036 -0.14042473
-0.59344029 -0.66530436 0.029767513
-0.57363629 -0.5086444 0.25842524
-0.5737803 -0.4609794 0.25676727
-0.59986627 -0.046942413 0.023949146
-0.61357129 -0.78013343 -0.13270664
-0.61167431 0.070410609 -0.042662621
-0.60383427 -0.087915361 0.046067238
-0.60585427 -0.047123432 0.02320528
-0.5998953 -0.2861864 0.15635538
-0.60261232 -0.23186344 0.12590837
-0.60335428 -0.3341524 0.18241549
-0.6057663 -0.28641039 0.15565348
-0.60633928 -0.59688145 0.14929533
-0.62744528 0.023128569 -0.018711567
-0.60604829 -0.39624637 0.21640253
-0.63502729 -0.77308041 -0.10202169
-0.61164129 -0.28663439 0.15495014
-0.61970329 -0.65728039 0.066367149
-0.60626328 -0.50528342 0.27671814
-0.60846829 -0.4624874 0.25272322
-0.6419493 0.069596589 -0.046469688
-0.63763332 -0.013376415 5.9127808e-05
-0.62090927 -0.33485144 0.18033218
-0.61425632 -0.46274239 0.2520504
-0.64555132 0.022610605 -0.020972729
-0.64967531 -0.013736427 -0.001434803
-0.65159327 0.022436559 -0.021725655
-0.62934232 -0.39722544 0.21366835
-0.6320883 -0.58937043 0.18461752
-0.65384227 -0.048600435 0.01727438
-0.6616053 -0.76439041 -0.064087868
-0.62934327 -0.50633746 0.27405548
-0.65764332 -0.089644372 0.039456367
-0.66172528 -0.014099419 -0.0029287338
-0.6528163 -0.28822845 0.1500411
-0.6757763 0.021734595 -0.024737835
-0.67562127 -0.090234458 0.037254333
-0.65850627 -0.39847142 0.21025419
-0.6619463 -0.33651537 0.17548227
-0.66762429 -0.23426837 0.11809444
-0.6714623 -0.64160639 0.1382761
-0.69189227 -0.015019417 -0.0066637993
-0.67369032 -0.33700043 0.17409849
-0.6931513 -0.75414544 -0.019171715
-0.67639428 -0.28916043 0.14724112
-0.67603028 -0.39923042 0.20821142
-0.67956531 -0.33724338 0.17340755
-0.68824828 -0.18500036 0.087926388
-0.70606029 0.020839572 -0.028501511
-0.68679631 -0.63699943 0.1595211
-0.70878631 -0.74909538 0.0030465126
-0.68139732 -0.50877041 0.26808119
-0.69720531 -0.33797938 0.17133331
-0.70000827 -0.29010636 0.14444351
-0.70612228 -0.18565637 0.085775375
-0.70929432 -0.1314674 0.055339336
-0.7200653 -0.05071044 0.0091280937
-0.73032832 0.020111561 -0.031512737
-0.70710331 -0.6309244 0.18761826
-0.73640329 0.019927561 -0.032265663
-0.71486628 -0.33872443 0.16926146
-0.71215832 -0.62941843 0.19460154
-0.73569727 -0.09225446 0.029923439
-0.7381773 -0.05130142 0.0069084167
-0.7402823 -0.016530395 -0.012632847
-0.71699929 -0.4010374 0.2034483
-0.72998732 -0.18654245 0.082909107
-0.74634129 -0.016721427 -0.013377666
-0.74855632 0.019558609 -0.0337677
-0.73978132 -0.73913938 0.047007561
-0.74773932 -0.092667401 0.028458118
-0.74491328 -0.73749942 0.054270267
-0.73885328 -0.2370134 0.1095953
-0.74791127 -0.18721646 0.080762386
-0.76453531 -0.017302394 -0.015615463
-0.74434531 -0.33998543 0.1658144
-0.76840931 -0.05230242 0.0032114983
-0.76329428 -0.13339144 0.048809528
-0.74215031 -0.4686144 0.23731136
-0.7744633 -0.052505434 0.0024724007
-0.77789128 -0.09371537 0.02479744
-0.75107628 -0.51215047 0.26015139
-0.76797128 -0.34101146 0.16305923
-0.77106929 -0.29303545 0.13607025
-0.77783132 -0.18835646 0.077185154
-0.78997028 -0.094139397 0.023333549
-0.7627213 -0.51272839 0.25883341
-0.79601228 -0.094353378 0.022602558
-0.77571827 -0.40370446 0.19666529
-0.76489532 -0.56868047 0.28949451
-0.79483229 -0.29404145 0.13328409
-0.81691128 -0.053944409 -0.0027008057
-0.80444729 -0.23964447 0.10182619
-0.78230029 -0.56958944 0.2875495
-0.8253423 -0.019287407 -0.023069859
-0.81042427 -0.23988837 0.10112143
-0.8262623 -0.095433414 0.018944263
-0.80064231 -0.47145146 0.23065615
-0.79972529 -0.57050842 0.28560829
-0.80354929 -0.51478738 0.25423145
-0.84444427 -0.096090376 0.016751289
-0.84973729 -0.020102382 -0.02604866
-0.82286328 -0.40591139 0.19125748
-0.83435929 -0.24087638 0.098301411
-0.83785331 -0.19070238 0.07004118
-0.81523728 -0.5153864 0.2529192
-0.84768832 -0.13651747 0.038669109
-0.85373527 -0.13674742 0.037945271
-0.84501529 -0.34445447 0.15412855
-0.85233527 -0.24162644 0.096188545
-0.83278328 -0.51629144 0.25095224
-0.8358503 -0.47320539 0.22667551
-0.85096031 -0.34472638 0.15344238
-0.86583728 -0.1372084 0.0364995
-0.86038029 -0.29688746 0.12564135
-0.84760731 -0.47379941 0.22534943
-0.8628543 -0.34527236 0.15207243
-0.87398732 -0.19215137 0.065761089
-0.88234931 -0.24289435 0.092670441
-0.87608629 -0.40847236 0.18518925
-0.89209032 -0.19288844 0.063623428
-0.88794029 -0.40905339 0.18384409
-0.8926363 -0.34665543 0.14864922
-0.92052227 -0.057599425 -0.015251637
-0.90640432 -0.24392539 0.089856148
-0.9082433 -0.29902941 0.12009525
-0.95402527 -0.10018939 0.0036091805
-0.94256932 -0.24550039 0.085642338
-0.96625429 -0.10066146 0.0021491051
-0.97237331 -0.10089844 0.0014204979
-0.97849631 -0.10113639 0.00069046021
-0.96228731 -0.30151242 0.11386824
-0.97523028 -0.14151639 0.023497105
-0.98903829 -0.1969524 0.052237511
-1.0030113 -0.10209745 -0.0022258759
-1.0057733 -0.14276236 0.019891262
-1.0194783 -0.19826943 0.048686504
-1.0302594 -0.14377445 0.017008305
