# .PCD v0.7 - Point Cloud Data file format
VERSION 0.7
FIELDS x y z
SIZE 4 4 4
TYPE F F F
COUNT 1 1 1
WIDTH 1
HEIGHT 1024
VIEWPOINT 0 0 0 1 0 0 0
POINTS 1024
DATA ascii
0.44948113 0.36689466 0.1322999
0.44256312 0.36834162 0.15051699
0.44097012 0.32249361 0.091114044
0.43613213 0.36927065 0.16208315
0.43779013 0.28993565 0.053734779
0.43219012 0.40830964 0.13694191
0.42244112 0.37217063 0.19861507
0.44550714 0.090705633 -0.23872185
0.43548313 0.18468863 -0.085793018
0.43218714 0.15043563 -0.12523508
0.42295411 0.23838466 0.017536163
0.41346511 0.32877266 0.16426706
0.40668613 0.33031964 0.18229389
0.40892613 0.40914664 0.14718485
0.43327114 0.0039996505 -0.32944012
0.42880613 0.047925651 -0.25847912
0.42374113 0.097762644 -0.17796516
0.40907413 0.24206465 0.055155754
0.40336111 0.29827064 0.14595604
0.39941713 0.37306264 0.20865202
0.41089913 0.15684265 -0.066488266
0.41860312 0.0093096495 -0.28772783
0.40944913 0.10239363 -0.13807201
0.39535713 0.24569964 0.092329979
0.38793612 0.37350565 0.21366119
0.43332812 -0.21550232 -0.63185692
0.42738512 -0.15403336 -0.53326988
0.38865113 0.43969864 0.10922098
0.40411213 0.01455164 -0.24652624
0.38998812 0.16313064 -0.0087871552
0.41504112 -0.10041434 -0.43048096
0.37647513 0.37394664 0.21866274
0.38310012 0.16519964 0.01021719
0.37507612 0.25107062 0.14728975
0.37103114 0.30466264 0.21640682
0.42379212 -0.27029139 -0.68494701
0.38585311 0.062702656 -0.13739491
0.40486813 -0.14437932 -0.46716881
0.37301111 0.20255864 0.085323811
0.40027714 -0.094386339 -0.38755512
0.39562511 -0.043719351 -0.30686808
0.36841512 0.41059163 0.16504383
0.37118512 0.44027963 0.11698914
0.37445912 0.11371964 -0.040413857
0.38841012 -0.04092437 -0.28609991
0.35605714 0.33906662 0.28365707
0.37187612 0.067505658 -0.09800005
0.35956812 0.20639765 0.12213707
0.38123813 -0.038146377 -0.26545286
0.35040113 0.33929867 0.28610277
0.35956812 0.44066465 0.12215185
0.34843114 0.30524266 0.22169685
0.34791112 0.37503964 0.23113775
0.40073311 -0.34131438 -0.72867823
0.39328411 -0.25571436 -0.59332705
0.34204212 0.25980866 0.23679399
0.37129313 -0.082562387 -0.30329704
0.33739513 0.31420666 0.32261419
0.38578013 -0.2521314 -0.5707922
0.34720412 0.12252963 0.035637856
0.33969513 0.21206862 0.17655277
0.33573714 0.26118463 0.25084019
0.35998812 -0.029921353 -0.20428896
0.33963212 0.41160864 0.1777482
0.40015212 -0.50888342 -0.95808315
0.37832314 -0.24857241 -0.54840326
0.36108813 -0.12563634 -0.33868408
0.33012414 0.26133764 0.25214815
0.35706714 -0.076765358 -0.26195097
0.35299012 -0.027214348 -0.18414927
0.33639613 0.44142863 0.13246584
0.38458413 -0.41116637 -0.78700304
0.33765513 0.079251647 -0.0015668869
0.32941613 0.18131065 0.15830088
0.32515013 0.37590465 0.24108696
0.39127514 -0.58499438 -1.0420799
0.38439012 -0.49969739 -0.90846682
0.37034914 -0.32575935 -0.63600111
0.32015812 0.21763766 0.23004293
0.32484013 0.44180763 0.13761187
0.38331214 -0.5800814 -1.0166402
0.32747814 0.042220652 -0.028697014
0.33604914 -0.068205357 -0.20087004
0.31380013 0.37633464 0.24605417
0.31669614 0.41241363 0.18787813
0.32206413 0.47929764 0.080043793
0.35544914 -0.31813842 -0.59056091
0.32075712 0.044642627 -0.0096001625
0.30769911 0.26194763 0.25738001
0.30534014 0.34113163 0.30561209
0.37627211 -0.68505532 -1.1446939
0.36754614 -0.57035834 -0.96627426
0.36114013 -0.48615831 -0.8352952
0.32582313 -0.11056238 -0.235219
0.30754513 0.44237265 0.14531612
0.31042811 0.47964364 0.085279942
0.35349011 -0.48170632 -0.81122398
0.34669411 -0.39053041 -0.66972208
0.29709512 0.19098961 0.24742985
0.31540912 -0.05980736 -0.14090014
0.29224414 0.31685263 0.35029793
0.31201613 -0.10466838 -0.19472313
0.30861112 -0.057043374 -0.12115192
0.28125212 0.32746863 0.46996593
0.35238212 -0.66921932 -1.0668578
0.32621112 -0.3031984 -0.50141811
0.29848513 -0.0061603785 -0.027330875
0.33084613 -0.46853632 -0.73998213
0.32454312 -0.3784824 -0.60118103
0.28494114 0.097308636 0.14692307
0.28176913 0.14363462 0.21816015
0.29837513 -0.098847389 -0.15471601
0.27328414 0.27657664 0.40867376
0.27986512 0.37760964 0.26091099
0.28722113 0.48033264 0.095736027
0.32339612 -0.4642064 -0.71654606
0.31186813 -0.29587632 -0.45769596
0.30627814 -0.2142424 -0.33216381
0.26793113 0.27648962 0.40751982
0.28525612 -0.0010583401 0.010719776
0.27422512 0.37782064 0.26338196
0.27675012 0.41380364 0.20554304
0.32897514 -0.65371734 -0.99061394
0.31000912 -0.3705824 -0.55621719
0.26688811 0.19734663 0.30564308
0.28489414 -0.093099356 -0.11518383
0.28182012 -0.046159387 -0.043331146
0.26096112 0.32526964 0.44416809
0.30863813 -0.45563239 -0.67012787
0.29239613 -0.20764035 -0.29051781
0.26134312 0.19750965 0.30692911
0.28184813 -0.14701337 -0.18228626
0.26986814 0.48084465 0.10354519
0.30133113 -0.45138842 -0.64714813
0.29566014 -0.36278838 -0.51182985
0.29068512 -0.28507036 -0.39313602
0.32165414 -0.76887733 -1.1320362
0.26199412 0.065785646 0.15732813
0.25661913 0.15172863 0.28828716
0.25186813 0.27622265 0.40405893
0.25075513 0.32416064 0.43119383
0.28855312 -0.35892934 -0.48984909
0.25041813 0.15372264 0.30557585
0.26497114 -0.084611356 -0.056772232
0.25403112 0.41458863 0.21561098
0.25832412 0.48118365 0.10874796
0.29849213 -0.63355142 -0.89135218
0.27188912 -0.19789535 -0.22900391
0.30607614 -0.75776035 -1.080193
0.24934113 0.070329666 0.19325781
0.24472412 0.19799364 0.3107872
0.26175612 -0.13796335 -0.12270308
0.25840911 -0.081817389 -0.037535191
0.25565112 -0.035540342 0.032660961
0.24716713 0.53105867 0.24859381
0.24050513 0.32304561 0.41816282
0.24836513 0.41478264 0.21811295
0.28447914 -0.51923031 -0.70105314
0.27968714 -0.43882734 -0.57908821
0.24075413 0.11240864 0.27134418
0.23825513 0.15728164 0.33640385
0.23578912 0.27595264 0.40059519
0.24139713 0.53139162 0.25461388
0.24451512 0.44441164 0.17343998
0.27722013 -0.5147714 -0.67788887
0.27256411 -0.43469638 -0.55669498
0.26749513 -0.34750432 -0.42472887
0.24856013 -0.13202435 -0.083579063
0.23042613 0.27586162 0.3994422
0.24202013 -0.12908334 -0.064193249
0.23385413 0.018734634 0.15852594
0.22992513 0.53200263 0.26567316
0.22373512 0.35223061 0.434484
0.23437813 0.60064566 0.14421606
0.22997613 0.49054363 0.26427317
0.25367412 -0.34001142 -0.38199806
0.24947912 -0.26408142 -0.26759291
0.22759113 0.021142662 0.17652893
0.22422013 0.53228164 0.27071095
0.22368813 0.37969562 0.28556204
0.22574413 0.41555765 0.22814083
0.22418413 0.49100065 0.27171612
0.25571913 -0.50157136 -0.60928583
0.23852512 -0.18206137 -0.12895203
0.21385312 0.23645467 0.40954113
0.21432713 0.27558565 0.39597702
0.21343713 0.35116965 0.42146397
0.22241113 0.60150665 0.16447878
0.24451612 -0.41844338 -0.46853399
0.23197213 -0.17895335 -0.10930395
0.21023713 0.12281662 0.35724592
0.20849612 0.23635566 0.40839005
0.21446213 0.41594163 0.23315001
0.23325813 -0.32895237 -0.31888819
0.22943212 -0.25388533 -0.20653915
0.22545713 -0.17586631 -0.089773178
0.25318813 -0.72007233 -0.90425491
0.20616913 0.085813642 0.31582785
0.20282812 0.20944464 0.41653681
0.20901912 0.028278649 0.22991085
0.20735812 0.53280663 0.279984
0.20888212 0.56154168 0.23404312
0.20309813 0.35010266 0.408391
0.20698713 0.49219865 0.29116392
0.23988813 -0.59485632 -0.7006259
0.23075412 -0.41047531 -0.42528725
0.19701113 0.16805667 0.429708
0.20176512 0.53295267 0.28254604
0.19791213 0.34956664 0.40183115
0.23277313 -0.59016532 -0.67747927
0.23852313 -0.70963734 -0.85549212
0.19360013 0.12406266 0.36712217
0.19211912 0.20923561 0.41423893
0.20103213 -0.057426333 0.1306138
0.19241212 0.23605561 0.40493584
0.19126813 0.39185965 0.4413228
0.19756612 0.41653565 0.24092579
0.23126413 -0.70447439 -0.83135796
0.18704712 0.23595566 0.4037838
0.18746212 0.27511662 0.39019394
0.19075613 0.035288632 0.28239489
0.19199613 0.56194365 0.24181318
0.18750912 0.34849066 0.38867378
0.19395512 0.60209465 0.1776948
0.20325913 -0.24058837 -0.12684822
0.18097913 0.16772264 0.42627716
0.19105312 -0.10619038 0.086863041
0.18254113 0.31929165 0.37367487
0.18827912 0.60221159 0.18032789
0.19026913 0.62986863 0.11327314
0.18569513 0.45075464 0.26738596
0.18466213 0.49289963 0.30218792
0.21170412 -0.5762834 -0.60895109
0.20373413 -0.39484841 -0.34039688
0.22520213 -0.88353437 -1.0637341
0.22041713 -0.77462131 -0.90252495
0.17668812 0.094990611 0.38848019
0.17563212 0.16761065 0.42513275
0.17604512 0.20891964 0.41079378
0.17631313 0.23575264 0.40148115
0.17900613 0.49325663 0.30800295
0.20477013 -0.57171839 -0.58640194
0.19708213 -0.39100438 -0.31950426
0.17094213 0.23564965 0.40032673
0.17820613 0.63087761 0.14027119
0.17502213 0.41753364 0.25427103
0.18403313 -0.2308324 -0.068322182
0.16460113 0.13228965 0.43503094
0.16831413 0.5338186 0.29780388
0.16955012 0.56247365 0.25212908
0.18692313 -0.45942539 -0.38990402
0.18059912 -0.3004784 -0.15618086
0.17468412 -0.15183634 0.062390804
0.15898512 0.10202366 0.44435978
0.15957813 0.16726965 0.4217
0.15995413 0.20859861 0.40734482
0.16098613 0.046700656 0.36792707
0.16395113 0.56260562 0.25471401
0.16680813 0.63108563 0.14560413
0.15996912 0.38924965 0.40677691
0.18422712 -0.55820042 -0.51960802
0.17736612 -0.37961835 -0.257586
0.16850212 -0.14891535 0.080912113
0.19172013 -0.75322837 -0.80576181
0.15365012 0.10189861 0.44322395
0.16037013 -0.092439353 0.17775917
0.15516813 0.27453762 0.38325119
0.15835713 0.56273663 0.25728273
0.15555812 0.31884265 0.36786079
0.16514313 -0.22125632 -0.010835171
0.16235512 -0.14601141 0.099328041
0.18174812 -0.66930431 -0.66679907
0.14886613 0.16704065 0.4194088
0.14977813 0.27443963 0.38209295
0.14930412 0.051172614 0.40148306
0.15015513 0.31875163 0.36669683
0.15241812 0.45125663 0.27408218
0.16441813 -0.37214738 -0.21693182
0.17765012 -0.74275035 -0.75833321
0.14322113 0.13180864 0.43046904
0.14350812 0.16692466 0.41826391
0.14384712 0.20827365 0.40389585
0.14497413 0.34585261 0.35608387
0.14707913 0.41847464 0.26676798
0.16057512 -0.44332236 -0.30593586
0.17068313 -0.73756438 -0.73485422
0.13763413 0.10152066 0.43981218
0.13814913 0.16680866 0.41711903
0.13868713 0.23502564 0.39340878
0.13803113 0.053959608 0.42230892
0.14160113 0.56312865 0.26498413
0.13898113 0.38724563 0.38043118
0.13822013 0.42897764 0.41399384
0.15743013 -0.54058832 -0.43250799
0.16952613 -0.90705436 -0.96555185
0.14412113 -0.13740331 0.15394306
0.13229212 0.10139364 0.43867493
0.13252112 0.13156462 0.42818594
0.13278712 0.16669166 0.41597319
0.13310112 0.20805365 0.40159416
0.13478012 -0.02935636 0.32464504
0.13393913 0.31847662 0.36320591
0.13519312 0.49318764 0.30572605
0.14272013 -0.28004533 -0.039206982
0.13811213 -0.13456839 0.1719389
0.13054013 -0.079092383 0.26609612
0.12764913 0.016186655 0.40408802
0.13045612 0.56338865 0.27011585
0.14123112 -0.43151337 -0.24431086
0.13438013 -0.20568234 0.082756996
0.14771312 -0.64517933 -0.55375719
0.12205812 0.16645664 0.41368198
0.12234712 0.20783162 0.39929199
0.12316211 -0.024445355 0.35865402
0.12280812 0.27394265 0.3762989
0.12488811 0.56351763 0.27267504
0.12312512 0.38572764 0.36052418
0.13776113 -0.52767736 -0.3686018
0.13271913 -0.35387939 -0.11743402
0.11625512 0.10100865 0.43526077
0.11696712 0.20771962 0.39814091
0.11883812 -0.073863387 0.30074215
0.11596612 0.057722628 0.45031691
0.11932712 0.56364667 0.27523518
0.11770512 0.31819665 0.35971212
0.11928112 0.45154163 0.27767515
0.14126413 -0.88381332 -0.86726618
0.12231912 -0.19958335 0.11944389
0.12028612 -0.12616438 0.22531891
0.11200812 0.27374065 0.373981
0.11063012 0.057585657 0.44918394
0.11309212 0.53479266 0.31485415
0.11229112 0.31810266 0.35854578
0.11246512 0.34532166 0.34907675
0.11493212 0.60370362 0.21444082
0.11634012 -0.19656235 0.13762474
0.10595212 0.16609967 0.41024303
0.10620312 0.20749563 0.39583778
0.10726512 -0.068695366 0.33499718
0.10597412 -0.01718539 0.40896082
0.10508812 0.023916662 0.45972109
0.10821912 0.56390363 0.28035498
0.10687512 0.31800866 0.35737991
0.11010812 0.63211167 0.17215586
0.10810012 0.45218465 0.28719187
0.10769412 0.49350265 0.31046295
0.12741013 -0.87243241 -0.81910181
0.10856812 -0.12064534 0.26040077
0.10057812 0.16597962 0.40909576
0.10081712 0.20738167 0.39468575
0.10152512 -0.06613338 0.35198689
0.10030512 -0.014791369 0.4255619
0.10097212 0.23427463 0.38532495
0.099951118 0.057310641 0.44691801
0.10213312 0.53482866 0.31534195
0.10161212 0.34514165 0.34673786
0.10097212 0.42699063 0.38538218
0.10279512 0.45141163 0.27541113
0.11209212 -0.51084739 -0.28522396
0.12354013 -0.99270731 -0.97566223
0.10614012 -0.26035339 0.07369709
0.12054912 -0.86679834 -0.79525089
0.10448212 -0.19057232 0.17368412
0.11652212 -0.69731134 -0.55240107
0.09484712 0.10048765 0.43070698
0.095012121 0.13069165 0.42019176
0.095431119 0.20726764 0.39353275
0.095818117 -0.063584387 0.3688941
0.094426118 0.023629665 0.45746088
0.096035115 0.31781763 0.35504913
0.098121122 0.60404164 0.22226715
0.09639512 0.38356465 0.33216095
0.095663115 0.42652565 0.37876701
0.09713912 0.45203963 0.28480673
0.10577112 -0.50670642 -0.26469803
0.10194112 -0.3361724 -0.020865917
0.10016512 -0.25714141 0.092133999
0.09860412 -0.18760532 0.19155598
0.090042122 0.20715362 0.39237976
0.089093119 0.023485661 0.45633173
0.08926712 0.057033658 0.44465113
0.091211118 0.53474665 0.31362295
0.090613119 0.31772262 0.35388088
0.093192115 0.63241464 0.18008375
0.090953119 0.38347962 0.33098602
0.099488117 -0.50259238 -0.24429893
0.097418122 -0.4048143 -0.10479116
0.095892116 -0.33269531 -0.0018930435
0.094225116 -0.25394839 0.11046219
0.10181912 -0.61271435 -0.40141916
0.08427912 0.13043761 0.41790485
0.084783122 0.23394465 0.38185883
0.084974118 0.27322662 0.36817789
0.083922118 0.056893647 0.44351816
0.085322119 0.34486765 0.34322977
0.085509121 0.38339463 0.32981205
0.085011117 0.42559165 0.36549377
0.088318117 -0.25077337 0.1286912
0.078773119 0.10008961 0.42728996
0.080349118 0.53439564 0.3068738
0.07988812 0.34477562 0.34205914
0.081354119 0.60437667 0.23006773
0.08058212 0.49224764 0.28905487
0.089067116 -0.60370833 -0.35910892
0.074146122 0.27301764 0.36585617
0.073225118 0.056612611 0.44124794
0.074774116 0.53480268 0.31444407
0.07577312 0.60448766 0.23266792
0.073820122 0.45918563 0.39253998
0.074994117 0.49269265 0.29643202
0.089038119 -0.96239835 -0.85300589
0.068304121 0.16524762 0.40221119
0.068575121 0.23361063 0.37838888
0.068730116 0.27291262 0.36469412
0.069345117 0.53459466 0.31048918
0.068906121 0.31733465 0.34921598
0.06894812 0.42417964 0.34547806
0.079249121 -0.76809639 -0.5624671
0.063447118 -0.066260338 0.35062695
0.062828116 -0.016985357 0.40975189
0.064058118 0.56451064 0.29227686
0.06357412 0.34449667 0.3385458
0.063135117 0.45839062 0.38039017
0.064174116 0.49179265 0.28125286
0.068692118 -0.48361939 -0.15017414
0.066698119 -0.32494932 0.040219784
0.064936116 -0.18474036 0.2084589
0.071310118 -0.66379839 -0.40021706
0.057532124 0.16499966 0.39991283
0.057508122 -0.018029392 0.4024229
0.057892121 0.27270067 0.36237097
0.058576122 0.56445861 0.2911582
0.059495121 0.63299465 0.19540691
0.058261123 0.38296363 0.32393408
0.057783123 0.45795664 0.37377405
0.06184512 -0.39418632 -0.049381256
0.068871118 -0.94470733 -0.78134823
0.064069122 -0.58711237 -0.28110695
0.051943123 0.099414647 0.42158794
0.052035123 0.12965965 0.41104317
0.052143123 0.16487461 0.39876413
0.052269123 0.20633864 0.38430691
0.051745124 0.02189064 0.44432783
0.053502124 0.60492861 0.24303818
0.052806124 0.38287663 0.32275677
0.052419122 0.45752063 0.3671298
0.056127124 -0.39578539 -0.057837009
0.060750123 -0.81778532 -0.58751202
0.059954122 -0.75289935 -0.49628592
0.053940121 -0.18730742 0.19281292
0.046571124 0.099277616 0.42044687
0.046864122 0.20622063 0.38315296
0.046452124 0.055897653 0.43557501
0.047621123 0.56424665 0.28668118
0.047167122 0.31693965 0.34454298
0.050394122 -0.39739138 -0.066319942
0.057140123 -1.0691583 -0.92522192
0.048420124 -0.18859738 0.18495798
0.052874122 -0.65978938 -0.38211012
0.052223124 -0.59093636 -0.29924917
0.041198123 0.099140644 0.41930676
0.041886121 -0.070729375 0.32063389
0.041470122 -0.021179378 0.38032389
0.042142123 0.5331986 0.28401804
0.041728124 0.31684065 0.34337473
0.049092121 -0.92746037 -0.71143913
0.044075124 -0.33094031 0.0071668625
0.047636122 -0.75440735 -0.50296688
0.042305123 -0.12047035 0.26071405
0.046858124 -0.66182536 -0.39143801
0.036192123 0.27227163 0.35771799
0.035796124 0.018900633 0.42252302
0.036648124 0.56407166 0.28297615
0.036345124 0.34402466 0.3326869
0.037251122 0.63259363 0.18434477
0.039562121 -0.49236637 -0.19398594
0.043731123 -1.0565383 -0.87639427
0.042785123 -0.92996842 -0.72167015
0.040825121 -0.66386837 -0.40079117
0.030455122 0.017897666 0.41521978
0.025317121 -0.024359345 0.35805702
0.02539712 0.31653863 0.33986616
0.025556121 0.42120165 0.30333996
0.030784121 -1.0612593 -0.89476299
0.030118121 -0.9350124 -0.74222708
0.019895121 0.27194464 0.35422707
0.01998312 0.34373564 0.32916689
0.020077121 0.42111865 0.30215597
0.024293121 -1.0640283 -0.90552187
0.023281122 -0.82434434 -0.61564016
0.023023121 -0.7632603 -0.54176283
0.022336122 -0.60061032 -0.34504795
0.014644122 -0.076396346 0.28271008
0.01778312 -1.0668085 -0.91631508
0.0089171212 0.098302662 0.41245508
0.0088901212 0.054870665 0.42762184
0.0095481211 0.59692168 0.050395966
0.0091131208 0.42095163 0.29978895
0.0089991204 0.49683464 0.36523008
0.0098571209 -0.40877634 -0.12633324
0.01074612 -0.82903236 -0.63561487
0.010616121 -0.7677334 -0.56133127
0.0035301212 0.098161638 0.41131306
0.0035501213 0.16372365 0.38841581
0.003562121 0.20525366 0.37390995
0.0035161211 0.054721653 0.42648506
0.0035961212 0.31612962 0.33518505
0.0038421212 0.59703267 0.053052902
0.003628121 0.42086765 0.29860401
0.0041051209 -0.50305837 -0.24737024
0.003783121 -0.19906634 0.12138414
0.0042881211 -0.67627841 -0.45749187
-0.0018608789 0.16359264 0.38726377
-0.0018608789 -0.079840362 0.25972176
-0.0018608789 -0.94777936 -0.794168
-0.0018608789 -0.77223831 -0.58101702
-0.0018608789 -0.20039433 0.11334181
-0.0018608789 -0.67837137 -0.46704006
-0.007250879 0.097875655 0.4090271
-0.0072608786 0.12817866 0.39843988
-0.0073348787 -0.030810356 0.3130188
-0.0073038787 0.27139062 0.34840202
-0.0074578784 0.52724767 0.17214394
-0.0073258793 0.34324563 0.32329702
-0.0073498785 0.42069963 0.29623413
-0.0076548792 0.66860265 -0.053774834
-0.007839879 -0.50667137 -0.26536703
-0.0077408785 -0.41373736 -0.15240908
-0.0081238793 -0.77450138 -0.5909009
-0.0080238786 -0.68047231 -0.47661304
-0.012643879 0.097732663 0.40788507
-0.01268388 0.16332966 0.38496113
-0.012725879 0.23187262 0.36100817
-0.012840879 0.42061463 0.29504919
-0.012855879 0.45218763 0.28628016
-0.014778879 -0.95295042 -0.81516504
-0.013489879 -0.34626836 -0.07703495
-0.013185879 -0.20306331 0.097196102
-0.018038878 0.097587645 0.40674114
-0.018136879 0.20475662 0.36928177
-0.01816188 0.23175263 0.35984707
-0.018768879 0.55657661 0.12790203
-0.01922988 0.66876763 -0.048282146
-0.01836288 0.45196164 0.28287697
-0.01954888 -0.41707331 -0.16991282
-0.019327879 -0.34782833 -0.085582256
-0.020899879 -0.84090036 -0.68608427
-0.020177878 -0.61443442 -0.41027498
-0.02343688 0.09744364 0.40559816
-0.023473879 0.12776262 0.39499903
-0.023516878 0.16306365 0.3826561
-0.02366188 0.0076916218 0.34116411
-0.024856878 -0.27320141 -0.0012669563
-0.027283879 -0.8433004 -0.69627094
-0.029635878 -0.085654378 0.22101498
-0.029040879 0.23151064 0.35752392
-0.029144879 0.0066536665 0.33365583
-0.030019879 0.55682665 0.13310289
-0.02916888 0.31550264 0.32815504
-0.02926988 0.38151765 0.30507088
-0.03078788 0.66893262 -0.042797089
-0.031916879 -0.51397139 -0.30166388
-0.034295876 -0.96077842 -0.84690905
-0.031048879 -0.35096639 -0.10274601
-0.02990588 -0.13633734 0.15916586
-0.034236878 0.097151637 0.40330982
-0.034356877 0.16279662 0.38035202
-0.034640878 0.0056116581 0.32612896
-0.034636877 0.31539667 0.32698298
-0.036210876 0.62675667 0.026214123
-0.034756877 0.38142464 0.3038888
-0.040838879 -0.96340638 -0.85755396
-0.040100876 -0.84812433 -0.71673298
-0.039703876 -0.7859444 -0.64077806
-0.039704878 0.12734163 0.39155293
-0.039779875 0.16266161 0.37919903
-0.039830878 0.047360659 0.37090683
-0.040233877 0.49322063 0.30490398
-0.042829879 -0.35412437 -0.12000513
-0.044833876 -0.62248534 -0.44814587
-0.045306876 0.20412463 0.36349297
-0.046031877 -0.038493335 0.25959492
-0.046860877 0.55719864 0.14089394
-0.045644876 0.34254265 0.315063
-0.047306877 0.59801865 0.076919079
-0.048085876 0.66917664 -0.034585953
-0.046899877 -0.14009434 0.13524008
-0.051039878 -0.62451535 -0.45768118
-0.050452877 0.096709609 0.39987612
-0.050633878 0.16239065 0.37689114
-0.050930876 0.27047765 0.33906794
-0.050950877 0.53599465 0.33654594
-0.051053878 0.31507564 0.32346201
-0.051128875 0.34243965 0.31388617
-0.051305879 0.49240163 0.29128981
-0.059465878 -0.85542542 -0.74766397
-0.055861875 0.096561611 0.39873075
-0.057210878 -0.040721357 0.24415207
-0.056402877 0.53600264 0.33674192
-0.056529876 0.31496763 0.32228804
-0.056730878 0.38104564 0.29916
-0.056859877 0.49199063 0.28446484
-0.062375877 -0.52323741 -0.34762096
-0.061365876 -0.42892641 -0.2319541
-0.067199878 -0.97401541 -0.90047407
-0.059793878 -0.2819894 -0.051743031
-0.058301877 -0.14261931 0.11918306
-0.064264879 -0.69971341 -0.56405783
-0.063502878 -0.62859732 -0.47683907
-0.061633877 0.20373863 0.36001396
-0.063420877 -0.092755377 0.17389488
-0.062007878 0.31485963 0.32111311
-0.064709879 0.62724364 0.039614201
-0.062229875 0.38094965 0.29797697
-0.062360879 0.41983265 0.28436518
-0.062465876 0.45131364 0.27334499
-0.073837884 -0.97669131 -0.91128683
-0.066686884 0.096262634 0.39644003
-0.067080878 0.20360863 0.35885382
-0.067179881 0.23064864 0.34938574
-0.06734588 0.042388618 0.33351803
-0.067588881 0.34213066 0.31035185
-0.067729883 0.38085362 0.29679298
-0.067872882 0.41974464 0.28317595
-0.071085878 0.66950065 -0.023663044
-0.072551884 -0.36211437 -0.16357183
-0.078185879 -0.79994434 -0.70162582
-0.069759883 -0.14516038 0.10304117
-0.072130881 0.095818639 0.39294195
-0.072223879 0.12648165 0.38465881
-0.074795879 -0.095152378 0.15802288
-0.074082881 -0.044088364 0.22083902
-0.072637878 0.23052365 0.34822178
-0.073492885 -0.0017733574 0.27289295
-0.07351388 0.45114765 0.27095795
-0.073594883 0.49075064 0.26389313
-0.08084888 -0.52887338 -0.37551403
-0.075510882 -0.14643842 0.094936848
-0.080425881 0.55793363 0.15642691
-0.081203878 0.59866464 0.092752934
-0.081754878 0.6275326 0.047633171
-0.083433881 0.20321661 0.35537386
-0.085398883 -0.046351373 0.2051959
-0.08409588 0.53428465 0.30479097
-0.084068879 0.34181762 0.30681515
-0.088287883 0.66974062 -0.015489101
-0.093246885 -0.5326634 -0.39424181
-0.091711879 -0.43756634 -0.27702284
-0.098693877 -0.87026638 -0.81038094
-0.097673878 -0.80705935 -0.73247099
-0.096118882 -0.71066839 -0.61365604
-0.094960883 -0.6389274 -0.52522612
-0.088657878 0.093017638 0.37070894
-0.089020878 0.23014563 0.34472895
-0.089213878 0.26965463 0.33088493
-0.09034688 -0.0049893856 0.24978209
-0.089566879 0.34171265 0.30563498
-0.092465878 0.59887767 0.098016739
-0.093094878 0.62772465 0.052968025
-0.097829878 -0.4393124 -0.28611183
-0.095272884 -0.29095441 -0.10305595
-0.09284988 -0.15029436 0.070497036
-0.094344884 0.20295161 0.35304976
-0.097712882 -0.099995375 0.12602997
-0.094485879 0.23001766 0.34356499
-0.095065884 0.34160662 0.30445576
-0.095469885 0.41929564 0.27722692
-0.095633879 0.45081264 0.26618004
-0.10396288 -0.44106442 -0.29522896
-0.10123988 -0.29246539 -0.11169004
-0.099978879 -0.22364634 -0.026691914
-0.10898488 -0.71510535 -0.63370323
-0.10766588 -0.64311033 -0.54478121
-0.099744879 0.091135621 0.35579014
-0.099381879 0.12574965 0.37890577
-0.099805884 0.20281863 0.35189009
-0.10248088 -0.049773335 0.18157673
-0.10038488 0.56558967 0.31502199
-0.10441788 0.62791467 0.058297157
-0.10117088 0.45072764 0.26498508
-0.11732988 -0.81425041 -0.76359797
-0.10926088 -0.10244036 0.10990286
-0.10542488 0.22976166 0.34123373
-0.10643388 0.035294652 0.28036404
-0.10607388 0.34139365 0.30209398
-0.10629888 0.38016963 0.28849792
-0.10652588 0.41911364 0.27484417
-0.11482388 -0.37352842 -0.22559881
-0.11180588 -0.22646934 -0.043594837
-0.11025888 0.12545264 0.37660217
-0.11113888 0.26917261 0.32620287
-0.11301488 -0.0093253851 0.2186861
-0.11207288 0.034267664 0.27269316
-0.11210888 0.53244162 0.27063179
-0.11141188 0.31386465 0.31052876
-0.11181688 0.38007063 0.28731298
-0.12246588 -0.4463554 -0.32273483
-0.13190587 -0.88288134 -0.86354303
-0.12842287 -0.72181934 -0.66400385
-0.11647388 0.088289618 0.33327198
-0.11592788 0.16071665 0.363029
-0.12086488 -0.10490137 0.093691826
-0.11871688 -0.010418355 0.21086216
-0.11772488 0.033237636 0.26500177
-0.11699788 0.56507564 0.30468512
-0.11733788 0.37997064 0.28612614
-0.12866588 -0.44813138 -0.33195782
-0.12204488 -0.15680641 0.029324055
-0.13493787 -0.72407335 -0.67416525
-0.13328987 -0.65156537 -0.58424425
-0.12207888 0.087334633 0.32572603
-0.12118288 0.12492365 0.37238693
-0.12166588 0.20228165 0.34724092
-0.12184788 0.22937363 0.33773518
-0.12443488 -0.011515379 0.20301485
-0.12339288 0.032204628 0.25728798
-0.12241588 0.31363863 0.30817413
-0.12614888 0.5995096 0.11376619
-0.12312488 0.41883764 0.27126789
-0.14380087 -0.82396036 -0.80555105
-0.12732688 0.22924364 0.33656788
-0.12907387 0.03116864 0.24955702
-0.12811388 0.34096366 0.29736805
-0.14352287 -0.5480904 -0.47025919
-0.15206587 -0.89056236 -0.89584017
-0.13234487 0.12311167 0.35746717
-0.13420087 0.41865164 0.2688818
-0.15459788 -0.73088533 -0.70483589
-0.13794687 0.12220061 0.34997892
-0.15168788 -0.38353032 -0.27974606
-0.16560388 -0.89572936 -0.91754007
-0.16385487 -0.83133537 -0.83735514
-0.14355987 0.20173562 0.34258604
-0.14466688 0.34063566 0.29381895
-0.14952888 0.62866664 0.079539776
-0.16266288 -0.55398637 -0.499228
-0.15788887 -0.38521737 -0.28886223
-0.17057787 -0.83381134 -0.84802198
-0.14919287 0.12037063 0.33494282
-0.14903988 0.20159763 0.34142303
-0.15603687 -0.11238134 0.044531822
-0.15450387 -0.060242355 0.10958719
-0.15323387 -0.017050385 0.1634779
-0.15051188 0.37936363 0.2789979
-0.15972887 -0.23794836 -0.11214113
-0.15483588 0.11945164 0.32739782
-0.15416287 0.15970165 0.3549242
-0.15509488 0.26818663 0.31682205
-0.16024688 0.22845066 0.32956314
-0.16059887 0.26806062 0.31564713
-0.16345687 0.024879634 0.20274305
-0.16292687 0.52988362 0.22366905
-0.16256388 0.48910463 0.23799515
-0.18196487 -0.5599454 -0.52845812
-0.19086987 -0.84129435 -0.88022995
-0.18773988 -0.74240142 -0.75658321
-0.18541187 -0.6688394 -0.66460896
-0.16740987 0.079587638 0.26466608
-0.16616388 0.11760461 0.3122468
-0.16549088 0.20118064 0.33792686
-0.16651787 0.31271666 0.298738
-0.19200987 -0.6710344 -0.67479181
-0.17503387 0.022755623 0.18697119
-0.17204188 0.31259865 0.29755592
-0.17334488 0.44959563 0.24941111
-0.18915388 -0.3937394 -0.3348341
-0.20670587 -0.91146237 -0.98347521
-0.20113188 -0.74706632 -0.77750683
-0.19862887 -0.67323631 -0.6850071
-0.17888488 0.077619612 0.24920082
-0.17647187 0.20090061 0.33559704
-0.17673787 0.22804666 0.3260541
-0.17712687 0.26768064 0.31212187
-0.17756687 0.31248063 0.29637575
-0.17860188 0.41789365 0.25932312
-0.20143087 -0.56596833 -0.55795002
-0.21134087 -0.8488614 -0.91274405
-0.18761188 -0.17151839 -0.063251972
-0.20526588 -0.67544538 -0.69525194
-0.18168688 0.15838462 0.3440752
-0.18264088 0.26755363 0.31094694
-0.18520187 0.56100166 0.2220211
-0.18309487 0.31236261 0.2951932
-0.18356287 0.60632265 0.27891874
-0.18488087 0.48877963 0.23317099
-0.20795487 -0.56799036 -0.56783915
-0.20177788 -0.39718932 -0.35340691
-0.21192087 -0.67766339 -0.70553017
-0.19041587 0.075638652 0.23365688
-0.19579588 -0.068600357 0.052388191
-0.18774287 0.22777462 0.32371283
-0.18815687 0.26742566 0.30977106
-0.19046587 0.48869765 0.23196316
-0.22136487 -0.75412732 -0.80913496
-0.19620287 0.074643612 0.22585392
-0.20175487 -0.06981039 0.044129848
-0.19367488 0.26729661 0.30859518
-0.20007487 -0.026096344 0.099121094
-0.19415687 0.31212461 0.29282904
-0.19500087 0.60573763 0.26518679
-0.19528988 0.41760263 0.25573206
-0.23199287 -0.85651141 -0.94556427
-0.20867087 -0.2497403 -0.18222618
-0.20048888 0.11199063 0.26631784
-0.19875687 0.15574962 0.32142496
-0.19845787 0.20033264 0.3309288
-0.19999687 0.33951664 0.28196907
-0.20074087 0.6054436 0.25828791
-0.20120887 0.44914463 0.24340391
-0.20164387 0.48853263 0.22954702
-0.22764087 -0.57409841 -0.59768581
-0.22373988 -0.47552234 -0.47354603
-0.23891987 -0.85908037 -0.95657492
-0.21486387 -0.25123733 -0.19110012
-0.20625888 0.11104465 0.25859404
-0.20396088 0.20018864 0.32976294
-0.20471987 0.26703864 0.30624199
-0.21011688 0.016301632 0.1391592
-0.20649187 0.6051476 0.2513752
-0.20598488 0.37831965 0.26708794
-0.20678887 0.44905365 0.2421999
-0.23021887 -0.47740036 -0.48321009
-0.21204387 0.11009562 0.2508502
-0.21972787 -0.07346338 0.019214153
-0.21601588 0.015213609 0.13111687
-0.24085787 -0.57820636 -0.617733
-0.23671687 -0.47928339 -0.49289894
-0.23364587 -0.40592033 -0.40032005
-0.25283286 -0.86424631 -0.97870111
-0.24549088 -0.68887335 -0.75738907
-0.22803387 -0.12779534 -0.056221008
-0.21842787 0.48828363 0.22592211
-0.24323288 -0.48117441 -0.50262022
-0.24007188 -0.40768534 -0.40978622
-0.25981987 -0.86684436 -0.9898181
-0.25226286 -0.6911394 -0.76785803
-0.22365887 0.10818762 0.23529816
-0.22171587 0.15219766 0.29095078
-0.22786087 0.013026655 0.11496401
-0.22219488 0.33905566 0.27721691
-0.22382487 0.60425764 0.23054218
-0.22315487 0.41711164 0.24973774
-0.22683787 0.26651561 0.30152988
-0.22775087 0.33893967 0.27602911
-0.22962788 0.60395861 0.22356606
-0.22873488 0.41701165 0.24853897
-0.23712887 0.067585647 0.17065001
-0.24391088 -0.078392386 -0.014327049
-0.23237288 0.26638365 0.30035305
-0.23523487 0.48803064 0.22229099
-0.26752087 -0.58651131 -0.65819883
-0.25945988 -0.41301531 -0.43834925
-0.28091186 -0.87469536 -1.0233831
-0.27270088 -0.69798833 -0.79946089
-0.23790987 0.26625061 0.29917288
-0.23938388 0.37767363 0.25992393
-0.24031988 0.44849864 0.23497486
-0.26209188 -0.33362335 -0.34494925
-0.25509888 -0.18678135 -0.15868187
-0.24706288 0.10433567 0.20395279
-0.25870788 -0.13440138 -0.099195957
-0.24291188 0.22638464 0.31199312
-0.24495788 0.37756464 0.25872898
-0.29011488 -0.77823037 -0.91673803
-0.25489289 0.064511657 0.14667702
-0.24819188 0.19868165 0.31722498
-0.26221588 -0.082131386 -0.039724827
-0.24844387 0.22624165 0.31081915
-0.24899387 0.26598465 0.29681396
-0.25263086 0.52869463 0.20423698
-0.24961588 0.31090665 0.28098297
-0.25206488 0.48777562 0.21865702
-0.28772187 -0.59282035 -0.68887615
-0.27901086 -0.41840237 -0.46716785
-0.27109388 -0.13707536 -0.11655521
-0.25711986 0.44821665 0.2313571
-0.27385187 -0.19104332 -0.18522596
-0.27730986 -0.13841933 -0.12526894
-0.27449888 -0.084645391 -0.056774139
-0.26169887 0.37723464 0.25513887
-0.26329586 0.48760363 0.21622992
-0.27279186 0.061407626 0.12251091
-0.27070686 0.10043263 0.17227316
-0.26559088 0.19616365 0.29434013
-0.28354388 -0.13976735 -0.13400984
-0.27828187 -0.04131335 -0.0084691048
-0.26670688 0.33811462 0.26769781
-0.29872587 -0.42384535 -0.49624205
-0.29048187 -0.26959938 -0.29956102
-0.28440988 -0.042512357 -0.016907215
-0.28192386 0.0030056238 0.041193962
-0.27228388 0.33799464 0.26650476
-0.27346388 0.41620165 0.23892498
-0.31493089 -0.60133737 -0.73022127
-0.30942088 -0.50045437 -0.60144806
-0.30533686 -0.42567331 -0.50599384
-0.32109788 -0.71426338 -0.87436914
-0.27906588 0.41609964 0.23772097
-0.31196389 -0.42750734 -0.51577187
-0.32809389 -0.71662241 -0.88520527
-0.28312287 0.19362062 0.27127695
-0.29926386 -0.089723349 -0.09115696
-0.28167588 0.22537863 0.30376816
-0.29411086 0.00073862076 0.024554729
-0.28300786 0.31015366 0.27385807
-0.28405488 0.37678963 0.25035
-0.31392187 -0.34704441 -0.42030525
-0.33511087 -0.71899039 -0.89607382
-0.29198986 0.14126462 0.19759989
-0.29078686 0.44764164 0.22410774
-0.29141986 0.48716763 0.21015978
-0.32964787 -0.50637335 -0.63168287
-0.29488388 0.19191265 0.2558012
-0.31496587 -0.14657742 -0.17808199
-0.29293686 0.22472262 0.29785585
-0.34245786 -0.6099773 -0.77207804
-0.33196089 -0.43304735 -0.54528618
-0.35377288 -0.80069631 -1.0165501
-0.34920788 -0.72375232 -0.91791916
-0.30663186 0.09448266 0.12411308
-0.30202988 0.44744763 0.22168875
-0.31267288 0.093479633 0.11601114
-0.32765487 -0.14933437 -0.19588804
-0.32429487 -0.094871342 -0.12592983
-0.30455586 0.26462162 0.28499699
-0.31867787 -0.0038413405 -0.0089998245
-0.30531988 0.30964166 0.26910019
-0.35005286 -0.51235634 -0.66219807
-0.33575788 -0.28066641 -0.36458921
-0.33103389 -0.2040934 -0.26622915
-0.36815888 -0.80579239 -1.0391293
-0.36339286 -0.72854942 -0.93990707
-0.33059388 -0.096168339 -0.13468218
-0.31056687 0.22228062 0.27480507
-0.32775387 -0.05101037 -0.076614857
-0.35213187 -0.43864733 -0.575068
-0.33747387 -0.20556837 -0.2753582
-0.37538287 -0.80835336 -1.0504708
-0.32480288 0.091462612 0.099740982
-0.34041187 -0.15210932 -0.21379423
-0.33690986 -0.097470343 -0.14346123
-0.33105886 -0.0061543584 -0.0259161
-0.31835386 0.41536763 0.22928286
-0.31891286 0.44715363 0.21805716
-0.36375487 -0.51638037 -0.68269825
-0.35356489 -0.35735935 -0.47800016
-0.34885588 -0.28387731 -0.38341093
-0.38263088 -0.81092638 -1.061852
-0.37766087 -0.7333824 -0.96203518
-0.32794386 0.13563663 0.14979792
-0.34028888 -0.05347538 -0.093893051
-0.32327586 0.37599364 0.24194908
-0.36023888 -0.3591004 -0.48771906
-0.34658086 -0.054714382 -0.10256624
-0.32817689 0.33677262 0.25456476
-0.32960388 0.41515565 0.22686815
-0.37247887 -0.44430834 -0.6051259
-0.34005186 0.13373566 0.13369513
-0.33652487 0.18584466 0.200984
-0.35968086 -0.15630835 -0.24084997
-0.33243287 0.26392066 0.27907419
-0.36864287 -0.28873736 -0.41185904
-0.35199687 0.047594666 0.015489101
-0.34925586 0.087390661 0.066933155
-0.34612888 0.13278061 0.12560892
-0.34253487 0.18496662 0.19307089
-0.34024888 0.21815765 0.23597717
-0.38614088 -0.44811541 -0.6253171
-0.38037187 -0.36435837 -0.51704407
-0.40646288 -0.74315733 -1.006721
-0.35820186 0.046507657 0.0070981979
-0.41371787 -0.74562436 -1.017982
-0.35833389 0.13086063 0.10937119
-0.37517586 -0.10537738 -0.19666481
-0.35222888 0.21648961 0.22030115
-0.34918988 0.26349366 0.27551508
-0.35136786 0.37541264 0.23593616
-0.39988387 -0.45195037 -0.64563322
-0.36445886 0.12989664 0.10122108
-0.36065787 0.18231463 0.16919994
-0.38562086 -0.16197532 -0.27728796
-0.37491888 -0.014374375 -0.085874081
-0.35621989 0.33614463 0.24857998
-0.41235489 -0.53069836 -0.75545883
-0.39528689 -0.29529732 -0.45018482
-0.42829788 -0.75058633 -1.0406189
-0.37691888 0.043222666 -0.01821804
-0.37059987 0.12892866 0.093048096
-0.36074787 0.26257461 0.26655102
-0.38125187 -0.015564382 -0.094534874
-0.36183688 0.33601761 0.24738216
-0.41937986 -0.53277332 -0.76598501
-0.36689088 0.30819666 0.25598288
-0.43422589 -0.63895136 -0.91182518
-0.42642587 -0.53485638 -0.77654123
-0.37637186 0.21312064 0.1887002
-0.37272388 0.26102364 0.25101995
-0.44143486 -0.64123839 -0.9228158
-0.45033386 -0.75809735 -1.0748482
-0.41185087 -0.16772038 -0.31415224
-0.37873688 0.26024467 0.24322319
-0.37812087 0.30792665 0.25359106
-0.44866788 -0.64353436 -0.93384504
-0.43459487 -0.46165842 -0.69697189
-0.39894086 0.079081655 0.00022983551
-0.39532986 0.12502563 0.060130119
-0.41407388 -0.11344737 -0.25078583
-0.38373888 0.30779165 0.25239515
-0.44769189 -0.54115039 -0.80841684
-0.44159788 -0.46362132 -0.70733595
-0.41693288 -0.068621337 -0.199615
-0.44182786 -0.38047439 -0.60663795
-0.42955688 -0.22676438 -0.40602207
-0.43171588 -0.17208141 -0.34208202
-0.39686286 0.25789165 0.21971083
-0.45566788 -0.46756834 -0.7281599
-0.41784889 0.075907648 -0.025167942
-0.40968487 0.17511564 0.10459375
-0.42607087 -0.024009347 -0.15585899
-0.44301188 -0.22987837 -0.4251318
-0.42418486 0.074843645 -0.033679962
-0.41588488 0.17420167 0.096418858
-0.41306388 0.20798463 0.14065313
-0.40902686 0.25630963 0.2039299
