# .PCD v0.7 - Point Cloud Data file format
VERSION 0.7
FIELDS x y z
SIZE 4 4 4
TYPE F F F
COUNT 1 1 1
WIDTH 1
HEIGHT 1024
VIEWPOINT 0 0 0 1 0 0 0
POINTS 1024
DATA ascii
0.45872673 0.34482408 0.1295867
0.45142174 0.34668109 0.15306091
0.45510873 0.26528406 0.019934654
0.45049575 0.30033606 0.085901737
0.45543775 0.2086091 -0.06793642
0.44783375 0.26729107 0.042186737
0.44806576 0.21084106 -0.045083046
0.44060975 0.26928407 0.064284801
0.44744873 0.15965611 -0.12203598
0.42823774 0.34760809 0.1634326
0.44468075 0.12457711 -0.16859531
0.43347275 0.21525806 0.00015258789
0.42539474 0.1668691 -0.052846432
0.41220173 0.27711707 0.15116692
0.40513873 0.34852609 0.17377663
0.40880373 0.38500109 0.11631966
0.41521573 0.13471609 -0.075383186
0.41094676 0.1715911 -0.0075240135
0.39897975 0.27997208 0.18268156
0.43325374 -0.084780931 -0.45988131
0.39012673 0.31318009 0.23528385
0.39089274 0.22813308 0.13212299
0.43154573 -0.1350469 -0.53254509
0.42553276 -0.081335902 -0.43424845
0.39137673 0.38563907 0.12420702
0.38212574 0.34943509 0.18409061
0.40309075 -0.0082189441 -0.26286221
0.39825675 0.036489069 -0.18148804
0.42171875 -0.18048191 -0.57640314
0.37708274 0.2323041 0.17491961
0.41026175 -0.074525893 -0.38354921
0.37304574 0.31390208 0.24286461
0.37638474 0.34966108 0.18666601
0.38256875 0.41589707 0.082570553
0.39096776 0.039363086 -0.15786743
0.38561973 0.089691103 -0.066513062
0.42072573 -0.24071395 -0.66625023
0.41391575 -0.17662489 -0.54991817
0.37569475 0.18310308 0.1030426
0.40271074 -0.071159899 -0.35848522
0.37399575 0.38627309 0.13207769
0.37673774 0.41609508 0.085231781
0.36168474 0.31438011 0.24791193
0.36560273 0.15176511 0.08152771
0.39848575 -0.16899896 -0.49754906
0.39315474 -0.11699492 -0.40366602
0.35378674 0.28965008 0.28961897
0.35919476 0.35033607 0.19437456
0.35511574 0.18981606 0.16757774
0.35218576 0.23675007 0.2199769
0.34815374 0.2898981 0.29210567
0.35347375 0.35055909 0.19694281
0.35666174 0.38690209 0.13992977
0.40368176 -0.29265988 -0.70108128
0.35742974 0.10013211 0.023799896
0.38949573 -0.22437096 -0.55886507
0.37818974 -0.10996491 -0.35344028
0.35346374 0.41688409 0.095860004
0.40477073 -0.37895191 -0.8364253
0.35950676 0.0098600984 -0.12025499
0.35050374 0.10269511 0.045986652
0.34506074 0.15881407 0.14648056
0.37576476 -0.15777898 -0.42045307
0.33902276 0.31533009 0.25798368
0.34205073 0.35100508 0.20206976
0.35242274 0.012796104 -0.097079277
0.35853973 -0.051488936 -0.21188736
0.33634675 0.35122809 0.20463085
0.39709175 -0.45662093 -0.93542528
0.34538776 0.015711069 -0.074066162
0.33679473 0.10776711 0.089898586
0.36668473 -0.21244597 -0.48044729
0.33606574 0.41747108 0.10380983
0.38090473 -0.36477792 -0.75177526
0.37256876 -0.27547193 -0.5927062
0.33839974 0.018605053 -0.051210403
0.35919273 -0.20852995 -0.45469141
0.31729475 0.1985631 0.25116301
0.31128976 0.25128007 0.36970663
0.34172374 -0.092847943 -0.23106623
0.32449076 0.41786009 0.10910082
0.36529773 -0.35551393 -0.69642401
0.30434874 0.25423807 0.40027571
0.37373275 -0.53451896 -0.99345541
0.31773275 0.027161062 0.016387939
0.31407174 0.069632053 0.091232777
0.33704975 -0.19696593 -0.3785882
0.31293973 0.41824707 0.11438274
0.31579974 0.4556661 0.055903912
0.34238073 -0.2588129 -0.48758125
0.31093574 0.029972076 0.038612843
0.32977474 -0.19316888 -0.35358715
0.31622475 -0.032673895 -0.07149601
0.29097375 0.30447507 0.45420694
0.34947073 -0.42645788 -0.76362944
0.33497176 -0.25472689 -0.46178532
0.29922175 0.38896707 0.16598463
0.30415973 0.45602009 0.06127882
0.33479175 -0.33742189 -0.58826017
0.28864273 0.1726861 0.27366686
0.31052774 -0.12561291 -0.19915819
0.35896474 -0.72416496 -1.245677
0.33408475 -0.41672397 -0.70814133
0.28752273 0.080061078 0.17720461
0.28307775 0.17286509 0.27508879
0.29572874 -0.023571908 -0.0035133362
0.29254276 0.4563731 0.066646576
0.35069874 -0.71774495 -1.2140403
0.34107274 -0.5961839 -1.0020561
0.27057573 0.30262506 0.43232679
0.32630876 -0.50235295 -0.81910419
0.31893376 -0.40714288 -0.65350723
0.26765475 0.25212008 0.37642097
0.28229773 -0.017610908 0.041030884
0.27534273 0.50607312 0.20032978
0.27638975 0.38977909 0.17635489
0.27840474 0.41939709 0.1301856
0.28094473 0.45672509 0.07201767
0.31861773 -0.49714088 -0.79083633
0.31144273 -0.40240788 -0.62649727
0.29874474 -0.23476493 -0.33567715
0.26807475 0.087693095 0.24017096
0.26228774 0.25204611 0.37541676
0.26038775 0.3015601 0.41981983
0.27069375 0.38998109 0.17895174
0.27515474 0.45689908 0.074690819
0.30400974 -0.39770997 -0.59969807
0.29792973 -0.31558692 -0.45760441
0.26465175 0.049101055 0.18994665
0.27606174 -0.10865194 -0.082298279
0.25431076 0.33065009 0.43665266
0.26500374 0.39018208 0.18154001
0.25532475 0.09269309 0.28144455
0.27344275 -0.16380095 -0.16006041
0.25931874 0.53657305 0.18412685
0.25016075 0.30048805 0.40726376
0.25701275 0.35428309 0.24030876
0.30200174 -0.5680809 -0.85595322
0.28931075 -0.38842595 -0.54671001
0.27763575 -0.22314596 -0.26221228
0.25182274 0.054396093 0.23188162
0.24901074 0.095168054 0.30188179
0.25598276 -0.0059429407 0.12828588
0.25182575 0.5078001 0.2317977
0.24503075 0.29995006 0.40096569
0.28844574 -0.47670889 -0.67996025
0.23964374 0.14363009 0.40098381
0.23997474 0.18559808 0.39256477
0.24951574 -0.0030779243 0.14972782
0.24796173 0.39078307 0.18927956
0.24498275 0.46835208 0.26511097
0.23699275 0.098564088 0.32979679
0.24623574 -0.048143923 0.089186668
0.24013774 0.35492507 0.2479229
0.24117875 0.42548907 0.22084093
0.23912974 0.46890709 0.27416992
0.22926274 0.18542808 0.39056683
0.24278075 -0.092296898 0.030510902
0.23005874 0.2515921 0.36938572
0.22958474 0.29832709 0.38199568
0.26056075 -0.37027991 -0.44309235
0.28769675 -0.7945329 -1.1658983
0.22341874 0.14391011 0.40283155
0.22390574 0.18534309 0.3895669
0.23626074 -0.089095891 0.052604675
0.22930475 0.50840712 0.24232388
0.22441575 0.29778308 0.37564754
0.22306974 0.32871407 0.41233969
0.23081674 0.39166909 0.20107698
0.22952574 0.42654008 0.23629856
0.25918075 -0.45691395 -0.57245302
0.25350574 -0.36582994 -0.41766834
0.22048774 0.067317069 0.33428955
0.22049774 0.099138081 0.33398485
0.21806975 0.14381909 0.40183687
0.21854474 0.18525708 0.38856792
0.22978474 -0.085916936 0.074553013
0.22368574 0.50855708 0.24494791
0.22753075 0.5777601 0.13752174
0.22354475 0.42738509 0.24887371
0.22670275 -0.13948494 0.00043678284
0.22335374 -0.08276093 0.096342564
0.22060275 -0.03617394 0.17510986
0.21404475 0.29669011 0.36290693
0.23009974 -0.19701791 -0.09683609
0.20698574 0.10842305 0.41112471
0.20736974 0.14363509 0.3998456
0.20811474 0.21199811 0.37794781
0.21430275 -0.033233941 0.19622564
0.21611574 0.5780021 0.14294958
0.21116975 0.46980807 0.28822279
0.24908274 -0.63895392 -0.82530308
0.22349875 -0.19339395 -0.073877335
0.20201774 0.14354205 0.39885092
0.20245774 0.18499607 0.38556862
0.20274374 0.21191406 0.37694502
0.20363374 0.29559308 0.3501358
0.21041675 0.57812309 0.14566088
0.20801075 0.39294508 0.21820164
0.23538475 -0.52025688 -0.606987
0.23077874 -0.43772388 -0.46814919
0.19614574 0.07734406 0.41384459
0.19629775 0.10822707 0.40913963
0.20735374 -0.12943292 0.066856861
0.19737074 0.21182907 0.37594175
0.19777675 0.25112307 0.36335087
0.20270474 0.53796208 0.21079302
0.19721474 0.32614011 0.38076162
0.20093474 0.35640308 0.26559401
0.20235075 0.39321107 0.22174168
0.21898675 -0.3440789 -0.29331541
0.21477975 -0.26644993 -0.16305637
0.24129274 -0.75562692 -0.98388815
0.19805874 -0.070356905 0.18204069
0.19669974 0.39347509 0.22527981
0.22707075 -0.6219269 -0.74116039
0.21688874 -0.42834687 -0.4171524
0.18595174 0.14326108 0.39586163
0.18635774 0.18473005 0.38256884
0.18662074 0.21165907 0.37393665
0.19008175 0.50945407 0.26067257
0.18543574 0.36785108 0.41272688
0.18995275 0.42851907 0.26490259
0.18895274 0.47041208 0.29761171
0.18025774 0.10793108 0.40616083
0.18839775 -0.11959392 0.13191271
0.18566374 -0.064284921 0.22402477
0.18124475 0.21157306 0.37293386
0.18161875 0.25088209 0.36033297
0.18766774 0.5786041 0.15650177
0.18542475 0.39398509 0.2320919
0.18407275 0.42937309 0.27765083
0.18337575 0.47063109 0.30110455
0.21890974 -0.73688495 -0.89613199
0.17462875 0.07755506 0.41487694
0.17490874 0.10783106 0.40516996
0.17561774 0.18455106 0.38056755
0.17545174 0.028510094 0.38632965
0.18199374 0.57872307 0.15921593
0.17981775 0.39418507 0.23473883
0.19643374 -0.41454887 -0.34206533
0.17596975 -0.11314893 0.17455578
0.17343074 -0.058294892 0.26545668
0.17048474 0.21139908 0.37092781
0.17083675 0.25071806 0.35831881
0.17458774 0.53864408 0.22404957
0.17110175 0.32352906 0.34885693
0.17332375 0.42884108 0.26929855
0.18217674 -0.24723089 -0.047636986
0.20427474 -0.72463989 -0.83876944
0.16486974 0.18436909 0.37856674
0.16981874 -0.1099599 0.19566059
0.16737574 -0.055330932 0.28596401
0.16510375 0.21131206 0.36992598
0.16536674 -0.010428905 0.36018658
0.16583075 0.29506809 0.34306002
0.17065975 0.57896107 0.16461277
0.17242475 0.60665011 0.099351883
0.16443674 0.36648908 0.39455557
0.19148974 -0.59443188 -0.60518599
0.18303974 -0.40551996 -0.29290915
0.17579074 -0.24346995 -0.025035381
0.19704275 -0.71859193 -0.81042719
0.16221374 0.51019108 0.27372265
0.16337575 0.53891408 0.22933578
0.16042474 0.29499108 0.34204769
0.16058275 0.32247508 0.33600283
0.16646674 0.6070981 0.11132765
0.16201174 0.42966607 0.28145695
0.17984474 -0.48048294 -0.39957142
0.17641474 -0.40105593 -0.26859999
0.17269774 -0.31495893 -0.12663221
0.19352575 -0.79733491 -0.92204332
0.15324874 0.07713306 0.4109149
0.15465674 0.2504701 0.35529757
0.15777774 0.53904909 0.23197365
0.15501775 0.29491407 0.3410368
0.15523875 0.32217509 0.3322897
0.15934674 0.57919705 0.16999769
0.16045874 0.60764706 0.12606192
0.15744774 0.39496109 0.24502087
0.15602975 0.47067207 0.30103779
0.16983774 -0.39662695 -0.24446917
0.16315174 -0.23602891 0.019694805
0.18625574 -0.79093993 -0.89306831
0.14894974 0.21104705 0.36691475
0.15218274 0.53918409 0.23462296
0.14960675 0.29483706 0.34002495
0.15369675 0.57931507 0.17268896
0.15188274 0.39510408 0.24688768
0.15029675 0.47132307 0.31178856
0.15380074 -0.15519488 0.16842985
0.17903975 -0.78459489 -0.86431313
0.17567675 -0.70073187 -0.72670603
0.14335874 0.18400007 0.37456465
0.14354475 -0.0436759 0.36665297
0.14196475 -0.00021493435 0.43368959
0.14555174 0.51062709 0.28151274
0.14440274 0.32202709 0.33026075
0.14632374 0.39524609 0.24875259
0.14548275 0.42988807 0.28440571
0.15984274 -0.46618187 -0.3249073
0.15068175 -0.22869194 0.063817978
0.16866374 -0.69487298 -0.69923019
0.13966675 -0.094341934 0.29909086
0.14101075 0.53945112 0.23989773
0.15721774 -0.56798887 -0.47428036
0.14167674 -0.14856291 0.21055889
0.16170375 -0.68906093 -0.67196703
0.13153975 0.033226073 0.42090988
0.13446775 0.51091707 0.28670692
0.13294774 0.36358708 0.3563776
0.13451774 0.42990509 0.28441191
0.13397375 0.47120008 0.30935097
0.14398874 -0.37922788 -0.14964342
0.13838175 -0.22145987 0.10733175
0.12739174 0.21068609 0.36289978
0.12813875 0.32180208 0.32721567
0.13206674 0.60817409 0.13968563
0.15707974 -0.94611394 -1.0544014
0.15454674 -0.87168896 -0.93347216
0.13229375 -0.21788192 0.12886763
0.12971175 -0.14202291 0.25212669
0.12042575 -0.033064902 0.44015455
0.12199675 0.21059406 0.36189461
0.12340175 0.51120609 0.29189491
0.12640275 0.60827911 0.14240599
0.12146474 0.40523008 0.38836765
0.14379275 -0.75362694 -0.72388744
0.11617874 0.14198411 0.38290167
0.11643574 0.1835261 0.3695569
0.11660174 0.21050209 0.36089182
0.11529874 -0.0008149147 0.42877293
0.11787675 0.5113501 0.29448366
0.11872274 0.53998309 0.25042582
0.12074474 0.60838306 0.145123
0.11812375 0.42974409 0.28163958
0.11773574 0.47077009 0.30182791
0.13069375 -0.54755092 -0.3730092
0.12744874 -0.44304895 -0.20403242
0.12507275 -0.36650896 -0.080269337
0.11041474 0.07626009 0.402987
0.11059374 0.10658509 0.39324379
0.11071675 -0.081143916 0.38653278
0.11169875 0.29428208 0.33293962
0.11509174 0.60848808 0.1478467
0.11225875 0.47081107 0.30241966
0.13332574 -0.85180295 -0.84702206
0.12767474 -0.6606679 -0.5387063
0.10505474 0.076149106 0.40199566
0.10542274 0.14177907 0.38090658
0.10544775 -0.082190931 0.37945175
0.10481074 0.03264308 0.415977
0.10760874 0.54024607 0.25566769
0.10643075 0.32149607 0.32315493
0.10641275 0.36113107 0.32420063
0.10739874 0.42883307 0.26768064
0.11036675 -0.27584791 0.097662926
0.12101974 -0.65512097 -0.51265621
0.10004074 0.14167607 0.37990761
0.099180743 -0.034208894 0.43179178
0.10040575 0.21022409 0.35787678
0.099279746 -0.0011819005 0.42582178
0.10205775 0.54037809 0.25828981
0.10307674 0.58036309 0.19682264
0.10107175 0.36063609 0.3177228
0.10020074 0.40396708 0.37024879
0.10151374 0.47014308 0.29105473
0.10654474 -0.35406291 -0.012339115
0.10115574 -0.13247091 0.312675
0.094658747 0.14157307 0.37890959
0.093936741 -0.0013059378 0.42483759
0.095565744 0.3213411 0.32112265
0.095721744 0.36013907 0.311234
0.096301742 0.42928508 0.274333
0.10492574 -0.52771997 -0.27466345
0.10045374 -0.34997392 0.0099897385
0.098399743 -0.26834798 0.14073181
0.09712474 -0.20240593 0.22192478
0.095812745 -0.13359189 0.30542278
0.10985974 -0.72385991 -0.58877325
0.089274742 0.14146906 0.377913
0.089568742 -0.085353911 0.35810471
0.088592745 -0.0014299154 0.42385387
0.092585742 0.60875511 0.15472984
0.098598741 -0.52285492 -0.25052023
0.10748374 -0.89772189 -0.84941721
0.091699742 -0.20362592 0.21445894
0.090457745 -0.13471591 0.29815102
0.10322475 -0.71804488 -0.56236124
0.083415747 -0.03718394 0.41080093
0.084197745 0.20994109 0.35486174
0.083398744 0.03216511 0.41202688
0.085064746 0.51128709 0.2927599
0.085435741 0.54077005 0.26614761
0.084250741 0.40261707 0.35105562
0.085090742 -0.13584393 0.29086399
0.07813774 -0.038181901 0.40376997
0.078956746 0.2492581 0.3411808
0.080706745 0.58082008 0.20749092
0.083049744 -0.34654391 0.028548717
0.080811746 -0.20607591 0.19947481
0.079711743 -0.13697493 0.28355789
0.074094743 0.51139009 0.29454756
0.075912744 0.6084311 0.14570856
0.074270748 0.46951309 0.2801199
0.079880744 -0.50846696 -0.17909718
0.078451745 -0.41589189 -0.062101364
0.089611746 -1.0105399 -0.97551632
0.085670747 -0.80721688 -0.65299845
0.074317746 -0.13810992 0.27623177
0.067873746 0.1826421 0.36053371
0.067323744 0.031801105 0.40906477
0.068278745 0.29362208 0.32482958
0.071820743 -0.34941494 0.01266861
0.079067744 -0.80104589 -0.62612343
0.062210746 0.10559708 0.38428974
0.062861741 -0.090689898 0.32217789
0.066652745 0.6015861 -0.039830208
0.063066743 0.35950208 0.3025918
0.068228744 -0.51069987 -0.19035435
0.066186741 -0.3508569 0.0047006607
0.064383745 -0.20977998 0.17685366
0.070772745 -0.68962991 -0.43322229
0.056733742 0.075116098 0.39306879
0.056827743 0.10548407 0.38329601
0.057483744 -0.091766894 0.31493855
0.056902744 -0.042204916 0.37547493
0.057148743 0.20945907 0.34983397
0.057492744 0.32078409 0.31400681
0.058463745 0.58105206 0.21281767
0.057611745 0.35942709 0.30157089
0.069033742 -0.98899889 -0.88821936
0.059659746 -0.27736092 0.088247776
0.066007741 -0.78884792 -0.57298136
0.064430743 -0.68424594 -0.40874004
0.063618742 -0.61499894 -0.32415915
0.051139742 -0.0023189187 0.41696262
0.051234744 0.031430066 0.4060998
0.051681742 0.43464509 0.35481882
0.054877743 -0.35375392 -0.011301041
0.057684746 -0.61685491 -0.33296824
0.045976743 0.074880064 0.39108276
0.046689745 -0.093931913 0.30040979
0.046211746 -0.044235945 0.3612237
0.049295742 0.6019001 -0.031481266
0.046312746 0.43422309 0.34839392
0.047056746 0.46794909 0.25369358
0.049200743 -0.3552109 -0.019334316
0.040838744 0.18213308 0.35551786
0.040848743 -0.045254946 0.354074
0.041551743 0.50921607 0.25343084
0.041236743 0.35920009 0.29850483
0.041230746 0.39896107 0.29928684
0.041638743 0.46718207 0.24084282
0.042867742 -0.28139889 0.064816952
0.041701745 -0.14499295 0.23190498
0.046363745 -0.69017088 -0.43590212
0.045768745 -0.62058687 -0.35066605
0.035344742 0.14039606 0.36792278
0.035472743 -0.04627794 0.34690475
0.036154743 0.53930008 0.23526192
0.035645746 0.29310906 0.3187418
0.035698745 0.32045609 0.30993366
0.035774745 0.35912308 0.29748201
0.042326745 -0.96107292 -0.77496719
0.041011743 -0.78578496 -0.55979919
0.030058747 0.20896411 0.3448019
0.030200744 0.2930221 0.31772661
0.031985745 0.60221207 -0.023155212
0.035239745 -0.84942293 -0.64469099
0.031177746 -0.21729493 0.1310997
0.034241743 -0.6941539 -0.45413399
0.024445746 0.074401081 0.38711166
0.024461746 -0.0069259405 0.38338184
0.025199745 0.50713205 0.21420765
0.025284747 0.53734308 0.19472599
0.025248745 0.46492007 0.20292377
0.027225746 -0.52263987 -0.25013733
0.026728746 -0.42992091 -0.13623619
0.019058745 0.07427907 0.38611889
0.019092746 0.10467911 0.37632275
0.019132746 0.14006406 0.364923
0.019092746 -0.0079029202 0.37627792
0.019378746 0.35889107 0.29441595
0.019302746 0.43209609 0.31609297
0.023764746 -1.0963339 -0.96206522
0.023215747 -0.96837497 -0.80472517
0.022724746 -0.85395789 -0.66403723
0.022055745 -0.69816494 -0.47247124
0.014007744 -0.1005069 0.25638866
0.013845745 -0.050401926 0.31805563
0.013783745 0.20866209 0.34178066
0.013816745 0.2481451 0.32905483
0.013711744 -0.0088819265 0.36915588
0.014437745 0.53238511 0.092180729
0.013910745 0.35881308 0.2933917
0.013867744 0.43166807 0.30959177
0.015078745 -0.43309391 -0.15295219
0.016243747 -0.79443491 -0.59768724
0.014395745 -0.22110593 0.10795975
0.0083167451 0.13983905 0.36292076
0.0083777448 0.24805009 0.32804394
0.0084027452 0.29266906 0.31366158
0.0088947453 0.57355106 0.032269001
0.0084617445 0.39758608 0.27984762
0.0092317453 -0.43468893 -0.16134501
0.0087757446 -0.22238493 0.10020781
0.0029187452 0.18139809 0.34848881
0.0029577452 -0.052482903 0.30352592
0.0031377452 0.53264511 0.097531796
0.0031917451 0.57366407 0.034989834
0.0029687451 0.35865608 0.2913456
0.0029637453 0.43080607 0.29654884
0.0033707449 -0.43628895 -0.16975832
0.0032147451 -0.29097295 0.009437561
0.0031417452 -0.22366691 0.092434883
0.0035837449 -0.63384593 -0.41337538
-0.0025072549 -0.053528905 0.29623175
-0.0025072549 0.57377809 0.037710667
-0.0025072549 0.47330108 0.34299183
-0.0025072549 -0.43789494 -0.17819738
-0.0025072549 -0.29235792 0.0014419556
-0.0025072549 -0.80100191 -0.62638998
-0.0079022553 0.073664069 0.38114977
-0.008106255 0.5035851 0.14755774
-0.007963255 0.29240006 0.31061268
-0.008323255 -0.37003493 -0.10082436
-0.0080912551 -0.15556598 0.16415262
-0.008687255 -0.70831192 -0.51877022
-0.013299256 0.073539078 0.38015556
-0.013397255 0.24766207 0.32399559
-0.013887255 0.57400405 0.043153763
-0.013964255 0.6030311 -0.0010471344
-0.013481256 0.39729309 0.27573681
-0.014077256 0.64537311 -0.065522194
-0.015473255 -0.98338997 -0.86576223
-0.013988256 -0.29514194 -0.01460743
-0.013689255 -0.1567589 0.15653086
-0.014884255 -0.71036196 -0.52810907
-0.018724253 0.10384607 0.36934376
-0.018972253 -0.056684911 0.27424574
-0.018845255 0.24756408 0.3229847
-0.021406254 -0.8076359 -0.65534115
-0.024174254 0.13915306 0.35691595
-0.024252255 0.20793808 0.3347249
-0.024307255 -0.015825927 0.31881762
-0.024877254 0.50400305 0.15544701
-0.025250254 0.57422912 0.048589706
-0.025404254 0.6032331 0.0044617653
-0.024465254 0.39714408 0.27367878
-0.024499254 0.42863107 0.26369762
-0.025527254 -0.2979449 -0.030742168
-0.030290253 -0.10946894 0.19666195
-0.029789254 -0.016829908 0.31155777
-0.031117255 0.60333407 0.0072126389
-0.031397257 0.64562511 -0.057100296
-0.030003253 0.42855009 0.26249266
-0.035061255 -0.99101889 -0.89669609
-0.031733256 -0.3761009 -0.13403034
-0.034906257 0.073033094 0.37617779
-0.035018258 0.13892007 0.35491371
-0.035886258 -0.11060494 0.18911171
-0.035283256 -0.017837942 0.30427694
-0.035004254 0.02502507 0.35748863
-0.035454255 0.39699408 0.2716217
-0.035507254 0.42848009 0.26146078
-0.035284255 0.47097009 0.30410862
-0.037122257 -0.30076587 -0.046963215
-0.040868256 -0.87711489 -0.76248217
-0.039838254 -0.71863389 -0.56573343
-0.040372256 0.10335708 0.36535263
-0.040442254 0.13880205 0.35391283
-0.041110255 -0.060939908 0.24467564
-0.040578257 0.20762008 0.33169794
-0.041878257 0.53367108 0.11886168
-0.040744256 0.29185009 0.30450773
-0.040951256 0.39691907 0.27059269
-0.042919256 0.64579207 -0.051496983
-0.040786255 0.47057807 0.29757977
-0.042941257 -0.30218291 -0.055103302
-0.046118256 -0.72071993 -0.57520628
-0.045869257 0.13868409 0.35290956
-0.046676256 -0.062011898 0.23723698
-0.046113256 0.24706608 0.31791878
-0.047174256 0.50455606 0.1659379
-0.046214256 0.29175711 0.30348969
-0.046450257 0.39684308 0.26956367
-0.046521258 0.42833909 0.25939465
-0.048182257 -0.23539889 0.021570683
-0.051794257 -0.65136194 -0.49583244
-0.051424257 0.0221591 0.3359127
-0.051687256 0.29166311 0.30247068
-0.052033257 0.42826709 0.25836086
-0.051828258 0.46979007 0.28447485
-0.054623257 -0.30503094 -0.071455002
-0.060287256 -0.88422287 -0.79258823
-0.053955257 -0.2367239 0.01359272
-0.056922257 0.2072981 0.32866859
-0.057160255 0.29156905 0.30145359
-0.057237256 0.31899107 0.29259777
-0.057545256 0.42819607 0.25732756
-0.063126251 -0.54918396 -0.38215923
-0.060486257 -0.30646193 -0.079660416
-0.061956257 0.072387099 0.37120295
-0.062050257 0.10285807 0.36136055
-0.063457251 -0.065248907 0.2148056
-0.062374257 0.2071901 0.32765961
-0.062496256 0.2467621 0.31487799
-0.065906256 0.64612406 -0.040314198
-0.069274254 -0.55100191 -0.39115715
-0.068135254 -0.45590889 -0.27252913
-0.067290254 -0.3853519 -0.18451118
-0.072563253 -0.82567191 -0.73380232
-0.064683251 -0.16767287 0.08703661
-0.067371257 0.072256088 0.37020683
-0.069077253 -0.06633389 0.2072916
-0.067910254 0.51268208 0.31868076
-0.071640253 0.64620709 -0.037522316
-0.068574257 0.42805207 0.25526094
-0.075438254 -0.55282593 -0.40018034
-0.08140526 -1.0091389 -0.96997404
-0.073269255 -0.38691092 -0.19300318
-0.079866253 -0.89140487 -0.82296133
-0.072789259 0.072124064 0.36921072
-0.074711256 -0.067422926 0.19975662
-0.073283255 0.20697111 0.32563972
-0.073592253 0.29128408 0.29839468
-0.073693253 0.3187201 0.28953075
-0.073835254 0.35751107 0.27699661
-0.074049257 0.46819907 0.25809956
-0.088103257 -1.011766 -0.98057508
-0.086430259 -0.8938179 -0.83315134
-0.077188253 -0.24206591 -0.018522263
-0.084155254 -0.7333889 -0.63262939
-0.078211255 0.071959078 0.36795282
-0.078468256 0.13796407 0.34689474
-0.081142254 -0.11982691 0.12801075
-0.079708256 -0.026011944 0.24538183
-0.079046257 0.017323077 0.29959774
-0.078958258 0.51204312 0.30681896
-0.081782259 0.5753361 0.075649738
-0.082317255 0.60422909 0.031885624
-0.087817259 -0.55649197 -0.41830444
-0.086357258 -0.46093798 -0.29875422
-0.084083259 -0.31223392 -0.11270905
-0.089451253 -0.66334295 -0.55198717
-0.083907254 0.13784206 0.34589195
-0.084199257 0.20675111 0.32361889
-0.084366255 0.2463491 0.31081772
-0.084836259 0.35734108 0.27494383
-0.094030254 -0.55833495 -0.42740345
-0.10155026 -1.0170469 -1.0018663
-0.088890254 -0.2447629 -0.034707069
-0.087707259 -0.17262495 0.055630684
-0.089188255 0.10222208 0.35636377
-0.091692254 -0.070710897 0.17704391
-0.089660257 0.20664006 0.32260656
-0.089838259 0.24624509 0.30980396
-0.092171259 0.53480005 0.14271688
-0.090339258 0.35725608 0.27391577
-0.10622726 -0.9011029 -0.86389208
-0.10510926 -0.83720493 -0.78379107
-0.09349826 -0.17387295 0.047727585
-0.10213625 -0.6673919 -0.57092237
-0.094621256 0.1020931 0.3553648
-0.095775254 0.014385104 0.27759266
-0.10410126 -0.1245259 0.096988678
-0.10308225 -0.072920918 0.16180468
-0.10223926 -0.030176938 0.21548891
-0.10135326 0.3570841 0.2718606
-0.10155126 0.39606407 0.25925493
-0.10171226 0.42761308 0.24905062
-0.11087225 -0.46772194 -0.33406019
-0.10946426 -0.39637887 -0.24445343
-0.10792026 -0.31808197 -0.14611244
-0.10584926 0.067421079 0.33198881
-0.10568526 0.13734907 0.34187698
-0.10879726 -0.074030936 0.15415478
-0.10790525 -0.031226933 0.20796871
-0.10680926 0.51027709 0.27405167
-0.10640226 0.54232812 0.29861259
-0.10650726 0.29070306 0.29227591
-0.12619326 -0.90846789 -0.89491606
-0.12281325 -0.74632394 -0.69106436
-0.12129526 -0.6735189 -0.59953117
-0.11358526 -0.032279909 0.20042896
-0.11186526 0.54233909 0.2989378
-0.11624125 0.60481405 0.048245907
-0.12322526 -0.47114897 -0.35186005
-0.12931825 -0.74850595 -0.70090199
-0.12771626 -0.6755749 -0.60912228
-0.11699425 0.06558609 0.31747866
-0.11927826 -0.033335924 0.19287062
-0.12108126 0.5760951 0.094480991
-0.13165726 -0.56952298 -0.48254919
-0.12942626 -0.47286987 -0.36079836
-0.13810825 -0.84894288 -0.83453226
-0.13584025 -0.75069594 -0.71077013
-0.13415326 -0.67763793 -0.61874008
-0.12602825 -0.077382922 0.13108873
-0.12246726 0.20596308 0.31653786
-0.12667926 0.57620209 0.097162724
-0.12364626 0.39574209 0.25512362
-0.13199826 -0.32400787 -0.17987919
-0.12854725 -0.18144691 -0.00012636185
-0.14238225 -0.75289392 -0.72067118
-0.12726225 0.10130608 0.34936285
-0.12930526 0.50884408 0.2475667
-0.13227026 0.57630908 0.099843979
-0.12892126 0.35664707 0.26671791
-0.12963526 0.46653607 0.23115158
-0.14187826 -0.47633195 -0.37874937
-0.13381426 0.06281209 0.29557657
-0.13281526 0.10056406 0.34327078
-0.13294926 0.13671911 0.33685493
-0.13323325 0.1785621 0.3233099
-0.14622125 -0.40603793 -0.29675436
-0.13949226 0.2901051 0.28614664
-0.13968626 0.31759709 0.277246
-0.13996126 0.35646909 0.26465988
-0.14046025 0.42708507 0.24179697
-0.16484326 -0.85848594 -0.87568045
-0.14828725 -0.25851488 -0.11693621
-0.14626725 -0.18528891 -0.024335384
-0.14630325 0.50775909 0.22755289
-0.14535126 0.54088306 0.26949072
-0.14519826 0.31750107 0.27621984
-0.16347626 -0.57902288 -0.52923107
-0.16067725 -0.48156786 -0.40586424
-0.14962126 0.097919106 0.32154274
-0.14965126 0.17819905 0.3202796
-0.15016125 0.24506611 0.29862356
-0.15373226 -0.0397439 0.14710855
-0.15459426 0.57673407 0.11054802
-0.16989325 -0.58094287 -0.53865004
-0.16244526 -0.33152688 -0.22260904
-0.18027225 -0.92849791 -0.97904921
-0.17535925 -0.76399994 -0.77060843
-0.15479626 0.13620609 0.33283377
-0.16016325 0.57684004 0.11321878
-0.15653826 0.35619909 0.26156998
-0.15709725 0.42685407 0.23868275
-0.15740825 0.46618709 0.2259407
-0.17104726 -0.41258597 -0.3321104
-0.18201026 -0.76624489 -0.78068399
-0.16060625 0.17795509 0.31825972
-0.16840926 -0.13776594 0.0099987984
-0.16390626 0.0023511052 0.18789196
-0.16234325 0.53990209 0.24960995
-0.16206725 0.35610908 0.26054096
-0.16264625 0.42677608 0.23764372
-0.17962725 -0.48685789 -0.43321228
-0.19398525 -0.93359697 -1.0004063
-0.18629825 -0.69440687 -0.69672441
-0.16703425 0.28959405 0.28103161
-0.17128925 0.57705009 0.11855698
-0.16792926 0.39508107 0.24685097
-0.18597825 -0.48863387 -0.442379
-0.17352925 0.056236088 0.24382877
-0.17848125 -0.087632895 0.060811996
-0.17545526 0.00030010939 0.17267179
-0.17347525 0.39499709 0.2458148
-0.19234626 -0.49041593 -0.45157623
-0.20777926 -0.93873286 -1.0218992
-0.18465525 -0.26698589 -0.167346
-0.18211226 -0.19308794 -0.073340416
-0.20207526 -0.7730279 -0.81109905
-0.18438226 -0.08878994 0.052900791
-0.18124926 -0.00072991848 0.16503382
-0.18003425 0.50670111 0.20854187
-0.17831625 0.31691408 0.27006292
-0.17866826 0.35583508 0.25744677
-0.17966525 0.46590307 0.2217679
-0.20223226 -0.59064293 -0.58614826
-0.19873026 -0.49220288 -0.46079445
-0.19328725 -0.33917296 -0.26592922
-0.18499926 0.054330111 0.22887564
-0.18359526 0.092554092 0.27759695
-0.18214926 0.1355511 0.32780266
-0.18279526 0.20467508 0.30539274
-0.18561526 0.5066371 0.20749378
-0.18358526 0.28928208 0.27796173
-0.18384226 0.31681406 0.26903486
-0.20513226 -0.49399698 -0.47004128
-0.21923126 -0.87798595 -0.95949936
-0.19418025 -0.19572186 -0.089848995
-0.19457026 -0.047376931 0.09282589
-0.19090825 0.53824806 0.21618366
-0.18937026 0.31671506 0.26800776
-0.18923426 0.58343709 0.27258682
-0.19012126 0.39474207 0.24270678
-0.21529126 -0.59456992 -0.60534239
-0.21155025 -0.49579692 -0.47931433
-0.20573625 -0.34226692 -0.28342533
-0.22861825 -0.94650698 -1.054389
-0.22611725 -0.88046288 -0.97012234
-0.20304926 -0.27128494 -0.19285917
-0.20023726 -0.19704497 -0.098137379
-0.19332226 0.13447207 0.31864977
-0.19351925 0.17720908 0.31219196
-0.19378926 0.2044341 0.30336285
-0.19678226 0.50650811 0.20539474
-0.19462825 0.2890721 0.27591276
-0.19490126 0.31661409 0.26698065
-0.19528726 0.35555708 0.25435162
-0.19567426 0.39465609 0.24167061
-0.19598825 0.42630208 0.23140574
-0.19637826 0.46568608 0.2186327
-0.21512425 -0.42426097 -0.39494324
-0.20631026 -0.19837296 -0.10644722
-0.22616926 -0.70729697 -0.75643539
-0.19901426 0.17708308 0.31117964
-0.19929126 0.2043131 0.30234671
-0.20195526 0.46561307 0.2175889
-0.22444126 -0.49941492 -0.4979434
-0.21825325 -0.34538198 -0.30102015
-0.23995125 -0.88544595 -0.99146938
-0.21240026 -0.19970596 -0.11478329
-0.20810726 0.050483108 0.19874096
-0.20651826 0.088920057 0.24792862
-0.20450826 0.17695606 0.31016874
-0.20479426 0.20419109 0.301332
-0.21229026 -0.050700903 0.069254875
-0.21043925 -0.0059309006 0.12654781
-0.20568125 0.2888611 0.27386284
-0.23501626 -0.60051286 -0.63434839
-0.21228425 0.088005066 0.24046469
-0.21041825 0.13191611 0.29671478
-0.21000525 0.1768291 0.30915499
-0.22235325 -0.14895594 -0.063078403
-0.21029826 0.20406908 0.30031681
-0.21822526 -0.051815927 0.061357021
-0.21388225 0.53705704 0.19226789
-0.21150626 0.31631106 0.26389694
-0.21205325 0.58236009 0.24741077
-0.23740026 -0.50305891 -0.516675
-0.22779825 -0.27708495 -0.22720909
-0.21974526 0.048541069 0.18355656
-0.21550426 0.17670107 0.30814266
-0.21580526 0.20394605 0.29930162
-0.21624425 0.24371308 0.28639555
-0.22221525 -0.0080349445 0.11101389
-0.21704526 0.31620908 0.26286793
-0.23714925 -0.35009396 -0.32759523
-0.22385725 0.086165071 0.22547865
-0.22131525 0.20382208 0.29828501
-0.22966525 0.085241079 0.21795893
-0.22763726 0.12933511 0.2746129
-0.22813125 0.3160041 0.26080894
-0.22986525 0.46524507 0.21235895
-0.24983126 -0.35326195 -0.345438
-0.24307926 -0.20643294 -0.15679026
-0.26671925 -0.72046494 -0.81723499
-0.23548625 0.084313095 0.21041775
-0.23201425 0.17631406 0.30510378
-0.23281325 0.24336308 0.28333187
-0.23999126 -0.011215925 0.087557793
-0.23460725 0.39404508 0.23440695
-0.26825625 -0.61055696 -0.68326139
-0.26353425 -0.51042187 -0.5544734
-0.28193524 -0.90060997 -1.0563083
-0.27712125 -0.79852891 -0.92501831
-0.24319625 0.044619083 0.15295362
-0.25285926 -0.15531695 -0.10444117
-0.23785426 0.20344907 0.29523468
-0.24594626 -0.012282908 0.079699993
-0.23888725 0.28821409 0.26770878
-0.23922426 0.3157981 0.25875092
-0.27495927 -0.6125859 -0.69312906
-0.27011126 -0.51227891 -0.56399345
-0.25910026 -0.28444397 -0.27067804
-0.25546125 -0.20915496 -0.17375231
-0.24909426 0.043630064 0.14525366
-0.24717225 0.082450092 0.1952796
-0.25635225 -0.10297489 -0.043673038
-0.24337126 0.20332408 0.29421759
-0.27670726 -0.51414192 -0.5735383
-0.27302125 -0.43968689 -0.47758818
-0.26898026 -0.35805392 -0.37239027
-0.26540926 -0.28592992 -0.27944422
-0.29102126 -0.80327392 -0.94614506
-0.25079125 0.1258561 0.24488068
-0.25082526 0.35460508 0.24401379
-0.25441426 0.20307106 0.29218388
-0.29518527 -0.61871994 -0.72291899
-0.28183326 -0.36127687 -0.39048719
-0.27415726 -0.21327293 -0.19937515
-0.27469027 -0.10660893 -0.068304062
-0.26106927 0.28777409 0.26359892
-0.26248026 0.39359808 0.22920799
-0.26290324 0.42531708 0.21889973
-0.26343027 0.46479207 0.20607185
-0.26546326 0.20281708 0.29014778
-0.27841127 -0.063169897 -0.018778324
-0.26849326 0.42523307 0.21785688
-0.29475325 -0.36452091 -0.40868521
-0.31490925 -0.73618686 -0.88958025
-0.28451526 -0.064325929 -0.026910305
-0.27217326 0.28755111 0.2615428
-0.30996427 -0.52355695 -0.62169504
-0.30580327 -0.44846594 -0.52444029
-0.29721224 -0.29343987 -0.32365322
-0.29300025 -0.2174319 -0.22520924
-0.29316926 -0.1102789 -0.093137264
-0.29931426 -0.21882689 -0.23386812
-0.33321527 -0.81772196 -1.0103312
-0.32885826 -0.74075294 -0.91053915
-0.29676726 -0.066648901 -0.043238163
-0.28481925 0.39323407 0.22504473
-0.31426725 -0.36942995 -0.43618345
-0.31005126 -0.29647994 -0.34150934
-0.30564424 -0.22022796 -0.24255133
-0.30021727 -0.022044897 0.0080275536
-0.28884527 0.2872141 0.25845575
-0.29087827 0.42489207 0.21367598
-0.30284825 0.034591079 0.075043678
-0.30048126 0.073916078 0.12618256
-0.29778224 0.1187641 0.18450356
-0.31506327 -0.1683569 -0.1888752
-0.31179127 -0.11398494 -0.11816835
-0.29312825 0.2021721 0.28505468
-0.30632326 -0.023147941 -4.2438507e-05
-0.29440627 0.28710008 0.25742674
-0.29648027 0.42480609 0.2126317
-0.33235225 -0.45559895 -0.56241035
-0.30647925 0.072953105 0.11840296
-0.30055326 0.16949409 0.24407387
-0.31803226 -0.1152299 -0.12656116
-0.29928026 0.24192208 0.27105999
-0.29997227 0.28698605 0.25639677
-0.30159825 0.39295709 0.22191858
-0.31249127 0.071986079 0.11060572
-0.32428727 -0.11647791 -0.13497543
-0.30438325 0.20154208 0.27942371
-0.30483326 0.24179906 0.27003479
-0.31858525 -0.025362909 -0.016246319
-0.30719525 0.39286309 0.22087669
-0.34573925 -0.45920289 -0.58156443
-0.33113524 -0.22587597 -0.27752638
-0.36408526 -0.75231194 -0.96350622
-0.31851825 0.071016073 0.10278797
-0.33404425 -0.17235494 -0.21466208
-0.32473826 -0.02647692 -0.024381161
-0.33684826 -0.11898494 -0.15186834
-0.31611526 0.19996709 0.26459074
-0.31667724 0.28664207 0.25330687
-0.37083027 -0.64177692 -0.83448124
-0.36414826 -0.53896797 -0.70024204
-0.33324325 0.029454052 0.035309792
-0.32762927 0.1142391 0.1461277
-0.32150826 0.24142611 0.26696062
-0.34015226 -0.074901938 -0.10108519
-0.33709425 -0.028713942 -0.040716171
-0.36595926 -0.46465695 -0.61051035
-0.32894826 0.35320407 0.22949266
-0.37788725 -0.54288888 -0.72017622
-0.36210725 -0.30884695 -0.41396332
-0.39264125 -0.76171196 -1.0064802
-0.33263427 0.24117506 0.26490879
-0.35269225 -0.077294946 -0.11781645
-0.33454525 0.35310107 0.22845602
-0.34888425 0.066120088 0.063383579
-0.33898526 0.28617609 0.24918079
-0.33946526 0.31385809 0.2401638
-0.39170325 -0.54683793 -0.74022913
-0.38634726 -0.47016788 -0.63971233
-0.38047925 -0.38616192 -0.5295763
-0.37529826 -0.31199193 -0.43233633
-0.36988425 -0.2344929 -0.3307333
-0.34806326 0.16278505 0.18359995
-0.34377027 0.24092209 0.26285601
-0.39864126 -0.54882288 -0.75030231
-0.39318225 -0.47201788 -0.64950323
-0.38720125 -0.38786697 -0.53906727
-0.36402526 0.024233103 -0.0049510002
-0.37162724 -0.080913901 -0.143085
-0.36826226 -0.034372926 -0.081943035
-0.35065025 0.31363308 0.23809385
-0.40560126 -0.55081594 -0.76040745
-0.36729026 0.063145101 0.039489746
-0.36394027 0.10871208 0.099413872
-0.37454426 -0.035515904 -0.09025526
-0.40691125 -0.47573793 -0.66917801
-0.40070325 -0.39129591 -0.55813122
-0.38949627 -0.23886895 -0.35767841
-0.37345725 0.062146068 0.031482697
-0.36184224 0.31340706 0.23602057
-0.41380426 -0.47760689 -0.67905712
-0.37217626 0.15936607 0.15288782
-0.39841527 -0.18597591 -0.30219126
-0.39419925 -0.1304819 -0.22906399
-0.36607227 0.24041009 0.25874662
-0.43453425 -0.66133094 -0.92860126
-0.38230225 0.1059081 0.075781822
-0.37824127 0.15850407 0.14516163
-0.44171625 -0.66354287 -0.93922043
-0.43363225 -0.55885589 -0.801126
-0.41530925 -0.32155788 -0.48810005
-0.45078024 -0.78092992 -1.0940704
-0.39205226 0.059131086 0.0073328018
-0.37794027 0.23901606 0.2448678
-0.40351924 -0.087027907 -0.18566704
-0.37811327 0.28534311 0.24195099
-0.44892126 -0.66576397 -0.94987822
-0.44069326 -0.56088495 -0.81138802
-0.42204425 -0.32317197 -0.49749136
-0.39042026 0.15677208 0.12964392
-0.40620425 -0.041287899 -0.13216114
-0.38371226 0.28522205 0.24091768
-0.42253825 -0.24626088 -0.40310335
-0.42465225 -0.1915549 -0.33790207
-0.41258526 -0.042453945 -0.14061022
-0.45487326 -0.56496286 -0.83199835
-0.44166225 -0.40172696 -0.61600304
-0.41079026 0.056086063 -0.017010212
-0.40266025 0.15502906 0.11404562
-0.42665926 -0.13701993 -0.27279425
-0.46199325 -0.56701291 -0.84235239
-0.44855624 -0.40348697 -0.62574911
-0.40880427 0.15415311 0.106215
-0.43320525 -0.13834089 -0.28161526
-0.42540127 -0.044797897 -0.15758324
-0.47795126 -0.67472696 -0.99283409
