# .PCD v0.7 - Point Cloud Data file format
VERSION 0.7
FIELDS x y z
SIZE 4 4 4
TYPE F F F
COUNT 1 1 1
WIDTH 1
HEIGHT 1024
VIEWPOINT 0 0 0 1 0 0 0
POINTS 1024
DATA ascii
1.0475985 -0.14913648 -0.22290468
1.0409485 -0.14844245 -0.21935558
1.0277965 -0.1471985 -0.21314859
1.0153855 -0.25732142 -0.16736555
1.0150465 -0.20029145 -0.16488838
1.0212915 -0.14664739 -0.21048546
1.0088485 -0.20003051 -0.16414356
1.0147935 -0.14609748 -0.20782471
1.0023276 -0.25592142 -0.16099453
0.96896458 -0.025574446 -0.0022082329
0.98906255 -0.14414841 -0.19870234
0.97802854 -0.19890243 -0.16138124
0.95039958 -0.068562448 0.0033793449
0.97362554 -0.31983143 -0.17423534
0.97188854 -0.19870049 -0.16095257
0.94543856 0.050516546 -0.004134655
0.96499455 -0.2539894 -0.15470123
0.94158453 0.048461556 -0.020318508
0.95374358 -0.25494641 -0.16171932
0.93532258 -0.0027314425 -0.11214256
0.91914856 0.097267568 -0.031290531
0.91682255 0.13413554 -0.012750626
0.90660954 0.13267952 -0.026279449
0.92345154 -0.0094144344 -0.16246557
0.90265656 0.13080353 -0.042559624
0.89965558 0.17383254 -0.018118382
0.91945755 -0.01166445 -0.17939758
0.91112655 -0.092276394 -0.16097927
0.89932358 0.087374568 -0.11359549
0.90994555 -0.060075462 -0.25217867
0.90736353 -0.01848346 -0.23068428
0.88138157 0.16887754 -0.064202309
0.86861056 -0.2781654 0.042896748
0.87526858 -0.2276774 -0.012934685
0.88339353 -0.18379444 -0.081076622
0.88261253 0.12127954 -0.12511969
0.86741954 0.16521353 -0.098277569
0.85931456 0.25064152 -0.02875948
0.84911454 -0.021996439 0.0080065727
0.84684354 -0.16525549 0.027634621
0.84807754 0.29449058 -0.03443861
0.83840257 -0.32957751 0.049825668
0.83920956 -0.27756041 0.042795658
0.84012157 -0.2187404 0.034853458
0.83660257 -0.064897478 0.014077663
0.84213156 0.29455453 -0.034449577
0.83333254 -0.27744144 0.042776585
0.83595055 -0.10730046 0.019803524
0.83506358 0.22095352 -0.024523258
0.83070153 -0.064800441 0.014060497
0.82666254 -0.32933146 0.049785614
0.82917255 -0.16493243 0.027582645
0.82783157 0.13536656 -0.012969494
0.82079458 -0.32921046 0.049766541
0.82158256 -0.27720851 0.042738438
0.82190657 0.13544357 -0.012983322
0.81890053 -0.064607441 0.014029503
0.82429957 0.29474157 -0.034484386
0.82066453 0.052794576 -0.0018234253
0.81826353 -0.1069985 0.019753456
0.81657153 0.17490554 -0.018314362
0.81770855 0.25113654 -0.028608322
0.81835854 0.29480356 -0.034496307
0.81237054 -0.10689944 0.01973772
0.80956256 0.10169655 -0.0084323883
0.80414355 0.13567156 -0.013022423
0.80539954 0.22129655 -0.02458334
0.80184257 -0.021218419 0.0081615448
0.80237657 0.015210569 0.0032424927
0.79895657 -0.21797043 0.034728527
0.79822356 0.13574553 -0.013036251
0.79647154 0.015295565 0.0032286644
0.79385757 -0.16430849 0.027478695
0.79181755 0.10192955 -0.0084733963
0.79230553 0.13581955 -0.013048649
0.78942055 -0.064139426 0.013951302
0.79460257 0.29504555 -0.034540653
0.78590453 0.10200655 -0.0084853172
0.78761452 0.22149557 -0.024620533
0.78209656 -0.1641075 0.027446747
0.78047353 0.13596654 -0.013074398
0.78168857 0.22156054 -0.0246315
0.77462256 -0.27630943 0.042592525
0.77621657 -0.16400844 0.027430534
0.77235258 -0.020781457 0.0080885887
0.76875854 -0.27620143 0.042575359
0.76958454 -0.21744543 0.034642696
0.77033854 -0.16391045 0.027412415
0.76645654 -0.020696461 0.0080733299
0.76749253 0.053527534 -0.0019493103
0.76216757 -0.32805043 0.04957962
0.76391554 0.22175252 -0.024667263
0.75635654 0.10237855 -0.0085515976
0.75044954 0.10245156 -0.0085644722
0.75144553 0.17566752 -0.01845026
0.74877954 -0.020445466 0.0080285072
0.74615258 0.22194058 -0.024700642
0.74288654 -0.02036345 0.0080165863
0.74173558 -0.10577446 0.019547462
0.73358756 -0.27557141 0.042473316
0.73508656 -0.16333741 0.027317524
0.73431653 0.22206253 -0.02472353
0.73110956 -0.020200431 0.0079874992
0.73471254 0.25200152 -0.028766632
0.73528957 0.29561353 -0.034647465
0.73209155 0.053986549 -0.0020284653
0.72772956 -0.27547044 0.042455673
0.72683358 0.10273558 -0.0086154938
0.72727758 0.13659358 -0.013185501
0.72522157 -0.020120442 0.0079746246
0.72569853 0.016267538 0.0030612946
0.72264254 -0.21665341 0.03451252
0.72410154 -0.10551041 0.019504547
0.72029954 0.054133534 -0.002055645
0.71822453 -0.10542446 0.019489765
0.71503055 0.10287356 -0.008638382
0.71597254 0.17605352 -0.018519402
0.71234757 -0.10533947 0.01947546
0.71103656 0.25222856 -0.028809547
0.70415753 0.17617756 -0.018543243
0.70167953 -0.019807458 0.007920742
0.70567054 0.29587954 -0.034697533
0.69779557 -0.3268854 0.049388409
0.70059955 -0.1051715 0.019444466
0.69291753 0.22247255 -0.024800301
0.69328856 0.25239456 -0.028841496
0.68674755 -0.27478451 0.042342663
0.68885458 -0.10500544 0.019417763
0.68737555 0.25244856 -0.028852463
0.68161857 -0.2160055 0.034403324
0.68053657 0.17641854 -0.018588543
0.67416054 0.13717157 -0.013291359
0.67463356 0.17647755 -0.018598557
0.66919953 -0.27450448 0.042295456
0.66873157 0.17653555 -0.01860857
0.66588157 -0.062384427 0.013651371
0.66963953 0.25260752 -0.02888155
0.66273153 -0.32629949 0.049291611
0.66405153 -0.21574146 0.034358501
0.66236556 0.13729256 -0.01331234
0.65688956 -0.32620543 0.049274445
0.65819556 -0.21565443 0.034343719
0.65692955 0.17665052 -0.018630505
0.65165657 -0.27423245 0.042250633
0.65191054 0.25276154 -0.028910637
0.64429456 0.10364854 -0.0087804794
0.64513254 0.17676258 -0.018651485
0.63975656 0.22295958 -0.024893284
0.63785356 0.055089533 -0.002225399
0.63539356 -0.16187841 0.027070522
0.63251656 0.10376853 -0.0088024139
0.63289654 0.13758653 -0.013368607
0.63333654 0.17687255 -0.018672466
0.63467854 0.29646754 -0.034814358
0.62662953 0.10382754 -0.0088133812
0.62744153 0.17692655 -0.018683434
0.62567055 0.017470539 0.0028476715
0.62154657 0.17697954 -0.018693447
0.62020957 0.055276573 -0.0022616386
0.61485857 0.10394454 -0.008834362
0.61522555 0.13775456 -0.013399601
0.61615354 0.22316253 -0.024932384
0.61695057 0.29660356 -0.034842491
0.61057454 0.25310355 -0.028977394
0.60491455 -0.27354747 0.042133331
0.60026658 -0.16142148 0.026990414
0.59720558 0.10411453 -0.0088672638
0.59845757 0.22330856 -0.024960518
0.59546453 -0.061533391 0.013499737
0.59877157 0.25319654 -0.028996468
0.59922856 0.29673457 -0.03486824
0.59167457 0.13797057 -0.013441563
0.58960253 -0.061466396 0.013488293
0.59287155 0.25324154 -0.029006481
0.58801055 -0.21468645 0.034177303
0.58697158 0.25328654 -0.029015541
0.58741754 0.29681957 -0.03488636
0.58030057 0.17733854 -0.018762589
0.57831454 -0.018356442 0.0076613426
0.58151352 0.29686153 -0.034894466
0.57520056 -0.32498342 0.049067497
0.57367957 0.10433155 -0.0089082718
0.57401854 0.13812655 -0.013471603
0.57101655 -0.16106349 0.026926517
0.57159352 -0.10352749 0.019158363
0.56225252 0.13822752 -0.013491631
0.56263757 0.17748255 -0.018791676
0.56380755 0.29698354 -0.034920692
0.56144553 0.055858552 -0.0023684502
0.55932152 -0.16092545 0.026903629
0.54899353 -0.018058419 0.0076055527
0.55158955 0.25354654 -0.02906847
0.54711854 -0.21417946 0.034087658
0.54817855 -0.1032694 0.019111633
0.54428852 0.10458952 -0.008957386
0.54541355 0.22371656 -0.025043488
0.54313153 -0.018000424 0.0075945854
0.54347456 0.01830858 0.0026926994
0.53872854 0.13842154 -0.013529301
0.53952354 0.22375953 -0.025052547
0.53980255 0.25362957 -0.029085636
0.53760856 0.018363535 0.0026817322
0.53441256 -0.3244434 0.04897356
0.53141052 -0.017888427 0.0075736046
0.53430957 0.29717857 -0.0349617
0.52666253 0.10473657 -0.0089874268
0.52515852 -0.060790479 0.013364315
0.52554852 -0.017832458 0.007563591
0.52376753 -0.21390945 0.034038544
0.52425152 -0.16053349 0.026832581
0.52477455 -0.10302442 0.019067764
0.52185756 0.22388452 -0.025078297
0.51930451 -0.060733497 0.013353348
0.51968956 -0.017778456 0.0075535774
0.52212453 0.25374854 -0.029110432
0.51740551 -0.27242142 0.041936398
0.51840955 -0.16047043 0.026821613
0.51491553 0.10483158 -0.0090065002
0.51521456 0.13860655 -0.013567448
0.51623452 0.25378758 -0.029118538
0.51661855 0.29728955 -0.034985542
0.51415253 0.018574536 0.0026416779
0.51307756 -0.10290641 0.019044399
0.50759852 -0.06062144 0.013331413
0.50861955 0.056324542 -0.0024595261
0.50529754 -0.32408541 0.048910618
0.50575054 -0.27228743 0.041912556
0.50626153 -0.21371549 0.034003735
0.50317055 0.10492355 -0.0090236664
0.50211453 -0.017618477 0.007522583
0.50242752 0.018676579 0.0026216507
0.50138152 -0.10279149 0.019023418
0.49791956 0.17796957 -0.018891335
0.49831057 0.22404355 -0.025111675
0.49856454 0.25390053 -0.029143333
0.49459356 -0.21359044 0.033982754
0.49204054 0.17800957 -0.018899441
0.49304056 0.29742956 -0.03501749
0.48968956 -0.1026805 0.019002438
0.48292854 -0.21346945 0.033959389
0.48028454 0.17808956 -0.018915653
0.48090255 0.25400954 -0.029165268
0.47619855 -0.32375139 0.048849583
0.47799954 -0.1025725 0.018981457
0.47477454 0.22419357 -0.025144577
0.47536254 0.29753053 -0.035038471
0.47343054 0.056604564 -0.0025143623
0.46889254 0.22422957 -0.025151253
0.46208456 0.10522658 -0.0090856552
0.46141356 0.019010544 0.0025553703
0.45874554 -0.32356244 0.048815727
0.46002054 -0.15989143 0.026712418
0.46046755 -0.1024155 0.018951416
0.45621756 0.10526752 -0.0090942383
0.45677656 0.17824256 -0.018947601
0.45527855 -0.017225444 0.0074453354
0.45332655 -0.27172643 0.041810513
0.45060456 0.13906354 -0.013661385
0.45090055 0.17827958 -0.018956661
0.44750357 -0.27166849 0.041799545
0.44448355 0.10534656 -0.0091104507
0.44536856 0.22436857 -0.025182247
0.44559056 0.25421256 -0.029212475
0.43826357 0.056861579 -0.0025672913
0.43275455 0.10542452 -0.0091276169
0.43327856 0.17838556 -0.018979549
0.43361056 0.22443455 -0.025197506
0.43240455 0.056901574 -0.0025744438
0.43126056 -0.10216945 0.018904686
0.42773154 0.22446758 -0.025204659
0.42571956 -0.059924424 0.013197422
0.42501456 -0.15958339 0.026653767
0.42542055 -0.10212344 0.018894672
0.42102456 0.10549855 -0.0091433525
0.41987357 -0.059880435 0.013187408
0.42068756 0.05698055 -0.0025925636
0.41918054 -0.15953439 0.026643753
0.41566056 0.17848754 -0.019001484
0.41597554 0.22453058 -0.02521944
0.41617957 0.25436854 -0.029248238
0.41298357 -0.21281439 0.033834457
0.40818754 -0.059794486 0.013170719
0.40871954 0.01938957 0.0024785995
0.40897256 0.057056546 -0.0026082993
0.40641755 -0.32304651 0.048719406
0.40715957 -0.2127654 0.033824444
0.40790355 -0.10198742 0.018867493
0.40365955 0.13935053 -0.013723373
0.40391856 0.17855155 -0.019017696
0.40262854 -0.016838431 0.0073666573
0.40206656 -0.10194343 0.018858433
0.39804655 0.17858356 -0.019024372
0.39677957 -0.01679945 0.007358551
0.39585456 -0.1593495 0.026607513
0.39065954 -0.059671462 0.013144493
0.39266056 0.25448257 -0.029276371
0.39116356 0.019503534 0.0024523735
0.38898355 -0.32289141 0.048688412
0.39002556 -0.15930444 0.026598454
0.39039055 -0.10185939 0.018841743
0.38585156 0.10570753 -0.0091905594
0.38386256 -0.2125774 0.033788681
0.37946355 0.019575536 0.0024375916
0.37736356 -0.32279342 0.048669338
0.37836656 -0.15921849 0.02657938
0.37433454 0.13950956 -0.013760567
0.37313756 -0.059554398 0.013119698
0.37155455 -0.3227455 0.048659325
0.37253857 -0.15917748 0.026571751
0.37288356 -0.10173744 0.018815517
0.36846957 0.13954055 -0.013766289
0.36897254 0.22476053 -0.025274277
0.36729655 -0.059517443 0.013112545
0.36776257 0.019645572 0.0024213791
0.36798456 0.057302535 -0.0026626587
0.36604956 -0.27095443 0.041662693
0.36639455 -0.21244639 0.033761501
0.36283356 0.17876053 -0.01906538
0.35993657 -0.3226524 0.048641682
0.36023554 -0.27091044 0.041652679
0.36057356 -0.21240443 0.033752441
0.36088157 -0.15909547 0.026554585
0.35739556 0.25463957 -0.029315472
0.35627854 0.05736655 -0.002676487
0.35475254 -0.21236247 0.033744335
0.35069555 0.10589355 -0.0092334747
0.35109955 0.17881453 -0.019080639
0.35151955 0.25466353 -0.02932024
0.35042655 0.057397544 -0.0026845932
0.34860754 -0.27082545 0.041635513
0.34548154 0.22486353 -0.025300503
0.34564257 0.25468755 -0.029327393
0.34436855 0.019776523 0.0023913383
0.34457356 0.057428539 -0.0026926994
0.34251255 -0.32252043 0.048614502
0.34311056 -0.21228343 0.033727646
0.33936554 0.17886758 -0.01909256
0.33810157 -0.05934149 0.013073444
0.33832955 -0.016444445 0.0072813034
0.33976755 0.25471056 -0.029333591
0.33670557 -0.32247847 0.048605442
0.33698055 -0.27074343 0.041618347
0.33312154 0.10597754 -0.0092535019
0.33267555 0.019837558 0.0023775101
0.33287054 0.057487547 -0.002705574
0.33147156 -0.21220642 0.033711433
0.33174756 -0.15890747 0.02651453
0.32726556 0.10600454 -0.0092606544
0.32763454 0.17891657 -0.019105434
0.32664454 -0.016382456 0.0072665215
0.32059056 -0.059244454 0.013050556
0.31928855 -0.3223564 0.048582554
0.31983355 -0.21213347 0.033696651
0.32009754 -0.1588375 0.026499748
0.31555155 0.10605657 -0.0092735291
0.31571454 0.13978356 -0.013827324
0.30969656 0.10608155 -0.0092782974
0.31039754 0.25481957 -0.029363632
0.30792055 -0.27055448 0.041577339
0.30210954 -0.27051944 0.041570663
0.30262354 -0.15873951 0.026477337
0.30288756 -0.10132247 0.018724442
0.29851955 0.22504157 -0.025348663
0.29776955 0.057647526 -0.0027446747
0.29264954 0.22506154 -0.025354385
0.29074356 -0.21196645 0.033658504
0.29097554 -0.1586774 0.026462555
0.28575754 -0.016186476 0.0072193146
0.28515255 -0.15864843 0.026455402
0.28042254 0.10619754 -0.0093083382
0.28006753 0.020079553 0.0023193359
0.27956656 -0.10120851 0.018696308
0.27456954 0.10621858 -0.0093154907
0.27407855 -0.016137421 0.0072054863
0.27305955 -0.27035743 0.04153347
0.26884755 0.13995957 -0.013874531
0.26852754 0.057763577 -0.0027766228
0.26704955 -0.32204443 0.048511505
0.26725155 -0.27032739 0.041526318
0.25713155 0.13999653 -0.013885498
0.25640455 -0.058949411 0.012978554
0.25656155 -0.016068459 0.0071883202
0.25604156 -0.15851349 0.026422501
0.25072354 -0.016047478 0.0071816444
0.25085154 0.020189524 0.0022907257
0.24541953 0.14003253 -0.013896465
0.24513856 0.057844579 -0.0027976036
0.24401754 -0.27021748 0.041499615
0.23945054 0.10633355 -0.0093493462
0.23890555 -0.058884442 0.012960434
0.23994154 0.25502658 -0.029426575
0.23820853 -0.27019244 0.041492462
0.23840153 -0.21171945 0.033598423
0.23857653 -0.15844244 0.026403427
0.23383054 0.17923254 -0.019195557
0.23397756 0.22523153 -0.025406361
0.23307353 -0.058864415 0.012956619
0.23407254 0.25504053 -0.029431343
0.23275656 -0.15841943 0.026398659
0.22811154 0.22524554 -0.025411606
0.22693655 -0.15839845 0.026391506
0.21604556 0.10639757 -0.0093684196
0.21638155 0.22527152 -0.025421619
0.21557856 -0.058808506 0.012938499
0.21646553 0.25507855 -0.029446602
0.20986155 -0.01591742 0.0071444511
0.21006155 0.057945549 -0.0028295517
0.20402554 -0.015901446 0.0071396828
0.20421654 0.057959557 -0.0028343201
0.20351756 -0.21159345 0.033563614
0.19808355 -0.058759391 0.012923717
0.19827855 0.020344555 0.0022406578
0.19281355 0.17932457 -0.019228458
0.19225255 -0.05874449 0.012917519
0.19299254 0.25512356 -0.029464245
0.19252755 0.057986557 -0.0028443336
0.19189253 -0.2115584 0.0335536
0.18679056 0.10646254 -0.009393692
0.18642054 -0.058730423 0.012913704
0.18712255 0.25513357 -0.029468536
0.18583155 -0.32171041 0.048424721
0.17523655 0.17935556 -0.019242287
0.17532855 0.22534657 -0.025452614
0.17423254 -0.32167846 0.048413754
0.17456055 -0.15824443 0.026344299
0.16924055 0.10649455 -0.0094056129
0.16853055 -0.26996046 0.041426659
0.16345054 0.14021254 -0.013962269
0.16323954 0.020416558 0.0022134781
0.15746054 0.05805254 -0.0028705597
0.15169156 0.10652053 -0.0094184875
0.14601055 0.22538453 -0.025472641
0.14560854 -0.058652461 0.01288271
0.14566955 -0.015784442 0.0070924759
0.14523655 -0.32161242 0.048389435
0.13999254 0.10653454 -0.0094275475
0.14014754 0.22538954 -0.025476456
0.14018553 0.25519258 -0.029500484
0.13993055 0.058075547 -0.0028824806
0.13972455 -0.10078949 0.018569469
0.13414454 0.10654056 -0.0094304085
0.13422954 0.17940652 -0.019269466
0.13394955 -0.058636487 0.01287365
0.12829354 0.10654658 -0.0094347
0.12837055 0.17941153 -0.019274235
0.12841955 0.22540057 -0.025482655
0.12789455 -0.26988548 0.041395664
0.12801254 -0.15816242 0.02630949
0.12251355 0.17941654 -0.019277573
0.12232955 -0.015757442 0.0070786476
0.12258454 0.25520653 -0.029511452
0.12224954 -0.10076851 0.018556595
0.11652555 0.02047354 0.0021824837
0.11655654 0.058098555 -0.0028986931
0.11633354 -0.2114144 0.033494473
0.11642554 -0.1007635 0.018552303
0.11079855 0.17942357 -0.019284248
0.11063054 -0.058614433 0.012858391
0.11066055 -0.015748441 0.0070705414
0.11044455 -0.32156545 0.048366547
0.11052255 -0.21140939 0.033490658
0.11060055 -0.10075849 0.018549442
0.10494055 0.17942655 -0.019287586
0.10496755 0.22541356 -0.025496483
0.10486855 0.058105528 -0.0029053688
0.10474154 -0.15814143 0.026294708
0.099104546 0.22541654 -0.025500298
0.099025548 0.058107555 -0.0029087067
0.093242541 0.22541755 -0.025504589
0.093252547 0.25521958 -0.029526234
0.093106546 -0.15813643 0.026288509
0.093126543 -0.10074943 0.018539429
0.087359548 0.14027452 -0.014009476
0.087379545 0.22541857 -0.02550745
0.087262549 -0.26985449 0.041371346
0.087289542 -0.1581344 0.026285648
0.081452549 -0.3215515 0.04834938
0.075652547 0.22541958 -0.025513649
0.075652547 0.25522053 -0.029538631
0.075652547 -0.15813345 0.026279449
0.069800548 0.14027452 -0.014018536
0.069810547 0.058110535 -0.0029244423
0.069828548 -0.10074848 0.018527508
0.063967548 0.058109522 -0.002925396
0.058095545 0.14027154 -0.014024258
0.058065545 0.22541553 -0.025521278
0.058180548 -0.10075241 0.018522739
0.052314546 -0.015745461 0.0070405006
0.052297547 0.020480573 0.0021495819
0.052458547 -0.3215614 0.048335552
0.052354544 -0.10075539 0.018518448
0.046459548 0.020477533 0.0021467209
0.040536545 0.14026254 -0.01403141
0.034711547 0.10655057 -0.0094823837
0.034847546 -0.058624446 0.012821674
0.035021547 -0.2698794 0.041347504
0.034973547 -0.21142143 0.033453465
0.034882545 -0.10076946 0.01851368
0.028830547 0.14025354 -0.014036655
0.029018547 -0.058630407 0.012819767
0.029162545 -0.21142846 0.033450603
0.029057544 -0.10077649 0.018510342
0.022934545 0.17940557 -0.019327641
0.023187544 -0.05863744 0.012817383
0.023141544 -0.015770435 0.0070295334
0.023349546 -0.21143645 0.03344965
0.017123546 0.14024156 -0.01404047
0.017022546 0.22538853 -0.025539398
0.017357547 -0.058645427 0.012814522
0.017537545 -0.21144444 0.03344965
0.011527546 -0.058653414 0.012813568
0.011425547 0.020441532 0.0021333694
0.0053615421 0.17938656 -0.019333363
0.0052965432 0.22537655 -0.02554369
0.0052545443 0.25517952 -0.029567242
0.0055865422 0.020433545 0.0021314621
0.0055335462 0.058059573 -0.0029482841
0.0057575479 -0.1008094 0.018503666
0.00010054559 -0.21147543 0.033443451
1.9542873e-05 -0.1582095 0.026250362
-0.0059634522 -0.058683455 0.012807369
-0.012085453 0.10649258 -0.0094985962
-0.012144454 0.14020252 -0.014050484
-0.011868455 -0.015824437 0.0070195198
-0.011522457 -0.21150142 0.033441544
-0.018158451 0.22534555 -0.025550365
-0.023784451 0.10647154 -0.0095014572
-0.023851454 0.14018255 -0.014054298
-0.023453452 -0.058719456 0.012804508
-0.023539454 -0.015848458 0.0070157051
-0.024082452 0.25514054 -0.029577255
-0.023611456 0.02038157 0.0021224022
-0.023687452 0.058009565 -0.0029582977
-0.022926457 -0.32169646 0.048314571
-0.029533453 0.057997525 -0.0029606819
-0.035649456 0.17932254 -0.01934433
-0.041415453 0.14014757 -0.01405859
-0.041508451 0.17931056 -0.019346237
-0.041133456 0.020341575 0.0021195412
-0.040847458 -0.10091239 0.018492699
-0.046777457 -0.058777392 0.012801647
-0.046399452 -0.21159643 0.033435345
-0.052721448 -0.01592046 0.0070095062
-0.053424455 0.25508857 -0.029584408
-0.05772946 -0.32181245 0.048313618
-0.058172457 -0.15836149 0.026241302
-0.058327459 -0.10096449 0.018491745
-0.064740457 0.10637957 -0.0095095634
-0.063675456 -0.27012545 0.041330338
-0.069330461 -0.32185942 0.048313618
-0.075937457 -0.058867395 0.012796402
-0.076068453 -0.015990436 0.0070075989
-0.075289451 -0.27017242 0.041330338
-0.075468458 -0.2117005 0.033434391
-0.075808458 -0.10102242 0.018489361
-0.082404457 0.14004654 -0.014064312
-0.08252845 0.17921454 -0.01935339
-0.081771456 -0.058887422 0.012798309
-0.08774545 -0.016030431 0.0070075989
-0.087988459 0.057841539 -0.0029673576
-0.094407462 0.22518355 -0.025568485
-0.092913456 -0.2117725 0.033436298
-0.10583045 0.13997555 -0.01406765
-0.10597446 0.17914653 -0.019357681
-0.10526045 -0.016094446 0.0070075989
-0.10553045 0.057781577 -0.0029683113
-0.11200946 0.22513354 -0.025569439
-0.11093745 -0.059000432 0.012797356
-0.11123545 0.020121574 0.0021133423
-0.11137746 0.057760537 -0.0029683113
-0.11769745 0.17910957 -0.019358635
-0.11693845 -0.016141474 0.0070085526
-0.11722546 0.057738543 -0.002969265
-0.11594946 -0.27036244 0.041335583
-0.12374445 0.22509652 -0.025571346
-0.12260545 -0.0590505 0.012798309
-0.12277745 -0.016166449 0.0070075989
-0.12220646 -0.15862447 0.02624464
-0.12942246 0.17906958 -0.019359589
-0.12961245 0.22507757 -0.0255723
-0.12843946 -0.059077442 0.01279974
-0.12861645 -0.016191423 0.0070085526
-0.12892145 0.057692528 -0.0029683113
-0.12735444 -0.32214648 0.048322678
-0.13528645 0.17904854 -0.019358635
-0.13315946 -0.32218045 0.048323631
-0.13362744 -0.21197146 0.033441544
-0.14114946 0.17902756 -0.019358635
-0.14135045 0.22503853 -0.025571346
-0.14029744 -0.016243458 0.0070085526
-0.14062044 0.057643533 -0.0029673576
-0.14499944 -0.27052444 0.041342735
-0.15287647 0.17898357 -0.019359589
-0.15214545 0.019947529 0.0021166801
-0.15839845 0.10605258 -0.0095124245
-0.15761945 -0.05921942 0.012803555
-0.15817046 0.057566524 -0.0029654503
-0.15662244 -0.27059644 0.04134655
-0.15689847 -0.2121045 0.033448696
-0.15714946 -0.15880948 0.026251316
-0.16243446 -0.2706334 0.041347504
-0.16297445 -0.15884346 0.0262537
-0.16929245 -0.059281409 0.012804508
-0.16968444 0.019862533 0.0021195412
-0.16798946 -0.32240349 0.048336506
-0.17435443 -0.21221346 0.033453465
-0.18096644 -0.059347451 0.012808323
-0.18118945 -0.016449451 0.0070166588
-0.18017346 -0.21225148 0.033455372
-0.18722644 0.019770563 0.0021224022
-0.19372445 0.13962156 -0.014064312
-0.19434744 0.25465953 -0.029598236
-0.19121745 -0.32257146 0.048346519
-0.19958645 0.13959354 -0.014063358
-0.19913045 0.057361543 -0.0029592514
-0.19702443 -0.32261544 0.04834938
-0.19793144 -0.1590634 0.026264668
-0.20525745 0.10582852 -0.0095067024
-0.20456445 -0.016583443 0.0070223808
-0.21131346 0.13953453 -0.014062405
-0.21153945 0.17872757 -0.019354343
-0.21041146 -0.016618431 0.007024765
-0.20864245 -0.3227064 0.048356533
-0.20894146 -0.27096242 0.041369438
-0.21697745 0.10576653 -0.0095043182
-0.21600345 -0.059560478 0.012819767
-0.21475646 -0.27100843 0.041371346
-0.21575445 -0.10174447 0.018515587
-0.22184345 -0.059599459 0.012822628
-0.22210145 -0.016691446 0.0070285797
-0.22254646 0.057229578 -0.002954483
-0.22942746 0.22467357 -0.025566578
-0.22768444 -0.059638441 0.012823582
-0.22816944 0.019533575 0.0021333694
-0.22840044 0.057195544 -0.0029525757
-0.22638744 -0.27110046 0.041378498
-0.23476943 0.13941056 -0.014056683
-0.23352545 -0.059677422 0.012826443
-0.23548844 0.25447857 -0.029595375
-0.23188046 -0.32290143 0.048369408
-0.23326144 -0.10186642 0.018523693
-0.24063644 0.13937855 -0.014055252
-0.24136946 0.25445056 -0.029594421
-0.23802143 -0.2711975 0.041386604
-0.24628344 0.10559952 -0.0094976425
-0.24548945 -0.016845465 0.0070366859
-0.24383846 -0.27124745 0.041389465
-0.25214544 0.10556453 -0.0094943047
-0.25293145 0.22455555 -0.02556324
-0.25312844 0.25439256 -0.029592514
-0.25157645 0.019382536 0.0021414757
-0.24931446 -0.3230564 0.048382759
-0.24965644 -0.27129847 0.041393757
-0.25077444 -0.10199445 0.018533707
-0.25880843 0.22452557 -0.025562286
-0.25718445 -0.016926467 0.0070414543
-0.25742844 0.019343555 0.0021443367
-0.25622645 -0.15949541 0.026294708
-0.26274145 -0.059887469 0.012840748
-0.26354146 0.05697453 -0.0029397011
-0.26169544 -0.21287245 0.033498764
-0.26205945 -0.1595425 0.026297569
-0.26858544 -0.059932411 0.012843609
-0.26888445 -0.01701045 0.0070476532
-0.27644345 0.22442955 -0.025558472
-0.27525744 0.056895554 -0.0029344559
-0.28058445 -0.017097473 0.0070533752
-0.27875346 -0.2715655 0.041414738
-0.28757745 0.13909554 -0.014041424
-0.28643546 -0.017142475 0.0070557594
-0.29408243 0.22432858 -0.025553703
-0.29196945 -0.06011647 0.01285553
-0.29228845 -0.017187476 0.0070586205
-0.29430446 0.25417453 -0.029584408
-0.29283744 0.056771576 -0.0029273033
-0.29906446 0.10526055 -0.009478569
-0.29869846 0.056728542 -0.0029244423
-0.29749745 -0.10237342 0.018558502
-0.30493146 0.10521954 -0.0094766617
-0.30519044 0.13897955 -0.014035702
-0.30607346 0.25410753 -0.0295825
-0.30164346 -0.32357341 0.048425674
-0.30786344 -0.27185446 0.04143858
-0.31666744 0.10513556 -0.0094704628
-0.31693444 0.13889956 -0.014030457
-0.31535944 -0.060313404 0.012870312
-0.31784445 0.25403857 -0.029577255
-0.31502545 -0.10252744 0.018571377
-0.32155445 -0.017424464 0.0070767403
-0.32373244 0.25400352 -0.029577255
-0.32184544 0.018863559 0.0021753311
-0.32840645 0.10504955 -0.0094642639
-0.32937646 0.22411257 -0.025542259
-0.33116245 -0.27210242 0.041460514
-0.34075844 0.17796254 -0.019317627
-0.34114444 0.22403657 -0.025538445
-0.33912045 -0.017575443 0.0070877075
-0.34139544 0.25389457 -0.02957058
-0.33840746 -0.10274547 0.018588543
-0.34602046 0.10491556 -0.0094556808
-0.34376645 -0.16029841 0.026356697
-0.34960744 -0.16035849 0.026361465
-0.35010245 -0.10285848 0.018598557
-0.35669446 -0.017733455 0.0071005821
-0.35906446 0.25378156 -0.029563427
-0.35498244 -0.21379048 0.033574581
-0.35595044 -0.10291642 0.018602371
-0.36393645 0.13855356 -0.014007568
-0.36428344 0.17779356 -0.01930666
-0.36469144 0.22387755 -0.025528431
-0.36029845 -0.27243346 0.041490555
-0.36081743 -0.21385545 0.03357935
-0.36128944 -0.16048139 0.026372433
-0.37016544 0.17774957 -0.019302368
-0.37057945 0.22383654 -0.025527477
-0.37148744 -0.32438248 0.048500538
-0.38126245 0.10463053 -0.0094356537
-0.38193443 0.17766052 -0.0192976
-0.37778944 -0.27264243 0.041510582
-0.37832844 -0.21405441 0.033598423
-0.37881944 -0.16067141 0.026389599
-0.38633344 0.01829958 0.002219677
-0.38313645 -0.3245315 0.048513412
-0.38466445 -0.1607365 0.026395321
-0.38520044 -0.10321742 0.018628597
-0.39219946 0.018243551 0.0022234917
-0.38896245 -0.32460648 0.048520565
-0.40031746 0.25349754 -0.029547691
-0.39842844 0.055903554 -0.0028634071
-0.40358445 -0.018185437 0.0071372986
-0.40393543 0.018130541 0.0022325516
-0.40111846 -0.2729345 0.041537762
-0.40220246 -0.16093749 0.026413441
-0.41064945 0.10437554 -0.0094156265
-0.40902746 -0.061220467 0.012945652
-0.40752643 -0.2144044 0.033630371
-0.40861344 -0.10347241 0.018650532
-0.41686445 0.13811857 -0.01397562
-0.41567343 0.01801455 0.0022425652
-0.41278645 -0.27308542 0.041552544
-0.41974545 -0.16114539 0.026432514
-0.42505443 -0.21462446 0.033650398
-0.43417346 0.10416055 -0.0093984604
-0.43452042 0.13796258 -0.013963699
-0.43492347 0.17723054 -0.019266605
-0.43247145 -0.061478436 0.01296854
-0.43367344 0.055565536 -0.0028367043
-0.44081444 0.17717957 -0.019260406
-0.44129342 0.22330058 -0.025490284
-0.44419748 -0.061611474 0.012979507
-0.44750547 0.25314254 -0.029522419
-0.44503146 0.017713547 0.0022683144
-0.44314843 -0.1614334 0.026459694
-0.44375342 -0.10387939 0.018687725
-0.45340842 0.25309557 -0.029520512
-0.45090646 0.017650545 0.0022745132
-0.45849442 0.17702353 -0.019250393
-0.45898944 0.22315353 -0.025479317
-0.45428145 -0.21500844 0.033688545
-0.45485544 -0.16158348 0.026473522
-0.46012843 -0.21508843 0.033695698
-0.46070945 -0.16165847 0.026481628
-0.46985143 0.13763356 -0.013937473
-0.47079045 0.22305357 -0.025471687
-0.47111845 0.25295156 -0.029509544
-0.47400546 -0.018950462 0.0072045326
-0.47059947 -0.3257634 0.048635483
-0.47117442 -0.27389747 0.041632652
-0.47182643 -0.21525043 0.033711433
-0.48207742 0.17680854 -0.019233704
-0.48849845 0.22289854 -0.025460243
-0.48659444 0.055014551 -0.0027885437
-0.49474442 0.25275356 -0.029495239
-0.50115746 0.29627055 -0.035371304
-0.49651742 -0.10454243 0.018750668
-0.50567442 0.17658353 -0.01921463
-0.50238544 -0.10461944 0.018757343
-0.51071143 0.10338956 -0.0093345642
-0.51212043 0.22268558 -0.025444508
-0.50875247 -0.06239742 0.013053417
-0.51298845 0.29617357 -0.035365582
-0.50969046 0.016987562 0.0023336411
-0.50563443 -0.32631642 0.048692703
-0.51660442 0.10332555 -0.0093283653
-0.51802844 0.22263056 -0.025438309
-0.51838547 0.25254655 -0.02947855
-0.52249843 0.10326153 -0.0093216896
-0.52338046 0.17640853 -0.019199371
-0.52637547 -0.062628448 0.013075352
-0.53073943 0.29602456 -0.035353661
-0.53429043 0.10313058 -0.009311676
-0.53575742 0.22246253 -0.02542448
-0.53225243 -0.062706411 0.013083458
-0.53278142 -0.01966846 0.0072703362
-0.54060745 0.13690954 -0.013875484
-0.53812945 -0.062785447 0.013090611
-0.54203945 0.25233054 -0.029461384
-0.53549743 -0.27489549 0.041734695
-0.53688943 -0.16272241 0.026585579
-0.54608542 0.10299754 -0.0092992783
-0.54650944 0.13684553 -0.013869286
-0.54454643 -0.019820452 0.0072865486
-0.54795545 0.25227553 -0.029456615
-0.54135042 -0.27499241 0.041743755
-0.54275542 -0.16280943 0.026593685
-0.55290943 0.17610556 -0.019174576
-0.54988647 -0.062946498 0.013106346
-0.55043048 -0.019898474 0.0072937012
-0.54654646 -0.32700545 0.048763752
-0.55239648 -0.32710749 0.048775673
-0.56472844 0.17598057 -0.019163609
-0.55824542 -0.32721049 0.04878664
-0.56110245 -0.10543948 0.018838406
-0.56622946 -0.16316849 0.026630402
-0.57754844 0.25199157 -0.02943325
-0.56994647 -0.32741946 0.048807621
-0.57210046 -0.1632604 0.026641369
-0.58307344 0.22199154 -0.025384426
-0.57929546 -0.063360393 0.013148308
-0.58347046 0.25193357 -0.029428482
-0.58034742 0.016099572 0.0024175644
-0.58899444 0.22192955 -0.025380611
-0.58939445 0.25187457 -0.029424667
-0.58997643 0.29549456 -0.035313606
-0.58234644 -0.2756924 0.041818619
-0.58461547 -0.10578948 0.018875599
-0.59106743 -0.063531458 0.01316452
-0.59531742 0.25181454 -0.029419422
-0.59264845 0.053746581 -0.0026736259
-0.59921044 0.10236657 -0.009241581
-0.59559345 -0.16363651 0.026679516
-0.60511845 0.10229355 -0.0092344284
-0.60343248 -0.020626426 0.0073647499
-0.60445046 0.053592563 -0.0026574135
-0.60073447 -0.21725947 0.033917427
-0.61102843 0.10221952 -0.0092263222
-0.60873145 -0.063794434 0.013190746
-0.60932744 -0.020710468 0.0073723793
-0.60983145 0.015699565 0.0024576187
-0.61035442 0.05351454 -0.0026502609
-0.61522245 -0.020796478 0.0073814392
-0.61963147 0.29521054 -0.035291672
-0.61093247 -0.3281824 0.048890591
-0.61402947 -0.10624546 0.018919468
-0.62051147 -0.063973486 0.013209343
-0.62216246 0.053355575 -0.002635479
-0.62265146 -0.32840842 0.048914433
-0.62580144 -0.1064325 0.018940449
-0.63229543 -0.0641554 0.013227463
-0.63681144 0.25138354 -0.029382706
-0.63343346 0.015366554 0.0024886131
-0.62851143 -0.32852346 0.048927307
-0.62925547 -0.27654749 0.041909695
-0.63009745 -0.2177754 0.03397131
-0.63086343 -0.1642254 0.026740551
-0.64058745 0.10183954 -0.0091915131
-0.64164543 0.17510855 -0.019084454
-0.63881242 -0.02114445 0.0074167252
-0.63988447 0.05311358 -0.0026116371
-0.63674647 -0.16432649 0.026751518
-0.64699543 0.13565856 -0.01376152
-0.64756846 0.17503756 -0.019078255
-0.64471346 -0.021233439 0.0074253082
-0.64524347 0.015195549 0.0025067329
-0.64579344 0.053031564 -0.0026035309
-0.64099443 -0.27677041 0.041933537
-0.64185047 -0.21798843 0.033995628
-0.64346945 -0.10672051 0.018969536
-0.65349346 0.17496556 -0.019071579
-0.65525246 0.29485357 -0.035261631
-0.64851344 -0.16453046 0.026773453
-0.64935946 -0.1068185 0.018979549
-0.65883642 0.13550752 -0.013746262
-0.65941942 0.17489356 -0.019064426
-0.65761447 0.052864552 -0.0025863647
-0.65273643 -0.27699751 0.041956425
-0.66177845 -0.064623415 0.013275623
-0.66713542 0.29473054 -0.035249233
-0.66114646 -0.10701543 0.01900053
-0.67017442 0.10144454 -0.0091514587
-0.67068446 0.13535357 -0.01373148
-0.67242146 0.25099355 -0.029346466
-0.66617244 -0.16484445 0.026806355
-0.67357743 -0.064816415 0.01329565
-0.67478347 0.01475656 0.0025515556
-0.67035842 -0.27734441 0.041994572
-0.68384242 0.22087157 -0.025286674
-0.68429947 0.25085956 -0.029336452
-0.67544043 -0.32947642 0.049032688
-0.68131047 -0.32959944 0.049045563
-0.69310844 0.052348554 -0.0025343895
-0.68973446 -0.16527349 0.026852608
-0.70093542 0.17437053 -0.019015312
-0.69786644 -0.022068441 0.0075116158
-0.70212746 0.25065458 -0.029317379
-0.69386947 -0.27782041 0.042048454
-0.69478947 -0.21898848 0.03410244
-0.70571542 0.10094756 -0.0091032982
-0.70687044 0.17429358 -0.019008636
-0.70807147 0.25058454 -0.029310703
-0.71354043 0.22051257 -0.025252342
-0.70968944 -0.022261441 0.0075316429
-0.71026844 0.014205575 0.0026063919
-0.71086842 0.052081525 -0.0025076866
-0.70480645 -0.33010346 0.049101353
-0.70741546 -0.16560441 0.026887417
-0.71757245 0.10077757 -0.0090866089
-0.71811545 0.13471353 -0.013669491
-0.71948546 0.22043854 -0.025245667
-0.71560442 -0.022359431 0.0075416565
-0.71679342 0.051990569 -0.0024986267
-0.72468346 0.17405856 -0.018985271
-0.72661644 0.29408658 -0.035193443
-0.71739942 -0.27831143 0.042101383
-0.72743547 -0.022557437 0.0075626373
-0.73257142 0.29401958 -0.035188675
-0.72244042 -0.33049041 0.049144745
-0.72604644 -0.10815948 0.019121647
-0.73592043 0.13446254 -0.013644695
-0.73195344 -0.10826844 0.019133568
-0.73856044 -0.065931499 0.013412476
-0.74376345 0.25015652 -0.029270649
-0.73420143 -0.33075446 0.049174309
-0.74779844 0.13429254 -0.013628483
-0.74447644 -0.066037476 0.013424397
-0.74971747 0.25008255 -0.029263496
-0.75044346 0.29381454 -0.035169601
-0.74642545 0.05152756 -0.0024514198
-0.75039244 -0.066144407 0.013435364
-0.75640243 0.29374558 -0.035162449
-0.74596846 -0.33102149 0.04920435
-0.76112247 0.21990752 -0.025195599
-0.75630945 -0.06625241 0.013446331
-0.76629043 0.17348957 -0.018930435
-0.76707542 0.21982956 -0.025187492
-0.76295847 -0.023169458 0.0076265335
-0.76421946 0.05124253 -0.0024213791
-0.76052845 -0.16664439 0.027000427
-0.77098644 0.099977553 -0.0090065002
-0.78025442 0.29346353 -0.035137653
-0.77543843 0.013129532 0.0027184486
-0.77608943 0.051048577 -0.0024013519
-0.76951647 -0.33156747 0.049266338
-0.78414142 0.17323756 -0.018904686
-0.78136945 0.013027549 0.0027294159
-0.77540642 -0.33170646 0.049282551
-0.77630746 -0.27960342 0.042246342
-0.78940642 0.13367856 -0.01356554
-0.79009342 0.17315155 -0.01889658
-0.78416646 -0.1671285 0.027052402
-0.78517443 -0.10928351 0.019243717
-0.79183847 -0.066914499 0.01351738
-0.79738742 0.24947757 -0.029206276
-0.78718942 -0.33198744 0.049313545
-0.79917443 0.012717545 0.002761364
-0.80665445 0.099415541 -0.0089483261
-0.80725843 0.13340557 -0.013538361
-0.80878443 0.21926755 -0.025132656
-0.80511147 0.012612581 0.0027737617
-0.80578542 0.050551534 -0.0023493767
-0.80095446 -0.22120541 0.034347534
-0.80190945 -0.16750044 0.027095318
-0.81039542 -0.024026453 0.0077185631
-0.81104946 0.012506545 0.002784729
-0.81172842 0.05044955 -0.0023384094
-0.80886143 -0.10975546 0.019294739
-0.81767243 0.050347567 -0.0023274422
-0.82148242 -0.067486465 0.013580322
-0.83045948 0.099027574 -0.0089073181
-0.83108044 0.13303256 -0.01349926
-0.83319747 0.24900055 -0.029161453
-0.82460243 -0.22173744 0.034408569
-0.82664043 -0.11011845 0.019334316
-0.83703846 0.13293755 -0.013489246
-0.83861744 0.21884853 -0.025091648
-0.83551544 0.05003655 -0.0022964478
-0.83256942 -0.11024147 0.019348621
-0.84514344 0.24883753 -0.029144287
-0.84595442 0.29264653 -0.035060406
-0.84076244 0.01196754 0.0028424263
-0.84146446 0.049931526 -0.0022845268
-0.83643442 -0.22200841 0.03443861
-0.84832543 0.098729551 -0.0088763237
-0.84602845 -0.024700463 0.0077915192
-0.85193545 0.29256958 -0.035052299
-0.84443045 -0.11048847 0.019375324
-0.84927946 -0.16852945 0.027210712
-0.86250848 0.21850353 -0.025057316
-0.85791743 -0.024931431 0.0078163147
-0.85932344 0.049613535 -0.0022506714
-0.85520744 -0.16866249 0.027224541
-0.86685348 0.13245457 -0.013441563
-0.85899544 -0.28157049 0.042469501
-0.86113542 -0.16879541 0.027240753
-0.87281942 0.13235652 -0.013430595
-0.86898446 -0.068444431 0.013686657
-0.86981148 -0.025165439 0.0078415871
-0.87050945 0.011409581 0.0029025078
-0.86491144 -0.28171843 0.042485714
-0.86706543 -0.16893047 0.027255535
-0.87492847 -0.068567455 0.013699532
-0.87196344 -0.22284442 0.034532547
-0.88087547 -0.068691432 0.01371336
-0.88171244 -0.025402427 0.0078673363
-0.88785243 0.29209453 -0.035007477
-0.88242042 0.011181533 0.0029263496
-0.88766444 -0.025521457 0.0078806877
-0.89384347 0.29201353 -0.034999371
-0.88267046 -0.28216642 0.042538643
-0.89080143 -0.16947645 0.02731657
-0.90200645 0.097800553 -0.0087795258
-0.89957243 -0.025762439 0.0079073906
-0.89567846 -0.22341949 0.034598351
-0.90943944 0.17131853 -0.018711567
-0.91095746 0.24790055 -0.029052258
-0.90625644 0.010716558 0.0029773712
-0.90700942 0.048731565 -0.0021562576
-0.90382844 -0.11177546 0.019518375
-0.91463143 0.13164955 -0.013355255
-0.91148847 -0.026007473 0.0079336166
-0.91221845 0.010599554 0.0029907227
-0.90636843 -0.28277749 0.042608738
-0.91657847 -0.069451392 0.01379776
-0.91229546 -0.28293246 0.042626381
