# .PCD v0.7 - Point Cloud Data file format
VERSION 0.7
FIELDS x y z
SIZE 4 4 4
TYPE F F F
COUNT 1 1 1
WIDTH 1
HEIGHT 1024
VIEWPOINT 0 0 0 1 0 0 0
POINTS 1024
DATA ascii
0.4990238 0.72369933 -0.30268669
0.49242479 0.72391033 -0.29610682
0.46309277 0.65422833 -0.03950882
0.48220578 0.67539936 -0.3272748
0.46041277 0.60620439 -0.088915825
0.47501877 0.67598832 -0.31175804
0.47375977 0.75849736 -0.29254484
0.45041978 0.60924536 -0.026555061
0.45091477 0.65448135 -0.034213066
0.46832678 0.67630935 -0.30345869
0.46662578 0.75889635 -0.27715969
0.47476378 0.37499434 -0.50076771
0.4665688 0.42997038 -0.37230778
0.45968878 0.75922835 -0.26444387
0.43869677 0.60921335 -0.027953625
0.45518878 0.67683339 -0.29009199
0.43331078 0.65444034 -0.036314011
0.44791579 0.72473133 -0.27174282
0.44721678 0.75934833 -0.26047277
0.42697278 0.60918134 -0.029353619
0.42215478 0.68585038 -0.047369003
0.42321679 0.45201737 -0.064997673
0.41570079 0.65439832 -0.038414001
0.41978779 0.40573633 -0.10719872
0.42919078 0.72495437 -0.26547861
0.42863977 0.75948435 -0.2562089
0.4144758 0.53259432 -0.017787933
0.42640379 0.20383233 -0.42908669
0.41080877 0.32722735 -0.15861702
0.4039588 0.65436834 -0.039811611
0.40161279 0.41418934 0.00086736679
0.4288438 0.10454035 -0.58215761
0.39765179 0.60909635 -0.032847881
0.40055278 0.33387238 -0.083930969
0.3959308 0.37132835 -0.0025496483
0.39808679 0.65435338 -0.040513992
0.40031779 0.6847024 -0.079796791
0.41051978 0.72516835 -0.25945663
0.40497878 0.22025537 -0.26955462
0.40408379 0.75958735 -0.25353765
0.41359979 0.066694379 -0.53725672
0.39793378 0.72539634 -0.2525897
0.38480979 0.49022335 -0.014113903
0.39632779 0.13276535 -0.33549786
0.38449678 0.23595238 -0.11704874
0.37760279 0.34229934 0.010251045
0.38078579 0.68589532 -0.04852581
0.39235577 0.75938636 -0.26215363
0.39304578 0.81485236 -0.27489567
0.3870838 0.047558367 -0.39449263
0.3758508 0.15053934 -0.18014479
0.36899677 0.68588734 -0.049371719
0.3665818 0.41401637 -0.0032968521
0.38432479 -0.013660669 -0.46164894
0.3621558 0.57612431 -0.031471729
0.3611078 0.45609635 -0.011128902
0.36351177 0.73132038 -0.057776928
0.36140478 0.49012136 -0.016894817
0.3562578 0.16754234 -0.031507969
0.37980178 -0.059514642 -0.4962759
0.3542828 0.34216338 0.0074839592
0.35526079 0.45606837 -0.011823654
0.36834377 0.81495738 -0.27008867
0.35676479 0.076954365 -0.16021395
0.3520678 0.12343037 -0.065852642
0.34742677 0.22080338 0.027359962
0.34767678 0.25039136 0.022343159
0.34870178 0.37189835 0.001745224
0.3513518 0.68584335 -0.051475048
0.36236078 0.81491935 -0.27260876
0.34258479 0.13217133 0.0067930222
0.34221578 0.29347038 0.014344215
0.3435638 0.45601135 -0.013213634
0.33764279 0.095490336 -0.01245594
0.33603677 0.25030935 0.020965099
0.33868977 0.57603836 -0.034263611
0.33895779 0.60890734 -0.039837837
0.34203878 0.72996032 -0.10398674
0.32998079 0.22067338 0.025294304
0.34457278 -0.068720639 -0.28413868
0.33056179 0.29339135 0.012962341
0.3311888 0.37179536 -0.00033283234
0.32323879 0.10268933 0.044608116
0.32439679 0.25022435 0.019585133
0.33009878 -0.0051016212 -0.10361576
0.32529578 0.047685385 0.00016021729
0.33132479 0.72918832 -0.13010263
0.32627779 0.48995936 -0.021070004
0.31743878 0.10263735 0.043921947
0.31799579 0.17492938 0.03166008
0.31890678 0.29331136 0.011582375
0.32108378 0.57597035 -0.036359787
0.31928179 0.34194535 0.0033330917
0.32192978 0.68576539 -0.054981709
0.32593778 0.72880036 -0.14323378
0.3121838 0.17488134 0.030974388
0.31663778 0.76435333 -0.069017887
0.30670878 0.22049236 0.022541046
0.30520278 0.017183363 0.057031155
0.30813977 0.41369635 -0.010234833
0.30088979 0.22044533 0.021852016
0.30308777 -0.076118648 -0.029528618
0.3014178 0.29318637 0.009510994
0.29968479 0.054420352 0.050020218
0.30198678 0.37161535 -0.0037946701
0.30259779 0.45579836 -0.01807785
0.30572379 0.76380736 -0.091143608
0.3148748 0.81439734 -0.30500889
0.29418379 -0.06529969 0.042304993
0.29558679 0.29314435 0.0088210106
0.29362378 0.017063379 0.05566597
0.29783079 0.60875934 -0.044733047
0.29614478 0.37157834 -0.0044879913
0.29815379 0.65406334 -0.052419662
0.29644379 0.41362733 -0.011621952
0.2967428 0.45576635 -0.018772602
0.2972858 0.53211635 -0.031726837
0.29902577 -0.12639469 -0.073226929
0.29009378 0.34175134 -0.00012493134
0.29030177 0.37154037 -0.005179882
0.29248878 0.68568236 -0.058489799
0.29869279 0.72683334 -0.20965385
0.29141977 0.5320884 -0.03242588
0.31053579 -0.3802436 -0.49824762
0.28203878 0.016940355 0.054300308
0.28607279 0.60871536 -0.046133041
0.29317978 0.72643536 -0.22309303
0.29739878 0.81401038 -0.32813072
0.27703878 0.13570434 0.033449173
0.27572379 -0.061499655 0.066922188
0.27808779 0.29301435 0.0067501068
0.27841279 0.34167033 -0.0015087128
0.28070578 0.68564832 -0.059895039
0.27917278 0.45566934 -0.020857811
0.27544478 -0.10323769 0.074007034
0.26994178 -0.061567664 0.066240311
0.27021879 -0.019093633 0.059031963
0.27225378 0.29296935 0.0060582161
0.27409777 0.57577735 -0.041947842
0.27331477 0.45563537 -0.02155304
0.28623077 0.81350636 -0.35776091
0.27588978 -0.24412864 -0.088582039
0.26566377 0.17447335 0.025476933
0.26595479 0.22015435 0.017723083
0.26871979 0.65396637 -0.055925846
0.26892179 0.68561339 -0.061298847
0.26767278 0.48966137 -0.028031826
0.26794279 0.53197736 -0.035214901
0.26720279 -0.23141259 -0.015512943
0.26353079 -0.1601916 0.082294941
0.2596038 0.13553733 0.031392097
0.25863978 -0.01922667 0.057669163
0.25909579 0.054001331 0.045236111
0.2610718 0.37134534 -0.0086436272
0.26283079 0.6539464 -0.056626797
0.26159579 0.45556834 -0.02294302
0.2674678 0.76152533 -0.18307495
0.26463079 -0.3083896 -0.10570669
0.2581158 -0.10345262 0.071969032
0.2547448 0.29283333 0.003988266
0.25666478 0.60860038 -0.049632072
0.25504079 0.34150338 -0.0042767525
0.25547779 0.41337436 -0.016480923
0.26191878 0.76119334 -0.19641161
0.26851979 -0.48914069 -0.38083506
0.24777579 0.10196137 0.035703182
0.25058579 0.57567436 -0.044744015
0.25078079 0.60857636 -0.050329685
0.2500748 0.48956534 -0.03012085
0.2419658 0.10190034 0.035017967
0.24215978 0.13536537 0.029335022
0.24264878 0.21994936 0.014969349
0.24126479 -0.019431651 0.055624962
0.24352378 0.37122333 -0.010722637
0.24401081 0.45546335 -0.025030613
0.2461088 0.81821537 -0.086642742
0.26189378 0.84733337 -0.55026674
0.2507768 -0.45750362 -0.22376585
0.2404488 -0.16050369 0.079584122
0.23656279 0.17420036 0.022043228
0.2358838 0.053747356 0.042501926
0.23790979 0.41326034 -0.018562794
0.24394879 0.72716737 -0.20060682
0.2512008 0.89269334 -0.41921568
0.24219778 -0.44220859 -0.14782381
0.23405379 -0.27112859 0.097682953
0.23034179 0.10177833 0.033648014
0.23052579 0.13524735 0.027962208
0.23115179 0.24947137 0.008559227
0.23181978 0.37113935 -0.012108803
0.23337078 0.65384233 -0.060133934
0.23755679 0.72750133 -0.18973875
0.23951179 0.75985336 -0.25026464
0.23246878 0.48946637 -0.032209873
0.2433328 0.89300138 -0.36853886
0.24533379 -0.63189465 -0.43050671
0.22388178 -0.019642651 0.053581238
0.22427279 0.053616345 0.041136265
0.22723478 0.60847938 -0.053133011
0.2258088 0.34128433 -0.0077376366
0.22641778 0.45535636 -0.027116776
0.2180858 -0.019714653 0.052901268
0.21827179 0.016217351 0.046795368
0.22011378 0.37105435 -0.013494968
0.22055179 0.45531934 -0.027813911
0.22483778 0.72816634 -0.16810894
0.21651378 -0.3225196 0.10434818
0.23381379 -0.70765465 -0.46187305
0.21735278 -0.16082662 0.076876163
0.2134968 0.21968138 0.011528015
0.21207479 -0.062291622 0.059440136
0.21568578 0.65377736 -0.062238693
0.21850878 0.72849637 -0.15734482
0.22248179 0.75883234 -0.29120302
0.2179558 0.81733137 -0.13871193
0.22039279 0.89389837 -0.22082806
0.20628378 -0.062367618 0.058762074
0.20825878 0.34114736 -0.0098128319
0.20881778 0.45524535 -0.029202938
0.21676078 0.75848937 -0.30495501
0.2046828 -0.38937062 0.11433315
0.2052598 -0.27157968 0.094315052
0.2060788 -0.10414165 0.065862179
0.21140578 -0.56338066 -0.1190567
0.2014268 0.13494235 0.024533272
0.20103979 0.053346336 0.038401127
0.20274779 0.41302037 -0.02272892
0.2052058 0.93084633 -0.11074495
0.1992538 -0.32280666 0.10233212
0.20029178 -0.10422164 0.065182209
0.20337978 -0.54717761 -0.045385838
0.19578379 0.17379236 0.017231941
0.19599479 0.21951437 0.0094623566
0.19469678 -0.062523663 0.057402134
0.19489279 -0.020009637 0.050176144
0.19763181 0.57542735 -0.051037788
0.19723478 0.48925936 -0.036389828
0.1934998 -0.32290465 0.10166121
0.20024878 -0.63554269 -0.14775991
0.19424379 -0.16116363 0.074169159
0.19552779 -0.5313217 0.026706219
0.18925279 0.015860379 0.043384075
0.19154879 0.53158033 -0.044287682
0.1879718 -0.27186066 0.09229517
0.19528979 -0.68685967 -0.18716478
0.1878418 -0.51580364 0.09727335
0.18599579 0.60829836 -0.058035851
0.18497381 0.37078738 -0.017652988
0.18715978 0.73013139 -0.10400105
0.18566579 0.53154737 -0.044986725
0.18220779 -0.27195662 0.091621399
0.1826838 -0.16133767 0.072813988
0.1829288 -0.10446769 0.063147068
0.17763779 0.01571238 0.042019367
0.17911279 0.37074137 -0.01834774
0.17946279 0.45505336 -0.032683849
0.17713779 -0.10455161 0.062469006
0.17246178 0.17354733 0.014485359
0.17264578 0.21928334 0.0067081451
0.1716848 -0.020315647 0.047451019
0.17293778 0.29214036 -0.0056819916
0.17407179 0.5753094 -0.053836823
0.17325178 0.37069535 -0.019041061
0.1821588 -0.89891368 -0.39698267
0.16950479 -0.56950969 0.13995314
0.16972879 -0.50842863 0.13045311
0.1663498 0.10105735 0.026116371
0.1657168 -0.062924623 0.054003239
0.16848278 0.65359533 -0.067855835
0.1675528 0.41276634 -0.026897907
0.16513279 -0.21437067 0.079759121
0.1639978 -0.50854462 0.1297884
0.1609658 0.21916437 0.0053300858
0.1600768 -0.020473659 0.046090126
0.1626958 0.6852634 -0.07394886
0.1618408 0.45493335 -0.034770966
0.15895179 -0.32351059 0.097630978
0.1663048 -0.85816461 -0.23935461
0.1593568 -0.21446568 0.079084396
0.15826479 -0.50866264 0.12912226
0.15843779 -0.46189064 0.12116623
0.15555778 0.34071237 -0.016044617
0.15596479 0.45489237 -0.035467625
0.15738279 0.85281235 -0.10315371
0.16275978 -0.96152967 -0.35985661
0.15337279 -0.2724486 0.088256359
0.1523138 -0.5696817 0.13881731
0.14887679 0.10084736 0.024060249
0.14938179 0.24870336 -0.0010929108
0.14969578 0.34066236 -0.016736984
0.15144479 0.85280436 -0.10386276
0.14719978 -0.39043266 0.10763693
0.1474278 -0.32371968 0.096289158
0.15500081 -0.94033569 -0.28097868
0.1469548 -0.46212167 0.11983299
0.1436758 0.29186934 -0.0091366768
0.14686778 0.81672734 -0.17539167
0.14202079 -0.21475464 0.077060223
0.14237878 -0.1050697 0.058398247
0.14105979 -0.50902361 0.12712622
0.13722479 0.10070533 0.02269125
0.13870479 0.57512534 -0.058035851
0.1390478 0.68517637 -0.076762676
0.13843578 0.48888636 -0.043361664
0.13856779 0.53127539 -0.05057478
0.13956979 0.85279036 -0.10527897
0.1359008 -0.32393366 0.094944954
0.1364058 -0.16206461 0.067402363
0.1309098 -0.063431621 0.049925327
0.13196479 0.29175735 -0.010519028
0.13244879 0.45472637 -0.038251877
0.1326758 0.53123939 -0.051273823
0.13363078 0.85278332 -0.10598707
0.1290828 -0.6785906 0.1546092
0.13045979 -0.21495169 0.075710297
0.12928879 -0.60897368 0.14276218
0.12958579 -0.50926965 0.12579536
0.1251038 -0.063518643 0.049245358
0.12522379 -0.020963669 0.042003155
0.12712678 0.65342438 -0.072775841
0.12436779 -0.32415062 0.09360218
0.12467579 -0.21505159 0.075034142
0.12498579 -0.10533863 0.056363106
0.12397779 -0.46259862 0.11716509
0.11982679 0.13400638 0.014931202
0.12013279 0.24840337 -0.0045418739
0.12129979 0.68510938 -0.078875065
0.12077479 0.48876837 -0.045455933
0.11860079 -0.32426065 0.092932224
0.12118779 -0.9450826 -0.071711063
0.11810579 -0.50951964 0.12446308
0.11427979 0.24834234 -0.0052318573
0.11368979 0.014851332 0.034515381
0.11451179 0.34034836 -0.020894051
0.11663379 0.81693435 -0.16391706
0.11418979 -0.92493969 0.00085306168
0.11324279 -0.1624487 0.064696312
0.11248379 -0.46284264 0.11583233
0.10807479 0.10033637 0.019267082
0.10852879 0.29152834 -0.01328373
0.10871579 0.37015635 -0.026669979
0.11202979 0.75957936 -0.26403904
0.10690579 -0.39123565 0.10295439
0.10732379 -0.21535665 0.073011398
0.10647879 -0.5707137 0.13350916
0.10231579 0.13378936 0.012873173
0.10266779 0.29146934 -0.013974667
0.10205079 0.014685333 0.03315115
0.10364679 0.73063934 -0.088750839
0.10310679 0.48864636 -0.047548771
0.10320179 0.53105736 -0.054769039
0.10457079 0.81701636 -0.15934086
0.10129479 -0.3245967 0.090918064
0.10019479 -0.81783563 0.17489815
0.10065879 -0.60964864 0.13945198
0.096651793 0.21847135 -0.0022468567
0.09615279 -0.02139163 0.038597107
0.096904792 0.34018636 -0.022974014
0.097717792 0.73062038 -0.089457035
0.099579789 0.76014334 -0.24188995
0.094495788 -0.81799263 0.17424202
0.095136791 -0.51003259 0.12180424
0.090635791 0.13364238 0.011501312
0.090253793 -0.064056635 0.045166969
0.090335794 -0.021479666 0.037916183
0.090856791 0.24809134 -0.0079908371
0.091639794 0.65326935 -0.076993942
0.093385793 0.76042336 -0.23086691
0.089620791 -0.39159459 0.10094595
0.089749791 -0.32482463 0.089577198
0.091013789 -1.0481727 -0.021853924
0.089848794 -0.27361161 0.080853939
0.084581792 0.014431357 0.031105042
0.084648788 0.051835358 0.024734974
0.085215792 0.36994737 -0.029445648
0.085721791 0.65324336 -0.077697754
0.083023794 -0.9393006 0.179914
0.079139791 0.24796236 -0.0093698502
0.078757793 0.014346361 0.030423164
0.077901788 -1.0064635 0.11960506
0.077203788 -0.93574268 0.19225407
0.07730379 -0.87464565 0.1818471
0.07750079 -0.75443166 0.16137123
0.078380793 -0.21588165 0.069639206
0.077736795 -0.61020964 0.13680601
0.073058791 0.099873364 0.015157223
0.073108792 0.13341737 0.0094413757
0.072814792 -0.064336598 0.043128967
0.072987795 0.051669359 0.023366928
0.074482791 0.81721938 -0.14792871
0.072427794 -0.32517463 0.087563992
0.071549788 -0.98626262 0.18812418
0.071899787 -0.68002969 0.14801407
0.06721779 0.099793375 0.014471054
0.067315787 0.17232734 0.0021123886
0.067473792 0.29110736 -0.018125057
0.067897797 0.60771435 -0.07206583
0.067539796 0.33990538 -0.026438713
0.065831795 -0.93608767 0.1909523
0.065913796 -0.87498063 0.18054008
0.066795796 -0.21609861 0.06828928
0.066942796 -0.10628861 0.049582005
0.06123279 -0.021929622 0.034511089
0.06194279 0.57469237 -0.067146778
0.062035792 0.65313435 -0.080513954
0.062127791 0.73050237 -0.093697071
0.060792793 -0.39221269 0.097603321
0.06021779 -0.87514859 0.1798892
0.060932793 -0.27417666 0.077492237
0.061064791 -0.1633597 0.058609009
0.055485792 0.051415384 0.021317959
0.055816792 0.36967635 -0.032917976
0.055904791 0.45414534 -0.047311783
0.056626793 0.76208436 -0.16543674
0.055093791 -0.32553369 0.085551262
0.05464679 -0.75506264 0.15874338
0.054723792 -0.68048567 0.14603615
0.055206791 -0.21631867 0.066939354
0.054796793 -0.6107896 0.13416004
0.054900791 -0.51097268 0.11715031
0.054948792 -0.4641276 0.1091671
0.049693793 0.09955138 0.012414932
0.049722791 0.13310838 0.0066971779
0.049863793 0.29091936 -0.020198822
0.050187793 0.65307939 -0.081922054
0.050215792 0.68482536 -0.087330818
0.050567791 0.76235735 -0.15464878
0.050039791 0.48826337 -0.053833008
0.050484791 0.81738037 -0.13883066
0.04872679 -0.98359865 0.19700718
0.04887379 -0.81928962 0.16900635
0.049458791 -0.16357166 0.057257175
0.043901794 0.17203134 -0.00063800812
0.043935791 0.21785635 -0.0084476471
0.043725789 -0.064817607 0.039731026
0.043811791 0.051242352 0.01995039
0.044200793 0.57458532 -0.069252968
0.044026792 0.33967334 -0.029212952
0.044048794 0.36956537 -0.034307957
0.044079792 0.41176236 -0.041499615
0.044111792 0.45405036 -0.048707962
0.04353179 -0.32577759 0.084210396
0.043076791 -0.9367947 0.1883502
0.043569792 -0.27452666 0.075474262
0.043348789 -0.57225066 0.12621832
0.038072791 0.21778435 -0.0091376305
0.038090792 0.24749535 -0.014203072
0.038505793 0.76290137 -0.13316774
0.03774979 -0.32590061 0.083538055
0.037385792 -0.9369747 0.18770027
0.037422791 -0.87583965 0.177279
0.03745579 -0.8196277 0.16769695
0.037814792 -0.2166546 0.064916134
0.032156792 0.099303365 0.010359287
0.032222793 0.24742734 -0.014893055
0.032241791 0.29072738 -0.022275925
0.032263793 0.33955437 -0.03059864
0.032417789 0.68474936 -0.089448929
0.031936791 -0.3928557 0.094261169
0.031966791 -0.32602566 0.082867146
0.031720791 -0.8760156 0.17662716
0.026259791 -0.065114677 0.03769207
0.026272792 -0.02249366 0.030426025
0.026352791 0.24735737 -0.015583992
0.02647379 0.65296537 -0.084738731
0.026520792 0.76344132 -0.11181784
0.026424792 0.48808336 -0.05662775
0.026162792 -0.39298767 0.093591213
0.026097791 -0.61154062 0.13085413
0.026247792 -0.10700065 0.044833183
0.020460792 0.099134326 0.0089883804
0.020435791 -0.065215647 0.0370121
0.020442791 -0.022590637 0.029745102
0.020482792 0.24728733 -0.016273975
0.020447791 0.013447344 0.023599148
0.020535791 0.60745239 -0.07768774
0.020323791 -0.82014364 0.1657362
0.020333791 -0.75604767 0.15480709
0.020344792 -0.68142861 0.14208317
0.020404791 -0.27500564 0.072783947
0.02036079 -0.57284361 0.12356997
0.014608791 0.21749437 -0.011895657
0.014608791 0.29053038 -0.024349689
0.014608791 0.36927938 -0.037780762
0.014608791 0.41149735 -0.044981003
0.014608791 0.45380634 -0.052196026
0.014608791 0.48799136 -0.058025837
0.014608791 0.53046435 -0.065268993
0.014608791 -0.61184865 0.12953234
0.014608791 -0.1072107 0.043478012
0.0087357908 0.24714637 -0.017655849
0.0087297913 0.29046434 -0.025043011
0.0087657915 0.050708354 0.015847206
0.0086877914 0.57436436 -0.073462963
0.0087177912 0.36922038 -0.03847599
0.0086757913 0.65287733 -0.086854935
0.0086937919 0.53042233 -0.065969944
0.0088317916 -0.39338869 0.091587067
0.0089197913 -0.98490959 0.19246912
0.008813791 -0.27525061 0.071439266
0.0088057909 -0.21723264 0.061545372
0.0028957911 0.13246036 0.0012030602
0.0029427912 -0.022884667 0.027702332
0.0028347913 0.33924836 -0.034069061
0.0027317917 0.68461937 -0.092978954
0.0030527916 -0.39352363 0.090918064
0.0032287911 -0.98510367 0.1918211
0.0032147914 -0.93808466 0.18380117
0.0029997909 -0.21735066 0.060870171
0.0031177914 -0.6121617 0.12821102
0.0031057913 -0.57330066 0.12158203
0.0029677916 -0.10742468 0.042120934
0.0030877916 -0.51225966 0.11117125
-0.0029472094 0.098789334 0.0062460899
-0.0029262081 0.050525367 0.014480114
-0.0031592082 0.57428837 -0.074868679
-0.0030542091 0.33918637 -0.034761906
-0.0031952094 0.65281832 -0.088263988
-0.0032092091 0.68459332 -0.093685627
-0.0032442082 0.76355934 -0.10715485
-0.0031212084 0.48785135 -0.060122967
-0.0031402092 0.53033733 -0.067370892
-0.0027802084 -0.27549964 0.070094109
-0.0087752081 0.050432384 0.013796329
-0.0091062095 0.60728037 -0.081205845
-0.0089642089 0.36904234 -0.040560722
-0.0090152081 0.45360434 -0.054987907
-0.0090352092 0.48780435 -0.060822964
-0.0092322081 0.81775635 -0.11711407
-0.0081862081 -0.93846661 0.18250227
-0.0083382092 -0.6822477 0.13879204
-0.0086462088 -0.16467959 0.050495148
-0.014537208 -0.065836608 0.032935143
-0.01476921 0.24685735 -0.020418644
-0.014802208 0.29019338 -0.027812004
-0.014595209 0.012873352 0.01950407
-0.014923209 0.45355237 -0.055685997
-0.015129209 0.73022836 -0.10289383
-0.013974208 -0.82121164 0.16181421
-0.014078209 -0.68241566 0.13813305
-0.020546209 0.13212138 -0.0015439987
-0.02044021 0.012776375 0.018821239
-0.021040209 0.68451238 -0.095804691
-0.019881207 -0.61280161 0.12556839
-0.026450209 0.17108536 -0.0088939667
-0.026248209 -0.023389637 0.024294376
-0.026324209 0.050150335 0.011744022
-0.026905209 0.6071744 -0.083316803
-0.02670021 0.41110933 -0.049856663
-0.02678021 0.48765936 -0.062921047
-0.026825208 0.53016335 -0.07017374
-0.027124207 0.81771839 -0.11924601
-0.025293209 -0.93904859 0.18055534
-0.025357209 -0.87784964 0.17011118
-0.025673207 -0.57408363 0.11827326
-0.026159208 -0.10797268 0.038730145
-0.02578621 -0.46610361 0.099844933
-0.032274209 0.13194835 -0.0029177666
-0.032321207 0.17100233 -0.0095829964
-0.032801207 0.57409334 -0.078381062
-0.032933209 0.68445736 -0.097218037
-0.032607209 0.41105235 -0.050553799
-0.033027209 0.76346636 -0.11070299
-0.031386208 -0.6131286 0.12424707
-0.03143321 -0.57424361 0.11761093
-0.031561207 -0.46625262 0.099180222
-0.038194209 0.17091835 -0.010272026
-0.037876207 -0.066265643 0.030215263
-0.038354207 0.28991336 -0.030583858
-0.038459208 0.36873633 -0.044037819
-0.038882207 0.68442935 -0.097925663
-0.038573209 0.45334336 -0.058479786
-0.038944207 0.73013836 -0.10572672
-0.038619209 0.48756135 -0.064321041
-0.037195209 -0.57440466 0.11694908
-0.037820209 -0.10819763 0.037373066
-0.043777209 -0.023701668 0.022250175
-0.044717208 0.60706639 -0.085429668
-0.044317208 0.33873534 -0.03962183
-0.04495021 0.76342738 -0.11212301
-0.04322521 -0.39464563 0.08557415
-0.042413209 -0.93964368 0.17860794
-0.04250421 -0.87842566 0.1681571
-0.050266206 0.36861134 -0.045428753
-0.050335206 0.41087836 -0.05264473
-0.05053021 0.52998435 -0.072981834
-0.049014211 -0.39479059 0.084906101
-0.049124211 -0.32786566 0.073480129
-0.048541211 -0.68344563 0.13418722
-0.048896208 -0.46670669 0.097183228
-0.055687211 0.097976327 7.5340271e-05
-0.055747211 0.13159537 -0.0056657791
-0.056030206 0.28969938 -0.032661915
-0.053940207 -0.87881666 0.16685724
-0.05521521 -0.16562766 0.045084953
-0.055318207 -0.10854059 0.035337925
-0.054677211 -0.46685964 0.09651804
-0.061554208 0.09788233 -0.00061178207
-0.062541209 0.60695535 -0.087543964
-0.062021211 0.33853537 -0.041707039
-0.062243208 0.45312837 -0.061275959
-0.059543207 -0.94025165 0.17666197
-0.060251206 -0.57506162 0.11430216
-0.067492209 0.13141537 -0.0070390701
-0.06707821 -0.066819608 0.026814938
-0.067731209 0.24617535 -0.026639938
-0.068163209 0.45307335 -0.061975956
-0.068811208 0.76334935 -0.11496592
-0.065635212 -0.75870961 0.14497519
-0.066145211 -0.51411265 0.10320425
-0.07345321 0.17040634 -0.01440382
-0.07318221 0.049367368 0.0062713623
-0.074429207 0.60688037 -0.088953972
-0.074531205 0.65244234 -0.096735001
-0.070969209 -0.94066364 0.17536736
-0.079160206 0.097598374 -0.0026688576
-0.079334207 0.17031938 -0.015091896
-0.078768209 -0.067045629 0.025455952
-0.078956209 0.011757374 0.011994362
-0.079735212 0.33833134 -0.043790817
-0.080484211 0.65240932 -0.097441673
-0.08009021 0.48720735 -0.069222927
-0.077984206 -0.39552969 0.081566334
-0.077462211 -0.61448365 0.1189661
-0.085117206 0.13113934 -0.0091028214
-0.086323209 0.60680336 -0.090363026
-0.085642211 0.33826238 -0.044487
-0.085825212 0.41052037 -0.056830883
-0.086019211 0.48715535 -0.069923878
-0.082280211 -0.98817164 0.18211412
-0.082555212 -0.87981862 0.16360426
-0.090996206 0.13104635 -0.00978899
-0.091101207 0.17014235 -0.016469002
-0.090464212 -0.067276657 0.024095058
-0.090579212 -0.024564624 0.016798019
-0.091746211 0.41045934 -0.057528973
-0.091860212 0.45285034 -0.064771652
-0.09269321 0.76326936 -0.11780882
-0.092066206 0.52965832 -0.077893734
-0.089582212 -0.3958326 0.080229282
-0.089762211 -0.32885665 0.068786144
-0.088283211 -0.88002366 0.16295338
-0.088434212 -0.82368761 0.15332937
-0.090056211 -0.21936268 0.050080299
-0.090198211 -0.16637367 0.041027069
-0.090351209 -0.10924965 0.031267166
-0.089263208 -0.51476568 0.10055017
-0.096780211 0.097307384 -0.0047278404
-0.096986212 0.17005336 -0.017158985
-0.097201206 0.24577838 -0.030097961
-0.096643209 0.048959374 0.0035333633
-0.098223209 0.60672635 -0.091773987
-0.098353207 0.65230936 -0.099564075
-0.094010212 -0.88022965 0.16230392
-0.094564207 -0.68488866 0.12892723
-0.096033208 -0.16650063 0.04034996
-0.095178209 -0.46796364 0.091860294
-0.10275621 0.13085836 -0.011164665
-0.10287321 0.16996336 -0.017848015
-0.10216421 -0.067509592 0.022734165
-0.10440621 0.68411136 -0.10571098
-0.10359021 0.41033536 -0.058924675
-0.10394521 0.52956337 -0.079299927
-0.099557206 -0.94171959 0.17212439
-0.10826321 0.011221349 0.0085802078
-0.11037121 0.68408132 -0.10641861
-0.10975321 0.48694435 -0.072725773
-0.10988721 0.52951431 -0.080002785
-0.10698721 -0.3962937 0.078225136
-0.10584721 -0.76005059 0.14039326
-0.10735821 -0.27790564 0.057992935
-0.1150422 0.28895134 -0.03959465
-0.11520321 0.33791035 -0.047962666
-0.11633921 0.68405139 -0.10712767
-0.11544021 0.41021037 -0.060320854
-0.11557921 0.45262134 -0.067570686
-0.11120322 -0.88085562 0.16035318
-0.11138821 -0.82449466 0.15072012
-0.11159921 -0.76024669 0.13973904
-0.11318121 -0.27804869 0.057321072
-0.11240221 -0.51543659 0.097895145
-0.12029221 0.096911371 -0.0074739456
-0.1204072 0.13057238 -0.013226986
-0.1208012 0.24545133 -0.032865047
-0.12192721 0.57346737 -0.088938713
-0.12111821 0.33783937 -0.048657894
-0.1221972 0.65217334 -0.10239363
-0.11882821 -0.3295936 0.065434933
-0.11819021 -0.5156067 0.097233295
-0.12558222 -0.067984641 0.020014286
-0.1267052 0.24536836 -0.033558846
-0.1268602 0.28879535 -0.04098177
-0.1279982 0.60652834 -0.095304012
-0.12816122 0.65213937 -0.10309982
-0.12827522 0.68399036 -0.10854483
-0.1285592 0.76314533 -0.1220789
-0.12503722 -0.22017461 0.046034336
-0.12376022 -0.5769617 0.10702801
-0.1321812 0.13037837 -0.014602661
-0.13144022 -0.068105638 0.019334316
-0.13260922 0.24528438 -0.034249783
-0.1318742 0.048327327 -0.0005736351
-0.1338332 0.57337832 -0.090348721
-0.13295421 0.33769435 -0.050048828
-0.13322422 0.41001934 -0.06241703
-0.1302132 -0.3969236 0.075555325
-0.13046321 -0.32989568 0.064094067
-0.1284062 -0.88149363 0.15840435
-0.1310702 -0.16728264 0.036291122
-0.13128319 -0.11011261 0.026515961
-0.13729921 -0.068226635 0.018653393
-0.1385152 0.24520034 -0.034941673
-0.1402182 0.68392837 -0.10996389
-0.13931921 0.45238635 -0.070371628
-0.13372222 -0.99016863 0.17630005
-0.1341432 -0.88170868 0.15775394
-0.13436121 -0.82532269 0.1481123
-0.13517222 -0.6162836 0.11236811
-0.13691422 -0.16741568 0.035614967
-0.13574421 -0.46911961 0.087203979
-0.14382622 0.096504331 -0.01021862
-0.14460021 0.28855836 -0.043065071
-0.14363122 0.048111379 -0.0019440651
-0.14508921 0.40989035 -0.063812733
-0.14526021 0.45232636 -0.071073055
-0.14637822 0.72970235 -0.11850595
-0.14557022 0.52921736 -0.08422184
-0.1418362 -0.39724463 0.074219227
-0.13988221 -0.88192564 0.15710402
-0.15072021 0.33747333 -0.052137852
-0.1508452 0.36747336 -0.05727005
-0.1510222 0.40982538 -0.064510822
-0.1524992 0.76305938 -0.12491894
-0.14792821 -0.33035463 0.062083244
-0.14562219 -0.88214368 0.15645599
-0.1481432 -0.27892369 0.053287029
-0.14673221 -0.61665767 0.11104918
-0.15560022 0.096297383 -0.011592865
-0.15591621 0.16912937 -0.024050713
-0.1548872 -0.068596661 0.016612053
-0.15624422 0.24494433 -0.037018776
-0.15643221 0.28839833 -0.044451714
-0.15714121 0.45220634 -0.072471619
-0.1583432 0.72965038 -0.11992073
-0.15747422 0.52911639 -0.085628986
-0.15109822 -0.94370764 0.16629839
-0.15136319 -0.88236362 0.15580511
-0.15221021 -0.68680269 0.12235498
-0.16181621 0.16903335 -0.024740696
-0.16075119 -0.068720639 0.015932083
-0.16215619 0.24485737 -0.037710667
-0.16110522 0.010211349 0.0024290085
-0.16127321 0.047781348 -0.0039987564
-0.16362721 0.57315338 -0.093873978
-0.16270521 0.36733133 -0.058663845
-0.1568312 -0.94393569 0.16565132
-0.15710622 -0.88258463 0.15515518
-0.1573582 -0.82617265 0.14550638
-0.15895522 -0.46980363 0.084544182
-0.16738319 0.096087337 -0.012968063
-0.1682722 0.28823537 -0.045841694
-0.16974521 0.60624135 -0.10024881
-0.1690312 0.45208436 -0.07387495
-0.16285121 -0.8828066 0.15450716
-0.16311222 -0.82638866 0.14485502
-0.1726912 -0.026190639 0.0072512627
-0.17419422 0.28815335 -0.046536922
-0.17457122 0.36718738 -0.060059071
-0.17514122 0.48633334 -0.08044672
-0.1712352 -0.3309806 0.059401989
-0.16830322 -0.94439667 0.16435719
-0.1695312 -0.68740159 0.12038422
-0.17175922 -0.22130865 0.040636063
-0.17201221 -0.16823262 0.031555176
-0.17952922 0.16874236 -0.026810646
-0.17874521 0.0098613501 0.00037813187
-0.1803582 0.33709538 -0.05562067
-0.1819092 0.65181839 -0.10946608
-0.18092522 0.45196137 -0.075275898
-0.18130422 0.52890933 -0.088443756
-0.17706421 -0.33113962 0.058732033
-0.1749382 -0.76249462 0.13254404
-0.17584422 -0.57861966 0.10107994
-0.1778672 -0.16837162 0.030878067
-0.17637822 -0.47032768 0.082548141
-0.18506521 0.095767379 -0.015028
-0.18566921 0.21466833 -0.035377979
-0.18604121 0.28798735 -0.047925949
-0.18481922 0.047332346 -0.0067386627
-0.1866582 0.40942436 -0.068707943
-0.18687421 0.45189837 -0.075977802
-0.1870482 0.48621836 -0.081851959
-0.18726522 0.5288564 -0.089149952
-0.18070421 -0.7627067 0.13189125
-0.1810852 -0.68780667 0.11907196
-0.1837222 -0.16851169 0.030202389
-0.1909622 0.095659375 -0.015716076
-0.19113821 0.12936938 -0.021484852
-0.19134322 0.16854537 -0.028190613
-0.1915842 0.21457535 -0.03606987
-0.1903232 -0.026558638 0.0052042007
-0.19260222 0.40935636 -0.069408894
-0.19300422 0.48615935 -0.082553864
-0.1932272 0.52880436 -0.08985281
-0.18551922 -0.94509667 0.16241837
-0.19189721 -0.82748669 0.14159918
-0.19515422 -0.22189659 0.037937164
-0.2029492 0.12916034 -0.022862911
-0.20184922 -0.069615662 0.011166096
-0.20228621 0.0093853474 -0.0023579597
-0.20409721 0.33678436 -0.058407784
-0.2051582 0.52869737 -0.091255665
-0.2004002 -0.33178562 0.056049347
-0.1973452 -0.88416964 0.15061235
-0.19765821 -0.82771069 0.14094734
-0.19801322 -0.76335067 0.12992907
-0.20100722 -0.2220456 0.037263393
-0.1990312 -0.57938665 0.098438263
-0.1996302 -0.47104162 0.079890251
-0.20907822 0.16824633 -0.03026104
-0.2062372 -0.33194965 0.055380344
-0.2065292 -0.28045565 0.046563148
-0.21360421 -0.069877684 0.0098061562
-0.21406519 0.0091423392 -0.0037260056
-0.21428421 0.046756327 -0.010165691
-0.2163972 0.40907937 -0.072207928
-0.20999622 -0.68884069 0.11578894
-0.21237621 -0.2806136 0.045890331
-0.21271521 -0.2223466 0.035912991
-0.21335921 -0.11195666 0.017011166
-0.21098921 -0.51848465 0.086621284
-0.21126422 -0.47140568 0.078559399
-0.2216242 0.28747833 -0.05209589
-0.22191721 0.33654737 -0.060498714
-0.21751621 -0.39943069 0.06553793
-0.21424621 -0.94629365 0.15918493
-0.21495122 -0.8283897 0.13899422
-0.21578422 -0.68905169 0.11513233
-0.21822521 -0.2807737 0.045217037
-0.21620321 -0.61900061 0.10313797
-0.22658622 0.12873435 -0.025617599
-0.2268272 0.16794038 -0.032333851
-0.22729221 0.24387133 -0.045336723
-0.22608221 0.046520352 -0.011538029
-0.22786021 0.33646733 -0.06119585
-0.22804421 0.36651736 -0.066342831
-0.22111222 -0.76422769 0.12731504
-0.22157222 -0.68926269 0.11447716
-0.2244322 -0.22265166 0.034564018
-0.22224021 -0.5801726 0.095793247
-0.2312502 -0.070277631 0.0077619553
-0.23151922 -0.027441621 0.00042533875
-0.2261312 -0.88534266 0.14736938
-0.2273612 -0.6894756 0.11382008
-0.2299262 -0.28109461 0.043872356
-0.22872722 -0.4719587 0.076564312
-0.23841423 0.12851733 -0.026996613
-0.23866621 0.16773438 -0.033714771
-0.23764321 0.0086493492 -0.0064616203
-0.23686421 -0.11251265 0.014294147
-0.23424822 -0.51924866 0.083968163
-0.24410823 0.094659328 -0.021903992
-0.24458823 0.16763037 -0.034405708
-0.24489123 0.21371436 -0.042299747
-0.24302122 -0.07054764 0.0063991547
-0.2453742 0.28712833 -0.054876804
-0.24354121 0.0085243583 -0.0071468353
-0.24378923 0.046161354 -0.013596058
-0.24589521 0.36628634 -0.068432808
-0.24085122 -0.40013868 0.062867165
-0.24129322 -0.33295363 0.051356316
-0.2389442 -0.6899057 0.11250925
-0.24163321 -0.28141969 0.042527199
-0.24236622 -0.16995865 0.023432255
-0.25082421 0.21361536 -0.042994022
-0.25164822 0.33614135 -0.063982964
-0.24342123 -0.88606364 0.14542294
-0.24380121 -0.82954961 0.13573933
-0.24474022 -0.69012266 0.11185217
-0.24547422 -0.58097667 0.093152046
-0.25643921 0.16742033 -0.035788059
-0.25696221 0.24340135 -0.048806667
-0.25374922 -0.22342867 0.031188011
-0.25170922 -0.51983362 0.081980228
-0.26209021 0.12807637 -0.029754639
-0.2612462 0.0081443787 -0.0091996193
-0.2583712 -0.40067965 0.060862064
-0.25535122 -0.83002263 0.13443804
-0.25920621 -0.28191465 0.040510178
-0.25682521 -0.6204477 0.09852314
-0.25999022 -0.17040962 0.021399021
-0.26777023 0.094197333 -0.024655819
-0.26915321 0.28677136 -0.057654858
-0.26742122 0.045674384 -0.016339779
-0.2607232 -0.88679665 0.14347839
-0.26159221 -0.76581162 0.12274313
-0.26506722 -0.28208166 0.03983593
-0.26627922 -0.11322659 0.01089716
-0.27422622 0.16710037 -0.037861824
-0.2673822 -0.7660436 0.12208939
-0.27093023 -0.28224963 0.039162159
-0.27174821 -0.17071468 0.02004528
-0.27536422 -0.47348267 0.071245193
-0.27804023 -0.88754267 0.14153194
-0.2826592 -0.28258759 0.037817955
-0.28120023 -0.47367769 0.070580006
-0.29202622 0.16677636 -0.039931774
-0.28534222 -0.69167465 0.10725927
-0.28852621 -0.28275865 0.037144184
-0.28619322 -0.58242959 0.088527203
-0.28984222 -0.11381263 0.0081763268
-0.28703821 -0.47387367 0.069915295
-0.2979632 0.16666734 -0.040620804
-0.29607022 -0.071803629 0.00026702881
-0.29398522 -0.33452564 0.04531908
-0.29004121 -0.83147365 0.13053513
-0.29201621 -0.58264166 0.08786726
-0.30331221 0.093485355 -0.028786659
-0.30232123 -0.029041648 -0.0077738762
-0.29930523 -0.40197963 0.056186199
-0.30026722 -0.28310269 0.035798073
-0.29752621 -0.62195259 0.093912125
-0.29872021 -0.47427064 0.068585396
-0.30924121 0.093364358 -0.029472828
-0.30853122 0.0070993304 -0.014679909
-0.30884123 0.044793367 -0.021144867
-0.3006452 -0.95009965 0.14949608
-0.30161822 -0.83196861 0.12923527
-0.30214921 -0.76746064 0.11817217
-0.30276823 -0.69235867 0.10529137
-0.30662021 -0.22488564 0.025110245
-0.31517223 0.093243361 -0.030158043
-0.30641723 -0.95036465 0.14885235
-0.32005823 -0.029458642 -0.0098257065
-0.31687221 -0.40255266 0.054181099
-0.31788722 -0.28362662 0.033779144
-0.31838623 -0.22521859 0.023759365
-0.3256022 -0.07252866 -0.0031428337
-0.3262912 0.0066953301 -0.0167346
-0.32273221 -0.40274566 0.053514004
-0.31955621 -0.76818663 0.11621332
-0.32473621 -0.17212969 0.013945103
-0.32169321 -0.5222736 0.074021339
-0.32918823 -0.33561867 0.041293144
-0.32699221 -0.58393866 0.083903313
-0.32753521 -0.5224846 0.073358059
-0.33007723 -0.88985568 0.13570213
-0.33652923 -0.1724537 0.012588978
-0.33830521 -0.62351567 0.089300156
-0.33866322 -0.58438069 0.082582951
-0.34295422 -0.11517864 0.0020542145
-0.34925622 -0.07312268 -0.0058698654
-0.34681022 -0.33617765 0.039281368
-0.3416582 -0.89038569 0.13440704
-0.34278521 -0.76917261 0.11360216
-0.35517523 -0.073272645 -0.0065488815
-0.3547762 -0.11549062 0.00069236755
-0.3585692 -0.33655566 0.037939072
-0.36013821 -0.17311162 0.0098781586
-0.36379322 -0.40412563 0.048837185
-0.3649542 -0.28506368 0.028394222
-0.3655242 -0.22658962 0.018352985
-0.36604321 -0.77017969 0.11099195
-0.36848122 -0.52399069 0.068717003
-0.3689492 -0.4767397 0.060603142
-0.37554023 -0.40452963 0.04749918
-0.37332523 -0.62490362 0.085347176
-0.38210621 -0.33732468 0.035253048
-0.3770242 -0.8353166 0.12078524
-0.37845123 -0.6954537 0.096763134
-0.38323021 -0.22711867 0.016324043
-0.37956822 -0.58596462 0.077959061
-0.38913521 -0.22729665 0.01565218
-0.38541821 -0.58619565 0.077298164
-0.38605621 -0.52465361 0.066727161
-0.38654521 -0.47738165 0.058607101
-0.39085922 -0.62561363 0.083370209
-0.39191723 -0.52487665 0.066064358
-0.39977521 -0.33791059 0.033239365
-0.40032721 -0.28618163 0.024353027
-0.39670622 -0.62585264 0.082710266
-0.39712423 -0.58666164 0.075977325
-0.40098321 -0.7717306 0.10707617
-0.40179721 -0.6964497 0.094140053
-0.40255722 -0.62609369 0.082051277
-0.40883821 -0.58713168 0.07465601
-0.40951321 -0.52555269 0.064073086
-0.41003221 -0.47825259 0.055945396
-0.41671422 -0.40597564 0.042818069
-0.41264322 -0.7722587 0.10577011
-0.41348022 -0.69695467 0.092829227
-0.42178521 -0.47869569 0.054614067
-0.42357123 -0.83749264 0.11558723
-0.42431021 -0.77279168 0.10446501
-0.42642123 -0.58784562 0.072673321
-0.4271242 -0.52623969 0.062083244
-0.43438721 -0.40661067 0.040816307
-0.42874223 -0.8945356 0.12469721
-0.43014723 -0.77305967 0.10381317
-0.43522722 -0.83804959 0.11428833
-0.43815422 -0.58832866 0.071352005
-0.44038221 -0.89511269 0.12340117
-0.44402221 -0.58857161 0.070691109
-0.44688821 -0.83861262 0.11298895
-0.44942021 -0.62806064 0.076780319
-0.45203221 -0.8956967 0.12210703
-0.45576623 -0.5890606 0.069369316
-0.45651621 -0.52740663 0.058764935
-0.45855922 -0.8391816 0.11168909
-0.46115521 -0.6285637 0.075462341
-0.46368721 -0.89628464 0.12081432
-0.4733932 -0.58980364 0.067387104
-0.47607622 -0.84004468 0.10974121
-0.47786921 -0.69982463 0.085614204
-0.48118523 -0.89717859 0.11887217
-0.48776522 -0.84062666 0.10844231
-0.48861423 -0.77581769 0.097287178
-0.48960122 -0.70036262 0.084301949
-0.49869922 -0.89808565 0.11693096
-0.50454217 -0.89839059 0.11628532
-0.5120542 -0.77695769 0.094677925
-0.52207917 -0.8993147 0.11434412
-0.52792817 -0.8996256 0.11369801
-0.52873421 -0.8427096 0.10389614
