# .PCD v0.7 - Point Cloud Data file format
VERSION 0.7
FIELDS x y z
SIZE 4 4 4
TYPE F F F
COUNT 1 1 1
WIDTH 1
HEIGHT 1024
VIEWPOINT 0 0 0 1 0 0 0
POINTS 1024
DATA ascii
1.0420156 -0.058792114 0.070464611
1.0471085 -0.025247097 -0.0044717789
1.0342646 0.0020899177 -0.08286047
1.0394256 0.031314909 -0.16149473
1.0224646 0.0019369125 -0.085666656
0.98854363 -0.057878137 0.068897247
0.98872459 -0.02602309 -0.018301487
1.0104556 -0.13968909 -0.17490578
0.9712286 -0.058123112 0.064839363
0.98288059 -0.026104093 -0.019677639
1.0116216 0.069451928 -0.27353859
0.98703563 0.0014669299 -0.094058514
1.0055606 0.069375932 -0.27498674
1.0154545 0.096910894 -0.34768963
0.9596796 -0.058289051 0.062140465
0.99043262 -0.13754606 -0.16382837
1.0209926 0.12949789 -0.43542337
0.96533859 -0.026349068 -0.023795605
0.94790161 -0.10179305 0.061108589
0.99707758 0.096681893 -0.35209274
0.93585861 0.011302888 -0.028940678
0.95551258 -0.20078814 -0.17924261
0.9156186 -0.010590076 0.080459595
0.92134559 -0.068246126 -0.009926796
0.91676062 -0.0184111 0.025618553
0.97136861 0.12889093 -0.44733858
0.90751863 0.055360913 0.0042524338
0.94801563 0.096051931 -0.36377573
0.9103266 -0.031247079 -0.065432549
0.89974159 -0.22285604 0.018356323
0.9125886 0.088607907 -0.13174438
0.8817246 0.070217907 0.11429453
0.89763761 -0.17226207 -0.012560368
0.89928359 0.095963895 -0.074014664
0.87438661 0.071856916 0.12587261
0.88619959 0.10319692 -0.01723671
0.89667058 -0.036195099 -0.10190868
0.87648261 -0.23173213 -0.036118507
0.87945962 -0.17975914 -0.060538769
0.8932516 0.15515292 -0.22446442
0.8828786 -0.041198075 -0.13874674
0.85575062 0.14491892 0.036183357
0.87994063 0.16202992 -0.1651845
0.86859763 -0.083879113 -0.12152338
0.85951263 -0.2946701 -0.045332432
0.85601664 -0.075498104 -0.066728592
0.83943862 0.10887289 0.022926331
0.82344562 0.15998191 0.15906763
0.84133959 0.18197191 0.0067381859
0.84442961 -0.023573101 -0.019561768
0.84579563 0.051701903 -0.03119278
0.84253359 -0.28671706 -0.0034255981
0.83652163 -0.28655207 -0.0032205582
0.83123863 -0.16198206 0.04209137
0.8252666 -0.16183615 0.042288303
0.80462658 0.20093387 0.17026329
0.87620163 0.26027489 -0.45309973
0.80146658 0.12477893 0.14682341
0.81578058 -0.22063208 0.021191597
0.79559463 0.12488389 0.14700365
0.8060416 0.23478788 0.054594517
0.82307863 0.2496469 -0.096108437
0.81488562 -0.34428012 -0.023637772
0.80979562 -0.22048104 0.021389484
0.78827262 0.16058791 0.1601305
0.80886263 -0.34411311 -0.023431778
0.8064816 -0.28574514 -0.0022025108
0.78074962 0.20180488 0.17526531
0.78915161 0.2645269 0.046423435
0.81059963 0.29003191 -0.14784956
0.77070558 0.16088289 0.16066122
0.77647859 0.24080092 0.10794353
0.77577662 0.033555925 0.11435556
0.82674962 0.32320791 -0.35107136
0.79079962 -0.34361815 -0.022814751
0.76988262 0.033668876 0.11453962
0.7775616 -0.16070116 0.043852329
0.77876461 -0.34329307 -0.022405624
0.75927562 0.24056792 0.10388136
0.76600361 0.26422393 0.04092741
0.8057456 0.35727692 -0.33095074
0.77048361 -0.28481209 -0.00099468231
0.74867362 0.12569791 0.14843225
0.74730259 0.16126692 0.16136742
0.77014959 0.2993679 -0.054197788
0.7596966 -0.16029108 0.04443264
0.74281561 0.12579691 0.14860964
0.74780059 0.24040991 0.10117722
0.76072562 -0.34281409 -0.021797657
0.7537446 -0.16015613 0.044625282
0.75840563 0.29921788 -0.05699873
0.74043262 0.034223914 0.11545134
0.77683961 0.36563492 -0.23387051
0.75250661 -0.2843591 -0.00039577484
0.75003064 -0.21902215 0.023362637
0.75253063 0.2991429 -0.058398724
0.74406064 -0.21888208 0.023558617
0.73011261 -0.0045000911 0.10165548
0.7286616 0.034440875 0.11581564
0.77487159 0.40243292 -0.33519554
0.73589659 -0.15975714 0.045201302
0.73355061 -0.096765041 0.068105221
0.7165646 0.2027939 0.17717743
0.72421759 -0.0043891072 0.10183859
0.75876158 0.36542493 -0.23824072
0.76876163 0.40236592 -0.33668375
0.73454159 -0.28391612 0.00019836426
0.75273263 0.3653549 -0.2396946
0.72400659 -0.15949607 0.045583248
0.72170162 -0.096519113 0.068481445
0.73988658 0.33967888 -0.17287779
0.70184362 0.1264689 0.14984226
0.70056564 0.16200387 0.16276264
0.69908863 0.20305091 0.17769432
0.70759159 0.23984289 0.091739655
0.70369262 0.075054884 0.13115025
0.74066859 0.36521292 -0.24260139
0.71868563 -0.34173608 -0.020389557
0.71424162 -0.21819413 0.024528503
0.69326663 0.20313489 0.17786551
0.72793758 0.33953089 -0.17574072
0.6980176 -0.096038103 0.069228649
0.68430662 0.12674689 0.15036821
0.69033962 0.23959291 0.087708473
0.72256458 0.3649959 -0.24695778
0.69061559 0.26318991 0.023150444
0.71000063 0.33930588 -0.18002748
0.7165246 0.36492288 -0.2484107
0.72593862 0.40188891 -0.34708166
0.69267464 -0.2829181 0.0015726089
0.67261958 0.12692893 0.1507163
0.67139858 0.16244292 0.16362619
0.71981561 0.40181893 -0.34856558
0.65974158 0.16261393 0.16397047
0.66267163 0.075734913 0.13238764
0.69205159 0.33907789 -0.18430948
0.67475361 -0.28250611 0.002155304
0.6725536 -0.21727312 0.02586937
0.65815663 0.035676897 0.11796665
0.65681559 0.075829923 0.13256454
0.68606359 0.33900088 -0.18573666
0.6666016 -0.21714509 0.026060581
0.66253358 -0.095343113 0.070336342
0.64926261 0.12728393 0.1514082
0.65357661 -0.0031080842 0.1040082
0.69530362 0.40153688 -0.35449362
0.66281062 -0.28223705 0.0025424957
0.65662462 -0.095230103 0.070521355
0.68917161 0.40146488 -0.35597372
0.6547066 -0.21689308 0.026437283
0.63759261 0.12745792 0.15175438
0.6433236 -0.049193144 0.08754158
0.64182264 -0.0029050708 0.1043663
0.67421162 0.36440289 -0.25854969
0.65276361 -0.34015012 -0.018223763
0.64876062 -0.21676815 0.026628494
0.6306206 0.16302991 0.16482449
0.63849962 0.2388199 0.075653553
0.63743359 -0.049087048 0.087722301
0.65243858 0.29779989 -0.082079411
0.66210163 0.33868891 -0.19143248
0.64490962 -0.28184009 0.0031175613
0.63273162 0.23873192 0.074318409
0.63154262 -0.048983097 0.087902546
0.6275596 0.076289892 0.13343763
0.65610558 0.33861089 -0.1928544
0.62009561 0.12771291 0.15226936
0.6269626 0.23864293 0.072983265
0.62907559 -0.15754008 0.048586369
0.61426663 0.12779689 0.1524415
0.62701863 -0.28145409 0.0036892891
0.63811362 0.33837193 -0.19711876
0.60260963 0.12796289 0.15278244
0.60964662 0.23837489 0.068986416
0.6079976 -0.04857409 0.088619232
0.6321106 0.33829093 -0.19853973
0.61310863 -0.21604109 0.027752399
0.5898996 0.1635859 0.16600943
0.62575459 0.3637839 -0.27010059
0.63390762 0.40080488 -0.36927366
0.60491961 -0.33907914 -0.01667881
0.58408761 0.1636619 0.16617823
0.59722662 -0.28082907 0.0046362877
0.5935626 -0.15686715 0.049687386
0.57882059 0.2022199 0.15958023
0.5865376 0.23801088 0.063666344
0.57497358 0.077072918 0.13499165
0.58343363 -0.21546113 0.028680325
0.57497263 0.23782593 0.061010361
0.60148561 0.36346489 -0.27586269
0.5900566 0.33771592 -0.20846081
0.5715726 -0.21523607 0.029048443
0.58934158 0.3633039 -0.27873945
0.56908858 -0.33832204 -0.015537739
0.55761361 0.23754489 0.057033539
0.56245661 0.26127392 -0.0066337585
0.58326459 0.36322188 -0.28017759
0.55635458 -0.093447089 0.073590279
0.54439861 0.12874991 0.15447426
0.54921758 -0.047611117 0.090388298
0.56374359 0.29651392 -0.1028018
0.54689461 0.037408888 0.12128258
0.57200658 0.33746392 -0.21270466
0.55556661 -0.27999914 0.005944252
0.53858358 0.12882489 0.15464258
0.54105061 0.037492931 0.12145424
0.57233763 0.40003693 -0.38399649
0.53869557 -0.093158126 0.074122429
0.52695757 0.12897289 0.15497637
0.53444856 0.23716491 0.051743507
0.52830958 0.077720881 0.13635445
0.53926158 -0.33772016 -0.0145998
0.53601557 -0.21458507 0.030143261
0.5202226 0.16446388 0.16801262
0.52453357 -0.0010551214 0.10787249
0.52352262 0.037739933 0.12196732
0.52247959 0.077798903 0.13652229
0.56000161 0.39987892 -0.38693762
0.53009158 -0.21448004 0.030324459
0.52856159 -0.15572107 0.051674366
0.51986957 -0.047160149 0.091260433
0.51768357 0.037819922 0.1221385
0.55383164 0.39979893 -0.38840437
0.52584457 -0.27943611 0.0068664551
0.52151757 0.26061893 -0.016032696
0.51675862 -0.15552509 0.052031517
0.52222562 0.29588091 -0.11241961
0.54148561 0.39963889 -0.39134073
0.50928462 -0.092694044 0.074999332
0.50980657 0.26042891 -0.01870966
0.50495958 -0.15533209 0.05238533
0.49433261 0.038135886 0.12281752
0.52913058 0.39947689 -0.39427471
0.50049657 -0.21396804 0.031224251
0.4938426 0.2364819 0.042513371
0.5229516 0.39939493 -0.39574051
0.49222562 0.26013893 -0.022722721
0.48577461 -0.092338085 0.075698376
0.47468761 0.12960488 0.15646744
0.47882661 -0.046563148 0.092469215
0.47589061 0.078393877 0.13786459
0.49965462 0.33641791 -0.2296176
0.4842796 -0.27869308 0.0081396103
0.49802759 0.36204088 -0.30024242
0.47402459 -0.092165112 0.076045513
0.4746286 0.2598449 -0.02672863
0.48062262 0.29522789 -0.12200069
0.4754836 -0.41289008 -0.040317535
0.4681516 -0.09208107 0.076217651
0.48582262 0.36186588 -0.30309963
0.4618386 -0.33628309 -0.012207508
0.45780161 -0.15459812 0.053791523
0.45315662 0.2357769 0.033322334
0.46943161 0.33596492 -0.23663855
0.4531976 -0.21320009 0.032646656
0.4519116 -0.15451014 0.053966522
0.45114261 0.25944793 -0.032059669
0.44185162 0.038800895 0.12432528
0.47344461 0.39872992 -0.40744972
0.43684959 0.00012588501 0.11041737
0.45085362 0.29474789 -0.12882471
0.43602562 0.038870931 0.12449265
0.44399559 -0.33597708 -0.011665344
0.44276261 -0.27799904 0.0093946457
0.44138062 -0.21301806 0.032998562
0.4301146 0.19958991 0.12613535
0.44489461 0.29465091 -0.13018656
0.43804961 -0.33587706 -0.011485577
0.4243736 0.1994819 0.12486124
0.42986861 0.23536491 0.02808857
0.42612562 -0.045855045 0.093999386
0.4309096 -0.2778101 0.0097494125
0.4186286 0.1993739 0.12358522
0.41855061 0.039076924 0.1249876
0.43916062 0.33550191 -0.24364471
0.41350162 0.0004119277 0.11108637
0.4071376 0.19915688 0.1210413
0.4210386 0.29425788 -0.13563156
0.40611961 0.079201877 0.13984346
0.4142766 -0.33548915 -0.010769367
0.4131366 -0.27753413 0.010279655
0.41185862 -0.21257913 0.03387022
0.39932162 0.13042188 0.15858555
0.40108562 0.039275885 0.12548351
0.40482262 -0.15384114 0.055345535
0.39687961 -0.045490146 0.094838619
0.4000566 -0.21241009 0.034216404
0.38773862 0.13053793 0.15890741
0.38988662 0.19882691 0.1172266
0.40312761 0.2939589 -0.13970852
0.41242862 0.36078292 -0.32019472
0.39645562 -0.33520913 -0.010238647
0.39415562 -0.21232712 0.03439045
0.39305761 -0.15368307 0.055686474
0.38904759 0.23462391 0.018956184
0.38433862 0.00075089931 0.11191463
0.38945159 -0.27718008 0.010979652
0.38016662 -0.090908051 0.078768253
0.39063162 0.33473992 -0.25482178
0.37999859 -0.41123807 -0.037416458
0.3668496 0.00094491243 0.11240721
0.37461659 0.25810587 -0.049301624
0.38455561 0.33464289 -0.25621653
0.3695406 -0.15337813 0.056366444
0.36844862 -0.090766072 0.07910347
0.35879859 0.13081592 0.1597085
0.35819361 0.16615587 0.17254448
0.37323859 0.29345089 -0.14648771
0.36807862 -0.41105211 -0.037060738
0.36677161 -0.33476305 -0.0093593597
0.36259261 -0.09069705 0.079269409
0.35983559 0.23408192 0.012458324
0.3538726 0.079740882 0.1413002
0.35398862 0.23397189 0.011161327
0.3493686 0.0011318922 0.11289644
0.35490462 -0.33459306 -0.0090107918
0.35394961 -0.27668011 0.012019634
0.35088059 -0.090560079 0.079602242
0.34144461 0.13097489 0.16018438
0.34428862 -0.044885039 0.096327305
0.3602376 0.33424991 -0.26178837
0.36334461 0.36002892 -0.33154774
0.34698662 -0.21169806 0.035756588
0.33771759 0.0012528896 0.1132226
0.34510159 0.25756991 -0.055900574
0.35415161 0.33415091 -0.26318073
0.3510516 0.35983592 -0.33437967
0.33520061 -0.21155012 0.036095619
0.32548159 0.040062904 0.12759447
0.34197661 0.33395088 -0.26596165
0.32746559 -0.090297103 0.080263615
0.32472262 0.2334159 0.0046834946
0.3196716 0.040117919 0.12775564
0.3358866 0.33385092 -0.26735067
0.32638562 -0.41043615 -0.035831451
0.32531661 0.29261589 -0.15730143
0.31327862 0.080119908 0.14241838
0.33259961 0.35954493 -0.33862448
0.30675361 0.13127393 0.16113043
0.3264446 0.35944688 -0.34003878
0.31163961 -0.21126604 0.036767483
0.30342659 -0.044460058 0.09746933
0.30278462 0.0015978813 0.11419058
0.3202886 0.35934788 -0.3414526
0.29761562 0.19699693 0.097016335
0.31412962 0.35924888 -0.34286451
0.3025766 -0.41011012 -0.035137653
0.3015376 -0.33387709 -0.0074625015
0.30074862 -0.27599907 0.013552189
0.2982136 -0.089988112 0.08108139
0.2889486 0.16672891 0.17442656
0.29540959 0.23284793 -0.0017747879
0.2977806 0.25668788 -0.066423416
0.29009959 0.080321908 0.14305162
0.28364059 0.13145989 0.16175747
0.28604761 0.19675988 0.094503403
0.2918556 0.25657588 -0.067735672
0.28430459 0.08036989 0.14321041
0.28929359 0.29197192 -0.16538477
0.27851161 0.080417931 0.14336634
0.27447459 0.19651991 0.091996193
0.27369159 0.0018628836 0.11499023
0.28328359 0.29186291 -0.1667285
0.27482361 -0.089755058 0.081731319
0.2686846 0.19639993 0.090743542
0.2719146 -0.33351707 -0.0066156387
0.26027161 0.16639191 0.17062664
0.26113659 0.080556929 0.14383745
0.2771306 0.35864788 -0.35133076
0.2668846 -0.40965307 -0.034110546
0.2562426 0.0020129085 0.11546564
0.25580159 0.040677905 0.12950134
0.2687526 0.3327179 -0.28259945
0.25728759 -0.089590073 0.082214355
0.2489906 0.13171989 0.16268921
0.25627059 0.25589293 -0.075591564
0.24999961 0.04072392 0.12965822
0.2446146 0.0021098852 0.11578131
0.25033361 0.2557779 -0.076899529
0.24560159 -0.089484096 0.082536221
0.24717659 0.29120088 -0.17478466
0.24624059 0.35813493 -0.3583684
0.22679561 0.040901899 0.1302824
0.22229761 0.19541991 0.080747604
0.22061661 0.080856919 0.14492464
0.23202959 0.33207887 -0.29088879
0.2228286 -0.15180016 0.060482502
0.21597561 -0.043684125 0.099863529
0.2122016 -0.27504611 0.016035557
0.21110761 -0.15169811 0.060801506
0.2043246 -0.043594122 0.10017729
0.2032586 0.08097589 0.1453886
0.2067976 -0.33281815 -0.0047883987
0.20574859 -0.21017814 0.039720535
0.20471361 -0.089140058 0.083647251
0.20275861 0.25483793 -0.087329388
0.1974746 0.081013918 0.14554024
0.2008816 -0.33276105 -0.0046257973
0.2004056 -0.27493608 0.016360283
0.19938961 -0.15159905 0.061122417
0.19887561 -0.089094043 0.083805561
0.19496661 -0.33270514 -0.004462719
0.1894826 0.23070788 -0.024867535
0.19287559 0.29017693 -0.1868248
0.18861261 -0.2748301 0.016684532
0.18160659 0.19453692 0.072043419
0.18683061 0.29006088 -0.18815947
0.18369061 -0.40874708 -0.031770706
0.18271461 -0.27477813 0.01684761
0.17398459 0.13219988 0.16467428
0.17892259 0.25435692 -0.092528343
0.17461759 0.041259885 0.13167334
0.17433959 0.081157923 0.14615154
0.17636761 -0.20993006 0.040520191
0.1699646 0.19427991 0.069562435
0.1685576 0.081192911 0.14630461
0.1780906 0.35697192 -0.37381172
0.1718156 -0.40863514 -0.031443596
0.1704936 -0.20988405 0.040679455
0.1627156 0.16420788 0.1499424
0.1686866 0.28971088 -0.1921587
0.1706506 0.33097988 -0.30465651
0.1566866 0.13229591 0.16512728
0.15831161 0.19402093 0.067084312
0.15120059 0.16394091 0.14752531
0.1550536 0.25386888 -0.097716808
0.15834761 0.33075488 -0.30740356
0.15357059 -0.33234107 -0.0033307076
0.15287161 -0.20975006 0.041153431
0.14544159 0.16380692 0.14631844
0.14610261 -0.043194115 0.10172939
0.14543259 0.081323922 0.14691162
0.15219259 0.33064193 -0.30877638
0.1402836 -0.043158114 0.10188341
0.1444636 0.2892369 -0.19748354
0.1470236 0.35642588 -0.3808136
0.14145559 -0.27444708 0.017962456
0.1405136 -0.088683128 0.085365295
0.1336306 0.13241291 0.16572618
0.1339166 0.16353792 0.14390421
0.13446459 -0.04312408 0.10203648
0.1371306 0.2534979 -0.10159969
0.13497761 -0.15112412 0.062851429
0.1284406 0.0029019117 0.1188755
0.12938261 -0.20958412 0.041781425
0.1226366 0.0029339194 0.11902761
0.1230136 -0.088576078 0.085826397
0.1168336 0.0029639006 0.1191783
0.1166866 0.041587889 0.13319159
0.1213876 0.3300699 -0.31563139
0.1183956 -0.40818906 -0.02999258
0.1178866 -0.27428007 0.018592358
0.1125736 0.22906792 -0.041399479
0.1111906 -0.042993069 0.1026454
0.1110306 0.002994895 0.11933041
0.1121976 -0.33203006 -0.0022163391
0.1090496 0.32983893 -0.31836843
0.1059006 -0.20943308 0.042403221
0.1055176 -0.088477135 0.086285591
0.099055603 0.13256991 0.16661835
0.099200599 0.081550896 0.14810944
0.099863604 -0.15091014 0.063777447
0.099685602 -0.08844614 0.086437225
0.0952316 0.25261593 -0.11063862
0.094012603 -0.15087712 0.063930511
0.087534599 0.13261592 0.16691351
0.087735601 0.04172492 0.13394165
0.090523601 0.32948792 -0.32247257
0.088435605 -0.27409315 0.01937151
0.088292599 -0.20933115 0.042865276
0.088162601 -0.15084612 0.064083576
0.081952602 0.16229993 0.13308954
0.082381599 0.19229293 0.051064491
0.082801595 -0.40794313 -0.029043674
0.082546599 -0.27405906 0.019526482
0.076525599 0.1921559 0.049836636
0.077242598 0.25223088 -0.11450243
0.076093599 0.081648886 0.14870358
0.070368603 0.041797876 0.13438749
0.065495603 0.28764892 -0.21471977
0.064880602 -0.27396214 0.019988537
0.059405599 0.28752393 -0.21604156
0.058875598 -0.088250041 0.08749342
0.053084601 0.19160593 0.044936657
0.053032599 -0.042721093 0.10414934
0.047216602 0.32865489 -0.33202839
0.047216602 -0.33164513 -0.00050735474
0.047216602 -0.27387404 0.020446301
0.041442599 0.081772923 0.14958525
0.0409596 0.35449493 -0.40451574
0.041311599 -0.33161712 -0.00035476685
0.0356226 0.16116589 0.12353134
0.0299436 0.1328119 0.1683774
0.0295026 -0.33156204 -4.9591064e-05
0.029674601 -0.15058005 0.065591335
0.0297336 -0.088135123 0.088240623
0.0231566 0.2510519 -0.12605572
0.023825601 -0.15055811 0.065741539
0.023904599 -0.088115096 0.088388443
0.0182226 0.0033699274 0.12170839
0.0171356 0.25091791 -0.12733459
0.017978599 -0.15053713 0.065888405
0.012424599 0.0033869147 0.12185431
0.012021601 -0.20898414 0.044834614
0.012250599 -0.088076115 0.088684559
0.0060125999 -0.27370405 0.021504402
0.006156601 -0.20896411 0.044983387
0.0062856004 -0.15049815 0.066186428
0.0064245984 -0.088058114 0.088831425
0.0011565983 0.13288492 0.16910028
0.00071259961 -0.042546093 0.10547733
0.0008295998 0.0034189224 0.12214756
-0.00021139905 -0.40752411 -0.026884556
-1.8399209e-05 -0.33144605 0.00070428848
-0.0057593994 -0.27366507 0.021802425
-0.0052304007 -0.088025093 0.089125633
-0.0109124 -0.042516112 0.1057682
-0.0112544 -0.15044713 0.06662941
-0.016429402 0.042063892 0.13658047
-0.017099403 -0.15043116 0.066775322
-0.016882397 -0.087996125 0.089416504
-0.022360399 0.0034729242 0.12272644
-0.027294397 0.32717693 -0.34834957
-0.0239214 -0.40744507 -0.026284695
-0.0236324 -0.33137107 0.0013022423
-0.027626403 0.13294089 0.16981745
-0.028299399 0.15955293 0.11047554
-0.0303654 0.22582793 -0.071600437
-0.028000399 0.042086899 0.13686943
-0.033520401 0.32705092 -0.34970665
-0.034331404 0.35305887 -0.42116356
-0.029536396 -0.33135509 0.0014514923
-0.028535403 -0.087969065 0.089708328
-0.035133399 0.18947089 0.026669502
-0.036348403 0.22568691 -0.072850704
-0.033955403 0.0034959316 0.1230154
-0.039970398 -0.042455077 0.10649252
-0.039752401 0.0035058856 0.12315845
-0.044485398 0.28532392 -0.23841572
-0.0395694 0.042106926 0.13715649
-0.039379403 0.081965923 0.15160942
-0.041067399 -0.27357006 0.022690296
-0.046931401 0.18917793 0.024246216
-0.052210398 0.32667089 -0.35377359
-0.047629401 -0.40738404 -0.025688648
-0.056752399 0.28505689 -0.24103642
-0.053555399 -0.40737104 -0.025540352
-0.058741398 0.18888187 0.021826267
-0.059483401 -0.40736008 -0.025392532
-0.057663403 -0.087918043 0.090431213
-0.062160403 0.1329869 0.17066956
-0.067915402 0.13299292 0.17081022
-0.070558399 0.18858492 0.019411564
-0.069708399 -0.15033305 0.068082333
-0.074836403 -0.042408109 0.10735226
-0.089660399 0.32589793 -0.36189461
-0.080964394 -0.087892056 0.091003418
-0.086638398 0.15803289 0.098691463
-0.085843407 0.042157888 0.13829136
-0.0855534 0.082014918 0.15274143
-0.088140406 -0.27350104 0.023851395
-0.087669395 -0.20877111 0.047319412
-0.091324396 0.082016885 0.15288162
-0.10232241 0.22410393 -0.086549759
-0.1037684 0.24814993 -0.15280342
-0.1009654 -0.40731108 -0.024374485
-0.1025954 0.13219291 0.16509628
-0.1041814 0.15756589 0.095172405
-0.1060654 0.18768191 0.012179375
-0.1057904 -0.27349114 0.024282455
-0.1052584 -0.20876205 0.047747612
-0.1083874 0.13203293 0.16395044
-0.1203654 0.2236619 -0.090269566
-0.1155114 -0.042390108 0.10834265
-0.1151044 0.0035669208 0.12500143
-0.1175584 -0.27349007 0.02456522
-0.12806341 0.24757391 -0.15786552
-0.1367324 0.28327388 -0.25801468
-0.12632939 0.042163908 0.13927221
-0.12595141 0.082019925 0.15371943
-0.1397354 0.32484293 -0.37269163
-0.12987339 -0.33124411 0.0039153099
-0.12756339 -0.087881088 0.092132568
-0.13571939 0.18691391 0.0061736107
-0.13843039 0.22321492 -0.093986511
-0.13211441 0.042161882 0.13941145
-0.13577741 -0.33124804 0.0040564537
-0.13521039 -0.27349508 0.024992466
-0.14165741 0.18675989 0.0049743652
-0.14445639 0.22306591 -0.095223427
-0.13828939 0.0035598874 0.12555933
-0.1522814 0.32457489 -0.37538671
-0.14043841 -0.20877016 0.048594475
-0.1431804 0.13106388 0.15709448
-0.14758039 -0.3312571 0.0043382645
-0.14697739 -0.27350414 0.025272369
-0.15348241 -0.33126307 0.0044794083
-0.15286139 -0.2735101 0.02541256
-0.15693939 0.15613991 0.084657192
-0.1645804 0.24669492 -0.16543961
-0.1548084 0.082002878 0.15441036
-0.16199839 -0.042418122 0.10945463
-0.16615441 -0.40734613 -0.022811413
-0.16528839 -0.33127809 0.004758358
-0.16322741 -0.15033805 0.070340633
-0.16251639 -0.087907076 0.09296751
-0.16780841 -0.042425096 0.10959244
-0.18066439 0.22215688 -0.10263157
-0.17306641 0.003526926 0.1263876
-0.1861634 0.28213692 -0.2684145
-0.17260239 0.042125881 0.14037657
-0.1721234 0.081984878 0.1548214
-0.1749174 -0.1503551 0.070615292
-0.17805439 0.13007593 0.15026855
-0.1804474 0.1554929 0.080003262
-0.18670741 0.22200292 -0.10386372
-0.19235441 0.28199291 -0.2697134
-0.1783874 0.042118907 0.14051342
-0.18076241 -0.15036404 0.070753574
-0.19854841 0.28184891 -0.27100945
-0.18417239 0.042109907 0.14065027
-0.20118839 0.24579793 -0.17299175
-0.19321239 -0.20884514 0.049843311
-0.1924544 -0.1503861 0.071029186
-0.19521239 0.08194989 0.15536737
-0.20267639 -0.042485118 0.11041355
-0.20582139 -0.27360713 0.026656628
-0.21309438 0.18486089 -0.009352684
-0.20731139 0.042067885 0.14119339
-0.2117064 -0.27362311 0.02679348
-0.20912141 -0.087990046 0.094063282
-0.21301338 0.1290679 0.14347219
-0.21309739 0.042055905 0.14132929
-0.2125304 0.081916928 0.15577364
-0.23408639 0.32278788 -0.39285469
-0.22468439 0.12872791 0.14121342
-0.23100939 0.18437493 -0.012918472
-0.22524241 0.0034248829 0.12761021
-0.24197239 0.28082293 -0.28007269
-0.22984838 0.081877887 0.15617847
-0.23728138 -0.40753806 -0.02116251
-0.23524839 -0.27369714 0.027334213
-0.23426539 -0.20895708 0.050794601
-0.23242939 -0.088052154 0.094604492
-0.23683938 0.0033928752 0.12787819
-0.25440538 0.28052592 -0.28265667
-0.24528939 0.15366888 0.067273617
-0.2413964 0.081847906 0.15644646
-0.2491394 -0.4075861 -0.020893574
-0.25119838 0.1534999 0.066122532
-0.2491774 -0.042609096 0.1114912
-0.2478134 0.041965902 0.14213562
-0.25384039 -0.33152807 0.0068073273
-0.2509194 -0.15055108 0.072381496
-0.25938639 0.041929901 0.14240122
-0.26564938 -0.33158004 0.0070734024
-0.2626144 -0.15059412 0.072648525
-0.26846439 -0.15061808 0.072780609
-0.27146438 0.12734592 0.13221121
-0.27532938 -0.20911407 0.051729202
-0.2773214 0.12717092 0.13108921
-0.2774334 0.0032598972 0.12881231
-0.30366638 0.32121688 -0.40757275
-0.2847164 -0.40775704 -0.020096779
-0.2823444 -0.27389205 0.028402328
-0.28119639 -0.20914114 0.051860332
-0.2801604 -0.15066612 0.073045254
-0.28318238 0.12699491 0.12996864
-0.2860094 -0.15069211 0.073178291
-0.28759438 0.081700921 0.15750933
-0.29518139 -0.33172607 0.0077342987
-0.29185939 -0.15071905 0.073309422
-0.3028914 0.18238288 -0.027112484
-0.2956934 -0.042785108 0.11255121
-0.31156939 0.2430039 -0.19551039
-0.29654339 -0.088292122 0.096066475
-0.29990339 0.041782916 0.14332724
-0.3058984 -0.27401412 0.028926373
-0.30355838 -0.15077507 0.073570251
-0.31490541 0.18204391 -0.029468536
-0.32922038 0.27870393 -0.29811478
-0.31636038 0.1516059 0.053495407
-0.3176764 -0.27408111 0.029187202
-0.3164064 -0.20931911 0.052647591
-0.3152594 -0.15083504 0.073832512
-0.31403339 -0.088375092 0.096458435
-0.3242754 0.12574893 0.12214661
-0.32824138 0.15125388 0.051210403
-0.32225439 0.08156091 0.15829659
-0.33216938 -0.40804613 -0.019053459
-0.3306284 -0.33193707 0.0085144043
-0.3389684 0.18135989 -0.034170628
-0.32885239 0.041654885 0.14398146
-0.3353484 -0.27418804 0.029574394
-0.3449904 0.18118691 -0.035345554
-0.35084438 0.21767688 -0.13688278
-0.3354494 0.0030049086 0.13012123
-0.3440364 -0.40813005 -0.018798351
-0.34244639 -0.33201611 0.0087714195
-0.35203239 0.15054488 0.046649456
-0.3799684 0.31943989 -0.42356157
-0.35590538 -0.40821815 -0.018544674
-0.35426739 -0.33209813 0.0090274811
-0.35201839 0.041539907 0.14449835
-0.3548604 -0.088598132 0.097363472
-0.3636474 -0.49105608 -0.048401356
-0.36910439 0.18049192 -0.04003334
-0.35781038 0.041508913 0.14462757
-0.36608839 -0.3321861 0.0092802048
-0.3633734 -0.20960915 0.053676605
-0.37513939 0.18031693 -0.041204453
-0.37371039 -0.40835905 -0.018165588
-0.3702774 0.002814889 0.13089323
-0.37728739 0.12410891 0.11215019
-0.37714639 -0.043217123 0.11436224
-0.40443939 0.2768119 -0.31349468
-0.37519041 0.041411877 0.14501238
-0.38558438 -0.40845811 -0.017914772
-0.3874974 -0.49126315 -0.047902584
-0.3829664 -0.043254077 0.11448956
-0.3818894 0.0027459264 0.13114834
-0.39152038 -0.40851009 -0.017789364
-0.3935034 0.0026729107 0.13140345
-0.39570439 -0.088863134 0.098254204
-0.4053874 -0.49143112 -0.047532558
-0.40091339 0.12336493 0.10772848
-0.42282239 0.24004889 -0.2178297
-0.40682641 0.12317789 0.1066246
-0.43590239 0.27600288 -0.31987953
-0.41527438 -0.40872705 -0.017294407
-0.41207838 -0.043451071 0.11512136
-0.42121339 -0.40878415 -0.017171383
-0.42063838 -0.15153515 0.076124191
-0.4190554 -0.089033127 0.098757267
-0.42925039 -0.49167204 -0.04704237
-0.4296374 0.1481809 0.031910419
-0.4205344 0.081026912 0.16047764
-0.43114239 -0.33274114 0.010650635
-0.43521941 -0.4917351 -0.046920776
-0.42835841 0.0024368763 0.13216019
-0.4307344 -0.08912313 0.099006653
-0.45518941 0.21476293 -0.15742445
-0.4449774 -0.40902305 -0.016683578
-0.44297639 -0.33285511 0.010895252
-0.4365744 -0.089170098 0.099131584
-0.46135241 0.2145859 -0.15862751
-0.44120339 -0.043667078 0.11574745
-0.4473564 -0.27508211 0.031956196
-0.44828939 0.12185091 0.098923206
-0.45991439 0.17780989 -0.057511806
-0.44702938 -0.043713093 0.11587143
-0.44475138 0.040959895 0.14652824
-0.4436774 0.08087188 0.16097832
-0.4515124 -0.21031809 0.055547237
-0.44825539 -0.089265108 0.099378586
-0.45960438 0.14724791 0.026276588
-0.45285839 -0.043760061 0.11599445
-0.4505524 0.040917933 0.14665365
-0.4586854 -0.043807149 0.11611843
-0.45525342 0.080789924 0.16122961
-0.4650594 -0.27525604 0.032321453
-0.45994037 -0.089363098 0.099625587
-0.4716084 0.1468699 0.024027348
-0.48603338 0.2138769 -0.16343069
-0.46451342 -0.043856144 0.11624146
-0.49126041 0.23816192 -0.23137236
-0.4610424 0.080747902 0.16135454
-0.47469538 -0.40934813 -0.016084671
-0.47204041 0.12108088 0.094539642
-0.4690454 0.0021259189 0.13302946
-0.50538141 0.27418089 -0.33388281
-0.47686338 -0.27537811 0.032561302
-0.47338742 -0.15199411 0.077231407
-0.47375941 0.040740907 0.14715052
-0.4889484 -0.49235809 -0.0458498
-0.48200238 -0.044005156 0.11661148
-0.50998741 0.23763692 -0.23505354
-0.47841239 0.080617905 0.16172647
-0.49492139 -0.49243212 -0.045731544
-0.48988241 0.12049693 0.091260433
-0.48649138 0.001981914 0.13339949
-0.49457538 -0.27556705 0.032920361
-0.48915941 -0.08962512 0.10023546
-0.50089437 -0.49250913 -0.045615673
-0.49583441 0.12030089 0.090170383
-0.5169484 0.2129789 -0.16942167
-0.49116939 0.040599883 0.14751863
-0.49684638 -0.15222204 0.077717304
-0.5370844 0.27333289 -0.3402257
-0.51037639 -0.40977407 -0.015376568
-0.51284337 -0.49266505 -0.0453825
-0.5015794 0.080434918 0.16222048
-0.51034337 -0.21091008 0.056755543
-0.52690238 0.17576593 -0.070226669
-0.5222764 -0.40992606 -0.015143394
-0.51622939 -0.2109741 0.056873322
-0.54751939 0.23657387 -0.24240065
-0.51439339 0.040401876 0.14800835
-0.52822739 -0.41000307 -0.015028477
-0.52031642 -0.15246415 0.078196526
-0.51839536 -0.08990705 0.10083961
-0.5307734 -0.49290907 -0.0450387
-0.52563637 0.11931491 0.08472538
-0.52140039 0.0016719103 0.13413048
-0.53417838 -0.41008115 -0.014913559
-0.53001642 -0.27597415 0.033630371
-0.53675139 -0.49299204 -0.044924736
-0.53160536 0.11911589 0.083639622
-0.55414438 0.21188289 -0.17658854
-0.52866638 -0.04444015 0.11758041
-0.56005538 0.23621488 -0.24484253
-0.54013139 -0.41016114 -0.014797688
-0.53389341 -0.21117306 0.057228565
-0.55134642 0.17500693 -0.074828625
-0.54183638 -0.27611709 0.033863544
-0.53792739 -0.15265512 0.078551292
-0.54871041 -0.49316311 -0.044697762
-0.54355037 0.11871588 0.081469536
-0.56656539 0.21151388 -0.17897272
-0.55203742 -0.4103241 -0.014568806
-0.5495984 -0.33407807 0.013028622
-0.54379839 -0.15272105 0.078669548
-0.55468941 -0.49325013 -0.044584751
-0.5421474 0.080086887 0.16307449
-0.55156237 -0.21138108 0.057580471
-0.54764837 -0.090211153 0.10143518
-0.56067038 -0.49333906 -0.044472694
-0.5492484 0.040082932 0.14873552
-0.56145841 -0.33423507 0.013258457
-0.5614894 0.11811191 0.078219414
-0.57583642 0.17423892 -0.079420567
-0.58522141 0.21095592 -0.18254471
-0.5914464 0.23530889 -0.25094461
-0.5550614 0.040026903 0.14885521
-0.56747437 0.1179089 0.077138424
-0.60710341 0.27142388 -0.35413647
-0.57332337 -0.33439708 0.013485432
-0.58809739 0.17385191 -0.081711769
-0.60402238 0.23494291 -0.25337839
-0.61348641 0.27124691 -0.35539865
-0.56668639 0.039912879 0.14909554
-0.5710634 -0.090469122 0.10190821
-0.61031538 0.23475891 -0.25459671
-0.5851894 -0.33456314 0.013711452
-0.58102739 -0.2117461 0.058158398
-0.57691938 -0.090536118 0.10202646
-0.58121639 -0.044991136 0.11864948
-0.58692342 -0.21182215 0.058273315
-0.59657341 -0.49389505 -0.043806553
-0.62261242 0.20982492 -0.18967056
-0.63905537 0.27053589 -0.36044168
-0.60565537 -0.41111112 -0.013559341
-0.60097837 -0.27689612 0.035010338
-0.59871638 -0.21197712 0.058503628
-0.59449142 -0.090741038 0.10237646
-0.59874642 -0.045189142 0.11900043
-0.59712541 0.00090390444 0.13568163
-0.63552141 0.23401892 -0.25945854
-0.64545542 0.27035689 -0.36169863
-0.6025514 -0.15342605 0.079833508
-0.60944742 0.11647588 0.069590569
-0.6249544 0.17267692 -0.088569641
-0.65185839 0.2701779 -0.36295652
-0.6001634 0.079529881 0.16427422
-0.61757839 -0.41129911 -0.01333952
-0.61545539 0.11626893 0.068514347
-0.64814341 0.23364592 -0.2618866
-0.61207139 -0.090954065 0.1027236
-0.6286884 0.14176291 -0.0049233437
-0.61793238 -0.091027141 0.10283852
-0.62045139 0.00064188242 0.13614845
-0.64085037 0.14135391 -0.0071296692
-0.6386314 -0.33536112 0.014713287
-0.64693737 0.14114892 -0.0082316399
-0.64457542 -0.33545506 0.014823437
-0.64242738 -0.27750206 0.035790443
-0.6797514 0.23270291 -0.26794767
-0.69034839 0.26908892 -0.37049866
-0.65051842 -0.33555007 0.014932632
-0.64379138 0.00036692619 0.13661337
-0.64233142 0.039100885 0.15062857
-0.64095742 0.078926921 0.16381359
-0.65646237 -0.33564615 0.015040398
-0.65723538 -0.045903087 0.12015438
-0.66612941 -0.27787006 0.036231518
-0.69772941 0.2075069 -0.20385456
-0.71607441 0.26835388 -0.37551546
-0.65876639 0.078274906 0.16073132
-0.67725337 -0.41230512 -0.012263775
-0.67545539 -0.21307611 0.059957504
-0.68646437 -0.49547505 -0.042208672
-0.67298639 5.9008598e-06 0.13718843
-0.67146337 0.03875488 0.15120649
-0.67659438 -0.091801047 0.10397434
-0.6788274 -6.9081783e-05 0.13730145
-0.67729241 0.038683891 0.15132141
-0.69381338 0.11352491 0.054609299
-0.74185342 0.26760989 -0.38052559
-0.69809937 -0.33635008 0.015791416
-0.68833941 -0.091966152 0.10419941
-0.74830538 0.26742291 -0.38177681
-0.69421238 -0.092050076 0.10431051
-0.70765036 -0.27855408 0.036984444
-0.70501238 -0.2135421 0.060503483
-0.70262939 -0.15483415 0.081740379
-0.71647537 -0.49606311 -0.041695595
-0.72019637 0.13864291 -0.021393776
-0.72997242 0.16923892 -0.10786247
-0.70409238 -0.046533108 0.12105846
-0.74957138 0.23058391 -0.28122759
-0.71092641 -0.21363807 0.060611248
-0.71802139 0.11266088 0.050359249
-0.7263214 0.13842988 -0.022486687
-0.70645338 0.038315892 0.15189362
-0.72786939 -0.33688509 0.016316414
-0.72031939 -0.15510905 0.082068443
-0.71771538 -0.092395067 0.10475254
-0.71974838 -0.00061309338 0.13809443
-0.73702437 -0.41342509 -0.0112257
-0.72359341 -0.092483044 0.10486126
-0.72754437 -0.046868086 0.12150335
-0.7750594 0.22979689 -0.28603935
-0.72428042 0.07583791 0.14949751
-0.7373364 -0.27907312 0.03751564
-0.79357141 0.2660979 -0.39052057
-0.73927736 -0.047041059 0.12172556
-0.7734744 0.16777688 -0.11574936
-0.78594041 0.20470393 -0.22028971
-0.74315238 -0.00094109774 0.13853931
-0.7576654 -0.33744609 0.016832352
-0.74711639 -0.092844129 0.10530043
-0.7510134 -0.047216058 0.12194443
-0.7481904 0.074933887 0.14543819
-0.76694942 -0.41402805 -0.010721684
-0.7985934 0.20429492 -0.22262859
-0.75688237 -0.047305107 0.12205458
-0.81951439 0.2653299 -0.39550877
-0.75316238 0.037687898 0.15279245
-0.75417536 0.074705899 0.14442539
-0.82600838 0.26513588 -0.39675236
-0.76016241 0.074477911 0.14341354
-0.77555537 -0.33779609 0.017137527
-0.76476938 -0.093124151 0.1056242
-0.81126142 0.20388293 -0.22496557
-0.81979239 0.22839993 -0.29444075
-0.78861338 -0.4975971 -0.040509701
-0.79389441 0.13605392 -0.034449577
-0.78748941 -0.33803511 0.017338276
-0.79463142 -0.49773312 -0.04041338
-0.83260238 0.22799492 -0.29683638
-0.79690337 -0.4146601 -0.010225773
-0.79084039 -0.28007305 0.038445473
-0.78790838 -0.21497607 0.061985493
-0.8171314 0.16628689 -0.12360239
-0.78624737 -0.047763109 0.12259722
-0.79942638 -0.33827806 0.017539501
-0.79679137 -0.28018904 0.038546562
-0.78823841 0.037184894 0.15345764
-0.80274242 -0.2803061 0.038647652
-0.79976839 -0.21519613 0.06219244
-0.81269437 -0.49814808 -0.040127754
-0.79587537 -0.0017250776 0.13952827
-0.81136942 -0.33852506 0.017737389
-0.82473338 0.13495088 -0.039858341
-0.84934139 0.20263588 -0.23195744
-0.81163341 -0.21542108 0.06239748
-0.86468941 0.22697592 -0.30281353
-0.80579239 0.036922932 0.15378761
-0.81756741 -0.21553409 0.062500477
-0.81564039 -0.048242092 0.12313366
-0.81346941 -0.0020000935 0.13985443
-0.88461542 0.26337188 -0.40794134
-0.83288538 -0.41545606 -0.0096445084
-0.82656139 -0.28078604 0.039048195
-0.8336724 0.10842788 0.030338287
-0.82368839 -0.094114065 0.10668945
-0.83978939 0.10819888 0.029294491
-0.88398337 0.22635692 -0.30639458
-0.82622337 0.071927905 0.13234043
-0.84489137 -0.41573012 -0.0094556808
-0.83257741 -0.15704811 0.084076405
-0.82921338 0.036563933 0.15422344
-0.85203338 0.10773993 0.02720356
-0.88754338 0.20136791 -0.23892879
-0.83827239 0.071455896 0.13033724
-0.90330839 0.22573388 -0.30997038
-0.91729939 0.26237291 -0.4141407
-0.8509534 -0.048843145 0.12376928
-0.90975839 0.2255249 -0.31116056
-0.85033542 0.07098192 0.12833834
-0.87902337 -0.49976313 -0.039111614
-0.91308039 0.20051193 -0.24356461
-0.92266542 0.22510588 -0.31353951
-0.86811537 -0.15772915 0.084687233
-0.94351339 0.26156491 -0.4190917
-0.89109939 -0.50007308 -0.03893137
-0.95007741 0.26136088 -0.42032957
-0.89295942 -0.41687512 -0.008708477
-0.87681741 -0.095079064 0.10762262
-0.89510441 -0.34037805 0.019089222
-0.89220542 -0.049582124 0.12449646
-0.8878504 0.035612881 0.15529442
-0.8977654 -0.15832305 0.085187435
-0.91344541 0.10540688 0.016804218
-0.93643838 0.16210091 -0.1447506
-0.89870441 0.069060922 0.12037754
-0.90046239 -0.095530152 0.10803032
-0.94275242 0.16187489 -0.14585781
-0.95790339 0.19899189 -0.25165462
-0.96795738 0.22361988 -0.32185364
-0.90476638 0.068817914 0.11938524
-0.91606241 -0.2827301 0.040505409
-0.96432042 0.19877189 -0.25280857
-0.91864139 -0.21761513 0.064186573
-0.91557139 -0.15869009 0.085486412
-0.91229439 -0.095761061 0.10823345
-0.91338038 -0.003696084 0.14165258
-0.91134042 0.035211921 0.15571547
-0.9245984 -0.21774614 0.064282417
-0.91721642 0.035108924 0.15582132
-0.94534039 -0.050593138 0.12541437
-0.9472754 0.067099929 0.11247063
-0.95125139 -0.050709128 0.12551451
-0.95336044 0.066851914 0.11148643
