# .PCD v0.7 - Point Cloud Data file format
VERSION 0.7
FIELDS x y z
SIZE 4 4 4
TYPE F F F
COUNT 1 1 1
WIDTH 1
HEIGHT 1024
VIEWPOINT 0 0 0 1 0 0 0
POINTS 1024
DATA ascii
0.85466981 0.2867679 -0.073806763
0.82154483 0.39066792 0.18657732
0.84878182 0.28669888 -0.075280666
0.82096779 0.10224891 0.050514221
0.83568084 0.28758389 -0.067608833
0.82511282 0.047939897 0.01723814
0.80234683 0.36218488 0.20001125
0.81892282 0.048251927 0.018852234
0.79718184 0.36176991 0.1946454
0.82311082 0.2880739 -0.06401062
0.78683281 0.36093789 0.1838932
0.79562682 0.42724991 0.11175632
0.79841781 0.13595688 0.039928436
0.78670985 0.23375189 0.13667727
0.81899881 0.23632687 -0.1301446
0.77828681 0.26608491 0.15786123
0.7981028 0.28898489 -0.057460785
0.78058481 0.17636991 0.039455414
0.7818808 0.050106883 0.028506279
0.77463579 0.4257459 0.089715481
0.76919281 0.22856587 0.085690022
0.76435184 0.38627893 0.12690306
0.77326781 0.49693891 -2.2888184e-05
0.76551783 0.17382288 0.015152454
0.76165181 0.22471893 0.048558235
0.76341581 0.051021874 0.033312321
0.75037384 0.3579939 0.14603329
0.75785184 0.22277993 0.029845238
0.74609983 0.30760688 0.13219643
0.74859482 0.38506192 0.11047125
0.74736381 0.10569692 0.069554329
0.7433278 0.38465393 0.10498047
0.75723183 0.49594089 -0.017055511
0.7623108 0.53658491 -0.061629772
0.73515582 0.10625893 0.072705269
0.73260581 0.14346892 0.09543848
0.7425288 0.22053689 0.0069761276
0.73760682 0.42307991 0.050860405
0.72905684 0.10653788 0.074280262
0.73840582 -0.031023085 -0.0097308159
0.73765981 0.2502079 -0.0030269623
0.7371518 0.4624759 0.0015354156
0.7229628 0.10681689 0.075853348
0.73223281 -0.030695081 -0.0081138611
0.73215884 0.24982089 -0.0074415207
0.72945881 0.01046288 0.017014027
0.71953779 0.2257039 0.053097248
0.72446883 0.25148493 0.0080680847
0.70832384 0.14452988 0.10167503
0.73882782 0.60984492 -0.17911673
0.69771284 0.38845187 0.14545107
0.72438979 0.53442693 -0.10212994
0.69862682 0.10792392 0.082129478
0.70081383 0.42422491 0.061668396
0.71411681 0.4932459 -0.062812805
0.6940698 0.25805688 0.069390297
0.7009958 0.29587889 0.0040383339
0.72800583 0.65412188 -0.25080585
0.69339681 0.29742789 0.019492149
0.71299583 0.57630992 -0.16698456
0.68729383 0.42556089 0.077550411
0.7032578 0.4925639 -0.074329853
0.70801681 0.5334909 -0.1196146
0.67451984 0.23580891 0.14342022
0.67908484 0.26129389 0.09962225
0.6743558 0.1090169 0.088382244
0.70569783 0.60829294 -0.21491385
0.67384183 0.42688888 0.093356133
0.69143182 0.49247789 -0.076860905
0.66021883 0.2386629 0.16879606
0.66423684 0.26449889 0.12957907
0.67080981 0.30202693 0.065424442
0.69156784 0.53254789 -0.13717365
0.65423882 0.23888791 0.17031002
0.67375779 -0.07646811 -0.02185297
0.67072582 -0.027467072 0.0080032349
0.65129584 0.3933509 0.19928217
0.65619481 0.10982788 0.093057156
0.64826381 0.23911393 0.17182302
0.66459781 -0.027150095 0.0096054077
0.6594938 0.056044877 0.060290337
0.64789581 0.14712489 0.11716747
0.65847182 -0.026833117 0.011208057
0.67364681 0.53243887 -0.14082575
0.65530181 -0.075468063 -0.017001629
0.65235281 -0.026518106 0.012808323
0.6778568 0.60698092 -0.24499369
0.64834082 0.35080791 0.053354263
0.62845784 0.27159888 0.19572639
0.67723584 0.65222692 -0.30174875
0.62658083 0.31102192 0.15538216
0.66666085 0.60645187 -0.25708771
0.61863184 0.39678788 0.23718929
0.65290481 0.5340659 -0.11552286
0.6260038 0.11116087 0.10082006
0.62383682 0.14813888 0.12332439
0.62914979 0.057470918 0.068143368
0.66594881 0.65176392 -0.31402874
0.62070781 0.43211991 0.15581226
0.63677782 0.4971669 -0.011076927
0.61997581 0.11142492 0.10236835
0.62309182 0.057752907 0.069710255
0.61888283 0.35638088 0.11381626
0.6228348 0.46833691 0.072402477
0.61182779 0.14864188 0.12639523
0.60793382 0.11195087 0.10546112
0.61849684 -0.073496103 -0.0073328018
0.59878081 0.27264988 0.20320225
0.6422798 0.60636091 -0.26129484
0.60435981 0.35912591 0.14362621
0.64895082 0.65106487 -0.33252287
0.60105479 0.4340499 0.17892838
0.60625982 -0.072847128 -0.0041217804
0.58437485 0.31890488 0.23405123
0.62115681 0.5768289 -0.16624594
0.62828183 0.60726589 -0.24378967
0.5899688 0.3618449 0.17317009
0.60318083 0.50003994 0.029382229
0.58989984 0.11273289 0.1100893
0.60014784 -0.072524071 -0.0025186539
0.58101881 0.27327287 0.20767307
0.58154583 0.4359619 0.20187712
0.57954884 0.19236791 0.15986824
0.5940398 -0.072202086 -0.00091695786
0.59136784 -0.023422122 0.028727055
0.5735938 0.19259989 0.16138029
0.60742581 0.60861391 -0.21770477
0.59163284 0.53885889 -0.040744781
0.56764179 0.19283092 0.16289234
0.57921779 -0.022815108 0.031893253
0.56158382 0.36720288 0.23144436
0.6100868 0.65183687 -0.31742573
0.56590682 0.11376393 0.11624241
0.55907083 0.24240392 0.19437027
0.58011681 0.57971787 -0.11544752
0.54935282 0.43911189 0.23976612
0.55705684 0.47432491 0.15080643
0.56355584 -0.070609093 0.0070672035
0.57986981 0.6103909 -0.18323374
0.55685782 0.50398791 0.085196018
0.56485081 0.5409469 -0.008043766
0.54795182 0.11452889 0.12084103
0.54387182 0.19374788 0.16892433
0.55286479 0.019131899 0.062938213
0.5372588 0.39821589 0.24686146
0.54009682 0.1515879 0.1447072
0.55156082 0.54198194 0.008187294
0.54285783 -0.021017075 0.041356087
0.5408048 0.019699872 0.066060066
0.53869182 0.061611891 0.091490269
0.53725082 0.50565493 0.10882807
0.53681082 -0.020721078 0.042929173
0.52015984 0.19465292 0.17493725
0.51391882 0.32116687 0.25166225
0.51123583 0.44282889 0.28465033
0.51836884 0.47783291 0.19695425
0.5163058 0.15254492 0.15076828
0.51183981 0.24409389 0.20627832
0.52472979 -0.020132124 0.046067238
0.50807083 0.32135189 0.25312233
0.52070284 0.062415898 0.096121311
0.50558782 0.37224787 0.28398323
0.52518481 0.5440309 0.040406227
0.5327028 -0.18356609 -0.053023815
0.5210368 -0.068422079 0.018185139
0.51869279 -0.019839108 0.047636032
0.52637482 0.58348787 -0.048895836
0.49828085 0.40327388 0.30413246
0.50442982 0.15301788 0.15379238
0.50241184 0.1953249 0.1794343
0.5000658 0.24450892 0.2092433
0.49638286 0.32171887 0.2560401
0.53390384 0.6561119 -0.22070694
0.52045184 -0.18287313 -0.049786568
0.49418482 0.24471593 0.21072435
0.49269584 0.27629489 0.22986031
0.48669282 0.4035899 0.30699444
0.48612985 0.44527191 0.31422615
0.49428186 0.11677593 0.13456821
0.5122208 0.61473691 -0.098572731
0.48655984 0.48070791 0.2349143
0.5051198 -0.11571908 -0.0062866211
0.48664382 0.15372193 0.15831518
0.48243284 0.2451269 0.21368122
0.49458686 -0.018676102 0.053893089
0.47887784 0.32226592 0.26040602
0.47656184 0.24533188 0.21515942
0.47305083 0.32244688 0.26185942
0.49333885 0.58579791 -0.0079665184
0.49889687 0.61558986 -0.081890583
0.47930184 0.51056492 0.17871332
0.47069484 0.24553591 0.21663427
0.48473886 -0.066589117 0.027654171
0.47294286 0.51110291 0.18638611
0.48690584 -0.11475909 -0.0015115738
0.46483186 0.24573892 0.21810818
0.47474384 0.022757888 0.083129406
0.47288686 0.064519882 0.10841036
0.48564383 0.61643791 -0.06529665
0.49871585 0.6883769 -0.2433157
0.46139085 0.48297691 0.2649641
0.47054085 -0.01752907 0.060127258
0.45758685 0.2774629 0.23865938
0.45558783 0.32298487 0.26621008
0.46875983 0.023029923 0.084673405
0.45866084 0.11823791 0.14366007
0.46453685 -0.017244101 0.061682224
0.46096784 0.065037906 0.11146927
0.44936085 0.19729692 0.19285345
0.45680183 0.023571908 0.087755203
0.46551386 -0.17980707 -0.035281658
0.45987785 0.6602419 -0.12667274
0.43122986 0.44357091 0.28821325
0.45334584 -0.17913806 -0.032074928
0.42971984 0.24694389 0.22693014
0.44056284 -0.016117096 0.067887306
0.43889385 0.024377882 0.092370033
0.42319286 0.40528989 0.32267523
0.45325184 0.6606099 -0.11825466
0.43134585 0.5123989 0.20307827
0.43491286 0.55101287 0.15075541
0.44983685 -0.24113905 -0.068157673
0.44453785 -0.11255813 0.009578228
0.42907384 0.11943191 0.15120125
0.43849784 -0.11224806 0.011158466
0.42316684 0.1196689 0.15270519
0.42169884 0.15624392 0.17480946
0.41804186 0.2473399 0.22986221
0.43053484 -0.0639081 0.041763306
0.41495585 0.32422191 0.27632618
0.41292286 0.37487292 0.30693626
0.44004884 0.66134393 -0.10147667
0.41819385 0.48053491 0.22757626
0.42057785 0.51169586 0.19168615
0.41220886 0.2475369 0.23132515
0.40709084 0.40426987 0.30940914
0.41852984 -0.063324094 0.044881344
0.42691484 0.66207194 -0.084784985
0.41269785 0.55016494 0.13506031
0.40405685 0.1569159 0.17928123
0.40724784 0.5498389 0.12925625
0.41437984 -0.11101806 0.017457485
0.39472684 0.24812388 0.23571014
0.40470186 -0.014454126 0.07715416
0.40477684 0.59058291 0.075968266
0.40750685 0.62141693 0.032579422
0.39113185 0.40296888 0.29285002
0.39231384 0.15735888 0.18225527
0.39073783 0.19941789 0.20764732
0.40054584 -0.062454104 0.049549103
0.38603085 0.32508689 0.28351641
0.38779485 0.12107092 0.16170502
0.39128584 0.02648592 0.1046133
0.40522686 0.69302893 -0.12330675
0.38806385 0.50956291 0.15730524
0.39876884 -0.17618608 -0.017718792
0.38823885 0.58969486 0.058237076
0.37321484 0.20004088 0.21206331
0.37146384 0.24889791 0.24154139
0.37033886 0.28027791 0.26047421
0.38431084 -0.10950506 0.025298119
0.37929484 0.62040991 0.010001183
0.38225985 0.66401994 -0.040647984
0.36694086 0.43868792 0.22105408
0.35876185 0.28064191 0.26336241
0.36611983 0.069048882 0.1357522
0.37460384 -0.17490411 -0.011378765
0.35716084 0.15867192 0.19115114
0.35572284 0.20065689 0.21646833
0.36302385 -0.012558103 0.087903023
0.35359684 0.39989489 0.25391626
0.35610485 0.43785989 0.20974112
0.35131183 0.15888792 0.19263029
0.35491183 0.58789694 0.02251339
0.35692686 0.61930692 -0.014104843
0.35225785 0.5465399 0.070725441
0.34254184 0.070017874 0.14177036
0.33737886 0.39856088 0.23709822
0.35888484 0.73863387 -0.15999699
0.34834284 -0.10772407 0.034661293
0.33495885 0.12311888 0.1751194
0.33087784 0.25022489 0.2517004
0.33927986 -0.011496127 0.094016075
0.34568584 0.61875188 -0.026215553
0.34447485 -0.17332613 -0.003484726
0.32509285 0.25041193 0.25314617
0.33487186 -0.059345126 0.066560268
0.33208185 0.029039919 0.11979914
0.32652384 0.39766687 0.22584724
0.33122486 0.4743979 0.13614321
0.34259385 -0.30396605 -0.08079052
0.31930986 0.25059789 0.25459146
0.32891986 -0.059068084 0.068098068
0.33250684 0.58668292 -0.0014977455
0.32571185 0.47400689 0.13035011
0.32297283 -0.058793068 0.069637299
0.32150686 -0.010709107 0.098587036
0.31147686 0.32673788 0.29657841
0.32027885 0.029539883 0.12282133
0.32688186 0.58637786 -0.0075235367
0.31563184 0.3967669 0.21455812
0.33135885 0.66183889 -0.095907688
0.31789586 0.43492889 0.16986132
0.33587286 0.73791587 -0.18501377
0.33042985 -0.30326414 -0.07756567
0.30775484 0.25096887 0.25748014
0.31466186 0.4732199 0.11874104
0.32435384 -0.3029151 -0.075954914
0.32228884 -0.23400807 -0.034473896
0.30068085 0.32573187 0.28553009
0.30470586 0.39586389 0.2032361
0.32172483 0.69240791 -0.14474773
0.31321785 0.54417992 0.029191017
0.31828186 -0.30256808 -0.074346542
0.31443185 -0.17177713 0.0043730736
0.29761785 0.20266187 0.23107338
0.30535886 0.50408888 0.069909096
0.29553986 0.071912885 0.15374947
0.28603485 0.2030549 0.23398113
0.28467986 0.25170189 0.26324415
0.29417583 0.50334287 0.058097363
0.28274286 0.39404291 0.18048239
0.29865485 0.69151986 -0.16991663
0.28866085 -0.10484004 0.050154209
0.27446383 0.20344388 0.23688316
0.28143483 -0.056891084 0.080355167
0.27907485 0.031260908 0.13335848
0.28723985 0.58421886 -0.0499897
0.28890586 0.61593187 -0.087380886
0.27581784 0.36667591 0.20649815
0.29286283 0.69129586 -0.17623663
0.27924484 0.43194687 0.1295433
0.28504786 0.54246891 -0.00076580048
0.28961885 -0.36251712 -0.10340261
0.28612584 -0.23206711 -0.024969578
0.26977885 0.16183293 0.21320438
0.26740584 0.25224489 0.26755428
0.27551284 -0.056623101 0.08188343
0.27031884 0.36619693 0.20083141
0.28010884 -0.23174715 -0.02339077
0.27676284 -0.10427511 0.053237438
0.28124586 0.69084787 -0.18890858
0.27008584 0.4700349 0.071929455
0.27169386 0.50184089 0.034357071
0.27250785 -0.16965413 0.015314102
0.27081984 -0.10399508 0.054775238
0.26042184 0.073298872 0.1626792
0.26604983 0.50146294 0.028399467
0.26802984 0.5414319 -0.018859863
0.24980183 0.28295189 0.28058815
0.26807085 0.65910494 -0.16458797
0.24659483 0.16264689 0.21903944
0.24441583 0.25295991 0.27328539
0.25070286 -0.0076460838 0.11675406
0.25315183 -0.36038506 -0.093717575
0.24013783 0.42891091 0.08877039
0.24408384 -0.22985613 -0.013949871
0.24114884 -0.10260713 0.062451363
0.22963384 0.31907392 0.21287918
0.23158483 0.3628099 0.16092014
0.24475484 0.65809089 -0.18988276
0.23768382 0.49955791 -0.0015416145
0.23947383 0.5396859 -0.04921484
0.24102382 -0.35968411 -0.090502739
0.22425683 0.1272319 0.20312119
0.22254182 0.20516288 0.24989223
0.22825684 -0.054516077 0.094043255
0.22243483 0.28022093 0.25280905
0.22632183 0.033409894 0.14681435
0.23074482 -0.16758609 0.026185036
0.22930282 -0.10205913 0.065511227
0.21768183 0.16364789 0.2263093
0.21582283 0.25360489 0.27824926
0.22490583 0.46678489 0.024507046
0.22890683 -0.35898912 -0.087290764
0.22338283 -0.10178709 0.067040443
0.22156683 -0.29717708 -0.048814774
0.21746783 -0.10151505 0.068567276
0.20687683 0.12785488 0.20750427
0.20528683 0.20572293 0.25420904
0.20590582 0.27856493 0.23603916
0.21816283 0.58042693 -0.12395382
0.21946283 0.6124509 -0.16214466
0.20924683 0.36084688 0.13791418
0.21481583 0.49801689 -0.025672913
0.21645083 0.53827286 -0.073679924
0.19954184 0.20590788 0.25564623
0.20213483 0.0755409 0.1774683
0.21537884 0.65680891 -0.22174692
0.20780483 0.4655489 0.006565094
0.20907483 0.49762991 -0.031729698
0.21067083 0.5379169 -0.07982254
0.19460483 0.16443491 0.23210526
0.19789383 -0.0054361224 0.13026047
0.19483984 0.27745491 0.22481346
0.19711883 0.034572899 0.15424728
0.19632183 0.075760901 0.17894125
0.20650783 0.5797829 -0.13642693
0.20056583 0.4258219 0.047536373
0.19973883 -0.10070813 0.073139191
0.19294183 -0.052977085 0.10311222
0.19051284 0.075979888 0.18041325
0.20187283 0.61156392 -0.18107367
0.18308383 0.1648249 0.23499727
0.18278183 0.25016087 0.24489212
0.18706684 -0.052724123 0.10461903
0.19598983 0.6112659 -0.18740654
0.18775383 0.38609892 0.082155228
0.19025983 -0.22709715 0.00011730194
0.17797083 0.12887788 0.21478748
0.17732783 0.1650179 0.23644018
0.17724283 0.24958187 0.23930311
0.18111183 0.35836589 0.10894823
0.17393383 0.3138029 0.15598011
0.17310283 0.07663089 0.18481827
0.18307883 0.57848591 -0.16149998
0.17639883 0.38514191 0.070411205
0.18161583 0.5361259 -0.11068773
0.16642684 0.12928188 0.21769142
0.16065983 0.12948292 0.21914148
0.16056983 0.24783587 0.2224803
0.16282283 -0.0040041208 0.13920927
0.16411483 0.3568629 0.091457367
0.16500384 0.38417989 0.058627129
0.16626982 0.42313093 0.011817455
0.16641884 -0.22590113 0.0063314438
0.15433083 0.1657849 0.2422061
0.15636283 0.03616488 0.16460228
0.16249883 -0.35525906 -0.069741726
0.15847982 -0.098858118 0.083764076
0.14940883 0.24666488 0.21122313
0.14992884 0.077487886 0.19067812
0.15948284 0.57717592 -0.18674564
0.15273683 0.35585392 0.079749107
0.15357083 0.38321388 0.046807289
0.15596583 0.4617849 -0.047801971
0.14284784 0.16616392 0.24508238
0.15450883 0.60916388 -0.23203754
0.14703183 0.35534787 0.073880196
0.13706683 0.20528787 0.2484231
0.14525484 0.49329889 -0.099039555
0.13259584 0.2448979 0.19426727
0.13313583 0.037054896 0.17049313
0.13939284 0.49289891 -0.10521984
0.12766883 0.2706759 0.15672302
0.13571884 0.57585192 -0.21216774
0.13266483 0.4600839 -0.072228909
0.13243783 -0.35361505 -0.061824799
0.12102583 0.078540921 0.19797611
0.11622283 -0.0021451116 0.15107012
0.11836483 0.35279793 0.044397354
0.11903283 0.38028389 0.011106014
0.12043384 -0.35296714 -0.05866766
0.11778283 0.5748499 -0.23134995
0.11324184 0.3797909 0.0051231384
0.11415483 0.4190169 -0.042431831
0.10992283 0.4908849 -0.13628197
0.10932983 -0.43327105 -0.10389185
0.10844283 -0.35232306 -0.05551672
0.10702683 -0.22299111 0.021774292
0.10564183 -0.096552134 0.097334385
0.097137831 0.16692388 0.25048113
0.098715834 0.24132288 0.1601162
0.09929283 -0.049042106 0.12707138
0.10577283 0.57417786 -0.24419165
0.10104683 0.3512519 0.02658844
0.10329583 -0.43292916 -0.10229588
0.09167283 0.1318329 0.23646545
0.091532834 0.16626889 0.24490929
0.093033828 0.24072188 0.15439129
0.094353832 0.30619991 0.074780464
0.092596829 0.038580894 0.18076038
0.095251828 0.35073489 0.020632267
0.098060831 0.49007189 -0.14878178
0.09585683 -0.29058111 -0.015869617
0.09518183 -0.22242308 0.024846077
0.094574831 -0.16116607 0.061439037
0.086570829 0.19965392 0.1979022
0.087190829 -0.0010131001 0.15844631
0.086816832 0.038794875 0.18222141
0.089448832 0.3502149 0.014667034
0.089976832 0.37780792 -0.0189147
0.09123683 -0.43224907 -0.099106789
0.090477832 -0.35136807 -0.0508008
0.089264832 -0.22214007 0.026381016
0.082829833 0.30509192 0.063030243
0.075993828 -0.04809612 0.13301325
0.07638783 0.26545691 0.10479403
0.08019083 0.4888449 -0.16761065
0.069023833 0.16363192 0.22254515
0.06949383 0.039432883 0.18660021
0.072062828 -0.28938508 -0.0096645355
0.071052834 -0.16010714 0.067498207
0.064012833 -0.00012409687 0.16432524
0.068835832 0.52910489 -0.23041582
0.067798831 -0.51932514 -0.14551258
0.059116833 0.26369089 0.087317467
0.060594834 -0.34980011 -0.042969704
0.052477829 0.1958279 0.16382217
0.053842828 0.30229789 0.033483028
0.056740828 0.52834594 -0.24324799
0.046016827 0.13181889 0.23575544
0.048868828 0.37428892 -0.061365604
0.048661828 -0.34918308 -0.039847851
0.041471832 0.23524493 0.10246229
0.041127831 -0.04670608 0.14188814
0.043808833 0.45354891 -0.16531372
0.044601835 0.52758193 -0.25612688
0.03472583 0.081576884 0.2197051
0.038513832 0.52719891 -0.26258469
0.036739834 -0.34857011 -0.036730766
0.037530832 -0.51755714 -0.13747358
0.029259833 0.15895391 0.18306112
0.030132832 0.26071793 0.057995319
0.029163832 0.040891886 0.1967783
0.030855833 0.34495091 -0.04553175
0.031779833 0.45265791 -0.1779089
0.030246833 -0.21937704 0.041648388
0.029722834 -0.093365073 0.11675549
0.031485833 -0.51720715 -0.13587093
0.023540834 0.15827888 0.17738533
0.025749834 0.4522109 -0.18422174
0.024360834 -0.21910715 0.043166161
0.023901833 -0.093127131 0.11824131
0.017623832 0.12834692 0.20772648
0.019012833 0.34388191 -0.057692528
0.019448834 0.41146493 -0.14091873
0.018878834 -0.34765911 -0.032065868
0.018688833 -0.2867651 0.0042152405
0.018083831 -0.092889071 0.11972523
0.013519833 -0.57463813 -0.16589689
0.0062588323 0.0020369291 0.17894316
0.0072468333 0.37070692 -0.10432291
0.0068578329 -0.28619611 0.0072832108
0.0067168325 -0.21830416 0.047718048
0.0065898336 -0.15728307 0.084059238
0.00067683309 0.18997991 0.1120801
0.0010418333 -0.34676111 -0.027413845
0.00074583292 -0.15703309 0.085558414
0.0013958327 -0.57392311 -0.16267586
-0.0047391672 0.36967188 -0.11668968
-0.010899168 0.22964191 0.049766064
-0.010870167 0.2564919 0.016537189
-0.011036167 0.04230988 0.20690107
-0.010779167 0.34118593 -0.088277817
-0.010749167 0.36915189 -0.12288857
-0.016771168 0.0425089 0.20834446
-0.016771168 0.36863089 -0.1291008
-0.016771168 -0.28507209 0.01340723
-0.016771168 -0.5728581 -0.15784883
-0.022889167 0.4485929 -0.23512554
-0.022702167 -0.3455801 -0.021229744
-0.028313167 0.12270093 0.16241121
-0.028269168 0.0032919049 0.18766117
-0.028223168 0.080888927 0.21430922
-0.028434169 -0.15579712 0.093029022
-0.034441166 0.22711092 0.026094437
-0.035159167 0.4476769 -0.24796295
-0.039897166 0.12127191 0.15099144
-0.03985817 -0.043594122 0.1624341
-0.039677165 0.043297887 0.21410036
-0.040840168 0.3384549 -0.1191268
-0.041136168 0.40658492 -0.20386457
-0.040482167 -0.34470713 -0.016605854
-0.046052165 0.18466991 0.065449238
-0.046422169 0.25280988 -0.019385815
-0.04539717 0.043492913 0.21553612
-0.045476168 0.078651905 0.19743443
-0.047255166 0.4060899 -0.21021891
-0.046991169 -0.57111514 -0.14983463
-0.051713169 0.14934891 0.10275412
-0.051385164 -0.043164074 0.16535139
-0.052384168 0.25219089 -0.025406837
-0.052940167 0.33735192 -0.13153887
-0.052572168 -0.42450905 -0.061304569
-0.053027168 -0.5707711 -0.14823675
-0.057027169 0.077150881 0.18614006
-0.058017164 -0.28315008 0.024073124
-0.059060164 -0.57042813 -0.14663982
-0.063184164 0.11839187 0.12804222
-0.064150169 -0.34356105 -0.0104599
-0.063618168 -0.2151891 0.06580925
-0.06903217 0.11766791 0.12228012
-0.068439171 0.0047159195 0.19778013
-0.071449168 0.36388087 -0.18548059
-0.069464169 -0.21493614 0.067307472
-0.076043166 0.22261989 -0.015714645
-0.074412167 -0.042315125 0.17117214
-0.076774165 0.28957093 -0.099488735
-0.077580169 0.36334592 -0.19179964
-0.075970165 -0.34299505 -0.0073957443
-0.074990168 -0.15387309 0.10492134
-0.081531167 0.1806159 0.030071259
-0.080250166 0.074126899 0.16344213
-0.083382167 0.3345719 -0.16275978
-0.08233317 -0.42299211 -0.053530693
-0.081876166 -0.34271407 -0.0058636665
-0.083604172 -0.64598215 -0.18593264
-0.080430172 -0.089005113 0.1447773
-0.086634167 0.11548388 0.10494328
-0.087023169 0.14512891 0.067775249
-0.085910171 -0.041896105 0.17407608
-0.087779172 -0.34243512 -0.0043358803
-0.086603172 -0.15340209 0.10788202
-0.086202167 -0.088785052 0.14624119
-0.092524171 0.11475188 0.099143028
-0.092817172 -0.21393812 0.073292255
-0.092408173 -0.15316808 0.10936022
-0.10004917 0.22001791 -0.03982687
-0.10283617 0.40157688 -0.26792097
-0.099139169 -0.28128505 0.034675121
-0.098208167 -0.15293515 0.11083841
-0.097740166 -0.08834815 0.1491642
-0.10539417 0.17787993 0.0062861443
-0.10906817 0.40106893 -0.27438784
-0.10350517 -0.08813107 0.15062523
-0.11259417 0.2459119 -0.086191654
-0.10893817 0.037910879 0.1756382
-0.11203017 -0.42150915 -0.04579258
-0.11030517 -0.21320009 0.077769279
-0.10980217 -0.15247309 0.11378908
-0.11275717 -0.50925112 -0.097839832
-0.11673617 0.14156288 0.038358212
-0.11612917 -0.21295607 0.079258442
-0.11992017 -0.6438781 -0.17630053
-0.12212117 0.11106491 0.070006371
-0.12422817 0.21738893 -0.06410265
-0.12596516 -0.64353311 -0.17469883
-0.13326716 0.35847193 -0.24917364
-0.12777217 -0.21247208 0.082234383
-0.13181016 -0.040257096 0.18564606
-0.13309817 0.067211926 0.11183119
-0.13491316 -0.34024107 0.0078492165
-0.13296117 -0.15156007 0.11967945
-0.13229416 -0.087061048 0.15790606
-0.13664916 -0.50800407 -0.091581821
-0.13754916 0.0029488802 0.18636703
-0.14416617 0.03311789 0.14146042
-0.15067717 -0.69165611 -0.19763184
-0.15011416 -0.64216709 -0.16831064
-0.14898416 -0.03965807 0.18996811
-0.15454216 -0.50708413 -0.086903572
-0.16082516 0.21339488 -0.10082865
-0.15516517 0.00046491623 0.16938543
-0.15528417 -0.086222053 0.16371202
-0.17011917 0.32659191 -0.25164557
-0.16264017 -0.2110461 0.09113121
-0.16720717 -0.56451106 -0.11815357
-0.16762917 -0.15022206 0.12847805
-0.17319018 -0.56419706 -0.11658669
-0.18355517 0.35404289 -0.30095053
-0.17602816 -0.33838511 0.018445015
-0.17340016 -0.15000308 0.12994003
-0.18544717 0.21069688 -0.12552452
-0.17879617 -0.0028771162 0.14661741
-0.18004318 -0.21034813 0.095564365
-0.18625917 -0.64016509 -0.15877676
-0.18515217 -0.5635711 -0.11345387
-0.18431316 -0.50557804 -0.079134941
-0.18355218 -0.040162086 0.18738604
-0.19171517 0.026614904 0.0953722
-0.19710217 -0.56295204 -0.11032581
-0.19620417 -0.50498509 -0.076037884
-0.20074818 -0.41725612 -0.022781849
-0.19850317 -0.27699316 0.060167313
-0.20307417 -0.56264412 -0.10876369
-0.21268517 0.27610791 -0.23757458
-0.20808616 -0.50439811 -0.072944641
-0.22070818 0.3219009 -0.30343866
-0.21631317 -0.63853812 -0.1508708
-0.21977016 0.12909591 -0.063521862
-0.22097416 -0.56173015 -0.10408783
-0.22897217 0.20590991 -0.16915894
-0.22287217 -0.33633709 0.030477047
-0.22508217 -0.0462901 0.14768839
-0.22656117 -0.0096610785 0.10062933
-0.22782516 0.021651924 0.060402393
-0.22915317 0.054524899 0.018169403
-0.22403517 -0.083797097 0.18102741
-0.23703016 0.096625924 -0.042951584
-0.24435417 0.27293992 -0.26971197
-0.23524816 0.053714871 0.012233257
-0.24125317 -0.68658006 -0.17370176
-0.23775017 -0.50295413 -0.065238953
-0.24780017 0.20383191 -0.18802357
-0.23922117 -0.27532208 0.070559025
-0.23672017 -0.14765513 0.14595318
-0.25068417 0.12532592 -0.094052792
-0.25409815 0.20313591 -0.1943326
-0.24624017 -0.33534205 0.036464214
-0.24502917 -0.27508807 0.072040081
-0.24367817 -0.20786905 0.11172915
-0.25328815 -0.68593109 -0.17053795
-0.24246317 -0.14744806 0.14740229
-0.26350015 0.27101892 -0.28913593
-0.25360116 0.051272929 -0.0056395531
-0.24945118 -0.20765007 0.11319208
-0.25552115 -0.50210404 -0.060630798
-0.25821516 0.017457902 0.030993462
-0.25974017 0.050454915 -0.011616707
-0.26427415 -0.63601613 -0.13829756
-0.25341216 -0.086432099 0.16515541
-0.26266116 -0.55964816 -0.093225956
-0.26109016 -0.0516271 0.11329746
-0.26283416 -0.014838099 0.065741062
-0.27438414 0.22881287 -0.24924374
-0.26589015 0.049634874 -0.017604828
-0.26860714 -0.55935609 -0.091679573
-0.28715616 0.22744989 -0.26209879
-0.28333616 -0.68433404 -0.16265059
-0.28816015 0.12073588 -0.13104296
-0.27827716 -0.2065711 0.12048721
-0.28934017 -0.68401909 -0.16107655
-0.28819916 -0.63479114 -0.13204575
-0.28509316 -0.50071514 -0.052976608
-0.29852617 0.19820988 -0.23882389
-0.28893617 -0.41329312 -6.6757202e-05
-0.29746315 -0.77334809 -0.21236086
-0.28403616 -0.20635915 0.12194443
-0.29534015 -0.68370605 -0.15950775
-0.30074415 0.11919087 -0.14345789
-0.30492017 0.19749987 -0.24522352
-0.30859914 0.26647788 -0.33486366
-0.30133817 -0.68339407 -0.15793657
-0.28833315 -0.14582515 0.15895748
-0.30954716 -0.77268708 -0.20917654
-0.29720417 -0.27303112 0.085307121
-0.29405716 -0.14562607 0.16039705
-0.30651516 -0.41253507 0.0044412613
-0.30299217 -0.27280807 0.086776257
-0.30130115 -0.2057271 0.12630415
-0.32162315 -0.7720331 -0.2060008
-0.30877614 -0.27258706 0.088244438
-0.31798616 -0.022753119 0.012744427
-0.31822217 -0.41203511 0.0074424744
-0.31613517 -0.33247006 0.054308414
-0.31374416 -0.095744133 0.10799122
-0.32050616 -0.49909413 -0.043838978
-0.32416916 -0.02364409 0.0068073273
-0.31983715 -0.096688151 0.1022234
-0.33692816 0.083913922 -0.14095974
-0.34354314 0.19319493 -0.2838707
-0.34523916 0.22122389 -0.32052755
-0.32429016 -0.20490015 0.1321044
-0.33727914 -0.68155706 -0.14854574
-0.33229315 -0.49856412 -0.040801525
-0.33189416 -0.27171111 0.094101429
-0.35155517 0.11292893 -0.19355965
-0.35382116 0.14892191 -0.24072981
-0.34045216 -0.063472152 0.037602425
-0.33818215 -0.099535108 0.084859371
-0.35796115 0.1121369 -0.19987297
-0.34901914 -0.027229071 -0.017047882
-0.35105816 0.0045529008 -0.058740616
-0.34516814 -0.33132505 0.061690331
-0.36673415 0.14739388 -0.25354052
-0.35282815 -0.065328121 0.025810242
-0.34921014 -0.27106607 0.098482132
-0.34724817 -0.20409012 0.13788509
-0.35046715 -0.10144413 0.073236465
-0.35584214 -0.49752104 -0.03474474
-0.37794515 0.21770191 -0.35340595
-0.36571017 -0.63097608 -0.11188364
-0.36935115 -0.55461514 -0.065601826
-0.38487315 -0.86638308 -0.24754572
-0.36650914 -0.27043104 0.10285425
-0.36562616 -0.15289605 0.1197114
-0.39017016 0.10814691 -0.23160887
-0.38033915 -0.031762123 -0.047096729
-0.38493514 0.033643901 -0.13335085
-0.38892016 -0.0007480979 -0.095284939
-0.39389014 -0.76824605 -0.1870656
-0.39104715 -0.67890716 -0.13455677
-0.38948515 -0.62985408 -0.10572767
-0.37789914 -0.15490007 0.10821724
-0.38706514 -0.55382109 -0.061041832
-0.39527315 -0.0016400814 -0.10141563
-0.39110616 -0.49599707 -0.025696754
-0.40964416 0.1057269 -0.25078678
-0.41232616 0.14198291 -0.29875469
-0.39927116 -0.034510076 -0.065250874
-0.40590614 -0.76763809 -0.18392992
-0.38954714 -0.26959908 0.10866737
-0.39886615 -0.55329907 -0.05800581
-0.41616017 0.10491693 -0.25720167
-0.40801117 -0.0034301281 -0.11370373
-0.39994815 -0.40868306 0.028302193
-0.39307114 -0.20251906 0.14940119
-0.40893215 -0.67805111 -0.12992096
-0.40284315 -0.49550009 -0.022691727
-0.42546415 0.14041889 -0.31177759
-0.41791216 -0.76703715 -0.18079996
-0.41159016 -0.40822411 0.031263351
-0.43330714 -0.86380506 -0.23483276
-0.41884416 -0.11212111 0.008600235
-0.42805114 -0.076670051 -0.045796871
-0.43106017 -0.039136112 -0.095717907
-0.42322716 -0.40777016 0.034219265
-0.43590716 -0.76614714 -0.17611694
-0.41830215 -0.26858604 0.11590624
-0.43101716 -0.62794614 -0.095004559
-0.42120916 -0.16199315 0.067687035
-0.45189616 0.13726592 -0.33797073
-0.43439516 -0.077631116 -0.051830769
-0.43421715 -0.55176508 -0.048930645
-0.45295316 0.068970919 -0.25456953
-0.45853516 0.13647288 -0.3445487
-0.44075015 -0.078594089 -0.057873726
-0.43485415 -0.4073211 0.03717041
-0.44464716 -0.67638111 -0.12068176
-0.45951816 0.068119884 -0.26098967
-0.46874315 0.098354876 -0.30894995
-0.45350015 -0.08052814 -0.06999588
-0.46233314 0.023134887 -0.20846891
-0.44351116 -0.32764804 0.08658123
-0.46351117 -0.86225104 -0.22693491
-0.44239315 -0.2108711 0.10411119
-0.45186815 -0.55101705 -0.044411659
-0.44701016 -0.26759911 0.12312126
-0.44861215 -0.21193707 0.098351479
-0.45248616 -0.16713607 0.038444042
-0.45672914 -0.11807108 -0.027167797
-0.47540516 0.021351874 -0.22114277
-0.46389115 -0.40622115 0.044528484
-0.48160815 -0.86133909 -0.2222147
-0.47435614 -0.67503107 -0.1130209
-0.46726415 -0.49286008 -0.0062508583
-0.48546517 -0.014365077 -0.18835258
-0.46657217 -0.3268311 0.09239006
-0.49916515 0.062967896 -0.29975557
-0.47360316 -0.21622705 0.075209141
-0.48222214 -0.12208915 -0.05121994
-0.50581819 0.062101901 -0.30625772
-0.50170118 0.017756879 -0.24663496
-0.49215916 -0.67424011 -0.10843992
-0.50205916 -0.049526095 -0.16369486
-0.48708916 -0.40536308 0.050392151
-0.48384815 -0.32623112 0.096734047
-0.48159516 -0.2669611 0.12895441
-0.5191642 0.060361922 -0.3192997
-0.51492715 0.015944898 -0.25944996
-0.49288514 -0.40515113 0.051858425
-0.48783115 -0.26808012 0.12323904
-0.51513016 -0.051447093 -0.17619658
-0.52155817 0.015035927 -0.26587486
-0.5177542 -0.85956109 -0.2128129
-0.51368016 -0.76245904 -0.15596867
-0.50994515 -0.67346108 -0.10387087
-0.50789517 -0.62459409 -0.075264931
-0.50471616 -0.54884815 -0.030921936
-0.51796621 -0.090348125 -0.13123798
-0.52738017 -0.94425213 -0.26098871
-0.50951916 -0.17656004 -0.014825821
-0.51435816 -0.12716913 -0.081519604
-0.53343821 -0.94394815 -0.25940895
-0.52561617 -0.76191509 -0.15288973
-0.51143616 -0.22274411 0.040201187
-0.51644015 -0.54838109 -0.027939796
-0.53158116 -0.76164615 -0.15135384
-0.52771419 -0.67269707 -0.09931469
-0.5482142 0.011374891 -0.29169369
-0.53148717 -0.62361312 -0.069234848
-0.53051221 -0.22604012 0.022563457
-0.53738016 -0.62337208 -0.06772995
-0.55765116 -0.94274914 -0.25310564
-0.54546821 -0.67194712 -0.094769955
-0.55723816 -0.096363068 -0.16850662
-0.55138218 -0.67169905 -0.09325695
-0.56974816 -0.94216108 -0.24996376
-0.55073917 -0.40310514 0.066429138
-0.54706621 -0.32412004 0.11258316
-0.56733817 -0.76006508 -0.14215899
-0.55080616 -0.2794261 0.065585136
-0.5610292 -0.18512011 -0.062875748
-0.55475718 -0.48952007 0.015933037
-0.5812372 -0.061202049 -0.23938656
-0.55716819 -0.28057611 0.059765339
-0.56326818 -0.54656911 -0.016051769
-0.56228918 -0.40271008 0.069330215
-0.5878762 -0.94129109 -0.24526072
-0.57270521 -0.62195206 -0.058730602
-0.5903132 -0.10144711 -0.19987059
-0.59461218 -0.063184142 -0.25216293
-0.56806117 -0.40251505 0.070780277
-0.58092719 -0.67048609 -0.085713863
-0.57632518 -0.28404415 0.042249203
-0.59274316 -0.13963008 -0.15533876
-0.58273417 -0.28520715 0.036389351
-0.59362018 -0.19055915 -0.093249798
-0.59055221 -0.33033907 0.083394051
-0.59558916 -0.28753912 0.024642467
-0.6020962 -0.62080908 -0.051265717
-0.61262119 -0.14280605 -0.17403889
-0.62828416 -0.068185091 -0.28431273
-0.60203618 -0.28871012 0.018752098
-0.61043316 -0.66931009 -0.078202724
-0.61332619 -0.19385707 -0.11160278
-0.65006018 -0.0027030706 -0.39022875
-0.60842818 -0.4011811 0.080892086
-0.61496317 -0.29106104 0.0069422722
-0.61971217 -0.62014008 -0.046801567
-0.61287421 -0.48745811 0.030576229
-0.62165219 -0.54442811 -0.0012998581
-0.6186772 -0.48725915 0.032034397
-0.6595602 -0.03926307 -0.35575676
-0.64601219 -0.14815509 -0.20543575
-0.62447816 -0.48706114 0.033492088
-0.64973021 -0.85357106 -0.17878199
-0.64642018 -0.19940913 -0.1424098
-0.6472522 -0.24635208 -0.085206985
-0.6710192 -0.11392105 -0.2763176
-0.64904016 -0.61905515 -0.039385796
-0.66620415 -0.15139806 -0.22440958
-0.65404117 -0.29818511 -0.028728962
-0.65755516 -0.6675061 -0.066252708
-0.65494317 -0.34248507 0.025121212
-0.6671012 -0.24982905 -0.10350084
-0.66343915 -0.66728711 -0.064762592
-0.66076118 -0.61863112 -0.036426544
-0.65660918 -0.54320812 0.007496357
-0.6534642 -0.48609209 0.040759087
-0.69662917 -0.078384042 -0.34950256
-0.67961216 -0.85232413 -0.17114258
-0.70353919 -0.079419136 -0.35608864
-0.6803422 -0.30299616 -0.052719593
-0.72194016 -0.04828608 -0.41561174
-0.70694417 -0.15796006 -0.2626729
-0.67662418 -0.48534012 0.046552181
-0.6856972 -0.54222906 0.01479435
-0.72589421 -0.1224581 -0.32822657
-0.71386319 -0.25804806 -0.14656782
-0.7045812 -0.66579711 -0.05437994
-0.73974919 -0.12462115 -0.34132671
-0.7135042 -0.30907905 -0.08294487
-0.70758218 -0.61699212 -0.024643898
-0.70595717 -0.40926409 0.049752235
-0.71394318 -0.35368407 -0.028189659
-0.70554519 -0.48442912 0.053771019
-0.72219217 -0.66518104 -0.049947739
-0.74081516 -0.21534407 -0.23015594
-0.74817318 -0.16462612 -0.30136061
-0.76063818 -0.12788606 -0.36106777
-0.71903819 -0.41186512 0.038078308
-0.7550922 -0.16574812 -0.30785084
-0.73095918 -0.61620712 -0.018780708
-0.77463317 -0.13007712 -0.37428856
-0.75445616 -0.26521206 -0.18391657
-0.78165418 -0.13117814 -0.38092184
-0.78755218 -0.092053056 -0.43610668
-0.74716216 -0.36001813 -0.058171749
-0.75372416 -0.31648207 -0.11957169
-0.75151521 -0.66418314 -0.04258585
-0.74847817 -0.61563206 -0.01439476
-0.77516216 -0.22117805 -0.26204062
-0.75196218 -0.41842616 0.0087161064
-0.7817862 -0.27005005 -0.20904255
-0.78899616 -0.22353208 -0.27487564
-0.77397019 -0.36514306 -0.08234787
-0.78079921 -0.32148206 -0.14420986
-0.8039192 -0.17368007 -0.35362196
-0.7611652 -0.53984213 0.033635139
-0.75751519 -0.4828701 0.066695213
-0.76696116 -0.53966713 0.035076141
-0.82407016 -0.13784015 -0.42096758
-0.77852917 -0.4237361 -0.014958858
-0.79441619 -0.32400107 -0.15659285
-0.78080517 -0.66322112 -0.035250664
-0.79421121 -0.36902213 -0.10059071
-0.80808616 -0.32653415 -0.16902351
-0.8162542 -0.27617013 -0.24070978
-0.78930718 -0.61434305 -0.0042028427
-0.82382721 -0.22947407 -0.30717754
-0.7843402 -0.5391531 0.039395332
-0.83083719 -0.23067212 -0.31367588
-0.79013216 -0.53898406 0.040833473
-0.82181221 -0.32907915 -0.18149853
-0.83013821 -0.27864015 -0.25345993
-0.80096221 -0.61398709 -0.0013008118
-0.79554021 -0.48822808 0.04556036
-0.84489518 -0.23307705 -0.32670498
-0.85344118 -0.18176115 -0.40000296
-0.80170918 -0.53865016 0.043704033
-0.8355912 -0.3316381 -0.19401884
-0.86057317 -0.18292809 -0.40667868
-0.82175916 -0.66193807 -0.025033951
-0.85901219 -0.23549509 -0.33978367
-0.81328416 -0.53832209 0.046571255
-0.84190917 -0.37819004 -0.14354658
-0.86609119 -0.23670805 -0.34634161
-0.87488317 -0.18527114 -0.4200716
-0.84877616 -0.3795141 -0.14972782
-0.8288312 -0.4952141 0.016305447
-0.86255217 -0.38217115 -0.16212273
-0.88741517 -0.24036908 -0.36608982
-0.83641517 -0.5376811 0.052292347
-0.84753221 -0.61262107 0.010263443
-0.90367919 -0.18999505 -0.44701195
-0.86630416 -0.44137108 -0.093061924
-0.88425416 -0.34070015 -0.23820591
-0.85681421 -0.66089416 -0.016320705
-0.85558116 -0.54045916 0.041892052
-0.89026916 -0.38752711 -0.18704987
-0.88687819 -0.44552505 -0.11134291
-0.89723217 -0.38887405 -0.19330788
-0.9053182 -0.34463513 -0.25731659
-0.87078816 -0.61197114 0.016018391
-0.8937642 -0.44691706 -0.11746073
-0.9123702 -0.34595406 -0.26371288
-0.91120321 -0.3915801 -0.20586395
-0.92651218 -0.3486011 -0.27653694
-0.93360519 -0.34993005 -0.28296757
-0.9322632 -0.39566612 -0.22478485
-0.8998372 -0.61119115 0.023188114
-0.95945716 -0.25278413 -0.4327426
-0.94783521 -0.35259807 -0.29586554
-0.94234419 -0.45676208 -0.16058064
-0.98135918 -0.25657308 -0.45298862
-0.96764618 -0.40254712 -0.25655174
-0.96337318 -0.46103609 -0.1792326
-0.99809718 -0.36205006 -0.34138966
-1.0085112 -0.3106451 -0.41692591
-1.0181721 -0.26295805 -0.48699951
-1.0053382 -0.36341512 -0.34794474
-1.0231822 -0.31329906 -0.43034458
