# .PCD v0.7 - Point Cloud Data file format
VERSION 0.7
FIELDS x y z
SIZE 4 4 4
TYPE F F F
COUNT 1 1 1
WIDTH 1
HEIGHT 1024
VIEWPOINT 0 0 0 1 0 0 0
POINTS 1024
DATA ascii
1.075247 -0.057754457 -0.23962831
1.069067 -0.057672441 -0.23993015
1.07909 -0.034677505 -0.3555212
1.0267791 -0.10868746 0.016685963
1.038298 -0.083735526 -0.10871935
1.056713 -0.057518542 -0.24057817
1.077289 -0.0098654628 -0.48003101
1.008005 -0.083343446 -0.11024141
1.0166891 -0.19952053 -0.17446947
0.98500007 -0.10109848 0.05990696
0.99589306 -0.083189428 -0.11083412
1.00731 -0.056900442 -0.24295139
1.038962 -0.0094134808 -0.48176241
1.0325741 -0.0093395114 -0.48203945
0.96777505 -0.10845453 0.010157585
0.95588505 -0.057702482 0.055324554
1.010031 -0.033837497 -0.3587451
0.98447502 -0.25401348 -0.1633091
0.94697505 -0.010111511 0.078177929
0.95130605 -0.066034496 -0.0013012886
0.99748403 -0.033690512 -0.35929823
0.93634605 -0.011262476 0.068716526
0.94045502 -0.21865648 0.036642551
0.95857507 -0.32296652 -0.20107317
0.92627102 -0.1756795 -0.040675163
0.93153006 -0.085088432 -0.13187218
0.92174107 -0.17756146 -0.052717209
0.92694902 -0.086842477 -0.14422512
0.89056504 0.11916351 0.10414457
0.90194803 -0.28335851 0.010761738
0.91773903 -0.090370476 -0.16905117
0.89587307 0.057662487 0.011645794
0.91311103 -0.092145503 -0.18152618
0.89333504 0.053956509 -0.016899109
0.89286506 -0.28745943 -0.012987137
0.89077502 0.050218523 -0.045689106
0.88732904 -0.029776514 -0.067394257
0.88290906 0.052393496 -0.030051231
0.88371903 -0.29159051 -0.036896229
0.86333907 0.15155351 0.085467815
0.87904906 -0.11580652 -0.048262119
0.87451404 -0.29575247 -0.060958385
0.86920506 -0.17041045 -0.015424252
0.84935302 0.1198045 0.1044178
0.85335302 -0.053661525 0.069842815
0.85230803 -0.0083584785 0.078872681
0.84266907 0.15492749 0.11144066
0.88054305 0.20553452 -0.21842146
0.84640306 -0.0082554817 0.078914642
0.85117304 -0.21666449 0.037374973
0.83963406 0.029967487 0.086554527
0.84793907 -0.33574349 0.013662815
0.84666502 -0.2796275 0.024847984
0.84393406 -0.15939051 0.048812866
0.83171004 0.1200695 0.10453653
0.83092105 0.15509552 0.11151791
0.83373904 0.030064523 0.086596966
0.84363806 -0.40926343 -0.00096940994
0.84071404 -0.27949554 0.024895668
0.83662605 -0.098061502 0.061058521
0.82583207 0.12015653 0.10457563
0.83601904 -0.3354705 0.013760567
0.83207703 -0.1591565 0.048902988
0.82279503 -0.0078504682 0.079084873
0.84530503 0.24717253 -0.12319326
0.82107502 0.069685519 0.094537735
0.82881403 -0.2792365 0.024991989
0.81241405 0.19587052 0.11971855
0.86979002 0.2658115 -0.39998531
0.81198704 -0.052921474 0.070142746
0.81814504 -0.33506745 0.013908863
0.80069304 0.19602454 0.11979485
0.80608207 -0.052819431 0.070185661
0.80837506 -0.15869647 0.04908371
0.81015307 0.22718251 -0.022351265
0.80623603 -0.33480448 0.014003754
0.80367804 -0.21568948 0.037745953
0.80245107 -0.15858454 0.049126625
0.79427606 -0.05261749 0.070270538
0.79250103 0.030725539 0.086881638
0.79166102 0.070133507 0.09473753
0.78311902 0.1962505 0.11990452
0.78578204 0.07022053 0.094774723
0.79433304 -0.33454543 0.014100552
0.77726406 0.19632453 0.11994076
0.78838307 -0.33441752 0.014147758
0.81285506 0.27804053 -0.27768946
0.83168805 0.31398451 -0.45838404
0.78243405 -0.33429044 0.014195919
0.77067804 -0.052222431 0.070437908
0.77159905 -0.096893489 0.061533928
0.76053107 0.15605253 0.11196995
0.77439404 0.22747749 -0.023332119
0.76227707 0.070563495 0.094932556
0.76939505 -0.27800053 0.025459766
0.75797206 -0.0068024993 0.079534531
0.76459503 -0.33391649 0.014335632
0.75979203 -0.09669143 0.061618805
0.78812003 0.27822649 -0.27827311
0.75865102 -0.33379453 0.014382839
0.75626206 -0.2147755 0.038105965
0.74295902 0.15627754 0.11208153
0.74215305 0.19675553 0.12015772
0.75056607 0.2276665 -0.023949146
0.73956603 0.031521499 0.087238789
0.76957405 0.2783615 -0.27869415
0.73738402 -0.15740544 0.049605846
0.73619002 -0.096299469 0.061784744
0.72855306 -0.006357491 0.079732895
0.73630905 -0.4068355 -8.6307526e-05
0.71954805 0.15656751 0.11222696
0.72556907 -0.15720254 0.04968977
0.71436006 0.12168151 0.10529566
0.71765107 -0.051381528 0.070803642
0.72300804 -0.33307952 0.014658928
0.72074604 -0.21412951 0.038366795
0.76192904 0.31446654 -0.45983124
0.71845704 -0.40646452 5.5789948e-05
0.71483105 -0.21402544 0.038408756
0.71375704 -0.15700346 0.049773693
0.70199805 0.15677953 0.11233473
0.70588005 -0.05120343 0.070882797
0.70432705 0.032018542 0.087468624
0.71250904 -0.40634352 0.00010156631
0.71009207 -0.27686352 0.025906563
0.70891702 -0.21392244 0.038450718
0.74925506 0.31455052 -0.46007109
0.70300406 -0.21381944 0.038493633
0.69094306 0.1219725 0.10544157
0.71225905 0.24820852 -0.12653112
0.69186705 0.071523488 0.095386982
0.68823004 -0.050942481 0.071000576
0.68741006 -0.0057654977 0.080003738
0.72014904 0.2787075 -0.27973938
0.68600702 0.07159853 0.095422745
0.67861402 0.15705252 0.11247683
0.73024803 0.31467253 -0.46041918
0.68527102 -0.21351749 0.038619518
0.69414002 0.24833649 -0.12691927
0.66621602 0.19761652 0.12061262
0.67245102 -0.15633553 0.050060749
0.66392303 -0.0054444671 0.080155849
0.66326004 0.032565534 0.087732792
0.66961807 -0.33207852 0.015057564
0.66864306 -0.27612752 0.026207924
0.67602402 0.24846148 -0.12729025
0.70491403 0.3148315 -0.46086025
0.66369206 -0.33197254 0.015100956
0.65295804 -0.050442517 0.071230888
0.65902102 -0.40530354 0.00050878525
0.65776604 -0.33186752 0.015143871
0.64415902 0.12252152 0.10572481
0.65184104 -0.33176345 0.015185833
0.65089506 -0.27582651 0.026335716
0.63831407 0.1225875 0.10575962
0.68592006 0.31494653 -0.46117306
0.64297402 -0.15588444 0.050261974
0.64195305 -0.094864428 0.062421799
0.63247102 0.12265253 0.10579491
0.63122302 0.19797951 0.12081671
0.63533401 -0.050203502 0.071344852
0.66459304 0.27906948 -0.28078032
0.62663007 0.12271649 0.10582876
0.62809902 0.033005536 0.087949753
0.63119203 -0.15571052 0.050339699
0.63156307 0.22852653 -0.026598454
0.63980907 0.2487005 -0.12798405
0.62224305 0.033076525 0.087985992
0.62815005 -0.33135849 0.015354633
0.62724406 -0.27543944 0.026499748
0.61494905 0.1228435 0.1058979
0.61374104 0.1981535 0.12091589
0.61699605 -0.0048394799 0.080451965
0.62032604 -0.21248347 0.039067745
0.61941302 -0.15553945 0.0504179
0.61184907 -0.049895465 0.071493626
0.60467702 0.033284485 0.088092804
0.62758207 0.2792955 -0.28139544
0.60080403 -0.094304502 0.06268692
0.59159702 0.12308949 0.1060338
0.59106106 0.15798652 0.1129899
0.59424603 -0.049673498 0.071604729
0.62141502 0.27933151 -0.28149223
0.59236902 0.072709501 0.095993519
0.59770107 -0.27497751 0.026701927
0.59492904 -0.094227493 0.062723637
0.58523005 0.1580435 0.11302185
0.60361105 0.24892652 -0.12861538
0.58711904 0.033485532 0.088197708
0.62897205 0.31527352 -0.46201706
0.59264106 -0.33078152 0.015601635
0.58995903 0.22879249 -0.027353287
0.58183706 -0.004417479 0.080666542
0.58672607 -0.33068854 0.015643597
0.60291702 0.2794385 -0.28177023
0.57821202 -0.15497047 0.050683975
0.57807803 0.2288655 -0.027552128
0.59675306 0.27947348 -0.28185844
0.61000103 0.31537652 -0.46226835
0.57597303 -0.40386146 0.001103878
0.57316303 -0.21180254 0.03938055
0.57233006 -0.1548925 0.050722599
0.571437 -0.09392947 0.062871933
0.561921 0.15826553 0.11315393
0.56644905 -0.1548155 0.050759792
0.57346106 0.24910551 -0.12909031
0.59735507 0.31544352 -0.46242809
0.56227702 -0.27445549 0.026938915
0.55637604 -0.27437252 0.026976585
0.54733801 -0.049115479 0.071890831
0.54671001 -0.0040224791 0.080875874
0.54563403 0.073197484 0.096265793
0.55227703 -0.40348846 0.0012655258
0.55125505 -0.33015448 0.015881538
0.55047601 -0.27428943 0.027015686
0.54795903 -0.09364444 0.063015938
0.54147905 -0.049049437 0.071924686
0.54085904 -0.0039594769 0.080911636
0.53225201 0.19889152 0.12136555
0.54935104 0.24924248 -0.1294384
0.52062303 0.19898748 0.12142992
0.52228606 0.073424518 0.09639883
0.51804805 -0.048792541 0.072062969
0.50996804 0.1238665 0.10649252
0.51161104 -0.0036554933 0.08107996
0.50414205 0.12391651 0.1065259
0.50318503 0.19912654 0.12152052
0.52897203 0.27983552 -0.28272629
0.50767601 -0.15409547 0.051122665
0.50690204 -0.093177497 0.063262939
0.49788105 0.15882552 0.11350393
0.50682104 0.22927153 -0.028595448
0.49407104 -0.0034815073 0.081180573
0.50717103 0.24946749 -0.12997913
0.49741006 -0.27359146 0.027353764
0.49663404 -0.21082252 0.039860725
0.49495205 0.22933453 -0.028744221
0.48728603 0.073744535 0.096592903
0.48085105 0.12411249 0.10665083
0.48901704 0.22936553 -0.028815269
0.48562706 -0.27344745 0.027424812
0.48345804 -0.092928469 0.063398838
0.48308206 0.22939551 -0.028886318
0.47562405 0.073846519 0.096655846
0.46920705 0.12420648 0.10671377
0.46880105 0.15905553 0.11365795
0.47069404 -0.0032615066 0.081310749
0.46979403 0.073895514 0.096687794
0.47311205 -0.21055251 0.040003777
0.46485204 -0.0032084584 0.081343651
0.45672104 0.19946551 0.12170792
0.45858204 0.034761488 0.088931561
0.45934904 0.22951353 -0.029146194
0.45367005 -0.048152506 0.072430611
0.45547706 -0.21035951 0.040106773
0.46740305 0.28012753 -0.28333044
0.44748604 0.22957051 -0.029266357
0.47101104 0.31603754 -0.46364212
0.44372505 -0.21023649 0.040174961
0.44245505 -0.092526495 0.063631535
0.45509505 0.28018153 -0.2834301
0.43988603 -0.4019565 0.0019917488
0.43851605 -0.27290851 0.027707577
0.43724704 -0.15334851 0.051533699
0.42941603 0.03500253 0.089088917
0.45838803 0.31608951 -0.46372747
0.43397805 -0.40188652 0.0020265579
0.43197605 -0.21011645 0.040242672
0.42192304 0.19963753 0.12133074
0.41229805 -0.0027635098 0.081628799
0.43048105 0.28028554 -0.28360844
0.41153306 0.074352503 0.096996784
0.41625604 -0.40168351 0.0021338463
0.42432904 0.28031051 -0.2836504
0.40571105 0.074394524 0.097025871
0.40909305 -0.27260345 0.027879715
0.40260804 -0.20983154 0.040409565
0.40206504 -0.15302151 0.051729679
0.41202503 0.28036052 -0.28372526
0.39443403 0.035267532 0.089271545
0.42052305 0.31623751 -0.46393919
0.38713905 0.19979548 0.12102175
0.38937104 -0.047608435 0.072778702
0.39196005 -0.32820946 0.016862869
0.39144504 -0.27243251 0.027978897
0.39086705 -0.20972449 0.040474892
0.39278504 0.24999052 -0.13100529
0.38606906 -0.32815248 0.016895771
0.37554705 0.19984549 0.12093353
0.37112504 0.035429537 0.089391708
0.37223303 -0.091930449 0.064012527
0.37040305 0.22990549 -0.029868126
0.36600605 -0.047433436 0.072901726
0.36562306 -0.0024194717 0.081870556
0.37473506 0.25006151 -0.13110733
0.36792305 -0.27221745 0.02810955
0.36738804 -0.20952147 0.04060173
0.36690405 -0.15272647 0.051919937
0.36447704 0.22992849 -0.029902458
0.36016706 -0.047392428 0.072931767
0.36312103 -0.40113348 0.0024409294
0.34682906 0.1598475 0.11427069
0.34656903 0.19996351 0.12074471
0.35028604 -0.27206749 0.028204918
0.34978405 -0.20937854 0.040696621
0.34077504 0.1999855 0.12071276
0.34229705 -0.0022644997 0.081989765
0.35667506 0.2805655 -0.28397608
0.34169304 0.074809492 0.097346783
0.34484506 -0.32777649 0.017124653
0.34391806 -0.20933253 0.040727615
0.34347305 -0.15254754 0.052042961
0.33522606 0.15990853 0.11432552
0.33498105 0.20000851 0.12068367
0.35052803 0.28058553 -0.28399706
0.33617705 0.035651505 0.089565754
0.35744905 0.3164565 -0.46415615
0.33951905 -0.40091747 0.0025715828
0.33895805 -0.3277275 0.017156601
0.33805203 -0.20928854 0.040757656
0.33715203 -0.091676533 0.064194679
0.32918805 0.20002949 0.12065363
0.33063704 -0.0021924973 0.082046986
0.33218604 -0.20924443 0.040789604
0.32339504 0.20005149 0.12062883
0.32892004 0.2300595 -0.030066013
0.32480803 -0.0021575093 0.082075596
0.32424504 0.074908495 0.09743166
0.32632104 -0.20920151 0.040818691
0.32299402 0.23008049 -0.030088425
0.31929904 -0.047123492 0.07313776
0.33208403 0.2806465 -0.28404427
0.32005003 -0.15238243 0.052162647
0.31315005 -0.0020895004 0.08213377
0.31261402 0.074970484 0.097487926
0.31459105 -0.20911747 0.040879726
0.31419605 -0.15234345 0.052192688
0.31377202 -0.091524541 0.064312935
0.30645904 0.12524652 0.10752773
0.30065304 0.12527454 0.10755587
0.30149505 -0.0020244718 0.08218956
0.30098605 0.075030506 0.097543716
0.30364603 -0.32745153 0.017343521
0.29740202 -0.27166754 0.02848196
0.28904304 0.12532854 0.10760784
0.28960302 0.035906494 0.089790821
0.29187703 -0.32736748 0.017403603
0.29040003 -0.091385543 0.064426899
0.28302702 0.16015351 0.11456871
0.28744903 0.23019654 -0.030176163
0.28354505 0.075114489 0.097624779
0.27705503 0.2002095 0.12048054
0.27818805 -0.0019034743 0.082299709
0.28906202 0.28077751 -0.28409433
0.27796403 0.035962522 0.089845657
0.27560303 0.23023254 -0.030191422
0.28810602 0.3166585 -0.46420002
0.27322403 -0.15209454 0.052394867
0.26653504 -0.0018475056 0.082354546
0.26834604 -0.32721144 0.017522812
0.26703304 -0.091259539 0.064538956
0.26071104 -0.0018205047 0.082381725
0.26649505 0.2504195 -0.13138723
0.27550003 0.31669152 -0.46418619
0.26048502 0.25043553 -0.13138723
0.26448303 0.2808435 -0.28408527
0.25468904 0.036067486 0.089952946
0.25448403 0.075241506 0.09775877
0.25107205 -0.40025848 0.0030326843
0.25070304 -0.32710546 0.017608643
0.24951303 -0.09117347 0.064621925
0.24244705 0.16030854 0.11475277
0.24345604 -0.046727479 0.07349968
0.24305204 0.036115527 0.090005875
0.24286103 0.075287521 0.097810745
0.25659603 0.31673652 -0.46415329
0.24006903 0.23033249 -0.030193329
0.23741305 -0.0017204881 0.082488537
0.23894104 -0.32704049 0.017666817
0.23867905 -0.27131552 0.02876997
0.23838505 -0.2086665 0.04125452
0.23990804 0.28090453 -0.28404808
0.23141903 0.036160529 0.090058804
0.23306105 -0.3270095 0.01769495
0.22521403 0.1255765 0.1078968
0.22596204 -0.046654522 0.073579788
0.23376605 0.28091949 -0.28403425
0.23769504 0.31677949 -0.46410418
0.22615504 -0.091070473 0.064728737
0.21941304 0.1255945 0.1079216
0.22230604 0.23037654 -0.030170441
0.22762305 0.2809335 -0.28401947
0.22057104 -0.15183753 0.052643776
0.21336004 0.20038849 0.12047195
0.22509405 0.3168065 -0.46406317
0.21571404 -0.40006346 0.0032038689
0.20757103 0.2004025 0.12048054
0.20864004 -0.091001451 0.064808846
0.20178205 0.20041651 0.12049198
0.20454304 0.2304185 -0.030130386
0.21249503 0.31683254 -0.46401405
0.20393103 -0.40000755 0.0032577515
0.20302403 -0.15176743 0.052721977
0.19665404 -0.00157547 0.082669735
0.19172204 -0.27110451 0.028986931
0.18450303 0.16047853 0.11500263
0.18441604 0.20045453 0.12053871
0.19359703 0.31686848 -0.46393108
0.18548003 -0.15170544 0.052799702
0.17932203 -0.046495497 0.073784828
0.17918903 -0.0015234947 0.082744598
0.18015003 -0.32677346 0.01793766
0.17301404 0.1257205 0.10812092
0.17291704 0.16050452 0.11504984
0.17635503 0.25062948 -0.13118315
0.17326203 0.036342502 0.090312958
0.17378604 -0.15166849 0.052850723
0.16721503 0.12573349 0.10814381
0.16712505 0.1605165 0.11507368
0.16902404 0.23049152 -0.030001163
0.17234604 0.28104448 -0.28380203
0.16744804 0.036356509 0.0903368
0.16825004 -0.2710225 0.029090881
0.16778004 -0.09087044 0.064987659
0.16183403 -0.046448529 0.073858738
0.16194305 -0.090855539 0.065010548
0.15590504 -0.0014654994 0.082843781
0.16006303 0.28106451 -0.28373528
0.15624404 -0.15161949 0.05292654
0.14974603 0.16054952 0.11514473
0.14968804 0.2005235 0.12068272
0.15392303 0.28107452 -0.28369808
0.15076303 -0.32667845 0.018067837
0.14402103 0.1257785 0.1082387
0.14395504 0.16055954 0.11516857
0.14419204 0.036406517 0.090433598
0.14466004 -0.20832545 0.041671753
0.14455204 -0.15159053 0.052975655
0.14031103 0.25069153 -0.13098812
0.14321405 0.31694949 -0.4636302
0.13870603 -0.15157753 0.053000927
0.13242404 0.1257965 0.10828686
0.12662703 0.12580448 0.10830975
0.12680304 -0.0014104843 0.082963943
0.12717804 -0.27091545 0.029264927
0.12229004 0.25071752 -0.13086748
0.12146904 -0.39973253 0.0036206245
0.11532104 -0.15153545 0.053095818
0.11027703 0.25073254 -0.13077831
0.11094204 0.28113449 -0.28339624
0.10969004 -0.39971048 0.0036697388
0.10341204 0.1606105 0.11532974
0.10391804 0.23059249 -0.029600143
0.10380103 -0.39970046 0.003692627
0.10358603 -0.090746462 0.065250874
0.097846039 -0.27086753 0.029383659
0.097752035 -0.090739429 0.065274715
0.092083037 0.23060548 -0.029504299
0.091886036 -0.001368463 0.083102703
0.092259035 0.25075352 -0.13063002
0.092525035 0.28115451 -0.28324032
0.086045034 0.12584454 0.10846853
0.086075038 -0.046328485 0.074166775
0.08612404 -0.32655853 0.018332958
0.080246039 0.12584752 0.1084919
0.080246039 0.23061752 -0.029400349
0.080246039 0.2507655 -0.1305232
0.080246039 0.075639486 0.098488808
0.080246039 0.31702054 -0.46310616
0.080246039 -0.15149754 0.053233624
0.074456036 0.1606285 0.11544275
0.06865304 0.12585253 0.10853481
0.067969039 0.28117651 -0.2830081
0.068622038 0.036488533 0.090731621
0.06851504 -0.27084452 0.029497623
0.068577036 -0.090720475 0.065386772
0.056577038 0.2306385 -0.029170036
0.055691037 0.28118551 -0.28288126
0.057023037 0.075645506 0.098575592
0.055063039 0.31703854 -0.46284819
0.056782037 -0.27084249 0.029542923
0.056865036 -0.15148944 0.053323746
0.050660037 0.2306425 -0.029108047
0.051150039 -0.0013545156 0.083256721
0.051020037 -0.15148944 0.053344727
0.044743039 0.23064649 -0.029044151
0.044214036 0.25079352 -0.13015842
0.045412038 0.075644493 0.098618984
0.044916037 -0.39966553 0.0039186478
0.044992037 -0.32654554 0.01848793
0.037277035 0.28119653 -0.28267813
0.039028037 -0.39966851 0.0039405823
0.039404038 -0.090721428 0.065496922
0.033693038 -0.0013594627 0.083320618
0.033746038 0.03648454 0.09085989
0.027549036 -0.20822853 0.042126656
0.021976039 -0.046330512 0.074403763
0.021694038 -0.20823354 0.04214859
0.016382039 0.075629532 0.098724842
0.015613034 -0.32656747 0.018593788
0.01583904 -0.2082395 0.042169571
0.01606404 -0.090736449 0.065579891
0.0092420354 0.2306605 -0.028626442
0.01057604 0.075624526 0.098744869
0.0095850378 -0.39969653 0.0040435791
0.010229036 -0.090742528 0.065600872
0.0048820376 0.12582952 0.10876894
0.0049610361 0.16060853 0.11569881
0.0044930354 -0.046347439 0.074465752
0.0045950338 -0.0013824701 0.083424568
0.003860034 -0.32658249 0.018633842
-0.0013339594 -0.046354473 0.074486732
-0.011828966 0.28121054 -0.2820611
-0.012412965 0.16058952 0.1157589
-0.014423966 0.23066354 -0.028310299
-0.012862965 -0.0014054775 0.083485603
-0.020478964 0.31706351 -0.46191406
-0.018815964 -0.046381533 0.074546814
-0.01857096 0.036431491 0.091044903
-0.019293964 -0.20829254 0.042289734
-0.024105966 0.1257925 0.10886955
-0.02389396 0.20066553 0.12238789
-0.025347963 -0.27093345 0.029831886
-0.030198961 0.036411524 0.091084957
-0.031639963 -0.39978045 0.0041809082
-0.039854966 0.25080752 -0.12906122
-0.036454961 -0.090819538 0.065758705
-0.043418966 -0.39981455 0.0042176247
-0.042290963 -0.090833485 0.065778732
-0.047957964 -0.046440542 0.074643612
-0.05479496 0.28120452 -0.28143024
-0.047640957 0.036376536 0.091141701
-0.049309961 -0.3998335 0.0042366982
-0.057869963 0.25080252 -0.12877941
-0.058895968 0.12572753 0.10898685
-0.061756961 0.23065251 -0.027591228
-0.06108997 -0.39987344 0.0042719841
-0.06029097 -0.20839649 0.042421818
-0.06524796 -0.0015144944 0.083658695
-0.069878958 0.2507965 -0.12858534
-0.066979967 -0.39989549 0.0042896271
-0.066661961 -0.3267625 0.018860817
-0.06563697 -0.09089452 0.065852642
-0.070720963 0.075483501 0.099019527
-0.071472965 -0.090912521 0.065870762
-0.076293968 0.12568653 0.1090436
-0.077102967 -0.046520531 0.074737549
-0.085484959 0.28119051 -0.28092718
-0.076713957 0.036304533 0.091235638
-0.082712956 -0.0015645027 0.083713531
-0.08372096 -0.20847648 0.042492867
-0.087717958 0.16044253 0.11600971
-0.088761963 -0.046557486 0.074771881
-0.088343956 0.036269486 0.091272831
-0.090174966 -0.32685453 0.018929958
-0.089893959 -0.27113849 0.030029774
-0.093314968 0.20063049 0.12353277
-0.099902965 0.25077552 -0.1280632
-0.09910097 0.20062453 0.12363958
-0.11490496 0.31702554 -0.46040344
-0.10232797 -0.40004843 0.0043916702
-0.10163396 -0.27118844 0.030064583
-0.10066196 -0.091011465 0.06595993
-0.11191396 0.2507655 -0.12784338
-0.10715396 -0.20857149 0.042560577
-0.11138297 0.07536149 0.099147797
-0.12749496 0.31701452 -0.46017313
-0.11301296 -0.20859748 0.042577744
-0.11233797 -0.091057479 0.065993786
-0.11764797 -0.0016855001 0.083819866
-0.12845096 0.28115553 -0.28015041
-0.12300196 0.075320542 0.099181652
-0.12473097 -0.20865148 0.042609692
-0.13275796 0.23059154 -0.026299477
-0.12905896 0.036127508 0.091396809
-0.13407695 0.16029954 0.11615467
-0.13381797 0.20056951 0.1241827
-0.13721398 -0.32708746 0.019057751
-0.13685498 -0.27136153 0.030161858
-0.14124095 -0.046764433 0.074926853
-0.14309397 -0.32712144 0.019074917
-0.14231196 -0.20874053 0.042657852
-0.14193696 -0.15198547 0.053964615
-0.14153495 -0.09118551 0.066077709
-0.15914297 0.28111953 -0.2795434
-0.14651197 0.036056519 0.09144783
-0.14778697 -0.15201443 0.053981781
-0.14737496 -0.091213524 0.066094875
-0.15146697 0.16023552 0.11620665
-0.15642697 0.23056054 -0.025810242
-0.15290797 -0.046819508 0.074959755
-0.17142096 0.28110254 -0.27928734
-0.17786095 0.31695849 -0.45918512
-0.16034195 -0.27149552 0.030220985
-0.15989596 -0.20883745 0.042704582
-0.15949097 -0.1520775 0.054012775
-0.16306096 0.16019052 0.11624193
-0.17755994 0.28109449 -0.27915621
-0.16715595 -0.40042955 0.0045566559
-0.16621497 -0.27153152 0.030235767
-0.16575697 -0.20887154 0.042718887
-0.17417794 0.23053253 -0.02542448
-0.17007095 -0.0019164681 0.083969593
-0.17797196 0.25068152 -0.12650013
-0.16978794 0.035950541 0.09151268
-0.16949397 0.075129509 0.099318981
-0.19045195 0.31694049 -0.45892048
-0.17250395 -0.3273055 0.019146919
-0.18009496 0.23052251 -0.025292397
-0.17624095 -0.046938479 0.075021744
-0.17560697 0.035922527 0.091529846
-0.17894694 -0.40051252 0.004585743
-0.17838696 -0.32734543 0.019160748
-0.18072796 0.1253165 0.10935974
-0.19337896 -0.0020384789 0.084031582
-0.19603896 -0.32747048 0.019201756
-0.19751596 0.2003215 0.12436962
-0.19958195 -0.04706949 0.075083733
-0.20800194 0.25062853 -0.12581825
-0.21439496 0.28103352 -0.27833939
-0.19888994 0.03580153 0.091592789
-0.20145795 -0.27176851 0.030319691
-0.22053596 0.28102249 -0.27819633
-0.20471296 0.035770535 0.091607571
-0.20680097 -0.20913655 0.042818546
-0.22667494 0.28101152 -0.27805233
-0.21433195 -0.40078849 0.0046606064
-0.21556395 0.12514651 0.10945559
-0.21635696 0.035704494 0.091637611
-0.22022995 -0.40083843 0.0046739578
-0.22217995 0.035670519 0.091653824
-0.22496197 -0.27194649 0.03037262
-0.23026097 -0.20930845 0.042872906
-0.22973797 -0.15252453 0.054184914
-0.24404395 0.2505545 -0.1249423
-0.23502395 -0.091735542 0.066316605
-0.23879597 0.12501949 0.10951662
-0.23965195 0.035563529 0.091696739
-0.26601696 0.31680751 -0.45719528
-0.24199596 -0.20939952 0.042898655
-0.24145296 -0.15261143 0.054210663
-0.24387294 0.2000975 0.12449789
-0.24628395 -0.04736954 0.075197697
-0.25605795 0.25052649 -0.12463522
-0.25041395 0.1249525 0.10954666
-0.24966896 0.20006651 0.12451363
-0.25703296 0.23036152 -0.02341032
-0.25167695 -0.0023974776 0.084177971
-0.25091296 0.074688494 0.099533558
-0.27861294 0.31678051 -0.45688343
-0.25435296 -0.27218944 0.030433655
-0.25256395 -0.091861546 0.066356659
-0.26079595 -0.32800955 0.019335747
-0.26887295 0.23033154 -0.023093224
-0.26380494 -0.047495544 0.075238705
-0.27408096 0.2504825 -0.1241622
-0.26668596 -0.3280645 0.019346714
-0.26546997 -0.20959347 0.042946815
-0.26837096 0.074576497 0.099577904
-0.27257594 -0.32812148 0.019356728
-0.27199295 -0.27234751 0.030467987
-0.27285996 0.19993752 0.12457275
-0.28609696 0.25045151 -0.12383842
-0.29422295 0.28086048 -0.27635145
-0.27846596 -0.32817847 0.019367695
-0.28663096 0.2302835 -0.022604465
-0.28435695 -0.32823652 0.019378662
-0.29811394 0.25041848 -0.12350702
-0.30650795 0.28082854 -0.2760191
-0.31640795 0.31669253 -0.4559083
-0.28895095 -0.20980245 0.042992592
-0.30412295 0.25040251 -0.12333822
-0.29165694 0.074417531 0.09963274
-0.29695797 -0.40158349 0.0048117638
-0.29418996 -0.15304548 0.054321766
-0.30439195 0.23023254 -0.022099018
-0.29835096 -0.0027374625 0.084285736
-0.31879196 0.28079551 -0.27568102
-0.29792297 0.035162508 0.091834545
-0.30286396 -0.40164846 0.00481987
-0.30232397 0.15944952 0.11661386
-0.30470496 -0.047816455 0.075327873
-0.30418697 -0.0027834773 0.084297657
-0.31613997 0.25036752 -0.12299728
-0.30876994 -0.4017145 0.0048289299
-0.30656695 -0.20996851 0.04302454
-0.30853894 0.12457854 0.10968876
-0.34160596 0.31662649 -0.45522404
-0.31467596 -0.4017815 0.0048379898
-0.31243995 -0.21002549 0.043035984
-0.31346595 0.19968951 0.12467575
-0.32017097 0.12449551 0.10971594
-0.32170194 -0.0029264688 0.08433485
-0.32350796 -0.15331644 0.054376602
-0.32507196 0.1996125 0.12470388
-0.32808897 -0.048017442 0.075372696
-0.32707796 0.034934521 0.091898918
-0.36050895 0.3165735 -0.45469522
-0.32863095 -0.092496455 0.066514969
-0.34584096 0.23010051 -0.020858288
-0.34422195 -0.40213245 0.0048766136
-0.34330395 -0.32887453 0.019470692
-0.34408095 0.074018538 0.099747658
-0.35090294 -0.0031794906 0.084392548
-0.35041395 0.034738541 0.091945648
-0.38571694 0.3164975 -0.45396423
-0.35509995 -0.32901448 0.019486904
-0.36360696 0.23003751 -0.020299435
-0.35733294 -0.048286498 0.075429916
-0.37023196 0.25019354 -0.12136936
-0.38022795 0.28060752 -0.2738843
-0.36099896 -0.32908553 0.019494534
-0.35791394 -0.092777431 0.066566944
-0.36090097 0.1241855 0.10980558
-0.37624195 0.2501725 -0.12117815
-0.36156595 0.07387352 0.099784851
-0.36377195 -0.09283644 0.066576958
-0.36739695 0.073823512 0.099795818
-0.37378296 -0.40251154 0.0049128532
-0.37121096 -0.21064943 0.043131828
-0.36963195 -0.092895448 0.066587925
-0.38826695 0.25012851 -0.12079334
-0.37322795 0.073773503 0.099807739
-0.37549195 -0.092956483 0.066596985
-0.37788695 0.15889853 0.11678553
-0.40480995 0.28052354 -0.27311707
-0.37905896 0.073721528 0.09981966
-0.38418895 0.12399352 0.1098547
-0.39050496 -0.32945853 0.019529819
-0.38721296 -0.093079507 0.066615582
-0.39744395 -0.40283352 0.0049366951
-0.39640996 -0.3295365 0.019537926
-0.39393497 -0.15405947 0.054490566
-0.39307594 -0.09314245 0.066624641
-0.39830294 -0.048696458 0.075499535
-0.39765894 -0.0036234856 0.084479809
-0.43614495 0.31633049 -0.45241928
-0.40336096 -0.40291649 0.004942894
-0.40151694 -0.27377445 0.030665874
-0.40061995 -0.2109955 0.043170929
-0.40057597 0.19905949 0.12487364
-0.41099596 0.22985649 -0.018727303
-0.40415797 -0.048758447 0.075509548
-0.40295795 0.034256518 0.092045784
-0.40650395 -0.2110675 0.043177605
-0.43554294 0.28040951 -0.27211618
-0.41412395 -0.32977551 0.019555569
-0.43035597 0.2499665 -0.11938906
-0.41406095 0.073399484 0.099886894
-0.45505893 0.31626248 -0.45181227
-0.43637097 0.24994153 -0.11918211
-0.42048693 0.034082532 0.092076778
-0.41989797 0.073343515 0.099896908
-0.42330998 -0.15440553 0.054531574
-0.42690498 -0.0039255023 0.084526539
-0.42573494 0.073286533 0.099907875
-0.43295693 -0.40335053 0.0049657822
-0.43026698 0.15845454 0.11689281
-0.43217498 0.033963501 0.092095852
-0.43157297 0.073229492 0.099917889
-0.43930697 -0.04914552 0.075564861
-0.43999797 -0.093675435 0.066692829
-0.44516897 -0.049212515 0.075571537
-0.46042997 0.24983948 -0.11833334
-0.44771498 -0.21159846 0.043227673
-0.44909197 0.073052526 0.099947929
-0.47246099 0.24978548 -0.11789846
-0.48473293 0.28020954 -0.27042723
-0.45949596 -0.21175843 0.04323864
-0.45760697 -0.093889534 0.066716671
-0.45995796 0.12329853 0.1099987
-0.46202493 -0.0043125153 0.084582806
-0.46849895 -0.40390545 0.004986763
-0.46731097 -0.33054847 0.019598961
-0.46446598 -0.15492851 0.054579735
-0.46455896 0.19851249 0.12500286
-0.48449194 0.24973154 -0.11745644
-0.47230893 -0.27475244 0.03073597
-0.47162694 0.12318152 0.11001778
-0.47104996 0.1580745 0.11696863
-0.49050993 0.24970353 -0.11723232
-0.47687894 0.15801752 0.11697865
-0.47959697 -0.0045164824 0.084605694
-0.47830498 0.072744489 0.099995613
-0.49097097 -0.33091849 0.019613743
-0.48896396 -0.21217448 0.043266773
-0.48800194 -0.15524548 0.054605961
-0.49989593 0.22945452 -0.015469074
-0.50856197 0.24961752 -0.11654902
-0.49388796 -0.1553275 0.054610729
-0.50407296 -0.40450054 0.0050029755
-0.50184298 -0.2752015 0.03075552
-0.50020498 0.15778351 0.1170187
-0.51175594 0.2293945 -0.015004158
-0.50382495 -0.04992944 0.075647831
-0.52661693 0.24952853 -0.11585045
-0.50753993 0.072418511 0.10003996
-0.52731097 -0.050239503 0.07567358
-0.57493395 0.31575954 -0.44760942
-0.53241193 -0.33160549 0.019631863
-0.53139794 -0.27567548 0.030770779
-0.53511798 -0.1559245 0.054645538
-0.53586495 0.12249249 0.11012077
-0.53521997 0.1574145 0.11707687
-0.54425997 -0.33181149 0.01963377
-0.54322594 -0.27587146 0.030775547
-0.54030496 0.1977725 0.12513685
-0.55155498 -0.40535444 0.0050077438
-0.54914093 -0.27597147 0.030777931
-0.54689997 0.15728652 0.11709499
-0.55505896 -0.27607244 0.030779839
-0.61281896 0.31557554 -0.44615412
-0.56342494 -0.095329463 0.066824913
-0.56442493 0.15708953 0.11712074
-0.57700294 0.2290405 -0.01231432
-0.56607795 0.071713507 0.10011673
-0.57389796 -0.33234447 0.019638538
-0.57281494 -0.27638048 0.030785561
-0.57026893 0.15702254 0.1171298
-0.57193595 0.071639538 0.10012579
-0.57982796 -0.33245343 0.019638538
-0.57750595 -0.2135635 0.043317795
-0.57639295 -0.15656453 0.054671764
-0.57680398 0.12201154 0.11017895
-0.58021295 -0.050981462 0.075722694
-0.58115697 0.1973325 0.1252017
-0.59480596 0.22893554 -0.01154232
-0.60489595 0.24910551 -0.11263609
-0.60073996 0.22890049 -0.011281013
-0.59197795 -0.051155508 0.075733662
-0.59107196 -0.0059685111 0.084732533
-0.62628293 0.27950948 -0.26494026
-0.59910095 -0.4062795 0.0050005913
-0.59283698 0.19720149 0.12521887
-0.61694396 0.24903554 -0.11211538
-0.63244194 0.27947551 -0.26468134
-0.60115498 -0.21396846 0.043326855
-0.60021895 0.12172252 0.11020899
-0.60124898 0.071257532 0.10015678
-0.61181295 -0.15714854 0.054686546
-0.61055595 -0.096056521 0.066854954
-0.61297995 0.07109952 0.10016966
-0.66967893 0.31527549 -0.44385624
-0.62021095 -0.27724546 0.030789852
-0.64104795 0.24888951 -0.11105108
-0.62362695 -0.15734953 0.054691792
-0.62234795 -0.096246541 0.066861629
-0.62291098 0.1563915 0.1171999
-0.63635796 0.22867954 -0.0096764565
-0.62634897 -0.0064845085 0.084760666
-0.64707398 0.24885249 -0.11078024
-0.63073993 -0.21449751 0.043331623
-0.62824595 -0.096343458 0.066863537
-0.62790495 0.1967935 0.12526798
-0.63919497 -0.33360654 0.019630909
-0.63544798 -0.15755552 0.054693699
-0.63414693 -0.096440494 0.066866875
-0.63375294 0.19672352 0.12527561
-0.64258295 -0.21471554 0.043331623
-0.64047796 0.15616953 0.11722183
-0.64498198 -0.051977456 0.07576561
-0.64400297 -0.006752491 0.08477354
-0.66515797 0.24873954 -0.10995626
-0.64850497 -0.21482652 0.043332577
-0.64545298 0.19658148 0.12529182
-0.67118597 0.2487005 -0.10967922
-0.64905894 0.031223536 0.092358589
-0.70760798 0.31506151 -0.44224739
-0.65862995 -0.40753347 0.0049738884
-0.65442896 -0.21493751 0.043331623
-0.65677297 -0.052169502 0.075771809
-0.65407497 0.070525527 0.10020876
-0.66297197 -0.33409745 0.019621849
-0.65883094 0.1209535 0.11027575
-0.65805495 0.15594149 0.11724186
-0.67199397 0.22844553 -0.0080060959
-0.66082394 0.03104651 0.092366695
-0.65994996 0.070440531 0.10021257
-0.67793393 0.22840554 -0.0077223778
-0.70639193 0.27903253 -0.26142836
-0.66670698 0.030956507 0.092370987
-0.67486793 -0.3343485 0.019614697
-0.67056596 0.12079149 0.11028481
-0.66977793 0.15578651 0.11725378
-0.67446697 -0.052463472 0.075778961
-0.68081695 -0.33447653 0.019612789
-0.67684996 -0.15830153 0.054700851
-0.67547297 -0.097144544 0.066880703
-0.68676698 -0.33460444 0.019609928
-0.69440395 -0.40833944 0.004945755
-0.68999696 -0.21562546 0.043327808
-0.68643898 0.19606453 0.12534285
-0.71340096 0.24842054 -0.10768318
-0.69025195 0.030591488 0.092385769
-0.68934393 0.070005536 0.10023689
-0.69592798 -0.21574348 0.043325901
-0.73722494 0.2788325 -0.25999641
-0.75821197 0.3147555 -0.44000435
-0.70633698 -0.40861744 0.0049357414
-0.71358693 0.22815651 -0.0059752464
-0.70203096 0.030404508 0.092393875
-0.70497698 0.15530652 0.11728954
-0.70988894 -0.053072512 0.075789928
-0.71654093 -0.33526248 0.019588947
-0.71238595 -0.1589765 0.05469656
-0.75573194 0.27870852 -0.25911617
-0.71287996 0.069644511 0.10025263
-0.71671897 0.15514153 0.11730194
-0.73141998 0.22802752 -0.0050764084
-0.76190197 0.2786665 -0.25882006
-0.71876693 0.069552541 0.10025692
-0.72845793 -0.33553249 0.019579887
-0.72560698 -0.21634752 0.043315887
-0.74960297 0.24816549 -0.10590124
-0.73619395 -0.40933055 0.0049037933
-0.77424294 0.2785815 -0.2582202
-0.73150194 0.029923499 0.09240675
-0.74216896 -0.40947646 0.0048975945
-0.74037993 -0.33580643 0.019569874
-0.73609895 -0.15944451 0.054692745
-0.73434293 0.15488952 0.11731577
-0.73740095 0.029825509 0.092409611
-0.76771194 0.24803352 -0.10498619
-0.78658795 0.27849549 -0.25761414
-0.74232793 0.069177508 0.10026884
-0.74696594 0.1196745 0.11034775
-0.77374893 0.24798852 -0.10467815
-0.75096196 0.19519353 0.1254096
-0.75605398 -0.0086144805 0.084819794
-0.77978593 0.24794352 -0.1043663
-0.79893297 0.27840751 -0.2570014
-0.76126295 -0.21710449 0.043297768
-0.75785595 0.15454352 0.1173358
-0.75683594 0.1951105 0.12541389
-0.76001096 0.068888485 0.10027695
-0.82785296 0.31429952 -0.43674326
-0.76577097 -0.16005045 0.054682732
-0.79186398 0.2478525 -0.10373926
-0.81128293 0.27831852 -0.25638008
-0.76590997 0.068790495 0.10028076
-0.77171093 -0.16017348 0.054681778
-0.77051693 0.11930752 0.11036158
-0.84052396 0.31421149 -0.43612719
-0.77764994 -0.16029853 0.054677963
-0.77446395 0.19485849 0.12542963
-0.80394298 0.24775952 -0.10310602
-0.78668296 -0.28077644 0.030705929
-0.78229898 0.11912054 0.11036777
-0.79684693 0.22752452 -0.0016412735
-0.78561693 -0.0091505051 0.084822655
-0.79101294 -0.2177605 0.043278694
-0.78953296 -0.16055053 0.054671764
-0.78819394 0.11902553 0.11037064
-0.78728098 0.15409648 0.11735678
-0.80279893 0.22747654 -0.0013170242
-0.81602597 0.24766552 -0.10246515
-0.78951293 0.068392515 0.10028791
-0.79696798 -0.21789449 0.043274879
-0.79547793 -0.16067845 0.054668903
-0.79388195 -0.099386513 0.06687355
-0.79408896 0.11893052 0.11037493
-0.82206696 0.2476185 -0.10214138
-0.80456895 -0.054839432 0.075790882
-0.80337197 -0.0094814897 0.084822655
-0.84834296 0.27804154 -0.25447702
-0.80236393 0.028692484 0.092426777
-0.80387098 0.19442654 0.12545252
-0.85452098 0.27799451 -0.25415325
-0.81997097 -0.41147548 0.0047898293
-0.81419194 0.02847749 0.092426777
-0.81313598 0.067983508 0.10029364
-0.81762594 -0.09987551 0.066865921
-0.81768197 0.11854249 0.11038589
-0.81673795 0.15363449 0.11737394
-0.83256298 0.2272315 0.00032758713
-0.82235998 -0.055193484 0.075786591
-0.89123195 0.3138485 -0.43359804
-0.82521796 -0.16132849 0.05464983
-0.82356697 -0.10000044 0.066862583
-0.82263297 0.15353954 0.11737776
-0.83851695 0.22718149 0.0006608963
-0.82495695 0.067774534 0.10029697
-0.83422798 -0.055434525 0.075782776
-0.87924296 0.27780151 -0.25284147
-0.83194798 0.028148532 0.092427731
-0.83086896 0.067668498 0.10029793
-0.84395796 -0.41212946 0.0047497749
-0.83442694 0.15334851 0.11738396
-0.83891696 -0.010165513 0.084820747
-0.88542497 0.27775252 -0.25250912
-0.83678293 0.067562521 0.10029984
-0.84610194 -0.055678546 0.075777531
-0.89160895 0.27770352 -0.25217438
-0.84903598 -0.16186553 0.054630756
-0.85204095 -0.055801451 0.075775623
-0.85991096 -0.33878452 0.019420624
-0.85834593 -0.28253049 0.030624866
-0.85328698 -0.10063547 0.066848755
-0.85311496 0.11793953 0.11039782
-0.90397596 0.27760351 -0.25150013
-0.85564095 0.027698517 0.092426777
-0.85923594 -0.10076553 0.06684494
-0.85803598 0.15295953 0.11739159
-0.87189496 -0.33910555 0.01940155
-0.86518598 -0.10089654 0.066838741
-0.86749494 0.027469516 0.09242487
-0.86637396 0.067020535 0.10030174
-0.87998295 -0.41314346 0.0046796799
-0.87113696 -0.10102743 0.066836834
-0.88617498 0.22676754 0.0034036636
-0.90066397 0.24696553 -0.097773075
-0.87884194 -0.16255754 0.054605961
-0.87935698 0.027237535 0.092422962
-0.88645196 -0.2200225 0.04318285
-0.88268197 0.11741853 0.11040258
-0.88859993 0.11731249 0.11040497
-0.88639694 0.19313353 0.12550354
-0.89007396 0.066573501 0.10030079
-0.89230394 0.1930365 0.12550592
-0.89960694 -0.056816518 0.075751781
-0.89827895 -0.0113675 0.084801674
-0.90624094 -0.28378147 0.030553818
-0.90422297 -0.011492491 0.084798813
-0.90193397 0.066345513 0.10029984
