# .PCD v0.7 - Point Cloud Data file format
VERSION 0.7
FIELDS x y z
SIZE 4 4 4
TYPE F F F
COUNT 1 1 1
WIDTH 1
HEIGHT 1024
VIEWPOINT 0 0 0 1 0 0 0
POINTS 1024
DATA ascii
0.51512462 0.44222289 -0.84190083
0.50410062 0.39958388 -0.77683687
0.49056756 0.32794189 -0.67281103
0.49014756 0.40069389 -0.76343203
0.46259758 0.16767389 -0.44253588
0.46892256 0.23940688 -0.53903389
0.47945556 0.3588599 -0.69972801
0.45972955 0.21170288 -0.49460888
0.46219656 0.24009287 -0.53275967
0.47256956 0.3594479 -0.69316196
0.44934756 0.1691559 -0.43034077
0.45548156 0.24077588 -0.52649689
0.45906156 0.2825799 -0.58261871
0.43706957 0.10267091 -0.33409977
0.46602657 0.44583392 -0.79435587
0.46898955 0.48094988 -0.84145069
0.43973756 0.21381688 -0.47605467
0.44209257 0.24213791 -0.51400089
0.45906657 0.44634491 -0.78761387
0.42659757 0.13510489 -0.36359262
0.41511956 -0.0050970912 -0.17592669
0.42048457 0.060433865 -0.26364183
0.44273457 0.33221692 -0.62743902
0.40908957 -0.078741074 -0.077348709
0.41758856 0.10502589 -0.31639099
0.42007455 0.13586491 -0.35762787
0.40576956 -0.041578054 -0.12034798
0.40878057 -0.0042341352 -0.17028379
0.44173455 0.40453488 -0.71689987
0.44518656 0.44736087 -0.77416706
0.40284756 -0.07782805 -0.071873665
0.41985556 0.21591389 -0.45759487
0.40245157 -0.0033740997 -0.16464996
0.39661455 -0.076916099 -0.066404819
0.41325256 0.21660888 -0.4514637
0.41545758 0.24484092 -0.48914385
0.40124255 0.062874913 -0.24629402
0.42801756 0.40561891 -0.70371199
0.39039356 -0.076006055 -0.060945988
0.40666157 0.21730191 -0.44534397
0.38696358 -0.038924098 -0.10372591
0.38982856 -0.0016590953 -0.15341187
0.39227855 0.030210912 -0.19590187
0.41794658 0.36409289 -0.64105272
0.42117956 0.40615988 -0.69713688
0.37336656 -0.21580207 0.13209629
0.37704557 -0.16795111 0.068299294
0.39683157 0.17500788 -0.38197803
0.40221456 0.24618292 -0.47677898
0.38847256 0.064491868 -0.23477602
0.41117558 0.36466688 -0.63459206
0.41758257 0.44937891 -0.74741983
0.42022255 0.4842819 -0.79390669
0.37096557 -0.16698408 0.073535919
0.37798357 -0.074194074 -0.050056934
0.39869657 0.28835487 -0.52583694
0.37961656 0.031872869 -0.18455505
0.40222755 0.3358199 -0.58899498
0.36133957 -0.21380913 0.14235735
0.36489457 -0.16602015 0.078766346
0.35009357 -0.36497414 0.34350109
0.38118055 0.14038491 -0.32204294
0.38695857 0.21937287 -0.42704296
0.35534155 -0.21281707 0.14747429
0.34164956 -0.3999691 0.39625835
0.36699957 0.033525884 -0.173244
0.38882658 0.33700889 -0.57627106
0.39093858 0.3663789 -0.61527491
0.40266857 0.52946687 -0.83185196
0.35278556 -0.16409814 0.08920002
0.35944656 -0.071492076 -0.033782005
0.33849457 -0.36280906 0.35309124
0.37388358 0.22074389 -0.41489267
0.35583755 -0.034545064 -0.076202869
0.36070755 0.034348905 -0.16760302
0.36306557 0.067701876 -0.21185064
0.38214457 0.33760089 -0.56992674
0.33270857 -0.3617301 0.3578763
0.36188957 0.14261991 -0.30438375
0.36438957 0.17860591 -0.35207987
0.36736357 0.2214269 -0.40883493
0.34964457 -0.033675075 -0.07072401
0.36931455 0.24950588 -0.44605064
0.35674158 0.068498909 -0.20614386
0.37751156 0.3675139 -0.60245371
0.38337058 0.45187092 -0.71425962
0.34378356 -0.11804211 0.04109621
0.32693157 -0.36065412 0.36265516
0.36276856 0.25016588 -0.43993473
0.36558956 0.29150492 -0.49467373
0.36881456 0.33877987 -0.5572691
0.37366757 0.4099009 -0.65143681
0.38191357 0.53075188 -0.8114481
0.33144656 -0.20887005 0.16787195
0.31555557 -0.44175911 0.47624016
0.31870657 -0.39557612 0.41508913
0.34412557 0.07008791 -0.19475508
0.36413157 0.36864191 -0.58968067
0.36693156 0.41042989 -0.64495468
0.37209857 0.48755288 -0.74696875
0.30475858 -0.52208614 0.58235312
0.32549757 -0.20789015 0.17295408
0.33164257 -0.11619508 0.051661015
0.34971556 0.25147986 -0.42773676
0.35243055 0.29275388 -0.48228407
0.33564657 0.037621915 -0.14512491
0.36527658 0.48801491 -0.74031305
0.31683457 -0.24832606 0.23275614
0.29947355 -0.52223313 0.58149004
0.32268858 -0.15933406 0.11515236
0.32558757 -0.1152761 0.056931019
0.30729055 -0.39339507 0.42446518
0.33632657 0.14557391 -0.28097296
0.32497558 -0.030218124 -0.048892021
0.32940856 0.038434863 -0.1395278
0.35080156 0.36976486 -0.57695007
0.31362957 -0.20593512 0.18309212
0.31883356 -0.029359102 -0.04345274
0.33931857 0.29399687 -0.46993399
0.34947556 0.45433092 -0.68139362
0.30770856 -0.20496213 0.18815231
0.31350657 -0.11344314 0.067448139
0.29590857 -0.39122415 0.43381834
0.32583657 0.18286389 -0.31652784
0.32848558 0.22548991 -0.37269306
0.33278057 0.29461586 -0.46377563
0.33751956 0.37088192 -0.56426287
0.29593557 -0.29834807 0.31753111
0.33089757 0.37143791 -0.5579381
0.33600757 0.45530587 -0.66833162
0.27832055 -0.52283406 0.57802916
0.28674957 -0.35319006 0.39592218
0.30912358 0.11804587 -0.21766996
0.31094158 0.14849788 -0.25771475
0.31307757 0.18426889 -0.30475569
0.31728557 0.25473589 -0.3974247
0.31974158 0.29584891 -0.45149088
0.29546258 -0.1107111 0.083159924
0.30920357 0.22749788 -0.35475874
0.31083456 0.25538188 -0.39139366
0.32460657 0.4907639 -0.70062494
0.27861658 -0.29527712 0.33205318
0.26773855 -0.52314305 0.57629204
0.26887456 -0.46177709 0.55079794
0.29039657 0.011758864 -0.064767838
0.27825356 -0.20012808 0.21333599
0.28096858 -0.15276015 0.15116596
0.28348157 -0.10890114 0.093600273
0.29031456 0.12028587 -0.2005291
0.28220555 -0.02425015 -0.011008739
0.28789356 0.077141881 -0.14395571
0.30289856 0.34458691 -0.49463463
0.31114957 0.49167091 -0.68749094
0.31357858 0.5349589 -0.74424887
0.28019956 -0.060009122 0.035880089
0.26398656 -0.34898007 0.4147892
0.28573355 0.15139288 -0.2346077
0.28769258 0.18705791 -0.28132772
0.29002157 0.22949088 -0.33691502
0.29154956 0.25731087 -0.37335587
0.30930558 0.58072388 -0.79700184
0.25225157 -0.4584471 0.56425619
0.27783057 0.12177092 -0.1891489
0.28365058 0.23015189 -0.33098507
0.27374256 0.045664907 -0.089550018
0.27551657 0.078687906 -0.13276672
0.28985858 0.34572989 -0.48223877
0.29589856 0.45819992 -0.6294241
0.24656057 -0.52377808 0.57280397
0.26323557 -0.14997709 0.16648626
0.27319455 0.15282887 -0.22311068
0.27728957 0.23081088 -0.32506466
0.26402858 -0.021723151 0.0051021576
0.29570258 0.58147192 -0.78351498
0.24126257 -0.52394009 0.57192898
0.25734258 -0.1490531 0.17157793
0.27834958 0.37583786 -0.50771999
0.28047156 0.41718286 -0.56172085
0.28660056 0.5366109 -0.71770763
0.23596457 -0.52410412 0.57105398
0.25146055 -0.14813209 0.17666197
0.25918257 0.12398392 -0.17214489
0.25537556 0.048039913 -0.073045731
0.25702757 0.080992877 -0.11604691
0.27390558 0.4176929 -0.55539703
0.23066556 -0.5242691 0.57017708
0.23573457 -0.34377205 0.43822813
0.25298858 0.12471789 -0.16649485
0.25620857 0.19050491 -0.25225782
0.25827757 0.23277891 -0.30736685
0.24594456 -0.019215107 0.021140099
0.24927455 0.048826873 -0.067560673
0.27539757 0.58258593 -0.76337385
0.27978057 0.66443086 -0.88013506
0.23540756 -0.23451805 0.30181694
0.22757956 -0.6120801 0.51032019
0.22536556 -0.52443516 0.56929922
0.24420157 -0.054831147 0.067572117
0.22836557 -0.3784101 0.48939991
0.24680558 0.1254499 -0.16085386
0.24168757 0.018272877 -0.021269798
0.25328457 0.26112491 -0.33755493
0.24475557 0.082519889 -0.1049428
0.27222458 0.61471593 -0.85407686
0.25746056 0.34856391 -0.45142889
0.27327657 0.66433287 -0.88274479
0.22966157 -0.23354912 0.30669832
0.21923557 -0.45185614 0.5910182
0.23823656 -0.053975105 0.072824955
0.22449656 -0.34170616 0.44756031
0.23564357 0.01907891 -0.015868664
0.24884355 0.30252087 -0.38465881
0.26192155 0.58332288 -0.75000668
0.21687256 -0.61244011 0.50853014
0.21476057 -0.52477217 0.56754017
0.21376157 -0.45076609 0.59545708
0.23583956 0.15709686 -0.18883896
0.23252256 0.084039867 -0.093874931
0.23121756 0.19323087 -0.22916985
0.23308057 0.23537987 -0.28390265
0.22197056 -0.015898108 0.042411327
0.24125357 0.42022389 -0.52393866
0.20415157 -0.52511513 0.56577635
0.20612857 -0.37421608 0.50773191
0.22499657 0.19390887 -0.22342205
0.19884557 -0.52528906 0.56489134
0.23655057 0.6189509 -0.76769876
0.19544557 -0.61317813 0.50493717
0.20656456 -0.097343087 0.16069603
0.20992257 0.12980491 -0.12719488
0.21114756 0.15990591 -0.16617298
0.21429756 0.23731387 -0.26640701
0.21707156 0.30549288 -0.35468578
0.18822856 -0.52564013 0.56312227
0.18768357 -0.41670108 0.58046913
0.20265156 -0.048884153 0.10418797
0.19098556 -0.33556414 0.47540712
0.19815557 -0.012614131 0.063555241
0.20914757 0.26550287 -0.29622889
0.21075156 0.30608189 -0.34872293
0.20082957 0.055058897 -0.023990631
0.21258457 0.35247087 -0.40873194
0.21372056 0.38121188 -0.44591093
0.21534157 0.42222589 -0.49896765
0.21698757 0.46385586 -0.55282068
0.18968856 -0.22683012 0.34067535
0.18126857 -0.44562709 0.61625099
0.19487557 -0.095597148 0.17090511
0.18543057 -0.33454907 0.48002625
0.19886556 0.16129988 -0.15489388
0.20021957 0.19660187 -0.20051765
0.20183057 0.23859489 -0.25478888
0.19222656 -0.011798084 0.068820953
0.20288657 0.26612186 -0.29036379
0.19607556 0.088554919 -0.060876846
0.21515156 0.58587492 -0.70360374
0.20732157 0.38174087 -0.43978786
0.22002457 0.6650269 -0.867805
0.21048857 0.46431988 -0.54650974
0.17936257 -0.61374807 0.50222921
0.18558057 -0.18504107 0.29272318
0.18882057 0.056597888 -0.01318264
0.19986556 0.35357392 -0.39662504
0.20526557 0.49875689 -0.58407688
0.18322456 -0.093859076 0.18108416
0.18499057 -0.046366096 0.11976337
0.18662356 0.1626879 -0.14365005
0.18170756 0.026237905 0.032361984
0.19602856 0.42371386 -0.48034906
0.19874856 0.4991909 -0.57770681
0.16698156 -0.52635908 0.55956507
0.17584957 -0.13635409 0.2420969
0.17741157 -0.09299314 0.1861639
0.18320857 0.24050492 -0.23743105
0.17449556 -0.0093621016 0.084573269
0.19647457 0.62094188 -0.72769403
0.18818857 0.38332289 -0.42147779
0.18961456 0.42420691 -0.47416496
0.19224456 0.49962288 -0.57135105
0.16166657 -0.52654314 0.55867434
0.16020356 -0.44630706 0.61274815
0.17931156 0.3090089 -0.31904507
0.15964356 -0.27437115 0.43204403
0.15493457 -0.44648111 0.61187029
0.15505856 -0.4103781 0.60715294
0.16948657 0.19993091 -0.17209291
0.16390757 0.028589904 0.048295021
0.17305657 0.30958986 -0.31313992
0.17455956 0.35576391 -0.37253094
0.15103357 -0.52691412 0.5568881
0.15710157 -0.18044305 0.31716633
0.16003357 -0.090408087 0.20135736
0.15112856 -0.36390209 0.55314302
0.16226557 0.16544288 -0.12126589
0.16336957 0.20059192 -0.16643286
0.15799257 0.029370904 0.053591251
0.16825956 0.35630888 -0.36652994
0.17808557 0.66920185 -0.76859999
0.14851357 -0.27243209 0.44141912
0.15289956 -0.13280213 0.26198912
0.15529756 0.13621789 -0.07729578
0.15401156 0.093738914 -0.022760868
0.16897656 0.58838093 -0.65777588
0.16406956 0.42616791 -0.44952965
0.16634357 0.50133991 -0.54603386
0.13911857 -0.44700909 0.60922909
0.14129756 -0.32651007 0.51676416
0.15117057 0.20190787 -0.15514565
0.15771157 0.42665488 -0.443398
0.13893756 -0.21835208 0.38388014
0.13641757 -0.61533415 0.49495506
0.13384457 -0.44718814 0.60834694
0.13347057 -0.40621209 0.62482929
0.14327057 0.13762391 -0.066302776
0.13929556 -0.0045410991 0.11586618
0.14814256 0.31189889 -0.28961086
0.14942956 0.35793287 -0.34859467
0.15346357 0.5021919 -0.53344202
0.13104357 -0.61553907 0.49403906
0.12809357 -0.40517616 0.62923431
0.13831156 -0.039739132 0.16096735
0.12936157 -0.35984206 0.57114315
0.13034856 -0.32452416 0.52588701
0.13807257 0.16816992 -0.099024773
0.13901156 0.20321888 -0.14389086
0.14393957 0.38696688 -0.37911463
0.15153757 0.67033887 -0.74186993
0.14704056 0.50261593 -0.52716398
0.12636057 -0.26858413 0.46009302
0.13125257 -0.086140156 0.22653437
0.12488657 -0.32353413 0.53044128
0.13204756 0.16884792 -0.093484879
0.12856556 0.033243895 0.079946041
0.12084156 -0.26762712 0.46474791
0.12217857 -0.21556616 0.39816427
0.11801256 -0.44773209 0.60569191
0.12552257 -0.085292101 0.23155022
0.12673457 -0.03810215 0.17119503
0.12689257 0.20452291 -0.13267088
0.12956956 0.31361592 -0.27206373
0.12346856 0.064929903 0.045688152
0.13833457 0.67090285 -0.72857475
0.11660957 -0.21464217 0.40291214
0.11980356 -0.084447145 0.23655605
0.11312056 -0.35682106 0.58458424
0.11933456 0.14041489 -0.04441309
0.12003157 0.1701979 -0.082431793
0.12340057 0.31418592 -0.26623487
0.13175257 0.67118388 -0.72194576
0.10983256 -0.26572013 0.47403622
0.11199757 -0.17319715 0.35592508
0.11022156 -0.00057810545 0.14173317
0.11724157 0.31475389 -0.26041269
0.11889456 0.38901991 -0.35512686
0.10216957 -0.44828808 0.6030283
0.10879157 0.2064659 -0.11591005
0.099632569 -0.6939981 0.43641996
0.10178956 -0.12493408 0.30633593
0.096953563 -0.35382116 0.59797192
0.10148656 0.14249086 -0.028084755
0.10495356 0.31588489 -0.2487998
0.10064156 0.10027492 0.025651932
0.11207457 0.67202187 -0.70212698
0.093379565 -0.26287615 0.48792315
0.094935566 -0.76325417 0.38888502
0.095226564 -0.17051506 0.37035131
0.091132566 -0.40461707 0.63098097
0.091581568 -0.35282612 0.60242319
0.099689566 0.3622039 -0.30119467
0.087913565 -0.26193309 0.49254036
0.089465566 -0.76349616 0.38793135
0.092228569 -0.033238053 0.20169735
0.092708565 0.31701088 -0.23722506
0.088315569 0.069381893 0.077392101
0.093519568 0.36273187 -0.29531288
0.094022565 0.3910529 -0.33129406
0.095466569 0.47246188 -0.43472767
0.081025563 -0.44904912 0.59946012
0.084219567 0.17420989 -0.049476624
0.084798567 0.20903492 -0.093681812
0.081978567 0.03934288 0.12171316
0.085937567 0.27759689 -0.18070889
0.083027564 0.10242188 0.04164505
0.087361567 0.3632589 -0.28944063
0.078518562 -0.76398313 0.38602018
0.076447569 -0.52967107 0.54425097
0.080019563 -0.078585148 0.27140522
0.076095566 -0.31472707 0.57115507
0.078284569 0.17487288 -0.044013023
0.079885565 0.2781859 -0.17502785
0.077172562 0.10313392 0.046961308
0.084078565 0.54884791 -0.51826382
0.073042564 -0.76422906 0.38506413
0.071108565 -0.52987909 0.54334021
0.072987564 -0.16696811 0.38949299
0.070713565 -0.31376016 0.57565212
0.071934566 0.14591688 -0.0010347366
0.072860569 0.21031088 -0.08261776
0.078845568 0.62673187 -0.61020184
0.075073563 0.36430788 -0.27772379
0.066870563 -0.20641816 0.44536304
0.065769568 -0.53008807 0.54242802
0.064836562 -0.34788311 0.62459707
0.067813568 0.27935886 -0.16369486
0.068342566 0.31924689 -0.21418381
0.065496564 0.10455388 0.05756712
0.069320567 0.39306492 -0.30761909
0.073040567 0.67367989 -0.66280985
0.061386563 -0.20551515 0.45004797
0.059859566 -0.44983113 0.59587431
0.063101567 -0.076102138 0.28623724
0.063722566 -0.029238105 0.22691727
0.066575564 0.67395288 -0.65629673
0.063660562 0.4338159 -0.35262394
0.065070562 0.54998088 -0.49952507
0.055910565 -0.20461416 0.45472813
0.054278564 -0.40593314 0.62476826
0.058049567 -0.028443098 0.23193836
0.055483565 0.25348091 -0.11822891
0.052768566 0.0072088838 0.19291115
0.059241563 0.59427989 -0.54879189
0.056723565 0.36587191 -0.260221
0.057033565 0.39406288 -0.29583788
0.050261565 -0.61879909 0.4801693
0.049742565 -0.53072309 0.5396843
0.049267564 -0.45023012 0.5940752
0.048885565 -0.34494507 0.63783312
0.048466567 0.14862686 0.020458221
0.048759565 0.17816287 -0.016821861
0.049103566 0.21284187 -0.060595036
0.052887566 0.59461892 -0.54247904
0.054005567 0.70736688 -0.68478966
0.051302567 0.4347499 -0.34069109
0.044470564 -0.25446308 0.52925634
0.043968566 -0.45043206 0.59317207
0.043583564 -0.34396911 0.64223528
0.042623565 0.14930087 0.025812149
0.041386567 0.0087438822 0.20306015
0.043789566 0.28168887 -0.14113474
0.044139564 0.32145989 -0.19128799
0.046840567 0.62829292 -0.57821608
0.045499567 0.47596288 -0.38611984
0.046161566 0.55110586 -0.48087788
0.039464567 -0.61926007 0.47829819
0.038289566 -0.34299612 0.64663124
0.035984565 0.045326889 0.16299629
0.040217564 0.59529388 -0.52988768
0.040473565 0.62860286 -0.57185173
0.038463566 0.36742389 -0.24280167
0.040831566 0.6750409 -0.63035679
0.041083567 0.7078529 -0.67169666
0.038989566 0.4356789 -0.32879591
0.041451566 0.75558591 -0.73183298
0.039880566 0.55147791 -0.47468567
0.033691566 -0.25261712 0.5383749
0.034088567 -0.20103109 0.473382
0.034985565 -0.84263313 0.32652235
0.033185564 -0.40671313 0.62119532
0.035081565 -0.072003126 0.31081915
0.030478569 0.076658905 0.12961531
0.034118567 0.62891185 -0.56549978
0.032847565 0.43614292 -0.32286167
0.028314566 -0.25169814 0.54292727
0.029812569 -0.024500132 0.25694513
0.025875567 0.28342187 -0.12430668
0.026092567 0.32310587 -0.17421007
0.028206566 0.7083379 -0.65864706
0.026938567 0.47725689 -0.36805773
0.028467568 0.75598788 -0.71856785
0.022943567 -0.25078011 0.547472
0.023916567 -0.84318209 0.32455206
0.022997567 -0.53181314 0.53508425
0.023446567 -0.15910709 0.43218803
0.023933567 -0.070377111 0.32060528
0.019805567 0.25706691 -0.084882736
0.019161567 0.11016291 0.099682331
0.021439567 0.62952793 -0.55282497
0.021785567 0.70857888 -0.65213871
0.020595567 0.43706489 -0.31102276
0.021994567 0.75618792 -0.71195269
0.018199567 -0.76678407 0.37541533
0.017454566 -0.45146012 0.58865023
0.013759566 0.21659291 -0.027808666
0.013088567 0.012549877 0.228302
0.014261568 0.3694759 -0.21970367
0.012842568 -0.84373808 0.32257605
0.011948567 -0.33920109 0.66380501
0.012051567 -0.30326509 0.62472105
0.0078275669 0.18270189 0.020903111
0.0075345673 0.049008906 0.18855715
0.0076715676 0.11154789 0.11013222
0.0088065676 0.63013989 -0.54019403
0.0073025674 -0.84401906 0.32158613
0.0071295677 -0.69809711 0.42028904
0.0021005671 0.25883991 -0.068324089
0.0018325669 0.014058888 0.23834991
0.001871567 0.049739897 0.19364691
0.0021295671 0.28571087 -0.10199165
0.0022525669 0.3984949 -0.24329472
0.0025565668 0.6766519 -0.59178591
0.0022965672 0.43843991 -0.29333973
0.0026445671 0.75678587 -0.69218206
0.0016285672 -0.62092113 0.47171021
0.0015765668 -0.53270912 0.53138494
-0.003784433 0.18398488 0.031610966
-0.003784433 0.21844786 -0.011528015
-0.003784433 0.25942791 -0.062820911
-0.003784433 0.014811873 0.24336433
-0.003784433 0.37100089 -0.20247793
-0.003784433 0.43889689 -0.28746271
-0.003784433 -0.24622309 0.57011127
-0.003784433 -0.45230711 0.58500814
-0.003784433 -0.066345096 0.34495211
-0.003784433 -0.019829094 0.28672409
-0.0095744329 0.1846239 0.036950111
-0.0096574333 0.26001388 -0.057326794
-0.0096864328 0.28684789 -0.090883732
-0.0097294329 0.32635987 -0.14029598
-0.0094624329 0.081650913 0.16572428
-0.010025433 0.5979619 -0.47994471
-0.0098524326 0.43935192 -0.28159666
-0.0093644327 -0.90489709 0.27799129
-0.0091444328 -0.53316712 0.52952719
-0.0092054326 -0.15395808 0.46036816
-0.009071433 -0.40833616 0.61399603
-0.0093014333 -0.065545082 0.34980011
-0.015579433 0.2874139 -0.085343838
-0.016329434 0.63135493 -0.51506186
-0.016718432 0.7553969 -0.73823309
-0.014507432 -0.53339708 0.52859735
-0.014718433 -0.10721111 0.40770006
-0.014360433 -0.40854514 0.61308813
-0.014279433 -0.34017408 0.65935802
-0.014301433 -0.29858112 0.6468029
-0.020896433 0.11498189 0.13612795
-0.021738432 0.3725149 -0.18533182
-0.021829432 0.40043288 -0.2201829
-0.022781434 0.67697692 -0.58395767
-0.022968432 0.70846188 -0.65532303
-0.019548433 -0.29765105 0.6512022
-0.026893433 0.1865319 0.052927017
-0.029189432 0.67609888 -0.60502005
-0.027999433 0.44070989 -0.26405287
-0.025024433 -0.24261606 0.58811903
-0.025247432 -0.19134808 0.52418327
-0.026008433 -0.016751111 0.30643892
-0.024789432 -0.29672313 0.65559816
-0.032487433 0.15790987 0.094686031
-0.032646433 0.1871649 0.058238029
-0.033659432 0.37351787 -0.17394686
-0.035948433 0.70687091 -0.69838476
-0.034426432 0.5144639 -0.34955692
-0.034651432 0.55587989 -0.4011569
-0.031705435 -0.90610611 0.27394724
-0.038391434 0.18779588 0.063538074
-0.037292436 0.019286871 0.27329731
-0.037524436 0.054808915 0.2290802
-0.039311435 0.32903588 -0.11227369
-0.039605435 0.37401789 -0.16826677
-0.040308435 0.48191988 -0.30258369
-0.040522434 0.51485693 -0.34358406
-0.035931434 -0.1896131 0.53334093
-0.036288433 -0.62265813 0.46506023
-0.036489435 -0.10393405 0.426682
-0.035689436 -0.45361912 0.57951307
-0.043904435 0.15920991 0.10516691
-0.044697434 0.26350391 -0.024537086
-0.043347433 0.085861921 0.19638634
-0.045751434 0.40235192 -0.19721603
-0.048633434 0.67343688 -0.66890287
-0.046986435 0.55598688 -0.39930201
-0.041712433 -0.62291312 0.46410322
-0.041346435 -0.53457308 0.52392435
-0.041911434 -0.10311913 0.43141317
-0.055190433 0.67253888 -0.69044685
-0.055703435 0.70444691 -0.76392698
-0.048479434 -0.90703213 0.27089834
-0.047325436 -0.10230613 0.43613625
-0.055571433 0.18968087 0.079398155
-0.054277435 0.056955874 0.24415827
-0.056945436 0.33062488 -0.095563889
-0.054573435 0.087252915 0.20655012
-0.060398433 0.59501189 -0.53510809
-0.058937434 0.5144859 -0.3490777
-0.052095436 -0.53505409 0.522048
-0.051665436 -0.45429313 0.57675028
-0.050874434 -0.29211307 0.67748928
-0.060964435 0.16114891 0.12082911
-0.062090434 0.26522988 -0.0082530975
-0.059460435 0.022234917 0.29311419
-0.062379435 0.2918939 -0.041320801
-0.060171433 0.087945879 0.21161938
-0.068423435 0.67072487 -0.733922
-0.066029429 0.55237091 -0.45961571
-0.058130436 -0.10068607 0.44556618
-0.056993436 -0.45452011 0.57582808
-0.074092433 0.62476087 -0.65109777
-0.069516435 0.40425187 -0.1743927
-0.075098433 0.66980988 -0.75584888
-0.076143436 0.70071989 -0.86473179
-0.064879432 -0.84783208 0.30858231
-0.063519433 -0.099879146 0.45027113
-0.062035434 -0.41048408 0.60489416
-0.064571433 -0.011436105 0.34068108
-0.061590433 -0.34200311 0.65128994
-0.073112436 0.22573388 0.052873135
-0.074492432 0.33220291 -0.078931808
-0.079925433 0.59166491 -0.59775591
-0.075073436 0.3769899 -0.134377
-0.075432435 0.40472388 -0.16871071
-0.077943437 0.51054287 -0.40851879
-0.070871435 -0.90829408 0.26680994
-0.068901435 -0.099074125 0.45496798
-0.066854432 -0.34221315 0.65038824
-0.066487432 -0.29045415 0.68545914
-0.077943437 0.16307491 0.13642597
-0.075997435 0.024427891 0.30790615
-0.080323435 0.33272588 -0.073402882
-0.086512432 0.59053588 -0.6188879
-0.081550434 0.40364587 -0.1814909
-0.073611438 -0.53603208 0.51827812
-0.074868433 -0.056082129 0.4074831
-0.072122432 -0.34242308 0.64948416
-0.071724437 -0.29065514 0.68456697
-0.087027438 0.37646687 -0.14015388
-0.090797432 0.50787491 -0.44870901
-0.078353435 -0.18275607 0.56974125
-0.081581436 -0.84875607 0.30554628
-0.078953438 -0.14304507 0.52066898
-0.077390432 -0.34263515 0.64858103
-0.076961435 -0.29085815 0.68367434
-0.088038437 0.091384888 0.23686409
-0.10079443 0.62056291 -0.73761463
-0.083621435 -0.18190813 0.574265
-0.086469434 -0.77211308 0.35669613
-0.094841436 0.1649859 0.15195227
-0.095341437 0.19402587 0.11613321
-0.096626438 0.2686429 0.024096012
-0.092457436 0.026605904 0.32263613
-0.097083434 0.29519588 -0.0086536407
-0.10650043 0.58710688 -0.68300486
-0.11002143 0.6623289 -0.93521786
-0.10276143 0.4738459 -0.41530275
-0.10379543 0.50517589 -0.4893508
-0.088003434 -0.23198915 0.64160204
-0.091338433 -0.70295405 0.40278292
-0.089765437 -0.53678107 0.51543903
-0.087441437 -0.29126608 0.68188429
-0.098572433 0.062605917 0.28405905
-0.11438344 0.61842388 -0.78164101
-0.11675043 0.66207886 -0.94113684
-0.10924643 0.4724099 -0.43537474
-0.094340436 -0.45615113 0.56933117
-0.093894437 -0.41183507 0.59937811
-0.10821243 0.26877487 0.025500298
-0.12349044 0.66182792 -0.94706774
-0.12551543 0.69289988 -1.0759678
-0.11434443 0.43282586 -0.36482763
-0.11844043 0.54240888 -0.62555885
-0.10305644 -0.77301216 0.3536911
-0.10054544 -0.53728807 0.51354027
-0.11430743 0.2668789 0.0078520775
-0.11831544 0.36814088 -0.23387909
-0.13216743 0.69314492 -1.0692368
-0.12232844 0.4695099 -0.47586679
-0.10357843 -0.2293781 0.65484905
-0.10945544 -0.85033309 0.30045414
-0.10542344 -0.13893509 0.54359198
-0.10720844 -0.051450133 0.43598032
-0.10317543 -0.29188812 0.67919111
-0.11725044 0.16751289 0.17255306
-0.12294343 0.32498389 -0.15362167
-0.13370743 0.58243591 -0.77027798
-0.12467743 0.3664459 -0.25293207
-0.13880843 0.69338888 -1.0625048
-0.11238044 -0.62636209 0.45156527
-0.10903644 -0.34393311 0.64313412
-0.12659544 0.26305687 -0.027716637
-0.12924343 0.32319087 -0.17223167
-0.13221844 0.39073688 -0.33455896
-0.13695544 0.49828389 -0.59302282
-0.13872944 0.53854787 -0.68978882
-0.11965943 -0.77392614 0.35067606
-0.11879543 -0.70439816 0.39784098
-0.11572044 -0.45711315 0.56559324
-0.11516944 -0.41276312 0.59567833
-0.11792343 -0.049920082 0.44542837
-0.11895643 -0.0039920807 0.38903713
-0.11367144 -0.29230809 0.67739201
-0.12968044 0.19397587 0.11628199
-0.12515643 0.030914903 0.35191727
-0.12598443 0.066082895 0.3087759
-0.13391243 0.28536892 -0.10409498
-0.12743543 0.1276629 0.23323393
-0.14755644 0.58005691 -0.81469774
-0.14045143 0.42659891 -0.44464779
-0.14223343 0.46509486 -0.53747702
-0.12620343 -0.85130012 0.29738092
-0.15049243 0.4954679 -0.63533974
-0.15245843 0.5359329 -0.7332468
-0.12860844 -0.048398137 0.45485401
-0.12488344 -0.34459913 0.64039421
-0.12417743 -0.29273415 0.67558718
-0.14340644 0.22044986 0.0075321198
-0.13689044 0.067461908 0.31861401
-0.13868444 0.1275959 0.23295498
-0.15372844 0.42342889 -0.48523664
-0.15731944 0.49404788 -0.65668201
-0.13628243 -0.77485609 0.34764624
-0.13418743 -0.62747705 0.44766235
-0.14660543 0.1618349 0.12763214
-0.15157244 0.25528389 -0.10000277
-0.14233044 0.068148911 0.32352304
-0.15479444 0.31591487 -0.24769783
-0.15841644 0.38405389 -0.41368103
-0.16248544 0.46060091 -0.60015106
-0.14296843 -0.85228515 0.29429531
-0.14079544 -0.70558405 0.39386225
-0.13964343 -0.62776005 0.44668198
-0.13468844 -0.29316413 0.67377806
-0.15925643 0.27774888 -0.17804575
-0.17109543 0.49117988 -0.69973898
-0.14106344 -0.1727041 0.62365627
-0.14248744 -0.45834708 0.56089211
-0.14457443 -0.046127081 0.46894312
-0.14584443 -0.00033611059 0.41297197
-0.14074543 -0.34527612 0.63764524
-0.13994643 -0.29338014 0.67287207
-0.15884343 0.1575219 0.093342304
-0.16212644 0.21431887 -0.045959949
-0.15217943 0.034458876 0.37613726
-0.16568144 0.2758159 -0.1967907
-0.16778544 0.31221288 -0.28605986
-0.14988144 -0.045374155 0.47362804
-0.14520743 -0.29359913 0.67196512
-0.15955444 0.064624906 0.2993412
-0.17687143 0.35253286 -0.40922308
-0.14990143 -0.22165012 0.69429922
-0.15847243 -0.77612007 0.34358597
-0.15731743 -0.70649111 0.39086199
-0.15247144 -0.41443813 0.58915901
-0.15518044 -0.044622064 0.47830534
-0.15133144 -0.34573412 0.63580608
-0.17121044 0.15316087 0.058699131
-0.17284243 0.17925692 -0.0057468414
-0.16362244 0.031770885 0.35848093
-0.16717443 0.088594913 0.21815014
-0.18521644 0.3772099 -0.49460888
-0.16535243 -0.85362411 0.29015636
-0.16402544 -0.7764411 0.34256697
-0.15996443 -0.54018116 0.50300121
-0.15778743 -0.13085508 0.58900738
-0.15857044 -0.45910406 0.55805826
-0.15780744 -0.4146831 0.58822203
-0.17914043 0.17710787 -0.023550034
-0.17153543 0.059922874 0.26684809
-0.19201243 0.37547392 -0.51513004
-0.19914244 0.4853389 -0.78739882
-0.16172643 -0.16941416 0.64145136
-0.16957943 -0.77676308 0.34154701
-0.16537744 -0.54045308 0.50203609
-0.16393544 -0.45935905 0.55711126
-0.16192244 -0.34619713 0.63396502
-0.19007243 0.24328691 -0.21139765
-0.17935143 0.083955884 0.18481636
-0.20142743 0.41203088 -0.63103104
-0.20903943 0.52514589 -0.91232681
-0.17513743 -0.77708817 0.34052515
-0.16848643 -0.41517615 0.58634615
-0.16626744 -0.29448307 0.66832495
-0.19001043 0.1465289 0.0060420036
-0.19833744 0.26598591 -0.29205179
-0.20090143 0.30276889 -0.38384199
-0.18548644 0.081617892 0.16802216
-0.20386744 0.34532589 -0.49004173
-0.20840144 0.4103629 -0.6523428
-0.21114944 0.44978791 -0.75073004
-0.17030044 -0.21826708 0.71169233
-0.18069643 -0.77741408 0.33950233
-0.17621043 -0.54100215 0.50010014
-0.17252244 -0.34666514 0.63211727
-0.20318943 0.23919588 -0.24934292
-0.18974243 0.052774906 0.21748304
-0.20763743 0.30084592 -0.40372801
-0.17538144 -0.21742606 0.71602821
-0.17917143 -0.41567516 0.58446598
-0.18256843 -0.0466851 0.46654415
-0.21441144 0.29891288 -0.42372608
-0.19041343 -0.70834911 0.38482618
-0.18884143 -0.63037515 0.43780804
-0.21645343 0.23505789 -0.28770876
-0.22122343 0.29696786 -0.44383764
-0.22659144 0.36663288 -0.61952686
-0.18573144 -0.21712112 0.71785593
-0.18738943 -0.16534507 0.66356993
-0.19431743 -0.63067412 0.43681526
-0.18884343 -0.12609506 0.61598301
-0.19161543 -0.087324142 0.52527332
-0.21555144 0.13751191 -0.065478802
-0.22314343 0.23296887 -0.30705786
-0.21259543 0.10033888 0.028594971
-0.23671344 0.40358788 -0.73885775
-0.19250144 -0.16453612 0.66797924
-0.19789943 -0.54211617 0.49621534
-0.19444244 -0.12790608 0.6062212
-0.19521543 -0.4164331 0.58163595
-0.19263443 -0.29561615 0.66375113
-0.22419544 0.16171587 -0.15087366
-0.21896744 0.09798491 0.01098299
-0.24389644 0.40186787 -0.76080799
-0.24987644 0.47475886 -0.94593477
-0.19760443 -0.16372907 0.67238092
-0.20625244 -0.057022095 0.40465832
-0.19905543 -0.34785712 0.62747812
-0.23343344 0.19092488 -0.2496357
-0.22298244 0.06731689 0.065410137
-0.20142743 -0.21776307 0.71515512
-0.20875543 -0.54268205 0.49426413
-0.24343343 0.22663391 -0.36573505
-0.22701643 0.038124919 0.11645222
-0.26188543 0.4384979 -0.90767765
-0.20666343 -0.21798015 0.714252
-0.21624443 -0.6318841 0.43283129
-0.21418643 -0.54296815 0.49328613
-0.21827343 -0.062273145 0.3732543
-0.25027543 0.22449589 -0.38552094
-0.25588444 0.28706491 -0.54614305
-0.26220044 0.35751891 -0.72701073
-0.21476443 -0.17163813 0.63138294
-0.22788343 -0.025292158 0.25570393
-0.25364444 0.1842829 -0.30734587
-0.23970543 0.033132911 0.082067013
-0.26293743 0.2850489 -0.56695604
-0.24218243 0.059986889 0.012883186
-0.22505644 -0.5435431 0.49132824
-0.22199343 -0.41772413 0.57689524
-0.23407844 -0.027892113 0.23928499
-0.25491545 0.12359887 -0.17567396
-0.24314544 -0.00054812431 0.14532137
-0.26646742 0.24544191 -0.49072409
-0.27674145 0.35379487 -0.7708931
-0.28429842 0.43350488 -0.97700167
-0.23640344 -0.78077006 0.32918692
-0.22951044 -0.14435613 0.51715517
-0.22563644 -0.34908116 0.62281227
-0.26730743 0.17979091 -0.34635496
-0.28791642 0.39132088 -0.89529085
-0.24198544 -0.78111613 0.32814598
-0.23593344 -0.54412413 0.48936415
-0.24656343 -0.033135056 0.20619726
-0.22962843 -0.29725206 0.6573019
-0.27101243 0.14569688 -0.28312302
-0.27802944 0.21582192 -0.46576405
-0.25586244 -0.0057250857 0.11125231
-0.29540944 0.38952386 -0.91818094
-0.23813143 -0.18294311 0.57280636
-0.24370143 -0.6334331 0.4278183
-0.25285542 -0.035778165 0.18952513
-0.28506944 0.21361989 -0.48611784
-0.27120945 0.078672886 -0.133358
-0.29888344 0.34812087 -0.83771276
-0.24160944 -0.3498311 0.61999798
-0.29483244 0.23687589 -0.57340574
-0.30345345 0.31868887 -0.78805685
-0.25874743 -0.78216314 0.32501698
-0.24551344 -0.29797208 0.65452099
-0.29164442 0.13862991 -0.3413868
-0.29926842 0.20917791 -0.52716303
-0.30202642 0.23470187 -0.59437609
-0.30613142 0.27269089 -0.69441175
-0.31386843 0.34427792 -0.88292789
-0.26433945 -0.78251505 0.32397223
-0.25226843 -0.35033715 0.61811733
-0.29859844 0.13624692 -0.36102486
-0.30642945 0.2069369 -0.54786301
-0.32142943 0.34233892 -0.90573978
-0.32584745 0.38222086 -1.0111499
-0.26990643 -0.12276506 0.32354498
-0.30251843 0.10674989 -0.30888605
-0.32903844 0.34038687 -0.92869806
-0.27349243 -0.71326315 0.36950397
-0.26494643 -0.41986012 0.56924915
-0.29850742 0.0099738836 -0.077208042
-0.33669242 0.33842289 -0.95178986
-0.26916543 -0.2424221 0.59483624
-0.28112844 -0.78358412 0.32082415
-0.27904844 -0.71360409 0.36847115
-0.27672243 -0.6353451 0.42175531
-0.27792144 -0.16710007 0.394279
-0.27165043 -0.46475506 0.53790426
-0.32816842 0.20013088 -0.61068964
-0.33579344 0.26419491 -0.7819171
-0.30846944 0.034643888 -0.16838789
-0.31191644 0.063600898 -0.24578285
-0.34107944 0.3086049 -0.90060997
-0.28223243 -0.63566911 0.42074108
-0.32349643 0.099316895 -0.36757278
-0.33075643 0.15890688 -0.52744007
-0.30439943 -0.057451129 0.05298996
-0.33056945 0.096809864 -0.3873558
-0.33397242 0.12411791 -0.46089363
-0.33801043 0.15651691 -0.5481391
-0.34287244 0.19552487 -0.65318394
-0.31479645 -0.029744148 -0.046567917
-0.34609443 0.2213769 -0.72279882
-0.29573044 -0.71463811 0.36536312
-0.30142143 -0.13705909 0.24240732
-0.28787944 -0.46561313 0.53498125
-0.28647143 -0.42096007 0.56539631
-0.31099644 -0.060228109 0.035519123
-0.34117144 0.12164789 -0.48121309
-0.32152343 -0.032488108 -0.064575672
-0.29861045 -0.21224511 0.42129707
-0.29329443 -0.46590209 0.53400421
-0.28796342 -0.29994607 0.64705515
-0.35264942 0.15169191 -0.58990383
-0.33601943 0.02409488 -0.24369287
-0.30918443 -0.18180811 0.31497335
-0.29871145 -0.46619308 0.53302526
-0.29358143 -0.30153513 0.63981915
-0.36526042 0.18850887 -0.7178731
-0.32072544 -0.14582217 0.19272327
-0.30412942 -0.46648407 0.53204536
-0.30033642 -0.35267913 0.60959005
-0.29956645 -0.30466306 0.62533712
-0.36301345 0.11415088 -0.54286098
-0.37281144 0.18614191 -0.73968983
-0.35002545 0.018728912 -0.28196907
-0.30955043 -0.46677816 0.53106308
-0.35324544 -0.011625111 -0.22539377
-0.35708943 0.016021907 -0.30127192
-0.32358244 -0.71639609 0.36015129
-0.33886343 -0.11506414 0.058503151
-0.31104344 -0.35321414 0.60768318
-0.37386742 0.081449866 -0.50844574
-0.33000544 -0.22748005 0.34270191
-0.33477843 -0.19386005 0.25007629
-0.32039943 -0.46736908 0.52909613
-0.35133845 -0.077219129 -0.071280956
-0.31770045 -0.31414413 0.58146715
-0.38122943 0.078836918 -0.52903175
-0.38524145 0.10651588 -0.60558891
-0.39000344 0.13937187 -0.6964488
-0.37559843 0.039985895 -0.42157364
-0.33473945 -0.71711111 0.35805607
-0.33193645 -0.63866115 0.41153812
-0.34125942 -0.19691408 0.23364496
-0.32582742 -0.46766615 0.52811098
-0.39273843 0.10393989 -0.62673998
-0.35902843 -0.1239121 0.0059170723
-0.39608344 0.073561907 -0.57056189
-0.39019644 0.034565866 -0.46186209
-0.34590542 -0.71783316 0.35595512
-0.34300643 -0.6393441 0.40947819
-0.33970544 -0.54994714 0.470438
-0.33668843 -0.46826506 0.52613831
-0.40357843 0.070899904 -0.59150982
-0.38871142 -0.02563715 -0.32136488
-0.39592445 -0.028489113 -0.34087896
-0.35549343 -0.2859031 0.38228512
-0.35408843 -0.64003313 0.40741205
-0.36752543 -0.20929515 0.16706991
-0.38597643 -0.091825128 -0.16294289
-0.34411043 -0.35837615 0.58588123
-0.40766042 -0.0033761263 -0.43942785
-0.36267444 -0.71892905 0.35279226
-0.37532842 -0.24950206 0.22930098
-0.36826843 -0.71929812 0.35173607
-0.36517844 -0.64072907 0.40533924
-0.35667944 -0.42469013 0.55273294
-0.36715144 -0.55157113 0.46537638
-0.39416942 -0.17921007 0.0037999153
-0.42519245 -0.040066123 -0.42005205
-0.39434943 -0.22195005 0.099107265
-0.41438243 -0.10381413 -0.23809195
-0.36895743 -0.37169206 0.52650404
-0.37374043 -0.34348106 0.44598198
-0.43433544 -0.078597069 -0.3663969
-0.40197742 -0.26246512 0.16265631
-0.38364843 -0.55256414 0.46232319
-0.37835944 -0.42588508 0.54879427
-0.38653943 -0.35018814 0.41505814
-0.40872642 -0.26575005 0.14578104
-0.38568544 -0.47103405 0.51718903
-0.42866445 -0.15450811 -0.1755991
-0.38791645 -0.38186109 0.48121309
-0.39430144 -0.38528717 0.46596432
-0.40407345 -0.64321816 0.39803791
-0.40071744 -0.38873005 0.45064306
-0.43567044 -0.24146509 -0.0055480003
-0.44321942 -0.20155013 -0.12228298
-0.40716544 -0.39219105 0.43524599
-0.42774943 -0.32239008 0.20459032
-0.40672243 -0.4316411 0.52540112
-0.41670844 -0.55459213 0.45617628
-0.45758045 -0.2080971 -0.15918684
-0.44818345 -0.33272314 0.15436935
-0.42774943 -0.55528009 0.45411634
-0.42392844 -0.47326815 0.5101552
-0.45506644 -0.33620512 0.13745499
-0.43327242 -0.55562711 0.45308304
-0.42940143 -0.47359312 0.50914526
-0.43989944 -0.40977216 0.35710621
-0.46198642 -0.33970714 0.12045431
-0.43487743 -0.47392011 0.50813293
-0.46894443 -0.3432281 0.10336113
-0.44074044 -0.47552514 0.50169992
-0.45931843 -0.38838112 0.23931408
-0.45210344 -0.45673108 0.41867828
-0.45994642 -0.42054808 0.30927324
-0.46614143 -0.3919661 0.22284794
-0.45539445 -0.55702913 0.44894123
-0.47300044 -0.39557016 0.20629692
-0.46544543 -0.64729214 0.38642025
-0.46033043 -0.4865551 0.45607615
-0.47989443 -0.39919412 0.18965912
-0.48030344 -0.4314971 0.26071215
-0.47663942 -0.64805508 0.38428736
-0.48716143 -0.4351871 0.24435616
-0.48022044 -0.49776006 0.4097681
-0.48551643 -0.47522509 0.34015226
-0.49230143 -0.47898316 0.32421112
-0.50794643 -0.44637513 0.19479227
-0.49976343 -0.55990708 0.44058514
