# .PCD v0.7 - Point Cloud Data file format
VERSION 0.7
FIELDS x y z
SIZE 4 4 4
TYPE F F F
COUNT 1 1 1
WIDTH 1
HEIGHT 1024
VIEWPOINT 0 0 0 1 0 0 0
POINTS 1024
DATA ascii
0.54664421 -0.8913554 0.16104269
0.55017823 -0.77511346 0.11806059
0.54053622 -0.89018345 0.16478682
0.53808725 -0.82250047 0.19489145
0.54954022 -0.71169448 0.054088593
0.53650725 -0.76846945 0.14278555
0.54148024 -0.6481874 0.0071725845
0.51618421 -0.88553238 0.17967653
0.5094772 -0.75534546 0.19168758
0.51524222 -0.69564939 0.11676455
0.52072924 -0.6388334 0.045457363
0.49798921 -0.80242646 0.26681042
0.49139521 -0.79912841 0.27864265
0.48482519 -0.79584444 0.29042959
0.50021619 -0.62959647 0.083312511
0.4882752 -0.68305147 0.16606236
0.4866752 -0.62350237 0.10830736
0.48954219 -0.59162939 0.068794727
0.47323519 -0.61745846 0.13311863
0.4753682 -0.42901838 -0.066269398
0.4802742 -0.37116039 -0.13730955
0.4840942 -0.32609737 -0.19263649
0.47330821 -0.36852944 -0.12393141
0.44367018 -0.72346342 0.31081057
0.47706521 -0.3235364 -0.17904234
0.4633922 -0.4872874 0.021528721
0.4379122 -0.87086737 0.22707367
0.4244042 -0.71414948 0.34570837
0.4457202 -0.35811841 -0.070941448
0.42598519 -0.86867046 0.23423147
0.4180302 -0.71106946 0.35725641
0.45697719 -0.21463847 -0.24501133
0.4364582 -0.4761734 0.072279453
0.4344632 -0.41288042 0.011576653
0.41167819 -0.70800138 0.3687644
0.4393602 -0.25725138 -0.16033936
0.41640121 -0.55947745 0.20458364
0.4468832 -0.15821946 -0.27991438
0.4034102 -0.64351344 0.32131577
0.4398452 -0.15597439 -0.26597261
0.4143692 -0.40496445 0.049828529
0.4290452 -0.20529842 -0.19012022
0.4070892 -0.50400043 0.1688447
0.40993819 -0.46524346 0.12226772
0.40772319 -0.4023484 0.062481403
0.4118422 -0.34535146 -0.0058531761
0.39071819 -0.63761437 0.34455061
0.39698118 -0.55096042 0.24065876
0.42213219 -0.20298946 -0.17653418
0.4268012 -0.038078427 -0.35750246
0.3844052 -0.63468242 0.35610771
0.4119052 -0.24769247 -0.10677719
0.39847419 -0.3403194 0.019836426
0.3740592 -0.68985248 0.43694162
0.40769118 -0.1067704 -0.24246645
0.41038319 -0.067548394 -0.28916264
0.41268319 -0.034047425 -0.32904625
0.37185219 -0.62885439 0.37909269
0.38382119 -0.45449448 0.1715107
0.37268019 -0.85897636 0.26603079
0.3881872 -0.29122436 -0.0070605278
0.39159921 -0.24063039 -0.067155361
0.3714242 -0.5397644 0.28814554
0.3947542 -0.1938504 -0.12271738
0.39820421 -0.14270639 -0.18346548
0.3773542 -0.45183444 0.18370771
0.40615019 0.082718551 -0.43445063
0.39867818 -0.03005141 -0.30081749
0.3593902 -0.62307143 0.4019146
0.3630352 -0.56804943 0.33671474
0.3709102 -0.44918537 0.19586039
0.39695919 0.052458584 -0.38199043
0.40149119 0.12211257 -0.46433926
0.38701218 -0.10042441 -0.2012434
0.3781932 -0.2359724 -0.040990353
0.38454419 -0.13836038 -0.15639353
0.3847892 -0.026090443 -0.27281618
0.38701919 0.00881356 -0.31398726
0.38291818 0.056124568 -0.35333729
0.38492119 0.088060558 -0.39091921
0.37788719 -0.02412343 -0.25890064
0.36001021 -0.97695839 0.076599598
0.3462452 -0.52874744 0.33494568
0.36780718 -0.18486738 -0.069736481
0.37594119 0.057945609 -0.3390975
0.37790319 0.089825571 -0.37652731
0.35249919 -0.32303941 0.10821676
0.34331718 -0.85372436 0.28340149
0.3374652 -0.85268545 0.28685236
0.3319312 -0.55415547 0.39423037
0.35754919 -0.12977839 -0.10288525
0.3620702 0.061563551 -0.3107872
0.35734418 -0.0182724 -0.21748018
0.3316212 -0.8516494 0.29029465
0.32760319 -0.52060139 0.36960459
0.3463932 -0.087976456 -0.12025023
0.36871919 0.29662859 -0.56872034
0.32991821 -0.37178242 0.21068144
0.33316818 -0.31578636 0.1453886
0.3131552 -0.66054738 0.54739857
0.33569819 -0.27220738 0.094573498
0.3442122 -0.12554348 -0.07644558
0.34831318 0.065149605 -0.28270531
0.35222819 0.1339466 -0.36274338
0.33971718 -0.085933447 -0.10693645
0.35638219 0.20696157 -0.44768953
0.31140119 -0.74436545 0.47203064
0.3071852 -0.65767944 0.55823135
0.31529018 -0.51522541 0.39250135
0.34323719 0.098533571 -0.30542946
0.3477602 0.17965257 -0.39958858
0.33306518 -0.083897471 -0.093669415
0.3493672 0.20849055 -0.4330616
0.35173321 0.25092161 -0.48231459
0.33704621 -0.012497425 -0.17654943
0.3141292 -0.84856546 0.30056953
0.30745518 -0.54323745 0.43950939
0.30916619 -0.51255238 0.40389156
0.3285422 -0.043422401 -0.12498951
0.3303352 -0.010589421 -0.16301441
0.31782719 -0.96900547 0.10222244
0.30831221 -0.84754443 0.30397844
0.29842618 -0.59484041 0.51362038
0.31914419 -0.21549046 0.074286461
0.3013922 -0.54053545 0.45072842
0.32440019 -0.11925745 -0.037163258
0.33389118 0.18279457 -0.37079144
0.33768919 0.25380456 -0.45284557
0.30250219 -0.84652841 0.30737972
0.28939819 -0.64914238 0.59051466
0.29245019 -0.59207845 0.52457666
0.32277519 0.1036666 -0.26345634
0.33926919 0.4187246 -0.62668419
0.34110919 0.45386758 -0.66720152
0.30370221 -0.26064038 0.15655279
0.30629918 -0.21104348 0.099372387
0.2934742 -0.45602345 0.38180876
0.31440219 0.073978603 -0.21347427
0.3216022 0.2145406 -0.3751626
0.30225819 -0.16306543 0.059197426
0.2873812 -0.45345938 0.39323664
0.28931519 -0.41571844 0.34982347
0.30926919 0.10705155 -0.23574638
0.3207292 0.33575755 -0.49823618
0.3289552 0.49989957 -0.68662453
0.28891119 -0.29920745 0.23052168
0.2851122 -0.84349942 0.31753254
0.27888221 -0.49934947 0.46022749
0.29370821 -0.071869373 -0.015161514
0.2971732 -0.0011694431 -0.096124649
0.32401919 0.54674959 -0.72356844
0.3122912 0.3073926 -0.44947052
0.31962121 0.45699659 -0.62078953
0.28721321 -0.20444143 0.13665152
0.27289119 -0.49674046 0.47137451
0.29437721 0.079184592 -0.17258739
0.29971018 0.1905306 -0.29981041
0.2922512 0.034780562 -0.12185144
0.2830812 -0.15670145 0.096931458
0.26923519 -0.44582641 0.42728138
0.28921521 0.11207455 -0.19460058
0.28079319 -0.067927361 0.010608673
0.31125519 0.58316857 -0.73166418
0.30382019 0.42425758 -0.55050039
0.3054482 0.45905957 -0.59017658
0.2677162 -0.34743547 0.32925653
0.26323119 -0.44330239 0.43854856
0.2649872 -0.40576839 0.39575863
0.2842482 0.15023059 -0.22250128
0.3040632 0.58394659 -0.71585226
0.29295519 0.34079957 -0.43927431
0.2984052 0.46008357 -0.57495928
0.3003962 0.50368059 -0.62455034
0.26162121 -0.34505439 0.34088278
0.26201919 -0.83951342 0.3309598
0.25507018 -0.73513436 0.50397348
0.26966518 -0.026125431 -0.0068192482
0.27110818 0.0062235594 -0.043536186
0.29690519 0.58472061 -0.70011139
0.28477219 0.31263161 -0.39130163
0.2933332 0.50461459 -0.60919428
0.25554919 -0.34268236 0.35246277
0.24779019 -0.51668537 0.5499506
0.2529552 -0.40085244 0.41848373
0.2709792 0.15340257 -0.19511938
0.27589819 0.26646656 -0.32315826
0.2646552 0.0080525875 -0.030516624
0.2882762 0.55098855 -0.64536619
0.25375021 -0.24262047 0.25336075
0.24697319 -0.39840937 0.42978382
0.26284319 0.1186716 -0.14048243
0.26917121 0.26784259 -0.30903864
0.2367142 -0.51527739 0.55551863
0.2537002 -0.096875429 0.1030755
0.2410122 -0.39597642 0.44104481
0.2595942 0.1995936 -0.21648264
0.26247218 0.2692126 -0.29497528
0.26563719 0.3457526 -0.38127041
0.26736018 0.38743359 -0.42826462
0.23271519 -0.73153341 0.51654768
0.24149419 -0.23820746 0.27711964
0.24538119 -0.14420843 0.17113972
0.2350722 -0.39355242 0.45226574
0.25579819 0.2705766 -0.28096342
0.25769919 0.3177796 -0.33406544
0.2336852 -0.27857447 0.33681774
0.23736319 -0.18722844 0.23405552
0.2391782 -0.14215541 0.18335056
0.24212919 0.092744589 -0.065871239
0.2615642 0.5885396 -0.62240219
0.25214219 0.34819555 -0.35261726
0.25541919 0.43179655 -0.44645834
0.22157319 -0.72975338 0.52279043
0.22133519 -0.48296142 0.52959538
0.2357132 0.094407558 -0.052763462
0.24096219 0.2320646 -0.20694542
0.24992619 0.46712559 -0.47022438
0.22513419 -0.18301237 0.2579608
0.21756719 -0.38750148 0.48020649
0.2304602 0.12675959 -0.074013233
0.24184719 0.43390757 -0.41728163
0.24311519 0.46811357 -0.45551062
0.2227242 -0.95157743 0.15917063
0.2100962 -0.51873744 0.53985357
0.2225332 -0.087036371 0.16492558
0.21151219 -0.43003237 0.49716568
0.2121812 -0.38814139 0.47700453
0.21902719 -0.011293411 0.094861507
0.2213832 0.05411756 0.021918774
0.21124619 -0.22732747 0.33577538
0.2052912 -0.48500347 0.52013254
0.2146062 -0.13402939 0.2317338
0.2128062 -0.009473443 0.10735655
0.2228352 0.27730757 -0.21175432
0.2150902 0.055831552 0.03469038
0.2338232 0.59153259 -0.56140327
0.2254822 0.3530196 -0.29600048
0.2269242 0.3942396 -0.3418684
0.2283842 0.43599957 -0.38833618
0.20695719 -0.17675245 0.2934947
0.1999342 -0.48568738 0.5169735
0.20075619 -0.43135238 0.49079752
0.2102952 0.10098857 -0.00082921982
0.21133119 0.13153058 -0.034742355
0.22856119 0.6394496 -0.59869337
0.2202812 0.3953566 -0.32767344
0.22284819 0.47105157 -0.41171837
0.2050872 -0.94842339 0.16960573
0.20094319 -0.17468238 0.30525255
0.20400219 0.10261661 0.012029648
0.21136619 0.32657158 -0.23609543
0.1878282 -0.58313048 0.55698252
0.19336419 -0.22090447 0.37046051
0.19802019 -0.079309464 0.21358538
0.18998119 -0.43267846 0.48441839
0.1905822 -0.39071536 0.46417952
0.19983919 0.17037261 -0.048276424
0.20118919 0.21275461 -0.095128536
0.1979882 -1.0435164 0.015993595
0.18335019 -0.52223837 0.52412558
0.19194919 -0.077397466 0.22563839
0.1983632 0.32903558 -0.20859718
0.20050919 0.3986786 -0.28542233
0.18144019 -0.26675737 0.39727259
0.18751019 -0.94530344 0.17996359
0.1830322 -0.16852343 0.34027481
0.1858992 -0.075492382 0.23764944
0.17975119 -0.3920114 0.4577508
0.18616919 0.13779956 0.016920567
0.18299219 0.031139553 0.1343255
0.19879119 0.56156957 -0.44955063
0.19979319 0.59519756 -0.4865675
0.1939722 0.39977556 -0.27145338
0.1859992 -1.0412894 0.023222446
0.1709522 -0.65091443 0.5792985
0.18096119 0.17486459 -0.0092973709
0.1759692 0.0012875795 0.18135977
0.1829672 0.24462157 -0.085917473
0.1930722 0.59592158 -0.47178459
0.19536319 0.67558658 -0.5592885
0.18001519 -1.0401825 0.026822567
0.16646019 -0.58605945 0.54448175
0.17777319 0.28649056 -0.11712551
0.17170119 0.067629576 0.12275743
0.18212019 0.44317859 -0.28886032
0.1650022 -0.26854742 0.38742542
0.16557419 -0.22179437 0.3648138
0.1634662 -0.39396739 0.44808769
0.16288619 -0.032067418 0.24600554
0.17035419 0.24734759 -0.05959034
0.16559519 0.069287598 0.13515377
0.1818312 0.67670959 -0.52918434
0.17561619 0.44418657 -0.27487326
0.17763919 0.51987255 -0.35765028
0.16006319 -0.22237241 0.36150265
0.15866619 0.03799659 0.18345165
0.1540142 -0.26974738 0.38084841
0.14972919 -0.71849537 0.56268263
0.14963019 -0.65397537 0.56689167
0.1503792 -0.58827448 0.53507948
0.1545482 -0.22295237 0.35818958
0.1563132 -0.06823945 0.28327847
0.1525822 -0.39527941 0.44163179
0.15716319 0.22264659 -0.0036253929
0.1588362 0.29034358 -0.077349186
0.1534542 0.072581589 0.15980244
0.15997219 0.3362996 -0.12739754
0.1561472 -1.0357955 0.041135788
0.15253219 -0.93916941 0.20045853
0.14500919 -0.58901644 0.53193951
0.14568919 -0.52721143 0.50199556
0.14666919 -0.43804741 0.45879936
0.14997919 0.1822266 0.054682732
0.15097119 0.22403657 0.0092463493
0.14672519 -0.93816042 0.20384455
0.13893919 -0.65551639 0.56067467
0.1463352 0.29288357 -0.051089287
0.14068919 0.042877555 0.21845675
0.1533162 0.60019362 -0.38434553
0.1473752 0.33867955 -0.1007514
0.1489352 0.40732658 -0.17519522
0.1390072 -0.12263441 0.29872847
0.1357892 -0.43940544 0.45236874
0.1343222 -0.031261444 0.25074959
0.14111219 0.33986157 -0.087501526
0.14420919 0.48242059 -0.24176836
0.1278182 -0.71513844 0.57472277
0.12822519 -0.65706444 0.5544467
0.13243219 -0.22528636 0.34490776
0.13394219 -0.07028842 0.26968861
0.13167219 0.18657058 0.092496395
0.13253419 0.22816956 0.047573566
0.12971519 0.077220559 0.1944108
0.14027719 0.60159361 -0.35566425
0.14123119 0.64758456 -0.40532827
0.14472219 0.76030755 -0.58717442
0.12437619 -0.49543643 0.47247076
0.1269732 0.25670761 0.030975819
0.1337982 0.6022886 -0.34141445
0.1347052 0.64819062 -0.39087629
0.13001019 0.41049355 -0.13474131
0.13627219 0.72756559 -0.47640944
0.12355819 -0.93416345 0.21730947
0.12134119 -0.22646141 0.33824968
0.1218162 -0.17312038 0.31233358
0.11863119 -0.53081346 0.4861145
0.1189402 -0.49614537 0.46927166
0.12161919 0.29790157 0.00083351135
0.1296922 0.72801358 -0.4616704
0.11487219 -0.33488345 0.38733482
0.12054519 -1.0293385 0.062344551
0.11778219 -0.93317342 0.22065544
0.1133002 0.15346259 0.14621544
0.11239019 0.040561557 0.20112848
0.1209162 0.60366958 -0.3130784
0.12173019 0.64939559 -0.36214542
0.11823619 0.45306158 -0.15146828
0.1146332 -1.0282764 0.065850735
0.10878819 -0.81408846 0.41836166
0.1084912 -0.44283044 0.43624258
0.10645419 0.0061975718 0.21415043
0.10940219 0.30037957 0.026502609
0.11528319 0.64999461 -0.34786749
0.10872919 -1.0272185 0.069346428
0.10135319 -0.66096842 0.53883266
0.10185819 -0.59501541 0.5067358
0.10466219 -0.22823441 0.32823849
0.1023322 -0.53299642 0.47655249
0.10544419 -0.12588537 0.27842951
0.1033392 -0.40126038 0.41244364
0.1016162 0.12070358 0.15469837
0.1027002 0.26193458 0.081658363
0.10103119 0.039627552 0.19417572
0.10937119 0.68271255 -0.36797237
0.10576019 0.45498759 -0.12463236
0.11011019 0.72934657 -0.41780519
0.11176319 0.76178557 -0.52924156
0.10693619 0.52914959 -0.20388126
0.095964193 -0.66175437 0.53570175
0.099831194 -0.12643147 0.27503538
0.096365191 0.18947661 0.11745977
0.095111191 0.005228579 0.2072258
0.097279191 0.3028366 0.05197382
0.10130319 0.5730406 -0.23615742
0.1036372 0.72978657 -0.40330458
0.092780195 -0.33745337 0.37418461
0.090888195 0.23303658 0.092469692
0.089176193 -0.035270393 0.22326374
0.096542194 0.68377256 -0.33942842
0.087633193 -0.27707338 0.34113836
0.088274196 -0.17653143 0.29212856
0.086207196 -0.50043344 0.4500246
0.088587195 -0.12752843 0.2682395
0.088926196 -0.074444413 0.2423625
0.084843196 0.18868256 0.11033154
0.083505191 -0.035776436 0.21981478
0.084157191 0.073620558 0.16645336
0.088740192 0.57451457 -0.20865536
0.085831195 0.3502816 0.02946043
0.090766191 0.73066157 -0.37447023
0.091209196 0.7647866 -0.41070938
0.07970719 0.30275458 0.050898552
0.079970196 0.35013956 0.027776718
0.08148919 0.49145257 -0.10618925
0.081982195 0.53241557 -0.1495986
0.079301193 -1.0219904 0.086696625
0.075326197 -0.80877841 0.43704844
0.074715197 -0.59882247 0.49089861
0.077047192 -0.17767942 0.28536654
0.075060196 -0.53666747 0.46056557
0.073298194 0.18788558 0.10319281
0.074275196 0.37895459 0.0098934174
0.077489197 0.68534559 -0.29703426
0.075352192 0.49233457 -0.092920303
0.075805195 0.53322357 -0.13616037
0.070598193 -0.34004843 0.36098671
0.067342192 0.1501416 0.1178627
0.067858197 0.26018161 0.064098358
0.069238193 0.49321359 -0.079701424
0.063246198 -0.72299647 0.54446459
0.064277194 -0.50332737 0.4371376
0.066029191 -0.12973738 0.25460768
0.064534195 -0.44839442 0.41029882
0.061729196 0.18708456 0.096036434
0.061917197 0.23115057 0.074493408
0.061237197 0.071794569 0.15239859
0.063914195 0.57742357 -0.15430021
0.062898196 0.46119857 -0.037961483
0.06704919 0.82024157 -0.51352644
0.059736196 -0.28018737 0.32446957
0.061721198 -1.0189024 0.097004414
0.058672197 -0.80616939 0.44629335
0.058632199 -0.53889143 0.45094061
0.056103196 0.23077059 0.070888519
0.056374196 0.3013826 0.03634882
0.055491198 0.071335554 0.14887476
0.059043199 0.73281455 -0.30340338
0.057415199 0.53562659 -0.096154213
0.049740199 0.070874572 0.14534855
0.051880196 0.61105257 -0.16120243
0.051333196 0.53642058 -0.082922459
0.054381199 0.82014155 -0.51944256
0.049048197 -0.13140845 0.24434948
0.047958199 -0.45050848 0.40052366
0.044216197 0.14845556 0.10360146
0.043774199 0.00081056356 0.1759038
0.043983199 0.070413589 0.14181948
0.045025196 0.41879559 -0.028781414
0.045250196 0.49415258 -0.065682411
0.041967198 -0.60345042 0.47180748
0.042422198 -0.45121646 0.39725971
0.037938196 -0.039873421 0.19209862
0.038810197 0.30034459 0.025399685
0.039527196 0.57971358 -0.11147738
0.039647199 0.61235857 -0.1342864
0.038932197 0.3478986 0.0021004677
0.040063199 0.68843055 -0.21374941
0.039220199 0.46014658 -0.052898407
0.037574198 -0.18174148 0.2616086
0.032213196 -0.040390432 0.18861771
0.032372195 0.033928573 0.15218258
0.033043198 0.3475756 -0.0015835762
0.033106197 0.37681359 -0.015917301
0.033767197 0.65754157 -0.1673274
0.033284195 0.45988157 -0.056641579
0.035249196 0.82035857 -0.50700855
0.031563196 -0.34464943 0.33778048
0.031910196 -0.18232739 0.25820255
0.032015197 -0.1330924 0.23406363
0.032129198 -0.079754472 0.20791578
0.031332195 -0.45263743 0.39072275
0.031423196 -0.41013038 0.36988258
0.026996195 0.25760961 0.038701534
0.026673198 0.069022596 0.1312108
0.027782198 0.68944156 -0.18642044
0.027271196 0.41793656 -0.039942265
0.028069198 0.76838958 -0.26855326
0.027400196 0.49341258 -0.076965332
0.026721198 -1.0128324 0.11739635
0.025518198 -0.60578942 0.46222544
0.025684197 -0.50845647 0.41448069
0.021188196 0.2992996 0.014416695
0.021340195 0.41764855 -0.043670177
0.021437198 0.49316457 -0.080732346
0.020438198 -0.28461146 0.30100441
0.019939195 -0.67295837 0.49160957
0.015241196 0.22808456 0.045548439
0.015010197 -0.041951418 0.17815971
0.015266197 0.25686759 0.031413555
0.015302196 0.2989496 0.010747433
0.015073196 0.032477558 0.14160967
0.015570196 0.61194259 -0.14295864
0.015840195 0.8239786 -0.2976675
0.016246196 0.85724759 -0.53051519
0.014930196 -0.13478637 0.22375059
0.014692197 -0.41221642 0.3599925
0.009263197 -0.042473435 0.17466736
0.0092801964 -0.0021874309 0.15487242
0.0094421962 0.37557459 -0.030747414
0.0096631963 0.82422161 -0.28364658
0.0093041966 -1.0098504 0.12748146
0.0089671966 -0.73132038 0.51314449
0.008992197 -0.6745894 0.48526859
0.0035081964 0.29824656 0.0033993721
0.0035081964 0.61157155 -0.15064526
0.0035081964 0.68935156 -0.18888521
0.0035081964 0.73559058 -0.21161747
0.0035081964 0.82446259 -0.26967764
0.0035081964 -1.0088644 0.13082647
0.0035081964 -0.91415238 0.28593159
0.0035081964 -0.18527746 0.24112272
0.0035081964 -0.54642045 0.41867638
-0.0022678035 -0.0031974316 0.14783382
-0.0025168033 0.57829458 -0.1382165
-0.0025318037 0.61138558 -0.15449429
-0.0024298034 0.37494957 -0.03818655
-0.0024988037 0.53441358 -0.11663151
-0.0021448038 -0.91323841 0.28911448
-0.0022338037 -0.083001375 0.18709278
-0.0081778038 0.14460456 0.071312428
-0.0082098031 0.18219358 0.052810669
-0.0083088037 0.29754061 -0.0039644241
-0.0081098033 0.066209555 0.10989857
-0.0083748037 0.37463659 -0.041911602
-0.0085118031 0.53418559 -0.12044239
-0.0076968037 -0.41502047 0.34676456
-0.014226803 0.2971856 -0.007651329
-0.014288803 0.3449626 -0.031179428
-0.014379804 0.41590661 -0.066119194
-0.014477803 0.49166358 -0.10342836
-0.013838804 -1.0059284 0.14081478
-0.012935803 -0.79520237 0.48563957
-0.013533804 -0.24101138 0.25740576
-0.013735804 -0.084094405 0.18012571
-0.019834805 0.11146557 0.079999447
-0.019634802 -0.0047204494 0.13725138
-0.020235803 0.34463155 -0.034897327
-0.021974802 0.8572166 -0.53300047
-0.019039802 -0.35067737 0.30772877
-0.019319803 -0.18766344 0.22740173
-0.019405805 -0.13821447 0.20303345
-0.026760805 0.61063558 -0.16993523
-0.027028803 0.73499656 -0.23125029
-0.023874804 -0.79356337 0.49158859
-0.025041804 -0.18826342 0.22396374
-0.024263803 -0.55025136 0.40243959
-0.025148805 -0.13879037 0.19956875
-0.031138804 -0.046167433 0.1501236
-0.031913802 0.25386059 0.0021104813
-0.031423803 0.064311564 0.095620632
-0.032222804 0.37337559 -0.056850433
-0.034759801 0.8571136 -0.54144621
-0.029500801 -0.68035841 0.46299076
-0.029672801 -0.61370647 0.4301095
-0.037407804 0.1101076 0.069201469
-0.037056804 -0.0062544346 0.12663937
-0.037967801 0.29575956 -0.022438526
-0.038200803 0.37305856 -0.060594559
-0.038452804 0.45665559 -0.10185957
-0.039290804 0.73475659 -0.23913336
-0.034849804 -0.73812246 0.48789978
-0.035021804 -0.68119037 0.45979738
-0.035411801 -0.55179644 0.39592743
-0.043672804 0.22416759 0.009036541
-0.042876802 -0.0067684054 0.12309551
-0.044888802 0.57685059 -0.16515255
-0.044473801 0.45638159 -0.10565329
-0.045549802 0.76860559 -0.25985861
-0.040547803 -0.68202448 0.45660257
-0.042414803 -0.14052641 0.18915749
-0.042599801 -0.086849451 0.16264772
-0.049600802 0.22377056 0.0053634644
-0.048703801 -0.0072834492 0.11954546
-0.048837803 0.027067602 0.10257053
-0.051402804 0.68804455 -0.22407055
-0.046081804 -0.68286037 0.45340157
-0.056175802 0.37210256 -0.071851254
-0.057738803 0.73439455 -0.2509923
-0.056683801 0.48988357 -0.13009024
-0.056866802 0.53233755 -0.15108347
-0.058262803 0.82374257 -0.31103945
-0.054118801 -0.99921238 0.16384268
-0.051373802 -0.74070537 0.47838974
-0.051907804 -0.61692643 0.41718435
-0.062577806 0.45555857 -0.11706018
-0.062739804 0.48962659 -0.13391542
-0.064477809 0.82367456 -0.31494427
-0.058376804 -0.90430439 0.32053947
-0.059738804 -0.14227438 0.17871571
-0.058209803 -0.46425247 0.33801174
-0.066583805 0.061430573 0.074097633
-0.069424808 0.60930562 -0.19711542
-0.069830805 0.68760258 -0.23587656
-0.068625808 0.45528257 -0.12087154
-0.070698805 0.8236056 -0.31885338
-0.062158804 -0.79222941 0.49668455
-0.065524809 -0.14286041 0.17522764
-0.065803804 -0.089077473 0.14860344
-0.063854806 -0.4649924 0.33469152
-0.074210808 0.37113959 -0.083146572
-0.070119806 -0.35683644 0.27743053
-0.070467807 -0.29500246 0.24680471
-0.069560803 -0.9025594 0.32673645
-0.067668803 -0.79312146 0.49352741
-0.070735805 -0.24732339 0.22318745
-0.069748804 -0.42287147 0.31013775
-0.078637809 0.10689956 0.043878555
-0.079062805 0.17715961 0.0090584755
-0.077684805 -0.050465405 0.12186766
-0.079508804 0.25079459 -0.027436256
-0.07835681 0.060460567 0.066893578
-0.073182806 -0.79401541 0.4903698
-0.07348381 -0.74417937 0.46567059
-0.075165808 -0.46647942 0.32804251
-0.075425804 -0.42359543 0.30679035
-0.08476381 0.13889158 0.024152756
-0.084018804 0.0240556 0.081097603
-0.084251806 0.059974551 0.063286781
-0.086538807 0.41234559 -0.11144638
-0.088846803 0.76789057 -0.2877574
-0.082248807 -0.24860442 0.21630478
-0.081107803 -0.42432046 0.30344057
-0.089383803 -0.051552415 0.11476946
-0.091472805 0.2500186 -0.034860611
-0.089903809 0.023549557 0.077505589
-0.090152808 0.059486568 0.059676647
-0.093956806 0.60853559 -0.21274328
-0.092100807 0.34060556 -0.079806328
-0.095059805 0.76778758 -0.29176044
-0.088389806 -0.19495845 0.18592358
-0.088734806 -0.14521742 0.16124249
-0.097464807 0.24962956 -0.03857851
-0.095795803 0.02304256 0.073911667
-0.10010681 0.60834157 -0.21666145
-0.098132804 0.34026456 -0.083574295
-0.098350808 0.36984456 -0.098259449
-0.099221803 0.48807359 -0.15695429
-0.099535808 0.53069162 -0.17811251
-0.094125807 -0.99268138 0.18648481
-0.091862805 -0.89911044 0.33904457
-0.094949804 -0.091892362 0.13097143
-0.1034658 0.24923956 -0.042301178
-0.10751081 0.76757956 -0.29978132
-0.10532681 0.48781258 -0.16081047
-0.097426809 -0.89825642 0.34210443
-0.095296808 -0.7976104 0.47770882
-0.10731681 -0.012501419 0.083870411
-0.1121548 0.57453156 -0.20789957
-0.11178981 0.53021562 -0.18587351
-0.1144508 0.82312059 -0.34634829
-0.10495581 -0.29900241 0.22626781
-0.10298481 -0.89740741 0.34515476
-0.10534981 -0.25118339 0.20250082
-0.10354481 -0.47022545 0.31136942
-0.11351281 0.021512568 0.06310463
-0.11900381 0.65399957 -0.25143719
-0.11725881 0.45305157 -0.15150452
-0.12072881 0.82305056 -0.35029364
-0.10682081 -0.74944937 0.4465127
-0.11204581 -0.14759648 0.14720345
-0.1223308 0.33889258 -0.098687649
-0.1252028 0.65382957 -0.25539827
-0.11291981 -0.69304442 0.41480064
-0.1141068 -0.56281841 0.35000181
-0.11442981 -0.52748442 0.3324194
-0.12614781 0.10316759 0.014715672
-0.12725081 0.21852261 -0.04271841
-0.12463781 -0.054846406 0.093387604
-0.1275298 0.24766856 -0.057230473
-0.13096881 0.60736656 -0.2363162
-0.13249581 0.76716256 -0.31587744
-0.1222838 -0.30102444 0.21595573
-0.11977381 -0.56362045 0.34669876
-0.12011181 -0.52826941 0.3290987
-0.12105681 -0.42944837 0.27989578
-0.1324428 0.13528556 -0.0051813126
-0.13128881 0.019971609 0.052263737
-0.13682681 0.57367259 -0.22357464
-0.13716181 0.60716957 -0.24026251
-0.1351888 0.40991259 -0.14199448
-0.13595481 0.48649758 -0.18014526
-0.1363818 0.52925754 -0.20144844
-0.1396088 0.8228386 -0.36216021
-0.12745081 -0.36383438 0.24346542
-0.12821081 -0.98722839 0.20559263
-0.12516581 -0.89404142 0.3572917
-0.1301358 -0.095315456 0.10969782
-0.1380918 0.10222256 0.0073885918
-0.1376038 0.055541575 0.030655384
-0.14336181 0.60697258 -0.24420929
-0.14055181 0.33785558 -0.11006546
-0.14591581 0.82276857 -0.36612654
-0.13602281 -0.095891476 0.10613871
-0.14235081 -0.056510448 0.082650661
-0.14564781 0.2464816 -0.068467617
-0.14956881 0.60677457 -0.24816322
-0.14663881 0.33750761 -0.11386538
-0.14696181 0.36721659 -0.12868261
-0.1504278 0.68564957 -0.28750038
-0.14741981 0.40929759 -0.14967155
-0.13966781 -0.30305946 0.20561552
-0.13953081 -0.98544037 0.21190166
-0.13538581 -0.69650245 0.4018445
-0.1407828 -0.20056844 0.15449762
-0.14191581 -0.096467376 0.10257769
-0.1508618 0.17197758 -0.03523922
-0.15137081 0.2168746 -0.057644367
-0.15306881 0.36688459 -0.13250542
-0.15354581 0.4089886 -0.15351534
-0.14036681 -0.75479543 0.42725277
-0.14781581 -0.097045422 0.099012375
-0.1435288 -0.47554541 0.28789759
-0.15918481 0.36655158 -0.13633156
-0.1625538 0.65280461 -0.2792654
-0.16017981 0.45106357 -0.17853022
-0.16488181 0.82255459 -0.37804937
-0.14597881 -0.75569344 0.42403364
-0.1486088 -0.53222036 0.31244659
-0.16292381 0.1710996 -0.042677402
-0.1678258 0.57258761 -0.24326658
-0.16582081 0.40836859 -0.16122055
-0.1663388 0.45077658 -0.18240738
-0.1576958 -0.25707841 0.17124557
-0.1660618 -0.058748364 0.068280697
-0.1665788 -0.017847419 0.047832489
-0.1704448 0.28766257 -0.1048913
-0.17447281 0.60597956 -0.26402044
-0.17547281 0.68503559 -0.30354118
-0.17250481 0.45048958 -0.18628931
-0.18017481 0.76275659 -0.48927927
-0.16293581 -0.30579638 0.19177866
-0.1642348 -0.20310044 0.14044237
-0.16004981 -0.53381348 0.30576658
-0.1613048 -0.43466043 0.25619936
-0.17969181 0.52755761 -0.22886944
-0.1839118 0.82233959 -0.39001656
-0.16795081 -0.36883247 0.21949959
-0.17076981 -0.15364444 0.11186361
-0.18106781 0.16977459 -0.053864479
-0.18167681 0.2147916 -0.076394558
-0.1826538 0.28690559 -0.11248541
-0.18486181 0.44991258 -0.19406843
-0.16848481 -0.75930643 0.41112661
-0.18712881 0.1693306 -0.057600498
-0.18876781 0.28652459 -0.11628819
-0.1898638 0.36487556 -0.1555233
-0.1943358 0.68457162 -0.31561947
-0.17412581 -0.7602154 0.4078908
-0.1767628 -0.57173741 0.3135066
-0.1786488 -0.4369204 0.24599457
-0.1931968 0.16888559 -0.061339378
-0.19097181 0.01475656 0.015888691
-0.19724481 0.44933259 -0.20186234
-0.19774181 0.48381957 -0.21914244
-0.20301081 0.82212359 -0.40202427
-0.18027781 -0.8858614 0.38714552
-0.1815788 -0.63603437 0.34197569
-0.18779081 -0.20565641 0.12633038
-0.18851481 -0.15548742 0.10119152
-0.19994281 0.2135306 -0.087691307
-0.2064608 0.65158856 -0.30731344
-0.2028138 0.40649056 -0.18443251
-0.20460081 0.52657354 -0.24463749
-0.19369581 -0.20629942 0.12279272
-0.19525181 -0.10171938 0.070360661
-0.20649481 0.2424596 -0.10618734
-0.2127628 0.65141356 -0.31133938
-0.1939778 -0.57420945 0.30349064
-0.1953838 -0.48251545 0.25749254
-0.2078118 -0.062716365 0.042990685
-0.2183378 0.60456955 -0.29194641
-0.21406381 0.33362859 -0.1559515
-0.2145358 0.36351961 -0.17095327
-0.21520381 0.40585858 -0.19220543
-0.2046618 -0.2624234 0.14323139
-0.20631981 -0.15734339 0.090486526
-0.2175398 0.16709459 -0.076341629
-0.21827281 0.21225959 -0.099025249
-0.2138028 -0.063289404 0.039361477
-0.22023581 0.33327156 -0.15980244
-0.2210668 0.012101591 -0.0024414062
-0.2303738 0.57037657 -0.28298855
-0.23304981 0.73088557 -0.36364841
-0.21566281 -0.31205046 0.16045237
-0.2173828 -0.20888543 0.10860968
-0.2118448 -0.54107738 0.27554369
-0.2285348 0.094993591 -0.04806757
-0.2305278 0.2114076 -0.10660124
-0.22650881 -0.02332139 0.011423588
-0.23804781 0.6507076 -0.32748938
-0.2345708 0.44757658 -0.22535229
-0.2215538 -0.31275344 0.15695477
-0.2137838 -0.76663542 0.3851738
-0.2241828 -0.15921247 0.079751492
-0.2443898 0.65053058 -0.33153963
-0.24081881 0.44728059 -0.22928333
-0.24142681 0.48190457 -0.24670219
-0.21947481 -0.76756036 0.38191557
-0.22926781 -0.21018839 0.1014967
-0.2301518 -0.15983844 0.076164722
-0.23783581 -0.065591455 0.024815559
-0.24989381 0.60354757 -0.31203127
-0.24630281 0.40426457 -0.21171236
-0.2579008 0.72567159 -0.53574753
-0.22402981 -0.87955737 0.41053438
-0.2274328 -0.64292443 0.31544781
-0.2285808 -0.57920647 0.28336954
-0.24681079 0.093516588 -0.059266567
-0.2489638 0.21012056 -0.11799955
-0.24462181 -0.024989426 0.00042581558
-0.24526681 0.0099545717 -0.017175198
-0.24593981 0.046385586 -0.035525322
-0.25254381 0.4039436 -0.21562624
-0.26417279 0.72575456 -0.53275061
-0.2642518 0.85713458 -0.53490543
-0.23926781 -0.31487238 0.14643955
-0.2299398 -0.81989539 0.40081882
-0.23087281 -0.76941848 0.37539339
-0.24016081 -0.2664994 0.1220746
-0.2343698 -0.58004546 0.28000736
-0.23606981 -0.48803937 0.23366356
-0.2535398 0.12596256 -0.079607487
-0.25798881 0.36111456 -0.19812346
-0.27043882 0.7258386 -0.52975559
-0.23492181 -0.87801445 0.41631365
-0.2376758 -0.71247137 0.34295654
-0.24610081 -0.26718545 0.11853456
-0.24809581 -0.1617254 0.065384388
-0.2491298 -0.10708439 0.037846565
-0.2618618 0.2387566 -0.14049244
-0.2626968 0.28189057 -0.16224432
-0.25740781 0.0088735819 -0.02456665
-0.26891682 0.60292858 -0.32413864
-0.2704618 0.68268061 -0.36435747
-0.27670079 0.72592157 -0.52676344
-0.2511088 -0.31629348 0.13941145
-0.2447308 -0.64554238 0.30544758
-0.25204679 -0.26787138 0.11499357
-0.24859381 -0.44612336 0.20488358
-0.26279682 -0.026669443 -0.010605335
-0.26421481 0.044820607 -0.046679497
-0.2704708 0.36042058 -0.20592642
-0.28295982 0.72600359 -0.52377319
-0.28198481 0.76242858 -0.49895763
-0.25909382 -0.21347141 0.083650589
-0.2524848 -0.5468334 0.25185871
-0.2688688 -0.027232409 -0.014291286
-0.28259081 0.64945555 -0.35593748
-0.28655282 0.82116556 -0.4545784
-0.25945979 -0.4912374 0.21997356
-0.27741081 0.091030598 -0.078008652
-0.27809581 0.1240446 -0.094686508
-0.27983481 0.20795655 -0.13707638
-0.28044781 0.23750359 -0.15200329
-0.28134382 0.28071058 -0.17383051
-0.2764318 0.043771565 -0.054134369
-0.2896668 0.68219858 -0.37665033
-0.28637281 0.52330756 -0.29638243
-0.29513681 0.90208858 -0.50994921
-0.26761881 -0.38132048 0.16061163
-0.2641528 -0.54849541 0.24506235
-0.27211881 -0.16426241 0.050958633
-0.2653228 -0.49204147 0.21654463
-0.2835528 0.090529561 -0.08177042
-0.28924781 0.35937256 -0.21766043
-0.3017028 0.72625059 -0.51481724
-0.2917968 0.47967759 -0.27847147
-0.2692388 -0.58512545 0.25975466
-0.28712779 -0.028928399 -0.025371552
-0.2928758 0.23666358 -0.15969849
-0.2886788 0.042717576 -0.061607361
-0.29487181 0.32891059 -0.20635319
-0.29552379 0.35902059 -0.22158241
-0.26986581 -0.82663238 0.3780818
-0.29658881 0.12259257 -0.10603952
-0.3000558 0.2795226 -0.18545437
-0.3044658 0.47911358 -0.2864604
-0.2794998 -0.65083241 0.28536367
-0.2817058 -0.55100346 0.23484373
-0.2839188 -0.45082247 0.18414545
-0.30012682 0.005048573 -0.050555229
-0.3128098 0.5674206 -0.33532047
-0.28676081 -0.58769238 0.24958372
-0.28884479 -0.49527645 0.2027874
-0.28982881 -0.45161247 0.18067837
-0.30819079 0.088514566 -0.096853256
-0.3108888 0.20576656 -0.15625858
-0.30625781 0.0044965744 -0.054285526
-0.3210718 0.64836562 -0.38050747
-0.31537279 0.4006896 -0.25501919
-0.3255088 0.7629056 -0.47822952
-0.31716481 0.47854757 -0.2944684
-0.3181648 0.52202457 -0.31649446
-0.28957281 -0.7207104 0.31314754
-0.2947408 -0.49609041 0.19934177
-0.31157079 -0.031208396 -0.040198326
-0.32640579 0.60104358 -0.36072254
-0.29537082 -0.72163641 0.3098197
-0.30835882 -0.16811347 0.029206753
-0.3213478 0.12064159 -0.12123346
-0.33475381 0.68106157 -0.40550852
-0.32906079 0.4430716 -0.28478718
-0.3390668 0.72673857 -0.49696827
-0.30280781 -0.65440047 0.27191067
-0.32755479 0.12015057 -0.12504148
-0.32558981 0.039523602 -0.084118366
-0.33843681 0.5664916 -0.35158348
-0.33542082 0.44276559 -0.28878546
-0.3102138 -0.59114242 0.2359786
-0.33660281 0.23369259 -0.18676519
-0.3389028 0.32630759 -0.23380232
-0.33965382 0.35653961 -0.24915648
-0.34770581 0.68073261 -0.41379833
-0.35028079 0.76317358 -0.46643543
-0.34373879 0.5209856 -0.33266926
-0.32272682 -0.32496238 0.09694767
-0.3160938 -0.59200943 0.23256874
-0.31698582 -0.55607247 0.21431541
-0.3409718 0.15787858 -0.15234423
-0.34287882 0.23326355 -0.19065046
-0.35015079 0.52072459 -0.33672619
-0.32873881 -0.32569647 0.093385696
-0.32432482 -0.50018644 0.18205357
-0.3462238 0.1186716 -0.13649559
-0.34228879 -0.034089446 -0.058822632
-0.3502838 0.27631158 -0.21664619
-0.36388481 0.7270596 -0.48511648
-0.35544881 0.47683057 -0.31860256
-0.3288008 -0.5577774 0.20744753
-0.3515898 0.084941566 -0.12341261
-0.37183082 0.67691362 -0.51618338
-0.35980681 0.3983646 -0.28286743
-0.37007681 0.72713858 -0.48215818
-0.36300081 0.52020061 -0.34485245
-0.3391268 -0.39044142 0.11844063
-0.3407858 -0.32716846 0.086249352
-0.34485281 -0.17201936 0.0073165894
-0.33620581 -0.50183845 0.17511368
-0.35870582 0.1176796 -0.14415026
-0.36096081 0.2022056 -0.18717861
-0.35556781 3.5583973e-05 -0.084264278
-0.37064782 0.56531858 -0.37202263
-0.37282482 0.64688754 -0.41354752
-0.37804681 0.67701161 -0.51320124
-0.3682718 0.47625357 -0.32668447
-0.3468188 -0.32790744 0.082676411
-0.35095981 -0.17267537 0.0036554337
-0.34332681 -0.45880342 0.14930964
-0.3608048 -0.035834432 -0.070045471
-0.37058282 0.32442057 -0.25354433
-0.37140581 0.35474157 -0.26898718
-0.37257081 0.39769256 -0.29086542
-0.35285881 -0.32864738 0.079099655
-0.35857081 -0.11816645 -0.02810955
-0.36584282 -0.078048468 -0.052578449
-0.38453379 0.59911656 -0.3976984
-0.3769418 0.32404059 -0.25750542
-0.38015881 0.44060057 -0.31691122
-0.37201881 -0.078657389 -0.05630827
-0.38069981 0.23066956 -0.2140522
-0.3841618 0.35401559 -0.27695227
-0.39480481 0.72745454 -0.47034931
-0.37819982 -0.079267383 -0.060041428
-0.3870298 0.23023361 -0.21796751
-0.3803978 -0.0022274256 -0.09935236
-0.38144982 0.034646571 -0.1181674
-0.38968381 0.32327861 -0.26544333
-0.39055079 0.35365158 -0.28094339
-0.39401481 0.47508958 -0.34290743
-0.3890768 0.081830561 -0.14634228
-0.3925018 0.19994557 -0.20664549
-0.4040558 0.59846461 -0.4101162
-0.40543181 0.64594859 -0.4343605
-0.37850881 -0.28267241 0.039762497
-0.39285681 -0.0033664107 -0.10692024
-0.40956581 0.56389159 -0.39671326
-0.40245581 0.32251155 -0.27340031
-0.40335181 0.35292161 -0.28893661
-0.40263182 0.11416858 -0.1710844
-0.40379679 0.15310258 -0.1909852
-0.4051708 0.19903356 -0.21446419
-0.39803782 -0.039362431 -0.092602253
-0.40020281 0.032997608 -0.12959146
-0.4088538 0.32212657 -0.27738523
-0.41853181 0.64556956 -0.44272041
-0.41340479 0.47420958 -0.35512638
-0.39390981 -0.17731345 -0.02208519
-0.39556581 -0.12196636 -0.050378323
-0.4079228 0.080258608 -0.15786552
-0.40647081 0.032444596 -0.1334095
-0.4226048 0.56341058 -0.40498447
-0.40175882 -0.12260544 -0.054104328
-0.41525081 0.11315459 -0.17881918
-0.41050881 -0.040550411 -0.10015631
-0.4116028 -0.0050854087 -0.11830664
-0.40795681 -0.1232444 -0.057831287
-0.42052481 0.079204559 -0.16556835
-0.42157182 0.11264658 -0.18269444
-0.42279381 0.15164655 -0.20266533
-0.42683682 0.078674555 -0.16942739
-0.44222182 0.56268561 -0.41742754
-0.43937179 0.47302657 -0.37148619
-0.4331578 0.07814461 -0.17328835
-0.43423781 0.1116246 -0.19045544
-0.44989181 0.59692454 -0.43926525
-0.45379281 0.64304858 -0.50126743
-0.45250779 0.67804557 -0.48084831
-0.4553428 0.56219959 -0.42574835
-0.45647281 0.59670258 -0.4434495
-0.4458198 0.077080607 -0.18102264
-0.4538638 0.3194086 -0.30541658
-0.45616281 0.1953426 -0.24591827
-0.46135479 0.34958857 -0.32514238
-0.46695381 0.51591361 -0.41056633
-0.46359682 0.22492057 -0.26530838
-0.47080782 0.43616056 -0.37387133
-0.4911828 0.6434536 -0.48907423
-0.4838888 0.43551356 -0.38209057
-0.4970018 0.43486458 -0.39032364
-0.50486678 0.47001657 -0.41273642
-0.52274776 0.59445155 -0.48558331
-0.51972377 0.51370656 -0.44390631
-0.52942181 0.59422362 -0.48982143
-0.5361048 0.59399557 -0.49406624
