# .PCD v0.7 - Point Cloud Data file format
VERSION 0.7
FIELDS x y z
SIZE 4 4 4
TYPE F F F
COUNT 1 1 1
WIDTH 1
HEIGHT 1024
VIEWPOINT 0 0 0 1 0 0 0
POINTS 1024
DATA ascii
1.0486015 -0.054012477 -0.083045006
1.0425985 -0.053959489 -0.08355999
1.0186075 -0.053764462 -0.08568716
1.0006346 -0.053638518 -0.087366104
0.98267353 -0.053530514 -0.089118004
0.96354651 -0.052182496 -0.082261086
0.93075049 0.10075152 0.11550093
0.92175746 0.10377049 0.13869381
0.94508052 -0.096460521 -0.079995155
0.90519547 0.028008521 0.21893024
0.93630552 0.022601485 -0.10524511
0.93441248 -0.14219946 -0.090866089
0.89117849 0.14474452 0.19344187
0.89966547 0.1763885 0.12854195
0.89155447 0.17846352 0.14587688
0.90159249 0.21629548 0.068585873
0.91874647 -0.13763648 -0.063489914
0.8791585 0.11163849 0.19667101
0.88349056 0.1805225 0.16308784
0.89340448 0.2182765 0.086227894
0.91768646 -0.20415848 -0.10201979
0.88526654 0.22024351 0.10374117
0.89073455 -0.081350505 0.014539242
0.88595748 -0.031626463 0.052093029
0.86911249 0.22414953 0.1385479
0.88310146 -0.079231441 0.027814865
0.85028052 0.03837651 0.28762102
0.87550056 -0.077122509 0.041036129
0.84663355 0.14918852 0.22518492
0.84671152 0.18798649 0.22455502
0.83340251 0.038380504 0.28553581
0.87716949 -0.25383049 -0.068359852
0.87123156 -0.18981153 -0.020347118
0.83386648 0.18937451 0.23525381
0.85738349 -0.11979848 0.043718815
0.83209252 0.11310452 0.20260191
0.82965553 0.14912951 0.22259521
0.84419155 0.29445648 0.10335016
0.84985745 -0.11761552 0.056865215
0.82644153 0.11305553 0.20151901
0.82755256 0.26002151 0.1923399
0.82127655 0.1124965 0.19639111
0.81861556 0.23329049 0.21854019
0.83054948 -0.06466651 0.11920214
0.81091249 0.038363516 0.28267002
0.80528951 0.038354516 0.28193712
0.82746351 -0.11112148 0.095982075
0.8071425 0.14891154 0.2180562
0.81580949 -0.060588479 0.14483023
0.80904746 0.2612235 0.20195818
0.8148315 0.29952353 0.1530962
0.82593656 -0.17585748 0.05926609
0.80842054 0.30007249 0.15811825
0.80766749 0.060086489 0.16452599
0.81268847 -0.10684246 0.12178707
0.79626453 0.1873135 0.21251106
0.79701948 -0.0081675053 0.2060318
0.82255554 -0.30424851 -0.012998104
0.7828095 0.038307488 0.27894592
0.79803252 -0.10260147 0.14738083
0.7858125 0.14742953 0.20310307
0.78496945 0.23285049 0.21044683
0.80756247 -0.29910249 0.013671875
0.79636049 -0.16676348 0.11124086
0.7907505 -0.10049552 0.16009712
0.77866554 0.1878435 0.21517515
0.78113651 0.26069152 0.19348812
0.78631651 0.29935551 0.14801979
0.7773695 0.068689525 0.22654915
0.78349745 -0.098398507 0.17276096
0.7757715 0.11234051 0.1898222
0.77317047 0.18764949 0.21283484
0.77580655 0.26034951 0.18951702
0.77613151 0.2982325 0.13507318
0.76283145 0.11405551 0.20220089
0.76216948 0.1872595 0.20814991
0.76526046 0.2595405 0.18037224
0.75489855 0.075186491 0.27348423
0.75558746 0.11581451 0.21557283
0.75818956 0.14647853 0.19199896
0.76665151 0.2964555 0.11535406
0.75460255 0.25880951 0.1720171
0.73691547 0.046492517 0.33351183
0.74010551 0.079461515 0.30438709
0.75289547 -0.15342754 0.18760395
0.74767053 -0.088053524 0.2353158
0.72996449 0.048238516 0.34549093
0.74245155 0.2298305 0.17726183
0.72613752 0.010443509 0.32866812
0.73863947 -0.1490615 0.21264505
0.73647952 0.23008448 0.17901182
0.72286856 -0.034956515 0.30637503
0.71920455 0.012259483 0.340662
0.75798249 0.2834475 -0.022193909
0.7181865 0.085790515 0.3501811
0.71229756 0.014068484 0.35260916
0.75022447 0.28514153 -0.0052337646
0.70927346 0.053431511 0.381145
0.72919655 -0.20585948 0.19316626
0.71124446 0.1280095 0.30907202
0.70541847 0.015868485 0.36450624
0.7425065 0.28682649 0.011641026
0.76102746 -0.3857705 -0.16458178
0.71255445 -0.077935517 0.29661512
0.71538854 0.18859851 0.21494722
0.72095954 0.22839749 0.16149712
0.69561446 0.0568555 0.40468025
0.71047246 -0.14044446 0.262115
0.70561445 -0.075938523 0.30872583
0.70191753 0.15881848 0.28966522
0.68946052 0.094078481 0.4102149
0.68956447 0.13396448 0.35478926
0.7078495 0.23011649 0.17631912
0.68838549 -0.025482476 0.36628723
0.70511651 0.2567265 0.14632082
0.67528749 0.13788348 0.384902
0.69214749 0.068697512 0.21746397
0.73125648 -0.38639146 -0.17092705
0.67812753 -0.068036497 0.35669613
0.67309046 0.16645449 0.35085392
0.69029748 0.26015049 0.17846012
0.72530448 -0.38653153 -0.17226505
0.68018949 -0.19006151 0.27972603
0.68957448 0.29837149 0.1273942
0.71935451 -0.38667744 -0.17362309
0.6719265 0.035692513 0.24803019
0.67111945 -0.25247747 0.25626612
0.66730845 0.11958349 0.23677588
0.66549551 0.036795497 0.2554388
0.66422355 -0.25013155 0.26851892
0.65960252 -0.18344051 0.31607914
0.66157556 0.15301448 0.23690701
0.66746151 0.30318952 0.17577219
0.65907848 0.037895501 0.26283121
0.64870453 -0.12160045 0.37056923
0.66016352 0.3047775 0.19173717
0.64254856 0.24577349 0.3171649
0.65290451 0.3063575 0.20761299
0.64629245 0.040084481 0.2775588
0.64705753 0.076117516 0.26946402
0.63271546 -0.057308495 0.42118788
0.64165449 0.12356949 0.26640797
0.64233351 0.15588349 0.25915813
0.63919556 0.0065554976 0.292665
0.63992345 0.041174531 0.2848959
0.63691247 -0.24084848 0.31704903
0.63749146 -0.07455653 0.31086397
0.63595152 0.15683448 0.26653814
0.63200057 -0.033192515 0.3091259
0.63849354 0.30949348 0.23914003
0.63431656 0.078208506 0.28416014
0.6258235 -0.17259353 0.37571812
0.62892056 0.12554449 0.28111887
0.62958348 0.1577825 0.27390194
0.63035452 0.19526851 0.26551008
0.6313405 0.31104749 0.25477886
0.62722945 0.043343484 0.29952002
0.61875653 0.27632654 0.33043289
0.61308551 -0.029688478 0.330863
0.61118555 -0.12408847 0.35194588
0.61057746 0.16060752 0.29588223
0.60830653 0.046572506 0.32132006
0.65394747 -0.38862747 -0.1900692
0.59926856 -0.16408354 0.42259026
0.60601652 -0.068482459 0.34698725
0.60348356 0.31675452 0.31209517
0.5979805 0.16247749 0.31045008
0.59870648 0.1997425 0.30215502
0.64205754 -0.38905054 -0.19334984
0.5946095 0.31416649 0.28419209
0.58951855 0.049773514 0.34296608
0.58626854 -0.11902946 0.38049126
0.58483851 0.13236248 0.33204412
0.58544755 0.16433549 0.32494497
0.58186352 -0.023918509 0.36674404
0.58328652 0.050833523 0.35014582
0.5770005 -0.22054344 0.42346907
0.57912254 -0.16790253 0.39871502
0.58007753 -0.11777455 0.38758326
0.57566452 -0.022774518 0.37386894
0.58203351 0.31566453 0.29880905
0.58281946 0.3623535 0.28954983
0.57345748 0.16548848 0.33359194
0.57419956 0.20254153 0.32474995
0.57563949 0.2743845 0.30760908
0.61828053 -0.38996249 -0.20019579
0.56743956 0.13333052 0.33835983
0.56435049 -0.022384465 0.3755331
0.5651505 0.017952502 0.36590385
0.56150651 -0.16573852 0.40975523
0.56249654 -0.11584049 0.39784384
0.56268156 0.16491753 0.32790995
0.56340945 0.20199752 0.31905413
0.55978847 0.01761353 0.36309099
0.56115651 0.087253511 0.34645796
0.55666649 0.13273549 0.3326869
0.55363846 -0.023091495 0.36992121
0.55182052 -0.11661452 0.39226818
0.55286849 -0.062726498 0.37939119
0.55039346 0.08662349 0.34079885
0.55567551 0.36128253 0.27515221
0.54367852 0.016592503 0.35463905
0.54500449 0.086306512 0.33796597
0.54017746 -0.16736048 0.398633
0.54177749 0.2009005 0.30763817
0.5431335 0.27290052 0.29041004
0.58260655 -0.39148945 -0.21114779
0.53380346 -0.2225365 0.40895081
0.53483552 -0.16776949 0.3958478
0.53291851 0.015906513 0.34899616
0.53355551 0.050109506 0.34080791
0.52948952 -0.1681785 0.39305925
0.52678752 -0.024876475 0.35585403
0.52506149 -0.11856753 0.37829208
0.52425051 0.13092852 0.31561899
0.52757752 0.31351054 0.271873
0.52068055 -0.064956486 0.36255217
0.51342547 -0.16941351 0.38468599
0.51593149 0.27164453 0.27602196
0.51666951 0.31303751 0.26609612
0.51259446 0.084390521 0.3209281
0.51750052 0.3597585 0.25490189
0.50991952 -0.065708518 0.35692406
0.50855148 0.1620155 0.29937983
0.51047951 0.27139151 0.273139
0.50717854 0.084067523 0.3180809
0.50173151 -0.22512752 0.39226294
0.50269747 -0.17024249 0.37909698
0.50453353 -0.066085517 0.3541069
0.50376546 0.19895053 0.28758001
0.49983549 -0.026685476 0.34173918
0.49820051 -0.12054652 0.36426926
0.4983165 0.19866949 0.28470612
0.50027347 0.3123225 0.25741291
0.49195251 -0.17107552 0.37349606
0.49361151 0.24220151 0.27130413
0.48902452 -0.027416468 0.33608007
0.4897145 0.013125479 0.32633924
0.52904451 -0.39414448 -0.22914219
0.48563951 -0.22643846 0.38389397
0.4883475 -0.067223489 0.34564304
0.48678452 0.16083252 0.28791094
0.4842965 0.012773514 0.32349825
0.48119152 -0.17191344 0.36788988
0.48080051 0.12847453 0.29274797
0.47944352 0.046748519 0.31239986
0.4764885 0.19753551 0.27319002
0.47344652 0.012066483 0.31781101
0.47123849 -0.12255245 0.35019684
0.4721275 -0.068371475 0.33716202
0.4698945 0.1278525 0.28700924
0.47041452 0.15993649 0.27928782
0.4721905 0.2695995 0.25289297
0.47286251 0.31111753 0.24290419
0.46671051 -0.068755448 0.33433104
0.4644365 0.12754053 0.2841382
0.46192852 -0.029260516 0.32189512
0.46257851 0.011356533 0.31211519
0.46670452 0.26934052 0.24999189
0.46312749 0.045722485 0.30383921
0.46811751 0.35775453 0.22871304
0.49924651 -0.39581054 -0.23995876
0.4604235 -0.12336248 0.3445549
0.46007052 0.19667751 0.26453304
0.45713851 0.010999501 0.30926514
0.4626095 0.35752851 0.22579193
0.4533475 -0.22909349 0.36710405
0.45421749 -0.1740275 0.35383892
0.45527449 0.24031949 0.25105381
0.4479515 -0.22953945 0.36429882
0.44732451 0.080462515 0.28663301
0.45157951 0.35707551 0.21994495
0.48134851 -0.39687544 -0.2467308
0.4425495 -0.22998744 0.3614912
0.44500551 -0.0703035 0.32298803
0.44361451 0.19581252 0.25585413
0.4401755 -0.030753493 0.31051111
0.4418585 0.080129504 0.28376102
0.4387795 0.23950249 0.24234295
0.4325625 -0.17573947 0.34256315
0.4315955 0.1256485 0.26686001
0.43038452 0.043646514 0.28666115
0.43091351 0.079460502 0.27801323
0.43500251 0.35639149 0.21115494
0.4634355 -0.39799052 -0.25372076
0.4265765 0.15751249 0.25619888
0.42946851 0.35616249 0.20822287
0.4154835 -0.23224348 0.34742689
0.41627651 -0.17703551 0.33408403
0.4161025 0.19435453 0.24134922
0.41672552 0.23840249 0.23069906
0.41771951 0.30865949 0.2137208
0.4455035 -0.39915544 -0.26092815
0.41120151 0.2381255 0.22778225
0.4121815 0.30841053 0.21079016
0.40686151 -0.073053539 0.30305815
0.40410951 0.12404948 0.25240326
0.4050675 0.19376653 0.23553181
0.4034735 0.077773511 0.26360512
0.40064651 -0.12789553 0.31337881
0.39859751 0.1237275 0.249506
0.39701751 0.0070134997 0.27776623
0.39797151 0.077432513 0.26071596
0.3959235 -0.073848546 0.29734516
0.39460149 0.2372905 0.21901894
0.39098251 -0.034171522 0.28477812
0.3949835 0.2659145 0.2120862
0.3919875 0.041181505 0.26652288
0.39616752 0.35477352 0.19057083
0.38972151 -0.12873346 0.30768394
0.38848051 0.19287753 0.22678995
0.38998351 0.30740553 0.1990428
0.38695651 0.076749504 0.25493193
0.38286451 -0.23499149 0.33048296
0.38245851 0.1550355 0.23297405
0.37741351 -0.23545355 0.32765198
0.3769235 0.15472251 0.23006201
0.3774015 0.19228148 0.22095013
0.37885749 0.30689949 0.1931572
0.40358052 -0.40206951 -0.27858496
0.37195751 -0.23591644 0.32482004
0.36584049 0.1540935 0.22422791
0.3668465 0.23588449 0.20436907
0.36487252 0.075372517 0.24334097
0.3915785 -0.40295249 -0.28385019
0.36300752 -0.076259434 0.28015614
0.35799152 -0.036495507 0.2675271
0.3584865 0.0044155121 0.25758886
0.35934052 0.075025499 0.24043798
0.35623351 -0.18187648 0.30284119
0.3547405 0.15346152 0.21838713
0.35571352 0.23531651 0.19849491
0.35296452 0.0040404797 0.25470018
0.35337651 0.03867048 0.24628401
0.35074949 -0.18232352 0.29999018
0.34743652 0.0036644936 0.25180483
0.35151452 0.35288751 0.16691017
0.34648952 -0.077478468 0.27153301
0.34362149 0.15282553 0.2125349
0.3445605 0.23474652 0.19260979
0.34143549 -0.037671506 0.25887203
0.3419055 0.0032874942 0.2489109
0.34271652 0.07398051 0.23171425
0.3397665 -0.18322152 0.29427719
0.34097451 -0.077887475 0.26865482
0.33805549 0.15250653 0.20960808
0.33847952 0.19016951 0.20044184
0.3321265 0.11979151 0.21456289
0.33083051 0.0025305152 0.24311209
0.33469552 0.35216951 0.15799999
0.32815251 -0.23966855 0.30208015
0.32381052 -0.1338585 0.27333879
0.32098451 0.11912352 0.20870781
0.3222025 0.23359549 0.18081188
0.32048851 0.072574496 0.22005224
0.3434515 -0.40671152 -0.30589199
0.31613851 0.18894452 0.18867302
0.3173385 0.30406648 0.16061783
0.31783351 0.35144651 0.14906693
0.30934849 0.071865499 0.21420813
0.3060945 0.30354148 0.15467024
0.32535151 -0.40821654 -0.31457281
0.29708952 -0.0408535 0.23569918
0.2974925 0.00023549795 0.22566795
0.29818749 0.071152508 0.20835304
0.29511151 -0.2425335 0.28493881
0.2933605 0.1499235 0.18609619
0.29414952 0.23214149 0.16602087
0.29482952 0.30301553 0.14871407
0.29061252 -0.13648254 0.25605297
0.2911385 -0.081614435 0.24265099
0.28852549 0.23184752 0.16305494
0.2887955 0.2606895 0.1560092
0.30721551 -0.40977353 -0.32347775
0.28184351 0.1167565 0.18814421
0.27853251 -0.24398345 0.27633905
0.28001451 -0.082454503 0.23684788
0.2758145 0.069716513 0.19661999
0.2712335 0.1864565 0.16502523
0.27224451 0.30195349 0.13677311
0.2674545 -0.24495643 0.27059507
0.26838952 -0.13825446 0.24448395
0.26559949 0.18614149 0.16205883
0.2659795 0.23066652 0.15116501
0.26363751 -0.043283463 0.21822691
0.2662265 0.25955552 0.14409494
0.28298151 -0.4119305 -0.3357091
0.25804651 -0.04369247 0.21530724
0.25898349 0.068629503 0.18779612
0.25374451 0.11504048 0.173388
0.24866751 0.18519253 0.15314484
0.2490205 0.22977352 0.14222383
0.2474515 0.031617522 0.19079494
0.24272251 0.14695251 0.15947008
0.24390651 0.30061048 0.12179279
0.2405065 -0.14049548 0.22997379
0.24093051 -0.08542949 0.2164669
0.23769051 0.22917348 0.13625002
0.23594251 -0.0040664673 0.19347715
0.2345335 -0.1919865 0.23959112
0.23083851 0.066798508 0.17304087
0.22932151 -0.14139944 0.22415495
0.22575751 0.1459465 0.15055323
0.2263415 0.22857052 0.1302681
0.22439851 -0.04616648 0.19773912
0.2249375 0.030087531 0.17900896
0.2190565 -0.0052614808 0.18464804
0.21811551 -0.14230853 0.21832514
0.2121665 -0.19388849 0.22797489
0.2125065 -0.14276546 0.21540785
0.20306951 0.14459354 0.13862705
0.2018705 -0.047837496 0.1859808
0.2021285 -0.0064654946 0.17579985
0.21598151 -0.41835147 -0.37147617
0.19738351 0.14425248 0.1356411
0.19761251 0.18230253 0.12627697
0.1978815 0.22704953 0.11526489
0.19668551 0.028153479 0.16422319
0.19690451 0.064570487 0.15525723
0.19564851 -0.1441415 0.20664024
0.19169451 0.14391148 0.13265085
0.19217551 0.22674251 0.11225796
0.18410051 -0.19629151 0.21340799
0.1787485 -0.14552754 0.19785309
0.17442951 0.11011249 0.13175106
0.17360251 -0.049951494 0.17122984
0.17399751 0.026587486 0.15235281
0.17418651 0.063065529 0.14335394
0.16872551 0.1097545 0.128757
0.16888851 0.14253652 0.12066793
0.16793251 -0.050377488 0.16827202
0.16317451 0.14219153 0.11766624
0.16356751 0.22519851 0.097183228
0.16156051 -0.19823748 0.20171213
0.15796351 0.25400651 0.086968899
0.1515905 0.1086725 0.11976719
0.1508995 -0.051661491 0.15938711
0.15221651 0.25370753 0.083937168
0.1512295 0.025005519 0.14044094
0.1502625 -0.1992175 0.1958499
0.14615852 0.17934352 0.099211216
0.14634252 0.22426152 0.088107109
0.14663652 0.2959125 0.070394993
0.1455245 0.024608493 0.13745785
0.14437351 -0.25599355 0.20682907
0.1448155 -0.14833349 0.18021297
0.13894351 -0.20020252 0.18997908
0.13935851 -0.093329489 0.16354418
0.1345295 0.14044851 0.10261917
0.13381951 -0.052955508 0.15047884
0.1349415 0.2528035 0.074827194
0.1274105 -0.25754648 0.19805002
0.12292951 0.1068505 0.10473204
0.12277651 0.05962348 0.11642885
0.1298205 -0.42758149 -0.42163181
0.1171815 0.10648352 0.10171604
0.12362151 -0.42828649 -0.42541599
0.11607551 -0.25858945 0.19218302
0.1115215 0.1390385 0.090538979
0.11109351 -0.01304549 0.12824202
0.11056051 -0.20268744 0.17525816
0.1056715 0.10574651 0.095680237
0.1057575 0.13868451 0.08751297
0.10545351 0.021793485 0.11650324
0.10472251 -0.25963753 0.18630981
0.10486951 -0.20318848 0.17230797
0.1051475 -0.096045434 0.14573097
0.099987507 0.13832849 0.084485054
0.10007851 0.17665553 0.074977875
0.094213501 0.13797253 0.0814538
0.094457507 0.25066751 0.053479195
0.093349501 -0.26069051 0.18042517
0.087653503 -0.26121944 0.17747879
0.082589507 0.1042605 0.083575249
0.082916506 0.2927615 0.036745071
0.076856509 0.13689649 0.072342873
0.077092506 0.29247051 0.033669949
0.076678507 0.019752502 0.10145998
0.080063507 -0.43340355 -0.45270395
0.076250508 -0.26228052 0.17158079
0.071207508 0.24943054 0.041224003
0.070540503 -0.26281244 0.16862726
0.070681505 -0.15456146 0.14170218
0.065222502 0.10313648 0.074470043
0.067557506 -0.43492347 -0.46075296
0.059423506 0.10275948 0.071430206
0.059319504 -0.016866505 0.10121298
0.059105508 -0.26388246 0.162714
0.059199505 -0.1555385 0.13573885
0.053695507 0.21914452 0.039313793
0.053541504 -0.017296493 0.098196983
0.053742506 0.29129952 0.021341801
0.053380504 -0.26441854 0.1597538
0.047824506 0.13508654 0.057105064
0.047841504 0.17356449 0.047516823
0.047650505 -0.26495653 0.15679216
0.047675505 -0.20826751 0.142663
0.042020507 0.21849048 0.033166885
0.041985504 0.0541085 0.074141026
0.042466506 -0.43804044 -0.47719717
0.041927505 -0.20878249 0.13968611
0.036173508 0.21816152 0.030088902
0.036173508 -0.01859349 0.08913517
0.036173508 0.24755049 0.022758961
0.036173508 0.2904135 0.012069225
0.036173508 -0.43883651 -0.48137999
0.036173508 -0.15750545 0.12378597
0.030332506 0.17251849 0.03831625
0.030366506 0.01643151 0.077260017
0.024466507 0.21750253 0.023927212
0.024653506 -0.21033448 0.13073683
0.018814506 -0.10301751 0.10081196
0.012736507 0.21683949 0.017752171
0.0069135055 0.17111152 0.02601099
0.0071685053 -0.062754512 0.08447504
0.0070845056 0.014746487 0.065097809
0.0072135068 -0.10396749 0.094779968
0.0009865053 0.21617353 0.011569023
0.0014065057 -0.10444444 0.091760159
-0.0048974939 0.21583849 0.0084719658
-0.0043204948 -0.16099745 0.10277224
-0.010580495 0.098166525 0.034749031
-0.010706495 0.17004752 0.016753197
-0.010432493 0.013470531 0.055949211
-0.014424495 -0.44543749 -0.51588821
-0.0099364929 -0.27041155 0.12702894
-0.016592495 0.16969049 0.013659954
-0.022482496 0.1693325 0.010567188
-0.021969493 -0.06505847 0.069302082
-0.022646494 0.24435353 -0.0082321167
-0.021518495 -0.27151948 0.12104607
-0.021879494 -0.10636252 0.079654217
-0.028487496 0.21449351 -0.0039429665
-0.028089494 0.049223483 0.037487984
-0.027316496 -0.27207547 0.11805105
-0.034089491 0.096603513 0.022432804
-0.034278497 0.16861451 0.0043711662
-0.034398496 0.21415448 -0.0070519447
-0.033772491 -0.023878515 0.052650928
-0.033269495 -0.21559554 0.1007452
-0.039981492 0.09621048 0.019348145
-0.039845496 0.048394501 0.031340122
-0.039092496 -0.21612853 0.097732067
-0.039240494 -0.16403943 0.084658146
-0.045617491 0.010891497 0.037577152
-0.045251496 -0.10830051 0.067505836
-0.051243491 -0.067391455 0.05406189
-0.058203496 0.24239552 -0.026959896
-0.056771494 -0.16557747 0.075568199
-0.062991492 -0.068332493 0.047948837
-0.069984496 0.21210551 -0.025773048
-0.069329493 0.046305537 0.015926838
-0.075442493 0.09383148 0.00077724457
-0.084848493 -0.45522147 -0.5664649
-0.081519492 0.12684351 -0.010742188
-0.080655493 -0.069753468 0.038756847
-0.079995491 -0.21990055 0.076566219
-0.080472492 -0.1112445 0.049204826
-0.087989494 0.24074149 -0.042645931
-0.086914495 0.0078315139 0.016018867
-0.085595496 -0.2777105 0.087960243
-0.085860491 -0.2204445 0.073532104
-0.086101495 -0.16816753 0.060360909
-0.093600497 0.16497052 -0.026780128
-0.0924595 -0.070706546 0.032615185
-0.099794492 0.21037352 -0.041451931
-0.11721249 -0.45994645 -0.59068918
-0.10406549 -0.11323148 0.036949158
-0.1112915 0.12490553 -0.026348114
-0.1117585 0.20967549 -0.04774189
-0.1102065 -0.072145522 0.023383141
-0.11192249 0.23940349 -0.055245876
-0.1108425 0.043335497 -0.0057621002
-0.12371349 -0.46091253 -0.59562492
-0.1172625 0.12451553 -0.029478073
-0.1165815 0.0056135058 0.0005402565
-0.1152705 -0.22318548 0.058320999
-0.1158945 -0.11423248 0.030807018
-0.1232415 0.12412351 -0.03260994
-0.1234735 0.16311449 -0.042460918
-0.12231949 -0.030712485 0.0065002441
-0.1239235 0.23872954 -0.061563015
-0.12117049 -0.22373754 0.055270195
-0.12922449 0.12373149 -0.035747051
-0.12993249 0.23839051 -0.06472683
-0.13020049 0.28181154 -0.07570076
-0.1359475 0.23805153 -0.067892075
-0.13445149 0.0042694807 -0.0087819099
-0.14098549 0.089374483 -0.03353405
-0.13989949 -0.074567497 0.0079388618
-0.1385185 -0.28290349 0.06065321
-0.1458565 -0.07505554 0.0048418045
-0.14799549 0.23737049 -0.074234962
-0.1629245 -0.46686047 -0.62592697
-0.1532155 0.12215149 -0.048317909
-0.15402849 0.23702848 -0.077409744
-0.1543355 0.28053248 -0.088426113
-0.1598485 0.20684451 -0.073027134
-0.1583575 0.002461493 -0.021251202
-0.17607349 -0.4689005 -0.63628387
-0.1570655 -0.1745165 0.023591042
-0.16524549 0.12135649 -0.054622173
-0.16588649 0.20648754 -0.076200962
-0.16407749 -0.033989489 -0.015250206
-0.1661105 0.23634249 -0.083768845
-0.16218649 -0.28524846 0.048446178
-0.17249849 0.27956551 -0.09800005
-0.17034449 0.0015504956 -0.027503014
-0.1685635 -0.2282055 0.030771255
-0.1782185 0.23565352 -0.090139866
-0.19587749 -0.47201651 -0.65206814
-0.1836575 0.1593315 -0.074042797
-0.20249949 -0.47307152 -0.65739918
-0.1809025 -0.17667454 0.011249065
-0.18868649 0.03768152 -0.046422005
-0.1864325 -0.22990447 0.021536827
-0.18687649 -0.17721754 0.0081548691
-0.18735549 -0.12034446 -0.006289959
-0.19642249 0.23461252 -0.099719048
-0.1968005 0.27826351 -0.11080885
-0.1947155 0.037238479 -0.049568176
-0.2157765 -0.47520047 -0.6681509
-0.19239949 -0.23047346 0.018455029
-0.1933475 -0.12086147 -0.0093989372
-0.2022385 0.2043215 -0.095306873
-0.2007515 0.036794484 -0.052721977
-0.19786149 -0.2888115 0.030055046
-0.1993475 -0.12138051 -0.012513161
-0.2078985 0.1577915 -0.086760998
-0.2121515 -0.037805498 -0.040278912
-0.2128395 0.035904527 -0.059031963
-0.2097985 -0.29001051 0.023901939
-0.21033749 -0.23218852 0.0091872215
-0.21967751 0.1177265 -0.083134174
-0.2177785 -0.081006467 -0.03254509
-0.2185325 -0.0021364689 -0.052619934
-0.2168335 -0.17995244 -0.007352829
-0.22659248 0.20286053 -0.10810375
-0.22381049 -0.081511438 -0.035678864
-0.2273145 0.27661848 -0.12689114
-0.22458249 -0.0026025176 -0.055774212
-0.22232449 -0.23333949 0.0029969215
-0.22339949 -0.12346846 -0.024991035
-0.2315025 0.083097517 -0.080887794
-0.2326985 0.20249254 -0.11131191
-0.22984949 -0.082016528 -0.038816929
-0.2334365 0.2762875 -0.13011599
-0.2288585 -0.18105549 -0.013576031
-0.2388075 0.20212454 -0.11452198
-0.23911551 0.23215449 -0.12217808
-0.23956349 0.27595448 -0.13334513
-0.23708749 0.034109533 -0.071689129
-0.23374349 -0.29242653 0.011562824
-0.24443948 0.1554535 -0.10592699
-0.23974448 -0.29303354 0.0084719658
-0.24090549 -0.18216449 -0.0198102
-0.25012949 0.1156745 -0.099079132
-0.24924749 0.033205509 -0.078033924
-0.24637151 -0.23565751 -0.0094218254
-0.24693748 -0.18272144 -0.022932053
-0.25750449 0.23108751 -0.13184881
-0.25176549 -0.29425353 0.0022802353
-0.2536025 -0.12610847 -0.040657043
-0.26331049 0.2006405 -0.1273942
-0.26364648 0.23073053 -0.13507986
-0.26413548 0.27461749 -0.14629078
-0.2590225 -0.18383855 -0.029183865
-0.26847449 0.1144315 -0.10868406
-0.26710549 -0.0058984756 -0.077931881
-0.2742075 0.080087483 -0.10321808
-0.27179548 -0.12770754 -0.050088882
-0.28033251 0.079653502 -0.10641813
-0.2783705 -0.086103499 -0.064020157
-0.28210849 0.22965252 -0.14479017
-0.27587649 -0.2967115 -0.010138988
-0.2832635 -0.18608946 -0.041726112
-0.28395548 -0.12878054 -0.0563941
-0.2930215 0.11275852 -0.12153196
-0.29350749 0.15228051 -0.13165283
-0.29056349 -0.08713752 -0.070351124
-0.2879695 -0.29794949 -0.016364098
-0.2991735 0.11233848 -0.124753
-0.29966849 0.15187949 -0.13488197
-0.30025148 0.1983875 -0.14679718
-0.3011815 0.27258551 -0.16580486
-0.2954205 -0.18722349 -0.048010826
-0.29613951 -0.12985843 -0.062708855
-0.3058365 0.15147752 -0.13811493
-0.3042745 0.029081523 -0.10674477
-0.3126165 0.19762951 -0.15329075
-0.3135815 0.2719025 -0.1723361
-0.30992949 -0.0092524886 -0.10024118
-0.3069115 -0.24155444 -0.040668964
-0.3176685 0.1110695 -0.13443184
-0.31920749 0.2274735 -0.1642971
-0.31607148 -0.0097364783 -0.10343885
-0.3129985 -0.24215144 -0.043809891
-0.31370249 -0.1889345 -0.05746603
-0.31446248 -0.13148552 -0.072206974
-0.3243795 0.15026551 -0.14783382
-0.3260065 0.27121449 -0.17887974
-0.31909248 -0.24275047 -0.046955109
-0.3295635 0.076140523 -0.13214874
-0.33121049 0.19648451 -0.16305399
-0.3322275 0.27087051 -0.18215513
-0.32837549 -0.010707498 -0.10984707
-0.3288945 0.027219534 -0.11958599
-0.32439348 -0.30170053 -0.035113811
-0.32592049 -0.19008154 -0.063781738
-0.33621949 0.10979253 -0.14413977
-0.33203951 -0.19065851 -0.066946983
-0.33283949 -0.13312453 -0.081729889
-0.3446925 0.27017748 -0.1887188
-0.33658451 -0.30296344 -0.041388988
-0.34742549 0.02581048 -0.1292491
-0.34965348 -0.24576849 -0.062717915
-0.3504335 -0.19239444 -0.076454163
-0.36163551 0.14781451 -0.16735888
-0.35870349 -0.049716473 -0.11650801
-0.35491648 -0.30486852 -0.050819874
-0.3672685 0.10764152 -0.16038418
-0.3654395 -0.013649464 -0.12914276
-0.36272749 -0.19355947 -0.082808018
-0.36359748 -0.13588351 -0.097663879
-0.37041849 -0.093986452 -0.1118021
-0.37108049 -0.050741494 -0.12294197
-0.37164149 -0.01414448 -0.1323719
-0.3722235 0.023915529 -0.14217901
-0.3742165 -0.24820954 -0.075385094
-0.37594551 -0.13699645 -0.10406017
-0.38597649 0.10633951 -0.17016792
-0.38660449 0.14616048 -0.18043995
-0.3834815 -0.051770508 -0.12938595
-0.3928625 0.1457445 -0.18371916
-0.3940995 0.22301751 -0.20365906
-0.39989048 0.19221449 -0.19910574
-0.39712548 0.022002518 -0.15515995
-0.39175349 -0.30872148 -0.069766998
-0.39270648 -0.25005549 -0.084916115
-0.40474248 0.10502648 -0.17998409
-0.40540048 0.1449095 -0.19028616
-0.40336651 0.021520495 -0.15841293
-0.39976451 -0.19708747 -0.10194397
-0.4124625 0.1914255 -0.20570421
-0.41371349 0.26630849 -0.22505617
-0.4089765 -0.017137468 -0.15180302
-0.4096145 0.021038532 -0.16166782
-0.40595949 -0.19768053 -0.10514402
-0.41670451 0.069824517 -0.17766809
-0.42002851 0.26595151 -0.22838116
-0.41025549 -0.31066948 -0.079281807
-0.42506149 0.19063252 -0.21231604
-0.42009649 -0.09831053 -0.13756704
-0.42633748 -0.098857462 -0.14080286
-0.42709351 -0.055415511 -0.15204716
-0.42262548 -0.31197649 -0.085639954
-0.42458451 -0.19946951 -0.11476421
-0.43399951 -0.019157469 -0.16482306
-0.4388355 -0.099954545 -0.14728498
-0.4409565 0.01860851 -0.17800093
-0.43501848 -0.31328851 -0.092010975
-0.44813949 0.067515492 -0.19407988
-0.4458825 -0.056996465 -0.16180897
-0.45089549 0.21958852 -0.2335
-0.45170349 0.26415348 -0.24505091
-0.44724348 0.018118501 -0.18127775
-0.44229248 -0.25504655 -0.11046982
-0.4550795 0.10147852 -0.20630217
-0.45216051 -0.057525516 -0.16506815
-0.45283648 -0.020685494 -0.17462206
-0.44852149 -0.25567752 -0.11367989
-0.45057648 -0.14379054 -0.14270115
-0.4635925 0.21881551 -0.24016809
-0.45984149 0.017136514 -0.18783998
-0.45988551 -0.31593353 -0.10478878
-0.46201149 -0.20308548 -0.13408899
-0.47340849 0.065647483 -0.20727205
-0.47483149 0.1402415 -0.22664499
-0.4771665 0.26269853 -0.25844812
-0.46724352 -0.25757855 -0.12332392
-0.4811835 0.13981152 -0.22996998
-0.48268649 0.21765053 -0.25019693
-0.47349748 -0.25821453 -0.12654495
-0.47566351 -0.14609951 -0.15568209
-0.4860855 0.064706504 -0.21388817
-0.48754451 0.1393795 -0.23330116
-0.4827905 -0.10383648 -0.17007113
-0.4836435 -0.060192466 -0.18141699
-0.48511651 0.015155494 -0.20100689
-0.49878749 0.063761532 -0.22051716
-0.4994795 0.098316491 -0.22950888
-0.49111751 -0.31927651 -0.12083578
-0.50584948 0.097860515 -0.23283815
-0.50762248 0.1853835 -0.2556262
-0.50172853 -0.10552055 -0.17988586
-0.50336349 -0.024814487 -0.20089817
-0.49738351 -0.31994945 -0.12405396
-0.5097115 -0.025337517 -0.20419788
-0.50717652 -0.14901751 -0.17198277
-0.51228845 -0.20798844 -0.16003799
-0.52427649 0.061856508 -0.2338171
-0.52500355 0.096485496 -0.24284601
-0.52842844 0.25974649 -0.28541708
-0.52800655 -0.063982487 -0.20444775
-0.52616453 -0.15078551 -0.18180275
-0.54509544 0.13544649 -0.26342297
-0.53979254 -0.10892648 -0.19960785
-0.53641355 -0.26466948 -0.15893793
-0.53758955 -0.21047646 -0.17308998
-0.54987752 0.059933484 -0.24717283
-0.55152452 0.13500351 -0.26678705
-0.55422854 0.25824851 -0.29898596
-0.54274249 -0.26532346 -0.16219521
-0.55706549 0.094170511 -0.25959587
-0.55433249 -0.029026508 -0.2273941
-0.55518949 0.0096095204 -0.23749304
-0.56271946 0.058965504 -0.25387192
-0.55891752 -0.1106475 -0.20951414
-0.56994152 0.093236506 -0.26632404
-0.56630349 -0.067282498 -0.22432184
-0.57263446 0.21209449 -0.29742193
-0.56300151 -0.21298951 -0.18619776
-0.57170355 -0.11180252 -0.21613598
-0.57911253 0.21169049 -0.30082417
-0.5735625 -0.030627489 -0.23738718
-0.57444954 0.0080714822 -0.24751806
-0.57071447 -0.15496045 -0.2048378
-0.58203852 0.057503521 -0.26394796
-0.58378053 0.13277549 -0.28366375
-0.58849144 0.057013512 -0.267313
-0.57946754 -0.32885355 -0.16619587
-0.5967325 0.13187653 -0.29043913
-0.59197354 -0.069508493 -0.23763895
-0.5937705 0.006521523 -0.25757408
-0.58723748 -0.26994652 -0.18509007
-0.58852351 -0.21552545 -0.19935799
-0.60322154 0.1314255 -0.29383421
-0.59841144 -0.070068538 -0.24098015
-0.60022748 0.0060024858 -0.26093292
-0.59219944 -0.33024853 -0.17272902
-0.59362352 -0.27061349 -0.18837404
-0.59632647 -0.15737945 -0.21807575
-0.60485351 -0.070630491 -0.24431992
-0.60575354 -0.033320487 -0.2541132
-0.60668945 0.0054824948 -0.2642951
-0.60274649 -0.15798753 -0.22139502
-0.61737955 0.17826253 -0.3131671
-0.61022949 -0.11530048 -0.23608494
-0.61221254 -0.033863485 -0.25746918
-0.60495853 -0.33165044 -0.17927504
-0.60774148 -0.21744448 -0.20926809
-0.62466347 0.20883453 -0.32472801
-0.62736654 0.054050505 -0.28758383
-0.62422645 -0.072322547 -0.25436783
-0.63120151 0.20842248 -0.32815886
-0.6251545 -0.034952521 -0.26419115
-0.61923349 -0.27329749 -0.20154715
-0.62205255 -0.15982145 -0.23136997
-0.63888144 0.25327849 -0.34349585
-0.6316365 -0.035499513 -0.2675581
-0.62850153 -0.1604355 -0.23470306
-0.63812447 -0.036047518 -0.27092695
-0.63207948 -0.27464849 -0.20815086
-0.65201449 0.25249952 -0.35039997
-0.63698244 -0.33518451 -0.19570208
-0.6501565 -0.074598491 -0.26781511
-0.65112352 -0.037147522 -0.27767801
-0.64495552 -0.27600652 -0.21477175
-0.65865147 0.0012724996 -0.29132891
-0.66742551 0.086087525 -0.31722403
-0.66976047 0.17480749 -0.34061384
-0.66316652 -0.07574445 -0.27455997
-0.66415346 -0.038252473 -0.28444481
-0.66517949 0.00074052811 -0.29472399
-0.65930247 -0.22262949 -0.23583698
-0.67716753 0.20550948 -0.35227394
-0.67837453 0.25093049 -0.364254
-0.67067945 -0.038807511 -0.28783321
-0.6717155 0.00020748377 -0.29812288
-0.68292952 0.17393351 -0.34751177
-0.67825747 -0.00032651424 -0.30152512
-0.66918552 -0.33876151 -0.21221304
-0.67079449 -0.27874249 -0.22805405
-0.6722635 -0.2239415 -0.24251509
-0.68712246 0.084625483 -0.32750511
-0.69037044 0.20466751 -0.35919905
-0.69160044 0.25013953 -0.37120485
-0.68375349 -0.039920509 -0.29462004
-0.69274449 0.049014509 -0.321661
-0.6880635 -0.12245148 -0.27636576
-0.69030154 -0.040479481 -0.29801989
-0.68375945 -0.28012151 -0.23471594
-0.69932246 0.048503518 -0.32508898
-0.6968565 -0.041039467 -0.30142307
-0.69793344 -0.0019385219 -0.31175804
-0.69025147 -0.28081244 -0.23805285
-0.71022844 0.20339751 -0.36961508
-0.70341945 -0.041600466 -0.30483103
-0.70450652 -0.0024774671 -0.31517601
-0.71463752 0.12358654 -0.35209179
-0.7076875 -0.12427145 -0.28651905
-0.70157051 -0.34238154 -0.22881079
-0.70325851 -0.28220052 -0.24473619
-0.71910644 0.04696548 -0.3353982
-0.72479749 0.24814653 -0.38864899
-0.70807147 -0.34311146 -0.23214388
-0.72571552 0.046449482 -0.33884096
-0.72207952 -0.080972493 -0.3050952
-0.7314595 0.24774551 -0.39215088
-0.71956146 -0.16919249 -0.28173304
-0.72974753 -0.043860495 -0.3184948
-0.73087549 -0.0046495199 -0.32888412
-0.72109151 -0.34457546 -0.23881388
-0.72441053 -0.22925454 -0.26937199
-0.73895645 0.045415521 -0.34573793
-0.74257255 0.16994649 -0.37875175
-0.74480748 0.24693948 -0.39916182
-0.7276125 -0.34531051 -0.24215603
-0.73096251 -0.22992545 -0.27274513
-0.74410748 -0.0057435036 -0.33576298
-0.75448549 0.12074149 -0.37291718
-0.75591147 0.16904849 -0.38573694
-0.76488948 0.24572349 -0.40971184
-0.76782954 0.11978352 -0.37988997
-0.76035249 -0.12919146 -0.31375313
-0.77326751 0.078167498 -0.37244987
-0.76033151 -0.34900945 -0.2589159
-0.76383555 -0.23330754 -0.28966904
-0.77886951 0.042281508 -0.36652708
-0.77731955 -0.0085024834 -0.35302401
-0.78160644 -0.086316526 -0.33593178
-0.78277147 -0.048445463 -0.34600782
-0.79223549 0.041226506 -0.37348795
-0.79611754 0.16632754 -0.40678692
-0.78943455 -0.049024463 -0.34946394
-0.79351747 -0.1323145 -0.33089781
-0.78664446 -0.35200244 -0.27238989
-0.80158854 -0.0881235 -0.34628201
-0.80402946 -0.010733485 -0.36690283
-0.79878747 -0.17693847 -0.32261801
-0.81733048 0.19646549 -0.4257679
-0.79984748 -0.35350949 -0.27915001
-0.80177653 -0.29282755 -0.29532909
-0.81616545 -0.051356494 -0.36332798
-0.8101815 -0.23810953 -0.31351805
-0.82984245 0.16403049 -0.42444086
-0.81307948 -0.35502344 -0.28592396
-0.81504154 -0.29427344 -0.30213594
-0.81876755 -0.17890948 -0.33292294
-0.83252454 0.038031518 -0.39446497
-0.83368146 0.073575497 -0.40395498
-0.82687747 -0.13547653 -0.34813881
-0.83086455 -0.012985468 -0.38084316
-0.82349253 -0.23949748 -0.32036591
-0.82544255 -0.1795705 -0.33636713
-0.83926952 0.037494481 -0.39797592
-0.8404355 0.073058486 -0.4074769
-0.84179246 0.11443251 -0.41852808
-0.83504951 -0.091164529 -0.36360598
-0.83629751 -0.053120494 -0.37376881
-0.83759546 -0.013552487 -0.38433981
-0.83499944 -0.29645652 -0.31237698
-0.85107648 -0.014689505 -0.39134216
-0.84351945 -0.24159044 -0.33066702
-0.85954547 0.035875499 -0.40852976
-0.84629846 -0.35884148 -0.30292416
-0.86195946 -0.093624532 -0.37753677
-0.8716495 0.1928975 -0.45423412
-0.85894144 -0.18289644 -0.35364008
-0.87310553 0.034789503 -0.41558695
-0.86870944 -0.094242513 -0.38103104
-0.85964155 -0.36038154 -0.30975199
-0.88422453 0.16029549 -0.45289898
-0.88689947 0.23823553 -0.47378397
-0.87033248 -0.24440545 -0.34445477
-0.88669753 0.033698499 -0.42266083
-0.87512648 -0.30086952 -0.33296394
-0.87913752 -0.1849125 -0.36405182
-0.89790154 0.15935051 -0.46005487
-0.89900649 0.19108653 -0.46856785
-0.90061951 0.23738348 -0.48098707
-0.88184249 -0.30161053 -0.33640814
-0.90475452 0.15887552 -0.46364021
-0.88856745 -0.30235451 -0.33985806
-0.91161346 0.15840054 -0.46722794
-0.90097451 -0.14256746 -0.386415
-0.91273749 0.19017452 -0.47576094
-0.89313745 -0.36426455 -0.32688713
-0.89529943 -0.30309945 -0.34330893
-0.92126548 0.23609751 -0.49182415
-0.91754854 -0.060305476 -0.41588879
-0.91079247 -0.24867851 -0.36525488
-0.92767048 0.030392528 -0.44398117
-0.92135251 -0.14453453 -0.39693594
-0.92298746 -0.099246442 -0.40911674
-0.91554344 -0.30534655 -0.3536911
-0.9345305 0.029836535 -0.44754982
-0.93913853 0.15648752 -0.48162699
-0.92981148 -0.09987849 -0.41264677
-0.94424045 0.10690153 -0.47201681
-0.94720745 0.18787551 -0.4938159
-0.93804753 -0.062134504 -0.42651081
-0.93334949 -0.19035751 -0.39199305
-0.94827151 0.028721511 -0.45469713
-0.94347954 -0.10114747 -0.41971684
-0.93359745 -0.36898655 -0.34757519
-0.93586254 -0.3076095 -0.36410713
-0.9580425 0.10587651 -0.47921991
-0.95175445 -0.063361466 -0.43361282
-0.94036949 -0.36977953 -0.35103703
-0.94473445 -0.25228745 -0.38269997
-0.95718348 -0.10242254 -0.42680407
-0.95862246 -0.06397748 -0.43717194
-0.94715047 -0.37057549 -0.35450315
-0.96404743 -0.10306352 -0.43035507
-0.97493744 0.18601549 -0.50833893
-0.9758575 0.026474535 -0.46904612
-0.97091949 -0.10370451 -0.43390799
-0.96073544 -0.37217146 -0.36144686
-0.97435641 -0.19451147 -0.41311693
-0.9877125 -0.026370466 -0.46227121
-0.97435343 -0.3737765 -0.36840677
-0.9811765 -0.37458152 -0.37189198
-0.9880935 -0.19591051 -0.4201951
