# .PCD v0.7 - Point Cloud Data file format
VERSION 0.7
FIELDS x y z
SIZE 4 4 4
TYPE F F F
COUNT 1 1 1
WIDTH 1
HEIGHT 1024
VIEWPOINT 0 0 0 1 0 0 0
POINTS 1024
DATA ascii
0.78207994 0.41990167 -0.23167372
0.77456391 0.37628567 -0.21994257
0.76191092 0.37661469 -0.21710062
0.76842892 0.14711267 -0.44541788
0.75385594 0.18755364 -0.36983061
0.73976392 0.33041865 -0.24010992
0.73112494 0.45717767 -0.21728754
0.74473894 0.15196466 -0.40229273
0.73825693 0.19059265 -0.34163857
0.72902995 0.32924765 -0.25529861
0.72138494 0.24700367 -0.24156666
0.71747696 0.42231765 -0.20469666
0.71804994 0.45774165 -0.2101059
0.72278893 0.19360363 -0.3136878
0.71377891 0.24837565 -0.22796488
0.70389992 0.30842865 -0.13397789
0.68902093 0.31087863 -0.10767365
0.70000696 0.42178866 -0.21398449
0.66893893 0.39638865 0.02922821
0.69387394 0.42182267 -0.21413946
0.69222993 0.19954467 -0.25847578
0.66313195 0.39633864 0.027993202
0.69098991 0.50016367 -0.24627161
0.69998193 0.10304868 -0.39689589
0.66692692 0.31451166 -0.068624496
0.65732294 0.39628863 0.026755333
0.68455994 0.50035369 -0.24373388
0.70034492 0.052452683 -0.46372557
0.68456191 0.10643464 -0.36852646
0.66138893 0.25781065 -0.13429356
0.67244291 0.50028867 -0.24602556
0.66788095 0.16766268 -0.26244259
0.69456792 0.53091764 -0.53461885
0.63988894 0.39613569 0.023042202
0.64190096 0.43755266 0.0025172234
0.64669096 0.26045269 -0.10802078
0.63993794 0.20968664 -0.16403389
0.62797493 0.5128907 -0.038639545
0.63800991 0.17374563 -0.20811367
0.63258892 0.21110964 -0.15076256
0.62485993 0.26437265 -0.069005489
0.65844494 0.57234669 -0.42429686
0.61662692 0.39592665 0.018095493
0.63847095 0.71000868 -0.21299076
0.65647995 0.53449267 -0.47083187
0.64350593 0.62488568 -0.33229351
0.61080891 0.39587367 0.016859531
0.61273396 0.43731067 -0.003695488
0.64527494 0.021621644 -0.4186368
0.62325591 0.17674565 -0.18128586
0.61045194 0.26695669 -0.04325676
0.60689694 0.43726066 -0.0049366951
0.62018794 0.46245566 -0.14820385
0.61141795 0.50820267 -0.11892748
0.61672896 0.12129366 -0.2437849
0.60257494 0.5550487 -0.088259697
0.60207891 0.58904266 -0.082805634
0.61633295 0.071991682 -0.3077426
0.58437794 0.32536566 0.046805382
0.58937794 0.43710965 -0.0086665154
0.60254991 0.71185565 -0.15481758
0.59446394 0.55274868 -0.13234663
0.59092891 0.58861166 -0.092746735
0.59572494 0.71212465 -0.14648151
0.59923995 0.50428164 -0.18586063
0.58195293 0.22089565 -0.059353828
0.57492095 0.27331966 0.020223141
0.59499091 0.66314065 -0.2069006
0.57969493 0.18558866 -0.1020937
0.58624792 0.55041867 -0.17699671
0.58042395 0.63431764 -0.1104269
0.57004595 0.39548963 0.0081992149
0.57184792 0.43695566 -0.012396812
0.59252995 0.034480691 -0.31992865
0.58210194 0.54924166 -0.19953156
0.58682692 0.50028169 -0.25408745
0.55539292 0.32504964 0.040668488
0.55663294 0.35415363 0.026206493
0.56565994 0.13244069 -0.14992189
0.55830294 0.18992269 -0.063213825
0.59271091 -0.078915358 -0.46872759
0.58606893 -0.027018368 -0.39045191
0.56481194 0.083926678 -0.21214771
0.55847895 0.13400465 -0.13672686
0.54500395 0.35402966 0.023745537
0.54845691 0.43674466 -0.017370701
0.54986095 0.47038466 -0.034091473
0.56306291 0.041646659 -0.26481056
0.55757093 0.085600674 -0.19871569
0.55132896 0.13556266 -0.12358856
0.56524992 0.54445565 -0.29113245
0.54420692 0.13711268 -0.11050367
0.53715992 0.19420063 -0.024795532
0.55149394 0.58002663 -0.27429152
0.53395891 0.5121907 -0.058703899
0.52056891 0.32465565 0.033302307
0.52173394 0.35377765 0.018817425
0.53989792 0.57961166 -0.28382063
0.53089792 0.66466963 -0.17072582
0.51918894 0.43647367 -0.023589611
0.50709295 0.27712566 0.054433346
0.52880293 0.62989265 -0.22142076
0.51464993 0.47007865 -0.041584492
0.52715093 -0.011696339 -0.27893972
0.53145194 -0.11057532 -0.41511679
0.52245295 0.57898664 -0.29816151
0.51727092 0.62953967 -0.23081446
0.50066596 0.09873265 -0.093196869
0.51662195 0.57877666 -0.30295467
0.48822293 0.14927465 -0.0076856613
0.50554591 -0.00609231 -0.23806477
0.50570893 0.62918568 -0.2402339
0.49271992 0.5118587 -0.067493916
0.48671988 0.10194266 -0.067344666
0.4781239 0.27675366 0.048327446
0.50394696 -0.054636359 -0.29916382
0.49647292 0.66374165 -0.1985898
0.48248592 0.39460164 -0.010369778
0.48402289 0.43613467 -0.031056881
0.4844369 0.060702682 -0.11781549
0.47232589 0.27667868 0.04710722
0.49909189 0.57814467 -0.31737185
0.47815689 0.43607765 -0.032302856
0.47288191 0.10512567 -0.041697502
0.50127196 -0.15997136 -0.43296766
0.4665269 0.27660269 0.045885086
0.48831591 0.62865067 -0.2544055
0.47078791 0.39447665 -0.01284647
0.47502691 0.51171267 -0.071262836
0.4706839 0.55529964 -0.094266891
0.48736688 0.57772064 -0.32701349
0.46641991 0.43596065 -0.0347929
0.46912491 0.51166266 -0.072520733
0.45492291 0.27644867 0.043443203
0.4647629 0.5552547 -0.095529556
0.45908391 0.39434963 -0.015324593
0.45232391 0.10984963 -0.0036048889
0.4631069 0.0048936605 -0.15780783
0.4708569 0.62811166 -0.26863575
0.45323092 0.39428568 -0.016564846
0.44064692 0.15957469 0.079648495
0.45291692 0.55516469 -0.098057747
0.44880691 0.43578365 -0.038528919
0.4583019 0.71156263 -0.17603683
0.43875292 0.11296368 0.021537304
0.46491089 -0.14899635 -0.36216354
0.43608391 0.23430663 0.060679436
0.44550791 0.51146168 -0.07754755
0.45191991 -0.087838292 -0.26190281
0.4316999 0.27613467 0.038558483
0.42259791 0.075621665 -0.0022988319
0.4378359 -0.083824396 -0.2347846
0.41870889 0.23405266 0.0570364
0.4285039 0.013828635 -0.092399597
0.42393991 0.39395869 -0.022762775
0.41585991 0.077243686 0.010284424
0.4119179 0.11911267 0.071242332
0.4119899 0.20529366 0.070131302
0.4363499 -0.14039528 -0.30657291
0.42628691 -0.033505321 -0.15095377
0.4218649 0.51125467 -0.082577705
0.44191292 -0.19948733 -0.39259768
0.42927989 -0.13826835 -0.29281473
0.42986992 0.62683767 -0.30205059
0.42686591 0.6618427 -0.25496578
0.41353589 0.43541867 -0.046004772
0.41460991 0.46914667 -0.062842846
0.43474591 -0.19721437 -0.37849569
0.41252589 -0.029772341 -0.12470865
0.40806392 0.019095659 -0.053775787
0.41003391 0.51114964 -0.085094452
0.3921099 0.12355667 0.10718536
0.39326891 0.16093367 0.088514328
0.3968229 0.27564967 0.031227112
0.39919892 0.35234165 -0.0070724487
0.4151659 0.66152066 -0.26444578
0.41103092 0.71100068 -0.19780445
0.4205029 -0.19270229 -0.35048246
0.3888469 0.20493269 0.065287113
0.39334792 0.35226864 -0.0083045959
0.40930492 0.66135865 -0.2691946
0.39461091 0.39362264 -0.028960705
0.38518491 0.27548468 0.028785229
0.38999492 0.43516767 -0.050990582
0.3922779 0.51098967 -0.088870525
0.37595591 0.16064268 0.08490324
0.3772659 0.20474869 0.062864304
0.3894119 -0.070051312 -0.14158964
0.37811691 0.23344266 0.048526287
0.37936291 0.27540064 0.027562141
0.3811779 0.026012659 -0.0029854774
0.3876529 0.55464768 -0.11197186
0.3886309 0.58761567 -0.12844563
0.39358389 0.71061063 -0.21181488
0.38260391 -0.068119347 -0.12849045
0.37859491 -0.020583332 -0.060007572
0.3826749 0.58757067 -0.12971592
0.38400891 0.63316667 -0.15250349
0.3644079 0.16044569 0.082493305
0.36908591 0.32276064 0.0013604164
0.38578591 0.66070765 -0.28825665
0.37232092 0.43497565 -0.0547328
0.35665891 0.090864658 0.11602831
0.3612839 0.031122684 0.034582138
0.37075791 0.58748162 -0.1322608
0.37205291 0.63308865 -0.15506268
0.36696491 0.66501963 -0.17232752
0.3605299 0.43484566 -0.057228565
0.3702209 0.71008563 -0.23057652
0.3626509 0.51071668 -0.095167637
0.36012691 -0.11751831 -0.15830564
0.35792491 0.55440164 -0.11830473
0.35154292 0.32252264 -0.0023298264
0.3523469 0.35174364 -0.016945839
0.35348591 0.39313567 -0.037647724
0.3643629 0.70995367 -0.23528385
0.33940992 0.090537667 0.11244535
0.3424879 0.20418364 0.055596352
0.35336089 -0.1154933 -0.14515257
0.34440389 0.27488863 0.020227432
0.35286891 0.58734465 -0.13607645
0.34569192 0.32244164 -0.0035605431
0.34648392 0.35166764 -0.018181801
0.35780489 -0.1728884 -0.22722483
0.33365691 0.090427637 0.11125231
0.33510891 0.037834644 0.083999157
0.34061891 0.35158968 -0.019415855
0.34811991 0.63293064 -0.16017866
0.35262391 0.70968866 -0.24471188
0.34485692 0.51054865 -0.098948479
0.33990791 -0.11147034 -0.11900377
0.33567491 -0.054822326 -0.038237572
0.33163691 0.23271465 0.038799286
0.33273891 0.27471465 0.017781258
0.33398589 0.32227963 -0.006020546
0.33583891 0.39291966 -0.041370869
0.3441759 -0.16859233 -0.20044374
0.32214591 0.090205669 0.10886431
0.33321792 -0.10947239 -0.10600376
0.3256489 -0.0062903166 0.040888309
0.3341139 0.5541997 -0.12337351
0.3349649 0.58720666 -0.13989592
0.32995191 0.39284766 -0.04261446
0.32655689 -0.10748231 -0.093057632
0.3210659 0.27453768 0.015336514
0.3230139 0.35135669 -0.023121834
0.32597789 0.46824065 -0.081633568
0.3419089 -0.32067931 -0.39611053
0.3141799 0.23243266 0.035150528
0.31641391 0.32203269 -0.0097126961
0.32905591 0.70915568 -0.2636466
0.31331089 -0.10352933 -0.067321777
0.31126991 0.35119867 -0.025590897
0.3181659 0.6327287 -0.16658354
0.32090789 0.74469268 -0.22265482
0.31413391 0.46811366 -0.084143639
0.29910591 0.089752674 0.10408831
0.30077991 0.15932268 0.069241524
0.30672491 -0.10156429 -0.054526806
0.30253389 0.23224264 0.032717228
0.3102749 0.55399263 -0.12844753
0.31106991 0.58701766 -0.14498949
0.30468991 0.32186568 -0.012174606
0.2933419 0.08963865 0.10289431
0.29498592 0.15921664 0.06803751
0.30692792 0.66465962 -0.18518591
0.30900189 0.74454266 -0.22917461
0.28757691 0.08952266 0.10170126
0.29021591 0.20330065 0.044690132
0.2936309 -0.09766233 -0.029091835
0.29460192 0.39240366 -0.050067902
0.30244792 -0.23266435 -0.21959782
0.2973009 -0.15385032 -0.10838079
0.28601089 0.27399665 0.0079951286
0.28062391 0.0058196783 0.12663126
0.29138291 0.51002765 -0.11029959
0.2760419 0.089290679 0.099313259
0.27428791 0.0075206757 0.13869429
0.27501491 0.043288648 0.12237215
0.2864109 0.55378067 -0.13352489
0.28888389 0.66454768 -0.18904877
0.27276191 0.20299667 0.041053295
0.27077889 -0.036511362 0.08646822
0.2759949 0.35071367 -0.033007622
0.28387591 0.71072966 -0.21350956
0.27855691 0.46772465 -0.091673851
0.2870039 -0.3010143 -0.28514385
0.2659919 0.15867966 0.062010288
0.2684609 0.27371967 0.0043244362
0.26274791 0.0074716806 0.13783741
0.26351091 0.043040633 0.11999846
0.2761569 0.63243467 -0.17555952
0.27856192 0.74451166 -0.23176384
0.2726219 0.46765867 -0.092930794
0.26018891 0.15857065 0.060805321
0.26849389 0.55361962 -0.13733387
0.2691879 0.58667767 -0.1539135
0.26422492 0.35054767 -0.035481453
0.27250591 0.74448568 -0.23306465
0.27853191 -0.38106632 -0.37683678
0.26916191 -0.2214793 -0.15328789
0.26458889 -0.14359331 -0.044176579
0.25178391 -0.031170368 0.12294531
0.26319891 0.58662766 -0.15519047
0.2583369 0.35046464 -0.036716461
0.2607469 0.46752566 -0.095442772
0.25812191 -0.1415683 -0.031486511
0.2508949 0.27343768 0.00065040588
0.24624389 0.04266566 0.11643839
0.25720492 0.58657765 -0.15646791
0.25812691 0.63230562 -0.17941189
0.25970492 0.71060365 -0.21869659
0.2603859 0.74443269 -0.23567057
0.26019889 -0.29144239 -0.23100567
0.2436389 0.20247763 0.034990311
0.23978391 0.0069506764 0.13311243
0.2527459 0.66431868 -0.19678259
0.23561391 0.088457644 0.09095335
0.24521691 0.58647764 -0.15901947
0.24009591 0.32091564 -0.025723457
0.24226591 0.43346366 -0.082217693
0.2476089 0.7105397 -0.22129059
0.2298319 0.088335633 0.08975935
0.2304379 0.12050468 0.073610306
0.23476592 0.35012764 -0.041666508
0.24068591 0.66424066 -0.19936275
0.2355479 0.39163166 -0.062503815
0.23651591 -0.21053636 -0.088284492
0.22667691 0.23095268 0.016893387
0.23180389 0.50941968 -0.12293386
0.23807091 -0.36565733 -0.29386187
0.2338129 -0.28203928 -0.17774057
0.22662291 0.55323267 -0.1462326
0.2280409 0.63208663 -0.18583488
0.22861791 0.66416168 -0.20194387
0.23141989 -0.3631283 -0.28022575
0.2108919 -0.073097348 0.13149929
0.2149789 0.23074669 0.014456272
0.21571791 0.27286065 -0.006696701
0.21655491 0.32055569 -0.030655861
0.22258091 0.66412163 -0.20323467
0.21779691 0.39139163 -0.06623745
0.21852991 0.43316966 -0.08722353
0.22398691 0.74426967 -0.24348259
0.2191239 0.46704867 -0.10424185
0.22077191 -0.2773993 -0.1514225
0.21722691 -0.20408332 -0.04989481
0.2072369 0.12002969 0.068811417
0.20470391 -0.028015316 0.14319038
0.20589791 0.04176569 0.10813046
0.21464491 0.55311966 -0.14877653
0.2106649 0.32046467 -0.031888485
0.21050291 0.66404164 -0.2058177
0.20595491 0.39122969 -0.068727493
0.1951019 0.087592661 0.082593441
0.1962339 0.15733266 0.047542095
0.1925669 -0.068571329 0.16108227
0.1981049 0.27256566 -0.010373592
0.1966619 0.55294764 -0.15259647
0.19841591 0.6639607 -0.20840168
0.19529991 0.46676865 -0.10927391
0.1906639 0.5528897 -0.15386963
0.18708791 0.32009667 -0.036824703
0.19236991 0.66391969 -0.20969486
0.1881769 0.39098465 -0.072465897
0.1930809 0.71024466 -0.23297787
0.18998991 0.50897366 -0.13178968
0.1777149 0.087212682 0.079008102
0.17984791 0.23011464 0.0071463585
0.18118991 0.32000268 -0.038057804
0.1816279 0.34934264 -0.052811623
0.18224791 0.39090168 -0.073710918
0.18400891 0.50890863 -0.13305569
0.18224791 -0.26371837 -0.073712826
0.1729269 0.15686464 0.042716503
0.1702359 -0.028871357 0.13613653
0.1745979 0.27216464 -0.015277863
0.1712479 0.040968657 0.10100746
0.17571491 0.34925264 -0.054050446
0.1798069 0.63172364 -0.19612789
0.1780269 0.50884366 -0.13432169
0.17009291 -0.1141113 0.14110231
0.16771691 0.20106566 0.0192132
0.17312391 0.58585167 -0.17436266
0.17557591 -0.41550028 -0.26214552
0.1612609 0.15662766 0.040301323
0.1581829 -0.069470346 0.15406513
0.1628319 0.27196169 -0.017729759
0.16348191 0.31971967 -0.041759491
0.16816591 0.6637547 -0.21486855
0.1644479 0.39065069 -0.077451706
0.15450591 0.086697638 0.07422924
0.15542591 0.15650767 0.039096355
0.15244591 -0.069622338 0.1528964
0.15694691 0.27185863 -0.018956661
0.15389791 0.040561676 0.097446442
0.1606459 0.55259567 -0.16024065
0.1579629 0.34898168 -0.057768822
0.15906191 0.43240666 -0.099753857
0.15950991 0.46633667 -0.11683083
0.1544899 -0.18316638 0.074875355
0.1491109 0.11880064 0.056808472
0.1501549 0.20072669 0.015570164
0.1476579 0.0047556758 0.11421251
0.14811191 0.040423632 0.096258163
0.15204191 0.34889066 -0.059009552
0.15564391 0.63153565 -0.20128059
0.1525719 0.39048165 -0.079943657
0.1531059 0.43232766 -0.10100889
0.1535379 0.46626365 -0.11809063
0.1536079 -0.33364439 -0.12084675
0.1462049 -0.10924339 0.1715951
0.14464991 0.22946465 -0.00016975403
0.1423219 0.04028666 0.095071316
0.1384349 0.20049769 0.013141155
0.1439299 0.66358668 -0.22003984
0.14118491 0.43216968 -0.10351658
0.1420899 0.50844562 -0.14192677
0.13126791 0.086171687 0.069446087
0.1329039 0.22924268 -0.0026087761
0.1365959 0.55235565 -0.16534376
0.13393191 0.31923866 -0.047935486
0.1352219 0.43209067 -0.10477257
0.1290289 -0.10972428 0.16810608
0.12580891 0.11829168 0.052004337
0.12670991 0.20026666 0.010711193
0.12455491 0.0041796565 0.1094861
0.13144791 0.63134468 -0.20644045
0.12879691 0.39013767 -0.084934711
0.13356391 -0.49679232 -0.30340672
0.12037591 0.15577763 0.031851292
0.12240992 0.34842765 -0.065211773
0.12284891 0.39005065 -0.086183548
0.11995792 -0.24168932 0.051819324
0.11795492 -0.17103636 0.14746714
0.11452692 0.15565467 0.03064537
0.11887392 0.58535665 -0.18589592
0.11732092 0.43184966 -0.10853958
0.11809292 0.5081737 -0.14700079
0.11602391 -0.31946933 -0.04394865
0.11183692 -0.11021233 0.16461945
0.11251491 0.55210966 -0.17045069
0.11428591 -0.48853731 -0.26267672
0.10460591 0.34814465 -0.068934917
0.10608291 0.50803566 -0.14953947
0.10790991 -0.48581028 -0.24920988
0.10548192 -0.38751829 -0.11671162
0.096639916 0.11764067 0.045998096
0.096970916 0.15527964 0.027021408
0.094977915 -0.071187317 0.14120531
0.10007592 0.50796568 -0.15080881
0.099254914 -0.38504136 -0.10380268
0.095685914 -0.23313737 0.10069227
0.094630912 -0.11070633 0.16113234
0.090529911 0.085226655 0.061076164
0.089219913 -0.071347356 0.14003611
0.089843914 0.0032936335 0.10239553
0.09470991 0.58512962 -0.19102955
0.092726916 0.34795368 -0.071419716
0.094063915 0.50789565 -0.15207958
0.095230915 -0.48039138 -0.22243357
0.088889912 -0.11087334 0.15996933
0.085256912 0.15502667 0.024604321
0.08346191 -0.071509361 0.13886738
0.088400915 0.55186069 -0.17556286
0.078003913 -0.031280339 0.11732054
0.078259915 0.0029926896 0.10003138
0.082367912 0.55179667 -0.17683983
0.08261691 0.5850147 -0.19359779
0.080620915 0.31834364 -0.059062481
0.080713913 -0.37767136 -0.065374851
0.073848911 0.19919968 -0.00023078918
0.072223909 -0.031437337 0.11614513
0.072464913 0.0028416514 0.098849297
0.074894913 0.34766364 -0.075146675
0.07051491 0.58489865 -0.1961627
0.068751916 0.31813967 -0.061536789
0.069498911 0.43118966 -0.11859274
0.06847091 -0.37281132 -0.040007591
0.061804913 0.15451366 0.019770145
0.064458914 0.58484066 -0.19744682
0.062813915 0.31803668 -0.062775612
0.06351091 0.43110567 -0.11985064
0.063957915 -0.46705139 -0.15642691
0.065726914 -0.57549334 -0.30119467
0.058402911 0.58478165 -0.19873047
0.057716914 0.46504366 -0.13828659
0.055237912 -0.29664135 0.080295086
0.049868912 0.11656868 0.036382198
0.050068915 0.15425366 0.017351151
0.04928191 -0.2944113 0.092461109
0.048659913 -0.11206031 0.1518321
0.04385791 0.084108651 0.051504135
0.045334913 0.38888264 -0.10242653
0.046852916 -0.56683636 -0.26056671
0.03815791 0.11629367 0.033977509
0.03765291 0.0019176602 0.09175539
0.039693914 0.46480566 -0.14207888
0.036694914 -0.21551239 0.2015934
0.032737911 0.22727567 -0.023370743
0.032905914 0.26959068 -0.04475069
0.033544913 0.43067867 -0.12614346
0.032279909 -0.35847437 0.034940243
0.034389913 -0.56112838 -0.23374891
0.02643591 0.11601669 0.031572342
0.02725091 0.34687066 -0.085092545
0.027665911 0.46464366 -0.14461088
0.025674911 -0.28558433 0.14066124
0.02047391 0.083533645 0.046716213
0.020219913 0.0014466643 0.088207245
0.021544913 0.43050465 -0.12866068
0.02178091 0.50703168 -0.16734266
0.014207913 -0.073504329 0.12483549
0.01440491 0.0012876391 0.087024212
0.015319912 0.34666765 -0.087581635
0.015631912 0.46448165 -0.14714289
0.0084219109 -0.073675334 0.12366533
0.0085119102 -0.033209324 0.1032033
0.0091789104 0.26913267 -0.049673557
0.0091399103 -0.44375539 -0.040840626
0.010163911 -0.62170935 -0.27548885
0.0027689114 0.00096863508 0.084658146
0.0035269111 0.43024167 -0.13244247
0.0036619101 0.50680864 -0.17116547
0.0025669113 -0.11346531 0.14253044
-0.003004089 0.036619663 0.0653615
-0.0024830885 0.43015367 -0.13370275
-0.0024380889 0.46423465 -0.1509428
-0.0032030884 -0.11364436 0.14136934
-0.0085320892 0.38803166 -0.11369753
-0.0084650889 0.46415165 -0.15221071
-0.0084280893 0.50665867 -0.17371273
-0.014683089 0.036307633 0.062981129
-0.014637088 -0.43368828 0.0092463493
-0.014744089 -0.33991838 0.13222933
-0.014819089 -0.27133238 0.21865654
-0.020528089 0.082503676 0.038332462
-0.020528089 0.19718868 -0.019712448
-0.020528089 -0.21745336 0.19014549
-0.026393089 0.082353652 0.037134171
-0.026424089 0.15250665 0.0016212463
-0.026475089 0.26843166 -0.057061672
-0.02637209 0.035992682 0.060602188
-0.02649609 0.31643766 -0.081363678
-0.026289089 -0.33537531 0.15609741
-0.03232209 0.15236765 0.00041151047
-0.032121088 -0.074895322 0.11547613
-0.03215709 -0.034383357 0.094966412
-0.032424089 0.26831263 -0.058294773
-0.032187089 -6.3180923e-06 0.077560425
-0.03246709 0.31632769 -0.082604885
-0.032597087 0.46381667 -0.15728283
-0.032480091 -0.53060937 -0.089995861
-0.037975088 -0.034553349 0.093787193
-0.038320087 0.22579163 -0.038053513
-0.038590088 0.42961365 -0.14127159
-0.03863509 0.46373165 -0.15855074
-0.037750088 -0.33087134 0.17978525
-0.038987089 -0.69327235 -0.2929306
-0.03786809 -0.11473536 0.13439131
-0.044205088 0.19666266 -0.024589539
-0.043725088 -0.075251341 0.11313629
-0.04385709 -0.00033634901 0.075192451
-0.043920089 0.035516679 0.057033539
-0.044543087 0.38744467 -0.1212225
-0.04467709 0.46364665 -0.1598196
-0.043451089 -0.32863235 0.19156647
-0.043376088 -0.27237439 0.21297836
-0.043559089 -0.16865933 0.16044712
-0.049694091 -0.00050336123 0.074008465
-0.055838086 0.11400765 0.014718533
-0.05605609 0.19639665 -0.027028561
-0.055442087 -0.03507036 0.090254307
-0.055533089 -0.00067031384 0.072824478
-0.056452088 0.34541267 -0.10253572
-0.054789089 -0.32418334 0.21499109
-0.05612009 -0.51986635 -0.039235592
-0.061630093 0.081440687 0.029943466
-0.062706091 0.42924666 -0.14632368
-0.06042809 -0.32197237 0.22663927
-0.061975092 -0.51720929 -0.026668549
-0.067510091 0.081285655 0.028743267
-0.067624092 0.11371064 0.012308121
-0.06709709 -0.035418332 0.087900162
-0.068169087 0.26758868 -0.065691471
-0.068592086 0.38704568 -0.12624359
-0.06886109 0.46330267 -0.16488886
-0.06780909 -0.51456332 -0.014149666
-0.074135087 0.26746666 -0.066925526
-0.073209092 0.034707665 0.051081181
-0.074329086 -0.58139336 -0.091554642
-0.078913093 -0.0013453364 0.068089485
-0.080818087 0.42896667 -0.15011692
-0.077708088 -0.27365434 0.20617008
-0.081939086 -0.73319137 -0.27854967
-0.085322089 0.11326069 0.0086922646
-0.086072087 0.26722068 -0.069392681
-0.084938087 0.034379661 0.048700333
-0.086450085 0.34487069 -0.10877657
-0.087193087 -0.66890132 -0.18619776
-0.091664091 0.19558465 -0.034351826
-0.090217084 -0.07670331 0.10377312
-0.092456087 0.34476066 -0.11002779
-0.089720085 -0.17023635 0.15121937
-0.097132087 0.11295664 0.0062813759
-0.096472085 -0.0018603206 0.064535141
-0.097667091 -0.57031536 -0.040826797
-0.10399508 0.26684666 -0.073097706
-0.10255109 0.033881664 0.045125484
-0.10034309 -0.32219732 0.2258234
-0.10489809 -0.65997934 -0.14703369
-0.10344709 -0.56757534 -0.028266907
-0.10949808 0.19517064 -0.038016796
-0.10795809 -0.03665936 0.079652309
-0.10997409 0.26672167 -0.074333668
-0.10842509 0.033714652 0.043934345
-0.11049008 0.34442866 -0.11377573
-0.10706609 -0.17084229 0.14775848
-0.11463208 0.080026686 0.019146442
-0.11486208 0.11249667 0.0026612282
-0.12139808 0.19489264 -0.040460587
-0.12193709 0.26646864 -0.076803684
-0.12283909 0.38612169 -0.13755989
-0.11745209 -0.39041829 0.22549725
-0.11749808 -0.32288432 0.2224431
-0.11826609 -0.22095239 0.1706872
-0.12240509 -0.65117228 -0.10832787
-0.11904608 -0.11739337 0.11810446
-0.1266941 0.11218768 0.00025033951
-0.12322209 -0.32311535 0.22131634
-0.13234009 0.07954365 0.015544415
-0.13135509 -0.037385345 0.074939251
-0.13355409 0.22369069 -0.057676792
-0.13164508 -0.002908349 0.057426453
-0.13194808 0.033037663 0.039166451
-0.13684909 -0.07820636 0.094405174
-0.14105108 -0.7022934 -0.1463418
-0.1360181 -0.17186832 0.14198828
-0.1426871 -0.078397334 0.093232155
-0.1454981 0.22341764 -0.06013155
-0.14701009 0.38570064 -0.14258862
-0.13982509 -0.38569832 0.24938536
-0.14684109 -0.69927633 -0.13340378
-0.14231709 -0.11818135 0.11345053
-0.15006809 0.079054654 0.011942387
-0.1503851 0.11155969 -0.0045785904
-0.14553009 -0.38594329 0.24826908
-0.1471301 -0.22202933 0.16496325
-0.15115809 -0.63674128 -0.044803619
-0.1489431 -0.54606628 0.070513248
-0.1472971 -0.47866428 0.15623713
-0.15715709 0.19404167 -0.04779768
-0.1578881 0.26569766 -0.084223747
-0.15868209 0.34352165 -0.12378359
-0.15186709 -0.32428432 0.21568632
-0.16117109 -0.8035754 -0.24776077
-0.15453809 -0.54342937 0.082650185
-0.1622441 0.11124265 -0.0069956779
-0.1626481 0.14916366 -0.026275635
-0.1670081 -0.80032933 -0.23444986
-0.1581111 -0.27676833 0.1902833
-0.15869009 -0.22246635 0.16267443
-0.1592201 -0.17270434 0.13737249
-0.1583301 -0.47370529 0.1798563
-0.16988909 0.26543665 -0.086697578
-0.16265309 -0.38668537 0.24492645
-0.16334009 -0.32475936 0.21343327
-0.1650251 -0.17291534 0.1362195
-0.1656671 -0.53818631 0.10679054
-0.16381709 -0.47124135 0.19159937
-0.1741111 0.11092263 -0.0094108582
-0.16836509 -0.38693428 0.24381113
-0.16908009 -0.32499731 0.21230841
-0.17861809 -0.79387939 -0.20798445
-0.1708331 -0.17312634 0.13506556
-0.1805051 0.14870363 -0.029920578
-0.18104209 0.19346368 -0.05269146
-0.18139109 0.22258663 -0.067507744
-0.18283509 0.34305668 -0.1287899
-0.1811391 -0.68144536 -0.056819916
-0.17938809 -0.62261629 0.017507553
-0.18646209 0.14854866 -0.031137466
-0.1818371 -0.22335136 0.15809441
-0.19151309 0.077889681 0.0035281181
-0.1929981 0.19317067 -0.055140495
-0.1958721 -0.78430736 -0.1686697
-0.1905371 -0.61704838 0.042103291
-0.1974431 0.077720642 0.0023264885
-0.19682209 0.031120658 0.026045322
-0.19206209 -0.32596135 0.20780516
-0.19800609 -0.67269933 -0.019186497
-0.19314709 -0.52526736 0.16636133
-0.20977509 0.10994667 -0.016662598
-0.21031509 0.14792466 -0.036001682
-0.2113671 0.22187763 -0.073660851
-0.21293509 -0.77485836 -0.12981272
-0.2042481 -0.2786293 0.18120337
-0.20915109 -0.66692936 0.0056653023
-0.21572609 0.10978168 -0.017871857
-0.2129311 -0.080753326 0.079170227
-0.21002409 -0.27886629 0.18006849
-0.2125971 -0.60605228 0.090743542
-0.2229321 0.19242865 -0.061266899
-0.2240181 0.26423568 -0.097846508
-0.22048309 0.03040266 0.021270275
-0.22420509 -0.76862633 -0.10415888
-0.2131411 -0.45518529 0.26862955
-0.2276371 0.10944968 -0.020290852
-0.22640309 0.030221641 0.020076275
-0.2198741 -0.38922238 0.23378134
-0.22981009 -0.76553035 -0.091407776
-0.22158509 -0.27934229 0.17779827
-0.21884309 -0.4554553 0.2675271
-0.23492409 0.19212765 -0.063719749
-0.2323281 0.030039668 0.018881321
-0.22561009 -0.38948131 0.23266745
-0.2273701 -0.27958238 0.17666245
-0.2311991 -0.65553534 0.054807186
-0.2290401 -0.17529333 0.12351847
-0.2401851 0.14712965 -0.042087555
-0.23642009 -0.081564307 0.074477196
-0.2376601 -0.0062093139 0.036069393
-0.2313461 -0.3897413 0.23155355
-0.2455231 0.10894763 -0.02392292
-0.24741809 0.22100967 -0.081050873
-0.25142309 -0.87542033 -0.20178175
-0.2421051 -0.64990938 0.079101086
-0.23596409 -0.45627129 0.26422119
-0.2488851 -0.041195333 0.051340103
-0.25343508 0.22086269 -0.082283497
-0.24948609 -0.0065903664 0.033695221
-0.2520251 -0.7532773 -0.040879726
-0.2451061 -0.58989835 0.16235352
-0.25406107 -0.082181334 0.070957184
-0.25052908 -0.28054929 0.17212248
-0.25293508 -0.64432931 0.10321712
-0.25045809 -0.58724332 0.17413712
-0.24668209 -0.50021231 0.28226709
-0.24738909 -0.45682037 0.2620182
-0.25544909 -0.32869136 0.19541931
-0.26122507 -0.32894528 0.1942935
-0.27383709 -0.86218333 -0.14965868
-0.27538109 0.10809666 -0.029975891
-0.27697009 0.19105566 -0.072309494
-0.26992208 -0.17686129 0.11543226
-0.2709581 -0.12275028 0.08782053
-0.2637181 -0.5006963 0.28067732
-0.26454309 -0.45765233 0.25871325
-0.2807191 0.07528168 -0.014528751
-0.2829861 0.19090068 -0.07353878
-0.2784161 -0.04219532 0.045430183
-0.27278408 -0.32945633 0.1920414
-0.28492108 -0.85564935 -0.12389851
-0.27436408 -0.63331032 0.15090609
-0.27577108 -0.17708838 0.11427736
-0.28433108 -0.042398334 0.044248104
-0.27967608 -0.63058233 0.16272354
-0.27693808 -0.57413638 0.23240328
-0.28162509 -0.17731738 0.11312151
-0.28271011 -0.1231854 0.085488319
-0.29265711 0.074922681 -0.016938686
-0.28435311 -0.32997036 0.18978834
-0.30105311 0.19043064 -0.077223778
-0.3016651 0.21966869 -0.092154503
-0.29024109 -0.62516332 0.18621731
-0.29447109 -0.12362337 0.083155155
-0.28654408 -0.50185132 0.27630329
-0.30611709 0.14532769 -0.055496693
-0.30360109 0.027798653 0.0045342445
-0.2946001 -0.39267135 0.21929646
-0.31222609 -0.94706738 -0.20124769
-0.29695809 -0.28252935 0.16304016
-0.3105801 0.074378669 -0.02055788
-0.31129509 0.10705465 -0.037249565
-0.3071171 -0.084073305 0.06039238
-0.3080101 -0.043215334 0.03951931
-0.30876809 -0.0085423589 0.021804333
-0.31775209 -0.9436233 -0.18816376
-0.3122831 -0.83955538 -0.060355663
-0.30073509 -0.61978734 0.20954609
-0.29779509 -0.5638423 0.27825737
-0.29797208 -0.50243533 0.27411747
-0.31813911 0.14499164 -0.057937622
-0.3191421 0.18995464 -0.08091259
-0.3147091 -0.0087423325 0.020615101
-0.30752009 -0.33101237 0.18528414
-0.32325611 -0.94019532 -0.17513084
-0.30859008 -0.28303432 0.16076851
-0.30296409 -0.56129539 0.28961754
-0.3251771 0.18979567 -0.08214283
-0.3214761 0.027222633 0.0009431839
-0.31440911 -0.28328729 0.15963411
-0.30813709 -0.55886436 0.30047035
-0.3176721 -0.39376736 0.21484041
-0.33420411 -0.93338239 -0.1492157
-0.31633809 -0.61180532 0.2442174
-0.3151291 -0.50332034 0.27083921
-0.3325491 -0.0093443394 0.017045498
-0.32344609 -0.39404333 0.21372652
-0.3396481 -0.92999732 -0.13633347
-0.32085308 -0.50361729 0.2697463
-0.34221208 0.14431167 -0.062822819
-0.33915609 -0.8237983 0.0019884109
-0.32665208 -0.60653734 0.26712608
-0.34649611 0.073272645 -0.027797699
-0.3482371 0.14414066 -0.064044476
-0.34360409 -0.04446435 0.032418251
-0.34445611 -0.0097493529 0.014664173
-0.3323091 -0.50421429 0.2675581
-0.34297508 -0.70343733 0.16554832
-0.3475191 -0.12563729 0.072653294
-0.34815809 -0.70061433 0.17729044
-0.3623361 -0.01036334 0.011091232
-0.35396808 -0.33314133 0.1762743
-0.35332409 -0.69780135 0.1889925
-0.35521409 -0.28508937 0.15168333
-0.3566311 -0.23044431 0.12371826
-0.35933611 -0.12609339 0.070318222
-0.35062909 -0.46195531 0.24219227
-0.3663041 -0.086251378 0.048639297
-0.36738411 -0.045311332 0.027683258
-0.37769109 -1.0025563 -0.17231846
-0.36555609 -0.80837035 0.063166142
-0.37524009 0.025455654 -0.0098395348
-0.3639321 -0.39600837 0.20592737
-0.3830761 -0.99904728 -0.1593647
-0.36836109 -0.2309463 0.1214242
-0.3594881 -0.56166136 0.29073143
-0.36098909 -0.50572729 0.26209641
-0.38444209 0.14309865 -0.071380615
-0.36423808 -0.59743035 0.3078022
-0.36520511 -0.56197834 0.28964853
-0.37559709 -0.18108737 0.094619274
-0.3894251 0.10471368 -0.053035736
-0.4044261 -0.98516238 -0.10804462
-0.39149609 -0.79325831 0.12321854
-0.40313309 -0.046607316 0.020574093
-0.39292508 -0.39744234 0.20035553
-0.3947401 -0.33505738 0.16838551
-0.40971509 -0.98172832 -0.095338821
-0.39773211 -0.23221636 0.11568832
-0.38972908 -0.50726736 0.25663233
-0.41355708 0.10397166 -0.057901859
-0.40670308 -0.12795436 0.060970306
-0.41861209 0.070985675 -0.042304516
-0.40684509 -0.78434038 0.15871954
-0.39902109 -0.67300129 0.29239511
-0.41263509 -0.12819028 0.059801102
-0.40401408 -0.67030036 0.30368137
-0.41371909 -0.28774536 0.14031935
-0.4052971 -0.56422436 0.28207827
-0.43168509 0.10340768 -0.061550617
-0.43068609 -0.96813428 -0.044987679
-0.41103411 -0.56455028 0.28099632
-0.42393911 -0.33645439 0.16275215
-0.42716908 -0.23351038 0.10994911
-0.41677308 -0.56487739 0.27991533
-0.41853109 -0.50883532 0.25117111
-0.43897811 -0.04793036 0.013458252
-0.4270671 -0.77261937 0.20545435
-0.42506608 -0.6645093 0.32854033
-0.43076709 -0.66485834 0.32747841
-0.43400809 -0.56586432 0.27667332
-0.4452711 -0.40008938 0.19032431
-0.44734609 -0.33759129 0.15824223
-0.44961008 -0.86211729 0.1232295
-0.43647009 -0.66520929 0.3264184
-0.44701609 -0.76108634 0.25151825
-0.47295809 0.069205642 -0.053202629
-0.47011408 -0.014188349 -0.010383606
-0.45317709 -0.51075435 0.24461651
-0.4546541 -0.46743834 0.22237349
-0.45359808 -0.6662693 0.32323313
-0.46045908 -0.46775436 0.22127247
-0.47948408 -0.090615392 0.026263237
-0.47807509 -0.13084638 0.046931267
-0.4647471 -0.51140237 0.24243116
-0.4881641 -0.014849365 -0.013968468
-0.47462609 -0.84680939 0.1821003
-0.4705351 -0.51172829 0.24133921
-0.4707461 -0.66733932 0.32005024
-0.4861311 -0.4022063 0.1825223
-0.4764401 -0.74413335 0.31938934
-0.4764691 -0.66769934 0.31898928
-0.4901661 -0.2913413 0.12553549
-0.49216411 -0.23643839 0.097313404
-0.48007709 -0.56854832 0.26802444
-0.48369908 -0.46902537 0.21686745
-0.48943308 -0.83777332 0.21691608
-0.48128709 -0.74134731 0.33055925
-0.4821921 -0.66805935 0.31792927
-0.4879171 -0.51271331 0.23806238
-0.50016409 -0.34020638 0.14809418
-0.48611709 -0.73857236 0.34169245
-0.51698506 -0.050896347 -0.0019836426
-0.4973951 -0.56957436 0.26478148
-0.49951708 -0.51337528 0.23587751
-0.50115609 -0.4699893 0.2135644
-0.52300406 -0.051130354 -0.0031728745
-0.51193106 -0.34079838 0.14583826
-0.51377809 -0.29248035 0.12098217
-0.50181109 -0.6055373 0.28202438
-0.5031721 -0.56991839 0.26370144
-0.53038108 -0.016420364 -0.022342682
-0.51539606 -0.4037503 0.17694616
-0.51782006 -0.34109628 0.14471054
-0.50894409 -0.82589531 0.26275444
-0.50895411 -0.57026339 0.26262045
-0.52560204 -0.29305637 0.11870623
-0.53151804 -0.29334533 0.11756754
-0.53298706 -0.40468931 0.1736021
-0.51962107 -0.73828232 0.34534025
-0.52631104 -0.5713073 0.25937939
-0.53030509 -0.47161937 0.2080574
-0.55148005 -0.093524337 0.012097359
-0.53885704 -0.40500438 0.17248631
-0.54763108 -0.18850029 0.061004162
-0.55749804 -0.093772292 0.010916233
-0.53772706 -0.80843437 0.33029318
-0.54249007 -0.73982632 0.34115553
-0.55185205 -0.51641035 0.22604752
-0.56236106 -0.40627635 0.16802549
-0.54719508 -0.80270636 0.35249043
-0.56707108 -0.29510236 0.11073542
-0.55952209 -0.47327733 0.20255041
-0.58160007 -0.094772339 0.006187439
-0.58336806 -0.053511322 -0.015080452
-0.56824505 -0.4065963 0.16690826
-0.55190706 -0.79985833 0.36353254
-0.55394107 -0.74060631 0.33906221
-0.57752806 -0.18985534 0.055194378
-0.56351304 -0.51709831 0.22386217
-0.58941907 -0.05375433 -0.016270638
-0.57894605 -0.2956953 0.10845613
-0.58133006 -0.24061334 0.080059528
-0.58351606 -0.19012833 0.054033279
-0.56934708 -0.5174433 0.22277021
-0.56540006 -0.74139237 0.33697128
-0.58950609 -0.19040239 0.052872181
-0.59190106 -0.13567829 0.024654388
-0.59326708 -0.24118531 0.077757359
-0.58102208 -0.51813734 0.22058535
-0.58294606 -0.47462332 0.19814539
-0.57687205 -0.74218237 0.3348794
-0.57990104 -0.67437935 0.2999053
-0.60521704 -0.24176228 0.075453281
-0.59467608 -0.47530437 0.19594049
-0.59435707 -0.61132538 0.26485252
-0.59722406 -0.67553234 0.29672527
-0.60181004 -0.57595134 0.24533033
-0.60440904 -0.51953936 0.21621513
-0.62915105 -0.24292731 0.070844173
-0.61346805 -0.57668436 0.24316931
-0.63152707 -0.19235039 0.044729233
-0.63410306 -0.13753831 0.016428471
-0.62723404 -0.40986037 0.15574837
-0.63514107 -0.24322033 0.069691181
-0.61760306 -0.61282039 0.26056147
-0.61710608 -0.74499035 0.32756042
-0.62342107 -0.61319733 0.25948715
-0.62992907 -0.47737038 0.18932915
-0.63906509 -0.41052639 0.15351534
-0.62286407 -0.74539638 0.3265152
-0.63194507 -0.6778723 0.29037046
-0.63681507 -0.57816339 0.23884726
-0.65828508 -0.13862038 0.011723518
-0.64170408 -0.47806835 0.18712521
-0.65997106 -0.34854734 0.11760616
-0.65348905 -0.47877133 0.18492031
-0.65435404 -0.57928538 0.23560429
-0.67645204 -0.13944137 0.0081934929
-0.67785907 -0.34952033 0.11421347
-0.66423005 -0.61587036 0.25197649
-0.68577009 -0.19492137 0.034249306
-0.67119008 -0.47983336 0.18161535
-0.66676605 -0.68025839 0.28401327
-0.67007005 -0.61625731 0.25090408
-0.68300509 -0.48054731 0.17941046
-0.67839509 -0.68106329 0.28189516
-0.68891704 -0.48090637 0.1783061
-0.71329707 -0.24712539 0.054691315
-0.71933007 -0.24743235 0.053537369
-0.71970004 -0.35182834 0.10629225
-0.72235107 -0.30312932 0.081069469
-0.72569007 -0.35216236 0.10516119
-0.73168409 -0.35249734 0.10402918
-0.73745108 -0.2483604 0.050069332
-0.74026304 -0.19756734 0.023752213
-0.72445309 -0.48308229 0.17169046
-0.72277206 -0.61979437 0.24124718
-0.74012005 -0.41636229 0.13452053
-0.74367809 -0.35317039 0.1017642
-0.75244904 -0.3047514 0.075353146
-0.75559705 -0.24929631 0.046602249
-0.73977506 -0.52796328 0.19107628
-0.75847906 -0.30507839 0.074209213
-0.75162107 -0.52872539 0.18889046
-0.77054507 -0.3057363 0.071922302
-0.75424606 -0.58585036 0.21723127
-0.75754809 -0.52910829 0.18779612
-0.77984005 -0.25055838 0.041975498
-0.76392806 -0.62261534 0.23373652
-0.76605505 -0.58664632 0.21506929
-0.76941109 -0.52987731 0.18560839
-0.77200305 -0.48604834 0.16286325
-0.78798205 -0.4192183 0.1255703
-0.79471904 -0.30706537 0.067342281
-0.81894404 -0.30841029 0.06276226
-0.80779809 -0.48832238 0.15623951
-0.82799906 -0.35800231 0.085895538
-0.83002704 -0.42177737 0.11773252
-0.84207004 -0.42251837 0.11549139
-0.84615105 -0.35906529 0.082489491
-0.84809506 -0.42289031 0.1143713
-0.86146408 -0.31080437 0.054738522
-0.85280907 -0.53539634 0.17028809
-0.85879105 -0.53579938 0.16919231
-0.86477506 -0.53620434 0.16809845
-0.87371808 -0.49260032 0.14408636
-0.91459906 -0.42705929 0.10203648
-0.90984207 -0.49499428 0.13745117
-0.93888408 -0.42861032 0.097546101
-0.97541606 -0.43097138 0.090806484
-0.98762006 -0.43176734 0.088559151
