# .PCD v0.7 - Point Cloud Data file format
VERSION 0.7
FIELDS x y z
SIZE 4 4 4
TYPE F F F
COUNT 1 1 1
WIDTH 1
HEIGHT 1024
VIEWPOINT 0 0 0 1 0 0 0
POINTS 1024
DATA ascii
1.0616591 -0.089000046 -0.14750814
1.0401781 -0.11040503 0.00064611435
1.0222092 -0.11004108 0.00041389465
1.0531391 -0.065679133 -0.30499697
1.0343581 -0.065322101 -0.30509615
1.0281001 -0.06520313 -0.30512094
1.0120132 -0.20039612 -0.18768311
1.0278941 -0.044860065 -0.44338608
1.0462961 -0.021661103 -0.58039522
0.99265313 -0.19887406 -0.18101406
0.95807213 -0.10376209 0.032103062
1.0151381 -0.044626057 -0.44337988
1.0333221 -0.021458089 -0.58058023
0.98432112 -0.064385116 -0.30522585
1.0023851 -0.044395089 -0.4433651
0.93406814 -0.066349089 -0.01252985
1.0073261 -0.020999074 -0.58047104
0.99433714 -0.020774066 -0.58041906
0.94440413 -0.31884414 -0.18791008
0.91522211 -0.02049011 -0.0055189133
0.98784512 -0.020662069 -0.58039331
0.92396414 -0.11964303 -0.07472086
0.90368313 0.023285925 0.038816929
0.9324671 -0.31906503 -0.19064188
0.91965812 -0.084609091 -0.13710117
0.90869814 -0.17548412 -0.049104214
0.91047513 -0.12518412 -0.11211586
0.88329214 -0.28140908 0.011343002
0.9014051 -0.12891406 -0.13725519
0.9014501 -0.091841042 -0.18792295
0.89684713 -0.1307891 -0.14988899
0.87429512 -0.28560406 -0.012915134
0.89227211 -0.13267213 -0.16256714
0.88124913 0.0017389059 -0.1213541
0.86977309 -0.28771406 -0.025107861
0.88768113 -0.13456303 -0.17529106
0.85538113 -0.33778709 -0.0044760704
0.86239314 -0.11683804 -0.064161301
0.84039611 0.067404926 0.07290411
0.85083514 -0.33998412 -0.016631126
0.8462711 -0.34219009 -0.028828144
0.83993411 -0.16182214 0.025939941
0.8306641 -0.054421127 0.054996967
0.83717412 -0.3368631 -0.0017032623
0.83339411 -0.21602708 0.031216145
0.82060313 0.19319993 0.09144783
0.83629012 0.22488689 -0.04623127
0.82943809 -0.33374411 0.013904095
0.82651412 -0.1593321 0.039568901
0.81746709 0.028583944 0.067229748
0.82153213 -0.21578413 0.031271935
0.8195821 -0.098564088 0.048520088
0.8095181 0.15299392 0.085546017
0.81366813 -0.098457038 0.048544884
0.8042081 0.11822695 0.080440044
0.80629212 -0.0090730786 0.061707973
0.80503112 0.067951918 0.073041916
0.81279212 -0.40603405 0.0032958984
0.8077541 -0.098350108 0.048572063
0.79775912 0.15315491 0.085588932
0.79710311 0.19350791 0.0915308
0.81224614 0.22523689 -0.04563427
0.8003931 -0.0089761019 0.061729908
0.80566013 -0.33321804 0.014019012
0.80282813 -0.1588791 0.039671898
0.7918821 0.15323395 0.085608959
0.8197881 0.24327391 -0.16920185
0.79388511 0.02895689 0.067321777
0.79325312 0.068128943 0.073086739
0.78859711 -0.008785069 0.061778069
0.78736609 0.068215907 0.07310915
0.79377913 -0.33296102 0.014074802
0.7900241 -0.09803611 0.04864502
0.78068209 0.11855793 0.080525875
0.78013009 0.15339094 0.085650921
0.77949011 0.1937319 0.091592789
0.78270012 -0.0086910725 0.061800957
0.78696114 -0.27742809 0.022256851
0.77362114 0.19380492 0.091612816
0.78822112 0.22558093 -0.045003891
0.79532409 0.2436139 -0.16849089
0.7723031 -0.097728074 0.048718929
0.76188809 0.19395089 0.09165287
0.7762171 0.22575092 -0.044676304
0.76821011 -0.21474105 0.031508923
0.7566421 0.15369689 0.085733891
0.80270112 0.27108693 -0.35619116
0.75794709 0.068641901 0.073217869
0.75015813 0.19409293 0.091692924
0.75206512 0.06872493 0.073240757
0.7473461 -0.0081420541 0.061937809
0.79014313 0.27125192 -0.35575914
0.73843414 0.19423389 0.091733932
0.7647711 0.24403191 -0.1675539
0.74279112 -0.097233117 0.048840046
0.73444009 -0.33173805 0.014349937
0.73271209 -0.21408707 0.031662941
0.76504314 0.27157789 -0.35486889
0.72267914 0.069129944 0.073347092
0.71557909 0.1542089 0.085875988
0.74035114 0.24436092 -0.16676807
0.7208901 -0.21387714 0.031712055
0.71021509 0.1194849 0.080775738
0.70971709 0.15427893 0.085895061
0.71267414 -0.052486122 0.055470943
0.73424911 0.24444193 -0.16656494
0.71149212 0.030166924 0.067631721
0.71093309 0.069286942 0.0733881
0.71417314 -0.15730613 0.040045738
0.74623311 0.27181792 -0.35417891
0.7056151 0.030247927 0.067654133
0.69918913 0.069440901 0.073431015
0.70481312 -0.33116513 0.014482975
0.70152014 -0.096575081 0.04900074
0.71594912 0.24468392 -0.16594601
0.73369813 0.27197689 -0.35371017
0.69386309 0.030407906 0.067696095
0.6988911 -0.33105403 0.014507771
0.69725609 -0.21346813 0.031809807
0.68675911 0.11977291 0.080854893
0.69829512 0.22682291 -0.042331219
0.68799013 0.030486941 0.067717075
0.69220811 -0.27562207 0.022674084
0.68804109 -0.40337509 0.003885746
0.68038213 -0.2754131 0.022722721
0.6787771 -0.15673202 0.040186882
0.67795914 -0.09621805 0.049089909
0.67521214 -0.33061808 0.014609814
0.66398513 0.069886923 0.073552132
0.67025709 -0.40303403 0.003964901
0.66618609 -0.096044123 0.049134731
0.65972012 -0.051719129 0.055667877
0.65913111 -0.0068880916 0.062263966
0.67938215 0.2451579 -0.16464901
0.66030014 -0.095958054 0.04915905
0.6516071 0.1201849 0.080973148
0.65063113 0.19520992 0.092015743
0.6574651 -0.33030206 0.014686108
0.65593612 -0.21278614 0.0319767
0.6552031 -0.15636808 0.040277958
0.65248209 -0.40270311 0.0040421486
0.6515491 -0.33019906 0.014710903
0.64931011 -0.15627903 0.040300846
0.63945311 0.15507591 0.086124897
0.6611141 0.24539089 -0.16397285
0.65502709 0.2454679 -0.16374302
0.63467515 0.070239902 0.073650837
0.64063913 -0.4024871 0.0040917397
0.63824213 -0.21250802 0.032045841
0.6375311 -0.15610403 0.040346146
0.63848513 0.22760993 -0.040279865
0.62881613 0.07030791 0.07366991
0.6244601 -0.05124408 0.055793762
0.6257531 -0.15593213 0.040390968
0.62500614 -0.095462024 0.049287796
0.6367721 0.2456969 -0.16304016
0.61710012 0.070442915 0.073708057
0.62287813 -0.40217203 0.0041680336
0.62055612 -0.21223909 0.032114983
0.61986709 -0.15584713 0.040411949
0.60973012 0.19561994 0.092141151
0.61324912 -0.095303118 0.049329758
0.62460911 0.24584693 -0.16256189
0.60737211 -0.095225036 0.049351692
0.60097313 -0.050943077 0.055874825
0.59999609 0.031579912 0.06801796
0.59953409 0.070638895 0.073765755
0.59309214 0.12081993 0.081159115
0.59510213 -0.050870121 0.055896759
0.6124481 0.24599689 -0.16207409
0.59698814 -0.21189207 0.032204151
0.58684313 0.15561491 0.086287975
0.6063711 0.24607092 -0.16182804
0.58782613 0.070766926 0.073803902
0.59329712 -0.40167004 0.0042877197
0.58054209 0.1958949 0.092227936
0.58285314 -0.0059400797 0.062525749
0.58655411 -0.32913011 0.014970779
0.58521014 -0.21172506 0.032246113
0.58456409 -0.15535814 0.040539742
0.57516313 0.15572691 0.086323738
0.57699209 -0.0058720708 0.062545776
0.58002609 -0.27380103 0.023121834
0.5793221 -0.21164209 0.032268047
0.5881421 0.24629194 -0.16107512
0.57027113 0.070952892 0.073857784
0.5741291 -0.27371508 0.023143768
0.56303811 0.1960519 0.092278004
0.57281709 0.22843593 -0.03777504
0.56442213 0.071013927 0.073876858
0.5682351 -0.27363008 0.023164749
0.56754714 -0.21148008 0.032310963
0.55720615 0.19610393 0.092294693
0.55990207 -0.050447047 0.056015015
0.55941212 -0.0056740642 0.062602997
0.55900013 0.032034934 0.068151951
0.55857313 0.07107389 0.073895931
0.58366609 0.27378094 -0.34741592
0.55272615 0.071132898 0.073913097
0.5463441 0.1212799 0.081300735
0.54769814 -0.005546093 0.062639713
0.55192012 -0.40101105 0.0044498444
0.55055714 -0.27338105 0.023230076
0.54929209 -0.15490109 0.040663719
0.54864711 -0.094489038 0.049552917
0.54896915 0.22872591 -0.036800861
0.54231215 -0.050247133 0.056071758
0.55778408 0.2466529 -0.15977716
0.53430212 0.15610194 0.086443901
0.53388309 0.19630289 0.092360973
0.53754008 -0.15475613 0.04070282
0.53691113 -0.094351113 0.049592972
0.52805412 0.19635195 0.092380047
0.53059012 -0.050117075 0.056109905
0.52298808 0.12149489 0.081370831
0.5234971 0.071419895 0.074002743
0.51715112 0.12154591 0.081387043
0.51765311 0.07147491 0.074019909
0.52166212 -0.32818514 0.015213966
0.5211091 -0.27298504 0.023335934
0.51097012 0.15630192 0.086511135
0.51256913 -0.0051780939 0.062749863
0.52745312 0.24700594 -0.15842485
0.51219612 0.032510936 0.068296909
0.5157671 -0.32810503 0.015234947
0.50671709 -0.0051200986 0.062767982
0.50634909 0.032566905 0.068314075
0.50987315 -0.32802707 0.015255928
0.49930912 0.15639889 0.086543083
0.51532912 0.24714494 -0.15787029
0.49381012 0.12174791 0.0814538
0.49309713 0.19662994 0.092473984
0.49465811 0.032676935 0.068348885
0.49697211 -0.2105841 0.032556057
0.49167711 -0.27261311 0.023437977
0.4905661 -0.15420908 0.040858746
0.4821431 0.12184495 0.081488132
0.48630512 -0.32772106 0.015337944
0.47562811 0.19676089 0.092520714
0.4774681 -0.004838109 0.062855721
0.47296312 -0.1540181 0.040915966
0.47242013 -0.09365505 0.049798012
0.46577412 -0.0047310591 0.062891006
0.46509311 0.071939945 0.074171066
0.46927813 -0.39985007 0.0047540665
0.4670971 -0.15395707 0.040934086
0.4529891 0.1220749 0.081567764
0.47779611 0.27494389 -0.34223223
0.4534201 0.072035909 0.074204922
0.45638511 -0.27219909 0.023555756
0.45536512 -0.15383607 0.040970802
0.45374212 0.2298339 -0.032562256
0.45050511 -0.27213305 0.023573875
0.44950113 -0.15377706 0.040988922
0.44898912 -0.093427122 0.049869061
0.44276512 -0.049244106 0.056378841
0.44313312 -0.093372047 0.04988575
0.4418551 0.22996694 -0.031992912
0.43979511 -0.39948708 0.0048537254
0.43874612 -0.27200514 0.023611069
0.43823612 -0.20993811 0.032743931
0.43777311 -0.15366107 0.041024685
0.4307031 -0.0044270754 0.06299305
0.4339011 -0.3994171 0.0048737526
0.43331513 -0.32709414 0.015515804
0.43661612 0.24801594 -0.15405798
0.44671813 0.2752679 -0.34059286
0.42424911 0.072263896 0.074285984
0.42800811 -0.39934903 0.0048918724
0.41743812 0.19715893 0.092671871
0.4193691 -0.049041092 0.056446075
0.42154813 -0.32696611 0.015552998
0.41809711 0.23022795 -0.030833244
0.41352212 -0.048992097 0.056462765
0.4245221 0.24814492 -0.15343809
0.41476113 -0.20970613 0.032815933
0.40580711 0.19723189 0.092701912
0.4121581 0.23029292 -0.030538082
0.42808411 0.27545893 -0.33958626
0.4103291 -0.39915007 0.0049500465
0.40889212 -0.2096501 0.032834053
0.40846512 -0.15338713 0.041111946
0.40348813 -0.2716431 0.023720741
0.40302512 -0.20959502 0.032850742
0.40260613 -0.15333503 0.041129112
0.40215611 -0.093009055 0.050005913
0.39447311 0.15715492 0.086822987
0.39417911 0.19730192 0.092731953
0.41566712 0.27558392 -0.33890295
0.38865513 0.15719092 0.086836815
0.39435112 0.23048389 -0.02963829
0.39013711 -0.048805058 0.056528091
0.3926571 -0.39896113 0.0050058365
0.39174011 -0.27153009 0.023757935
0.39129412 -0.20948809 0.032886028
0.38255212 0.19736993 0.092760086
0.3837091 0.033579946 0.068658829
0.38676611 -0.39890009 0.0050239563
0.37674013 0.19740289 0.092772961
0.39704812 0.27576989 -0.33786297
0.37999311 -0.27142113 0.02379179
0.37092811 0.1974349 0.092787743
0.3765521 0.23067194 -0.028718948
0.37412113 -0.27136809 0.023808956
0.3651171 0.19746691 0.092801094
0.36646312 -0.0039401054 0.063167095
0.36469111 0.23079592 -0.028096199
0.37844011 0.27595294 -0.3368063
0.36038011 0.033737898 0.06871891
0.36273912 -0.32638508 0.015731812
0.36197212 -0.20923609 0.032969952
0.3542971 0.072738945 0.074466705
0.35650611 -0.27121407 0.023859024
0.35610813 -0.20918912 0.032985687
0.34951213 -0.092603028 0.050148964
0.34339312 -0.048469126 0.056653023
0.35203612 0.24889189 -0.14955091
0.33651912 0.12283492 0.081865788
0.33755311 -0.048430026 0.056666851
0.33966711 -0.39845103 0.0051660538
0.33923012 -0.32618111 0.015799999
0.33889711 -0.27106911 0.023909092
0.3381831 -0.15281802 0.041307926
0.33070013 0.12286592 0.081880093
0.33302712 -0.27102309 0.023924828
0.33266112 -0.20900708 0.033051014
0.33197212 -0.09248203 0.05019474
0.32445011 0.19767392 0.092895985
0.33393511 0.24907094 -0.14853191
0.32539612 0.033950925 0.068807125
0.32517111 0.072907925 0.074538708
0.32747811 -0.32608503 0.015832901
0.32680011 -0.20896405 0.033065796
0.32612711 -0.092443049 0.050210953
0.3200331 -0.048319042 0.05671072
0.31934813 0.072939932 0.074552059
0.32129112 -0.27093309 0.023956776
0.3132481 0.12295592 0.081920147
0.30724514 0.15762991 0.087031841
0.32266611 0.27648389 -0.33351994
0.30251712 -0.048215091 0.056754112
0.30228111 -0.0035430789 0.063327789
0.31647313 0.27654094 -0.33314514
0.30187809 0.073030889 0.074594021
0.30306613 -0.15258008 0.041399956
0.3027491 -0.092297137 0.050269127
0.29645011 -0.0035120845 0.063342094
0.29810613 -0.32586211 0.015912056
0.28400111 0.15773392 0.087083817
0.28380513 0.19785094 0.092987061
0.28500512 -0.048118055 0.056797028
0.29790312 0.27671194 -0.33200502
0.28671312 -0.39802808 0.0053129196
0.29171413 0.27676791 -0.33162212
0.27494913 -0.39794511 0.005343914
0.27461511 -0.32570308 0.015972137
0.26672614 0.12316692 0.082027912
0.26639012 0.19791889 0.093024731
0.26712611 0.034250915 0.068943977
0.26821712 -0.20858413 0.033215046
0.26796514 -0.15237314 0.041485786
0.26146513 -0.0033380985 0.063423157
0.2613011 0.034276903 0.068956852
0.26236212 -0.20855111 0.033228874
0.25810012 0.23185289 -0.022107124
0.25547713 0.034301937 0.068969727
0.25531211 0.073243916 0.074698925
0.25676912 -0.27050704 0.024122715
0.25626811 -0.1523121 0.041512966
0.24504112 -0.27044314 0.024150848
0.23752812 0.15791094 0.087184906
0.24036212 0.23201895 -0.02104187
0.24842311 0.27715194 -0.32887793
0.23966911 -0.39772314 0.0054330826
0.23172112 0.1579299 0.087196827
0.23232111 -0.0032140613 0.06348896
0.23203611 0.073333919 0.0747509
0.23331611 -0.27038211 0.024178028
0.23308511 -0.20839912 0.033299923
0.22591211 0.15794891 0.087209702
0.23152411 0.25003189 -0.14240122
0.22722912 -0.20837206 0.033311844
0.21429911 0.15798491 0.08723402
0.21483712 -0.0031480789 0.063524723
0.21591312 -0.32537311 0.016114712
0.21572912 -0.27029711 0.024219036
0.20860411 0.1233719 0.082149982
0.20849311 0.1580019 0.087245941
0.20901011 -0.0031281114 0.063538074
0.21004412 -0.32534605 0.016129017
0.20966911 -0.20829505 0.033351898
0.20279312 0.12338895 0.082161903
0.20256312 0.19812089 0.093156815
0.21135311 0.27746791 -0.32644606
0.20439911 -0.39754003 0.0055160522
0.20381612 -0.20827109 0.033363819
0.19900212 0.23239392 -0.018482208
0.19117212 0.12342089 0.082185745
0.19165511 -0.047721088 0.057004929
0.19544011 0.25034791 -0.14009285
0.19142312 0.034532905 0.069107056
0.19131312 0.073463917 0.074834824
0.19243911 -0.32527012 0.016168118
0.19228412 -0.27019805 0.024271011
0.19195011 -0.15203303 0.041657925
0.18536212 0.12343591 0.082195759
0.18719411 0.23249894 -0.017733097
0.18570311 -0.0030540824 0.063585758
0.18026012 -0.1519931 0.041681767
0.17374212 0.12346393 0.082219124
0.17740811 0.25050294 -0.13890886
0.17501211 -0.39741606 0.0055809021
0.17441411 -0.1519751 0.041693687
0.16793212 0.12347692 0.082230091
0.16856912 -0.15195709 0.041707039
0.16212311 0.12348992 0.082241058
0.16204812 0.1581139 0.08733511
0.16539311 0.2506029 -0.13811207
0.16223212 0.073536932 0.074892044
0.16310312 -0.32516307 0.016230106
0.15641712 0.073549926 0.074903011
0.15083611 -0.047610104 0.057086945
0.14500412 -0.04759711 0.057096958
0.14563212 -0.39731914 0.0056419373
0.14550212 -0.32511109 0.016265869
0.13888812 0.12353289 0.082284927
0.13883013 0.15815592 0.087378979
0.14137012 0.25080192 -0.13648891
0.13897112 0.073583901 0.074935913
0.13296412 0.19825989 0.093287945
0.13409013 0.23295194 -0.014252186
0.13334312 -0.047574103 0.057118893
0.13321611 0.034666896 0.069220066
0.13368613 -0.27001804 0.024392128
0.13350412 -0.15187007 0.041775703
0.12800711 -0.39727312 0.0056767464
0.12782711 -0.27000505 0.024403095
0.12774011 -0.20804209 0.033518791
0.12766013 -0.1518591 0.041785717
0.12757511 -0.091616094 0.050648689
0.12141912 0.15817994 0.087409973
0.12136711 0.19827491 0.093308926
0.12152712 0.073610902 0.074967861
0.11565411 0.12356591 0.082326889
0.11590312 -0.091596067 0.050672054
0.11050911 0.23314494 -0.012650013
0.10997611 -0.0028960705 0.063730717
0.10993712 0.03470093 0.069262981
0.10989711 0.073625922 0.074987888
0.11038111 -0.39723712 0.0057110786
0.10649112 0.27830189 -0.31915426
0.10408312 0.073631942 0.074998856
0.098577112 -0.32501608 0.016355038
0.092374116 0.19830191 0.093359947
0.092532113 -0.047518075 0.057193756
0.092756115 -0.39721113 0.0057420731
0.092560112 -0.091567099 0.050713062
0.087365113 0.25122893 -0.13271809
0.086845115 -0.32500213 0.016376019
0.086816117 -0.2699421 0.024477005
0.086785115 -0.20798308 0.033594131
0.081853114 0.27848589 -0.31734896
0.075000115 0.12359893 0.082396984
0.075161114 0.2334249 -0.010185242
0.075697117 0.2785309 -0.31689405
0.075022116 0.034730911 0.069323063
0.075115114 -0.32499307 0.016396046
0.075055115 -0.091554105 0.050743103
0.069250114 -0.32498914 0.016406059
0.069220118 -0.091552079 0.050753117
0.063383117 0.19831491 0.093408108
0.057576116 0.12360394 0.082425117
0.057586115 0.19831592 0.093416691
0.057509117 -0.3971861 0.0058021545
0.051788114 0.19831592 0.093426704
0.051725116 -0.04749912 0.057261944
0.051398113 0.25149894 -0.13011026
0.051075116 0.27870691 -0.31505013
0.045834117 -0.20796806 0.033660889
0.039838117 0.23369294 -0.0076432228
0.038768116 0.27879393 -0.31411505
0.040127113 0.073656917 0.07510376
0.039885115 -0.39718813 0.0058298111
0.034393117 0.19831294 0.093454838
0.033954114 0.23373693 -0.0072112083
0.032617114 0.27883589 -0.31364489
0.034057118 -0.32499009 0.016461849
0.028596114 0.19831091 0.093462944
0.028071117 0.23377991 -0.0067801476
0.028406117 -0.047506034 0.057297707
0.028137114 -0.39719504 0.0058479309
0.028193116 -0.32499403 0.016470909
0.022188116 0.23382294 -0.0063443184
0.022617117 -0.0028700829 0.063873768
0.021446116 0.25171494 -0.12787819
0.020317115 0.27892089 -0.31269932
0.022537116 -0.091559112 0.050826073
0.016748115 -0.047514141 0.057314873
0.016872115 0.07364589 0.075139999
0.016640116 -0.15180403 0.041971684
0.0094691142 0.25179893 -0.12697124
0.010731116 -0.20799106 0.033713818
0.0054031163 0.1982969 0.093497753
0.0051441155 -0.0028851032 0.063899994
-0.00050088763 0.12357694 0.082513809
-0.00045188516 0.15819794 0.087607861
-0.0011338815 -0.32502705 0.016511917
-0.0065028816 -0.002898097 0.06391573
-0.010421887 0.27912694 -0.31029606
-0.0063858852 0.073623896 0.075174809
-0.012117885 0.12356395 0.082531929
-0.014473885 0.25196391 -0.12513208
-0.012866884 -0.32504708 0.016529083
-0.012476884 -0.091599047 0.050876141
-0.020456888 0.25200391 -0.12466621
-0.018015884 0.073607922 0.075191021
-0.025401883 0.3116129 -0.52931786
-0.023733884 0.12354791 0.082548141
-0.023666881 0.15816993 0.087640762
-0.024850883 0.23415494 -0.0027871132
-0.024736881 -0.39727813 0.0059199333
-0.024263881 -0.15186304 0.04202795
-0.030350886 -0.27002209 0.024652958
-0.035186887 0.19824892 0.093556881
-0.035723887 -0.047589123 0.057387829
-0.041079886 0.15814292 0.087666035
-0.040987886 0.19823992 0.093564034
-0.041452885 -0.0029571056 0.06396389
-0.044385888 0.25216293 -0.12278509
-0.042069882 -0.27005106 0.02466774
-0.046968885 0.12350893 0.082579136
-0.046785884 0.19822991 0.093570709
-0.053101882 -0.0029830933 0.063979149
-0.056345887 0.25223994 -0.12183285
-0.053005882 0.034617901 0.069509983
-0.063402891 0.31184089 -0.52617025
-0.065705881 0.27947694 -0.30584097
-0.058720887 0.073532939 0.07524395
-0.059990883 -0.39738113 0.0059599876
-0.059795886 -0.32516903 0.01658392
-0.065974891 0.23442793 0.00043678284
-0.064647883 0.0345909 0.069524765
-0.064537883 0.073519945 0.07525301
-0.065508887 -0.27012104 0.024693966
-0.077716887 0.23450291 0.0013780594
-0.077397883 -0.32523113 0.016603947
-0.086233884 0.25242692 -0.1194129
-0.090256885 0.27962393 -0.30380917
-0.083265886 -0.32525402 0.016610146
-0.088948891 -0.27020603 0.024717808
-0.088352889 -0.091786087 0.050970078
-0.093446881 0.12339991 0.082636833
-0.094039887 -0.047746122 0.057458878
-0.093884885 -0.0030961037 0.064027786
-0.093619883 0.073441923 0.075286865
-0.098987877 0.19811594 0.093638897
-0.099871889 -0.04776603 0.057465076
-0.099575877 0.034490943 0.069565773
-0.10067189 -0.27025408 0.024729729
-0.10706389 0.2346859 0.0037641525
-0.11013189 0.25257194 -0.11744022
-0.10539788 0.034471929 0.069572926
-0.10700688 -0.39757711 0.0060067177
-0.10673788 -0.32535511 0.01663208
-0.10630189 -0.20830303 0.033855915
-0.11074488 0.15797889 0.087750912
-0.11193888 -0.15213007 0.04212904
-0.13300389 0.31223094 -0.52021313
-0.12250188 0.12331092 0.082670689
-0.12219489 0.1980499 0.093666077
-0.12804988 0.25267589 -0.11593819
-0.12270689 0.073347926 0.075319767
-0.13932689 0.31226492 -0.51965809
-0.12386489 -0.20838112 0.033870697
-0.12363389 -0.15218109 0.042140007
-0.12338589 -0.091920078 0.051004887
-0.12884988 -0.0032221079 0.06406498
-0.12852488 0.073325932 0.075325966
-0.13052188 -0.39770108 0.0060267448
-0.13379888 0.19801289 0.093678951
-0.13998988 0.25274491 -0.11492729
-0.14545688 0.27993792 -0.29911327
-0.14195488 -0.32553703 0.016662121
-0.14598289 0.07325989 0.075345039
-0.15198688 0.03429389 0.069621086
-0.15369688 -0.32560509 0.016670704
-0.15314089 -0.20853013 0.033895969
-0.15258688 -0.092053115 0.05103302
-0.15701288 0.1979329 0.0937047
-0.15781088 0.034267902 0.069626808
-0.16404788 -0.048038065 0.057527065
-0.16983189 0.2529099 -0.11236095
-0.16344088 0.073185921 0.075361729
-0.16457088 -0.1523841 0.042174816
-0.16862188 0.19788891 0.093716145
-0.16988589 -0.048068106 0.057531834
-0.16965589 -0.0034020543 0.064105034
-0.16926289 0.073159933 0.075366974
-0.18988389 0.31252193 -0.51515818
-0.17071089 -0.20862907 0.033909798
-0.17528789 0.0341869 0.069643021
-0.17689389 -0.27066106 0.024791718
-0.17627089 -0.15245003 0.042183876
-0.17595388 -0.092174113 0.051052094
-0.18329388 0.23512191 0.010215759
-0.18131688 -0.0034610629 0.06411314
-0.18773088 0.25300491 -0.11079693
-0.18305588 -0.32579404 0.016690731
-0.18275888 -0.27070004 0.024795055
-0.18242389 -0.20870107 0.033917904
-0.18625788 0.1577009 0.087832928
-0.18603589 0.19781989 0.093732834
-0.18739489 -0.048161089 0.057547092
-0.18714789 -0.0034911036 0.064117908
-0.1893279 -0.39808506 0.0060639381
-0.18892887 -0.32583505 0.016694069
-0.1876379 -0.092239082 0.051062107
-0.19184187 0.19779491 0.093739986
-0.19501087 0.23518491 0.011240005
-0.19276688 0.034099936 0.069657803
-0.19808188 0.1230039 0.082746983
-0.19881287 -0.0035541058 0.064127922
-0.2128509 0.28028589 -0.29314804
-0.20109388 -0.39817506 0.006070137
-0.20035788 -0.27081913 0.024806976
-0.20464489 -0.0035870671 0.06413269
-0.22777289 0.31270194 -0.51169586
-0.20697689 -0.39822108 0.006072998
-0.20926288 0.19771892 0.093755722
-0.21754789 0.2531569 -0.10814714
-0.21209189 -0.27090412 0.024812698
-0.21171787 -0.20889503 0.033936024
-0.21101388 -0.09238106 0.051076889
-0.21531689 0.15756589 0.087857723
-0.21506989 0.19769192 0.093761921
-0.23121589 0.28037494 -0.29147911
-0.21874487 -0.39831704 0.0060768127
-0.21722987 -0.15270811 0.042212009
-0.22113088 0.15753692 0.087863922
-0.22270489 -0.092456043 0.051084995
-0.22716689 0.1228559 0.082769871
-0.22969687 -0.27103907 0.024820805
-0.2413919 0.2532739 -0.10599232
-0.23479089 -0.15283209 0.042222023
-0.23439589 -0.092535079 0.051093102
-0.24186188 0.23542094 0.015420914
-0.23939788 0.033835948 0.069693089
-0.24102089 -0.20911211 0.033950806
-0.2402429 -0.092575133 0.051095963
-0.24496287 0.072762907 0.075429916
-0.24817288 -0.39857513 0.0060858727
-0.24768087 -0.32629806 0.016718864
-0.25106087 0.033762932 0.069702148
-0.27825588 0.31292492 -0.50696898
-0.2531769 -0.27123111 0.024829865
-0.25274688 -0.20920509 0.033955097
-0.2519379 -0.092659056 0.051103115
-0.26527488 0.23553193 0.017561913
-0.26272389 0.033685923 0.069709778
-0.26244387 0.072654903 0.075440884
-0.26447287 -0.20930213 0.033960819
-0.27033588 -0.20935112 0.033961773
-0.2699239 -0.15310305 0.042237759
-0.27316988 0.19739193 0.093811035
-0.27898288 0.19735789 0.093813896
-0.28703287 -0.092929065 0.051117897
-0.29092288 0.15714192 0.087916851
-0.30095989 0.25354195 -0.10045385
-0.29158688 0.072459936 0.075459957
-0.29288387 -0.092977107 0.051121712
-0.30037588 0.23568892 0.020837784
-0.29802787 -0.0042091012 0.064189911
-0.3028439 0.12239695 0.082824707
-0.30223888 0.19721991 0.093832016
-0.30386987 -0.0042550564 0.064191818
-0.33500189 0.3131519 -0.50149727
-0.30706689 -0.39917213 0.0060920715
-0.30603489 -0.27172107 0.024841785
-0.31007788 -0.049009025 0.057618141
-0.3129589 -0.39923805 0.0060930252
-0.3159259 -0.049058139 0.057620049
-0.33519188 0.28082192 -0.28167009
-0.31726789 -0.20978206 0.033973694
-0.31679788 -0.15351206 0.042252064
-0.32177389 -0.049107134 0.05762291
-0.32139388 -0.0043950677 0.064199924
-0.32265988 -0.15356714 0.042254925
-0.32614589 0.12223393 0.082839012
-0.32550189 0.1970709 0.093847752
-0.32691288 0.03321594 0.069743156
-0.32852188 -0.15362304 0.042254925
-0.32800189 -0.093282044 0.051131725
-0.33167189 0.1568709 0.087943077
-0.33132088 0.19703293 0.093852043
-0.33275288 0.033168912 0.069745064
-0.36650589 0.31326795 -0.49838591
-0.3382459 0.072113931 0.075482845
-0.37280488 0.31328994 -0.49775791
-0.34242988 -0.39958209 0.0060887337
-0.34178787 -0.32724911 0.016729832
-0.3447699 -0.004592061 0.064208984
-0.34556988 -0.093445122 0.051136017
-0.34877589 0.19691294 0.093861103
-0.35299289 0.23590094 0.025889874
-0.35197687 -0.1538561 0.042255878
-0.35142687 -0.093502104 0.051136971
-0.35883787 0.23592395 0.026463985
-0.37795889 0.28097993 -0.27745914
-0.36041787 0.19683093 0.093865871
-0.36468089 0.23594493 0.027037144
-0.36195588 0.032922924 0.069756031
-0.36601689 -0.39987606 0.0060839653
-0.3666209 0.15661395 0.08796072
-0.37052289 0.23596692 0.027614117
-0.36858189 -0.049534023 0.057633877
-0.37831888 0.25384289 -0.092942238
-0.37011188 -0.2103371 0.033976078
-0.37443587 -0.049591124 0.05763483
-0.37400389 -0.0048561096 0.064217091
-0.37326488 0.071824908 0.075498104
-0.37658489 -0.27249509 0.024841785
-0.37985289 -0.0049120784 0.064218044
-0.37910289 0.0717749 0.075500011
-0.3824679 -0.27256614 0.024839878
-0.38072088 -0.093795121 0.051140785
-0.38614589 -0.049707115 0.057636738
-0.4084909 0.28108394 -0.27439022
-0.42317888 0.31345594 -0.49265909
-0.38835287 -0.27263802 0.024838924
-0.38773888 -0.21053809 0.033976078
-0.3915529 -0.0050240755 0.064219952
-0.3930499 -0.15429705 0.042257786
-0.40012288 -0.27278405 0.024837017
-0.39949188 -0.21067709 0.033973694
-0.40117988 0.1965239 0.093887806
-0.40556988 0.23608893 0.031116962
-0.42680189 0.28114194 -0.27252388
-0.40910789 -0.0051980615 0.064220905
-0.40830889 0.071510911 0.075508118
-0.41189688 -0.27293509 0.024831772
-0.41124988 -0.21082014 0.033970833
-0.41543287 -0.050011098 0.057637691
-0.41415188 0.071456909 0.075508118
-0.45464587 0.31354994 -0.48940706
-0.41589889 -0.094174087 0.051140785
-0.4190909 0.15618694 0.087981701
-0.42081487 -0.0053181052 0.064222813
-0.42041188 0.032375932 0.069767952
-0.41999587 0.07140094 0.075509071
-0.42367288 -0.27308911 0.024829865
-0.4224079 -0.15463811 0.042254925
-0.42529887 0.1214239 0.082878113
-0.42715189 -0.050138056 0.057639122
-0.42828187 -0.15470809 0.042254925
-0.4347629 0.23618191 0.034092903
-0.43168488 0.07128793 0.075511932
-0.43415588 -0.15478009 0.042253017
-0.43659389 0.15603292 0.087986946
-0.46341586 0.28124994 -0.26873398
-0.47980988 0.31361991 -0.48677015
-0.4464379 0.23621589 0.035297871
-0.46951586 0.28126693 -0.26809406
-0.44523287 -0.094512045 0.051138878
-0.44865888 0.12120593 0.082882881
-0.45009488 -0.0056310892 0.064223766
-0.4492259 0.071113944 0.07551384
-0.45242286 -0.21134812 0.033958912
-0.45178586 -0.15500003 0.042247772
-0.4581089 0.23624992 0.036511898
-0.4817149 0.28129989 -0.26681089
-0.4603439 0.12109292 0.082883835
-0.47341686 0.2541399 -0.083211899
-0.46419489 -0.21150714 0.033955097
-0.46819687 -0.050608099 0.05763483
-0.49391389 0.2813319 -0.26551914
-0.46677387 0.070932925 0.075514793
-0.4716199 0.15570891 0.087996006
-0.4711439 0.19592994 0.093912125
-0.47353286 -0.0058950782 0.064222813
-0.48529488 0.25417191 -0.081956863
-0.50001186 0.28134692 -0.26487112
-0.4726249 0.070870936 0.075515747
-0.47458589 -0.094871104 0.051131725
-0.47787589 0.12091893 0.082886696
-0.47992986 -0.050750077 0.057632923
-0.47939491 -0.0059630871 0.064221859
-0.50610888 0.28136194 -0.26421928
-0.48118287 -0.15538508 0.042238712
-0.48045886 -0.094945133 0.051130772
-0.48728186 0.2363289 0.039583683
-0.49717087 0.25420189 -0.080696106
-0.5122059 0.2813769 -0.26356602
-0.48479986 0.031691909 0.069770813
-0.48914486 0.1555379 0.087998867
-0.49166888 -0.050895035 0.057630062
-0.49112087 -0.0061010718 0.064220905
-0.53640187 0.31375891 -0.48071623
-0.49894989 0.23635793 0.040826797
-0.50904691 0.25423092 -0.079423904
-0.49603689 0.070617914 0.075516701
-0.49952787 -0.21200711 0.033937931
-0.4980849 -0.095173061 0.051126003
-0.50126588 0.12067789 0.08288908
-0.50928086 -0.051117122 0.057625771
-0.52091986 0.25425893 -0.078145027
-0.55525589 0.31379992 -0.47866011
-0.50983787 -0.095329106 0.051120758
-0.51252389 0.15530193 0.088000774
-0.54268688 0.28144592 -0.26027012
-0.53279287 0.25428492 -0.07685709
-0.51946288 0.070352912 0.07551384
-0.5246129 -0.32983011 0.016643047
-0.52390188 -0.27455705 0.024773121
-0.52310091 -0.21235806 0.033923149
-0.52237487 -0.1559611 0.042220116
-0.53872788 0.25429791 -0.076210022
-0.5548749 0.28147191 -0.25893497
-0.5258289 0.031209946 0.069765091
-0.53218889 -0.0066080689 0.064210892
-0.54466289 0.25430989 -0.075562
-0.58039188 0.31384993 -0.47589302
-0.53335786 -0.095652044 0.051110744
-0.5353809 0.19530994 0.093924046
-0.53805888 -0.0066831112 0.064209938
-0.53703988 0.070147932 0.075512886
-0.54161388 -0.27484506 0.024759769
-0.53923988 -0.09573406 0.051107883
-0.5929569 0.31387293 -0.47449732
-0.54752189 -0.27494305 0.024754047
-0.54707289 0.19518989 0.093924999
-0.56246591 0.25434589 -0.0736022
-0.55628788 -0.051747024 0.057608128
-0.55567688 -0.0069140792 0.064202785
-0.60551989 0.31389493 -0.47309208
-0.5587669 0.19506693 0.093925953
-0.5615499 -0.0069921017 0.064201832
-0.56102991 0.030768931 0.069756985
-0.56049186 0.069862902 0.075508118
-0.56891388 0.23650593 0.048464775
-0.5695079 -0.15667111 0.042191029
-0.57103187 0.1546669 0.088001728
-0.57393289 -0.051996052 0.057599068
-0.57330287 -0.0071520805 0.064197063
-0.58619791 0.25438893 -0.070960045
-0.60361588 0.2815609 -0.25351906
-0.57277286 0.030615926 0.069752693
-0.57688791 0.15459991 0.088000774
-0.58129889 -0.15685707 0.042182922
-0.58044189 -0.096336067 0.051085949
-0.58639586 0.23653591 0.050423145
-0.58395886 0.069567919 0.075500965
-0.5896849 -0.33098108 0.016575813
-0.58802086 0.19474894 0.093925953
-0.60399187 0.25441694 -0.068958282
-0.59039187 0.030380905 0.069746971
-0.5930959 -0.15704709 0.042172909
-0.59496886 0.1196059 0.082881927
-0.6099239 0.25442594 -0.068284035
-0.60072488 -0.27587003 0.024703026
-0.59981787 -0.21360308 0.033863068
-0.60335791 -0.052427113 0.057583809
-0.60156989 0.069338918 0.07549572
-0.6557579 0.31397092 -0.46739531
-0.60745287 -0.33131605 0.016554832
-0.60572588 -0.21370512 0.033856869
-0.6040079 -0.096698105 0.051069736
-0.60669887 0.11946094 0.082879066
-0.60618287 0.15425593 0.08799696
-0.66203588 0.31397891 -0.46667385
-0.6462419 0.28162295 -0.24867201
-0.61331487 0.069182932 0.075491905
-0.62102687 -0.052695096 0.057571888
-0.65233189 0.28162992 -0.24797106
-0.6197809 0.029974937 0.069734097
-0.67459089 0.31399393 -0.46522427
-0.62260687 -0.15753812 0.042149067
-0.62169391 -0.096978128 0.051056862
-0.62717688 0.23659492 0.055062771
-0.6269179 -0.052786052 0.057569981
-0.6256609 0.029891908 0.069730759
-0.63031787 -0.2764191 0.024668694
-0.6301719 0.11916089 0.082872868
-0.63154191 0.029807925 0.069727898
-0.63800889 -0.0080820918 0.064161777
-0.63938791 -0.097266138 0.051043034
-0.64389789 -0.0081710815 0.06415987
-0.69969589 0.31402093 -0.46230316
-0.64894891 -0.33213514 0.01650095
-0.64660788 0.19406891 0.093919754
-0.68276787 0.28166389 -0.24443722
-0.64919388 0.02955091 0.06971693
-0.64857888 0.068697929 0.075477123
-0.65488291 -0.33225614 0.01649189
-0.65303189 -0.21455711 0.033806801
-0.65119088 -0.097462118 0.05103302
-0.6524719 0.19399792 0.093917847
-0.65629488 0.23662692 0.058440685
-0.65898186 0.15359694 0.087985992
-0.66157091 -0.0084440708 0.064147949
-0.6949389 0.28167492 -0.24300909
-0.66096687 0.029375911 0.069710732
-0.66034091 0.068529904 0.075470924
-0.67268586 -0.33262509 0.016467094
-0.66987789 -0.15836912 0.042100906
-0.70711088 0.28168494 -0.2415719
-0.67274588 0.029197931 0.069704056
-0.67772388 -0.27734905 0.024608135
-0.67660189 0.1533649 0.08797884
-0.71319491 0.28168893 -0.24084902
-0.73734486 0.31405193 -0.45785999
-0.68305188 0.11844891 0.082851887
-0.6854049 0.2366519 0.061872959
-0.68515188 -0.0088170767 0.064129829
-0.69884491 0.25452292 -0.057950974
-0.68762487 -0.15869504 0.042080879
-0.74989086 0.31405991 -0.45636225
-0.71069491 0.25452989 -0.056538105
-0.73144686 0.28170091 -0.23867321
-0.70011091 0.15304792 0.087970734
-0.70530391 0.19332892 0.093904972
-0.74361491 0.28170693 -0.23721027
-0.71542388 -0.054248035 0.057493687
-0.7146529 -0.0093010664 0.064105988
-0.75577986 0.28171194 -0.23574114
-0.72520387 -0.27834207 0.02453804
-0.72293586 0.19309491 0.093898773
-0.72724587 -0.054456055 0.057481766
-0.7264629 -0.0095000863 0.064095974
-0.7295239 0.15263695 0.087956905
-0.73170489 0.02826494 0.06966114
-0.73101789 0.067466915 0.075428009
-0.73599291 -0.21619111 0.033699036
-0.73393589 -0.098929107 0.050949097
-0.73602587 0.11768293 0.082824707
-0.73778486 0.23667592 0.068182945
-0.73907191 -0.054668128 0.057468891
-0.7521649 0.25454694 -0.051524162
-0.74092788 -0.15972108 0.042016029
-0.74057788 0.19285589 0.093891144
-0.74941587 0.02797091 0.069644928
-0.7487129 0.067185938 0.075415134
-0.75591588 -0.33447307 0.016326904
-0.7549209 -0.27899402 0.024488926
-0.76993287 0.25454891 -0.049343109
-0.75532389 0.027870893 0.069641113
-0.75960189 0.11732394 0.082808018
-0.75823188 0.19261092 0.093883991
-0.76273888 -0.055101097 0.057445049
-0.76123089 0.027770936 0.069634914
-0.76681691 -0.27926308 0.024468899
-0.76568091 -0.21681911 0.03365469
-0.76465088 -0.16020113 0.041981697
-0.76549888 0.11723292 0.082803726
-0.76713991 0.027669907 0.069630146
-0.77075291 0.15203494 0.087933064
-0.77000791 0.19244492 0.093878746
-0.77457988 -0.055323064 0.05742979
-0.78769791 0.25454789 -0.047143936
-0.77664787 0.1519469 0.087929726
-0.77589691 0.19236094 0.093874931
-0.78466886 -0.27967209 0.024436951
-0.78245586 -0.16057009 0.041955948
-0.78254586 0.1518569 0.087925911
-0.7843259 0.2366749 0.073935986
-0.78642786 -0.055548131 0.057415009
-0.78558487 -0.010542095 0.064035892
-0.7906239 -0.27981108 0.024425983
-0.78725886 -0.099959075 0.050881863
-0.79150391 -0.010651112 0.064031124
-0.79595989 0.066402912 0.07537508
-0.86276388 0.31407595 -0.4425211
-0.80090988 0.11667192 0.082778931
-0.80420691 -0.055891097 0.057393074
-0.80536789 0.19193089 0.093858719
-0.84699088 0.2817089 -0.22445011
-0.8132509 -0.21787411 0.033576965
-0.81272489 0.11647993 0.082768917
-0.81126487 0.19184393 0.093854904
-0.81606787 -0.056124032 0.057377815
-0.88156891 0.31406891 -0.44015026
-0.82148886 -0.33606714 0.016197681
-0.82637489 -0.28066307 0.024356842
-0.8228659 -0.10068411 0.050832748
-0.82880491 -0.10080808 0.050823689
-0.83830291 -0.28095514 0.024333954
-0.83474588 -0.10093313 0.050816059
-0.83637089 0.1160869 0.082749844
-0.8356759 0.15102589 0.087888718
-0.83487087 0.1914869 0.093841076
-0.83666486 0.23665094 0.080572128
-0.8373729 0.065680921 0.075334072
-0.84426987 -0.28110212 0.024322033
-0.84077591 0.19139594 0.093836784
-0.84484088 -0.011662066 0.063965797
-0.86465788 0.25451291 -0.037394047
-0.84921688 0.065467894 0.075322151
-0.8549459 -0.21884602 0.033498764
-0.8559379 0.026063919 0.069534779
-0.86003888 0.11568391 0.082727909
-0.85849988 0.19111991 0.09382391
-0.86264586 -0.012012064 0.063942909
-0.86187088 0.025949895 0.069527149
-0.8685829 -0.012131095 0.063934803
-0.87452191 -0.012250066 0.063926697
-0.88009888 -0.28200811 0.024244785
-0.87637389 -0.10182911 0.050749779
-0.87780488 0.11537391 0.082710743
-0.88046187 -0.01237011 0.063919067
-0.88372988 0.11526895 0.082704067
-0.8895539 -0.16295511 0.041777134
-0.8889209 0.15014189 0.087842941
-0.89234889 -0.012613058 0.063902855
-0.89920586 -0.33811408 0.016020775
-0.89671487 -0.21986502 0.033413887
-0.8955189 -0.16309613 0.04176712
-0.91337889 0.1147359 0.082674026
-0.91262388 0.14973193 0.087821007
-0.91174787 0.19025892 0.093782902
-0.9161399 -0.013107061 0.063867092
-0.92061687 -0.2204681 0.033363819
-0.91807491 -0.10276812 0.050677776
-0.92126489 0.024778903 0.069449902
-0.92040986 0.064131916 0.075238705
-0.92916489 -0.33894902 0.015945911
