# .PCD v0.7 - Point Cloud Data file format
VERSION 0.7
FIELDS x y z
SIZE 4 4 4
TYPE F F F
COUNT 1 1 1
WIDTH 1
HEIGHT 1024
VIEWPOINT 0 0 0 1 0 0 0
POINTS 1024
DATA ascii
0.9730671 0.06459552 -0.11547184
0.9758541 0.097591519 -0.13555908
0.97238809 0.014237523 -0.11057806
0.95934409 0.32182056 -0.060227871
0.93519211 0.066399515 -0.10603523
0.93886507 0.098425508 -0.13356495
0.94441712 0.13482052 -0.17517805
0.9255451 0.32454354 -0.03373909
0.9298861 -0.024808466 -0.11194801
0.93205708 0.13505554 -0.17472601
0.91712511 0.066508532 -0.10754395
0.95046008 0.16346252 -0.3624711
0.92073107 -0.06613946 -0.13511992
0.93903011 0.20474356 -0.27506018
0.90619612 0.32562453 -0.023969173
0.91110408 0.066543519 -0.10804701
0.91362607 0.099544525 -0.12746191
0.91970509 0.13528955 -0.17427015
0.91465509 -0.066064477 -0.1353898
0.91606212 0.26361251 -0.14622402
0.90542907 -0.024273455 -0.11122704
0.90389007 0.016916513 -0.099294186
0.8942911 0.32568055 -0.024879932
0.90151209 0.099646509 -0.1281662
0.8964321 -0.065846443 -0.136199
0.90430111 0.20806253 -0.24681807
0.88884711 0.26600856 -0.12448978
0.88592607 0.016945541 -0.10136604
0.88216412 0.065545559 -0.11979914
0.88428909 -0.065704465 -0.13673592
0.88207507 0.26660353 -0.11908579
0.87993908 0.016954541 -0.10205603
0.87915009 0.098044515 -0.14448118
0.87031907 0.065395534 -0.12248611
0.8626641 0.016228557 -0.10973597
0.83539009 0.12347251 0.064167976
0.8439151 0.20269251 -0.0057678223
0.82793808 0.0094195604 0.12529898
0.84126806 0.19980353 -0.033330917
0.83477008 -0.042474449 0.020368099
0.84428906 0.22796053 -0.058299065
0.84304512 0.32421255 -0.048016071
0.84446812 -0.10639846 -0.10996819
0.83651507 0.35542953 -0.043765068
0.82736611 0.11388451 -0.017484188
0.83590907 0.19395453 -0.089122772
0.83893508 0.22231656 -0.11449814
0.83081907 -0.10426342 -0.097257137
0.81473207 -0.039527476 0.038661957
0.80675507 0.045428514 0.10605478
0.80500007 0.090341508 0.070952892
0.8236531 0.32091951 -0.08783102
0.81888908 0.13929051 -0.15121984
0.8201201 0.26324552 -0.16185904
0.78604311 0.091946542 0.081698895
0.82212812 0.17890555 -0.23258018
0.78345209 0.045550525 0.10426283
0.78161007 -0.034677446 0.068863869
0.81581008 0.21071851 -0.23130703
0.77564007 0.0097105503 0.12126207
0.79711807 0.39733851 -0.067251205
0.7743541 0.092000544 0.080803871
0.77821308 0.16218454 0.046668053
0.77502608 -0.03371644 0.074862957
0.81081808 0.20971555 -0.24173594
0.8052671 0.26047856 -0.19263983
0.79047412 0.34989852 -0.11545706
0.7853291 0.39726156 -0.069588184
0.76189709 -0.031802475 0.086816788
0.79041511 0.21729952 -0.16944599
0.79529607 0.25861752 -0.21331024
0.7582131 0.0097965598 0.11992216
0.75535309 -0.03085047 0.092772007
0.77839106 -0.15925944 -0.17127323
0.7451371 0.092125535 0.078569889
0.77204108 0.26307154 -0.16908121
0.74079007 0.009875536 0.11858797
0.76558208 0.39434153 -0.10962486
0.77157909 -0.15814245 -0.16482878
0.7392931 0.092148542 0.078124046
0.74682808 0.23585451 0.0082011223
0.76922309 0.31163353 -0.19963789
0.7606101 0.39360553 -0.11970615
0.74092412 0.23587352 0.0077519417
0.72917408 0.0099255443 0.11769915
0.76419312 0.31077152 -0.20997381
0.72928107 0.12458956 0.061469078
0.73352706 0.20691156 0.021408081
0.73685408 -0.089687467 -0.009991169
0.74573511 0.43934253 -0.093780994
0.75122607 -0.15481043 -0.14558697
0.75054908 0.34345251 -0.19704103
0.76482409 -0.24676442 -0.33285284
0.74447012 -0.15370643 -0.13920403
0.71948707 0.16240054 0.04219389
0.72321612 0.23592752 0.0064091682
0.74059111 0.39063656 -0.16030502
0.73575211 0.43799353 -0.113873
0.73772907 -0.15260649 -0.1328392
0.71706706 -0.086645484 0.0083332062
0.7173121 0.23594356 0.0059609413
0.70775211 0.045874536 0.098474026
0.72428608 -0.15041649 -0.12014914
0.69840407 0.092293561 0.075010777
0.70187306 0.16245455 0.040859222
0.70168412 0.27835655 -0.016002178
0.69029009 0.045934558 0.097146034
0.70548111 0.35580653 -0.053707123
0.71090007 -0.14824045 -0.10752392
0.68829608 0.12472153 0.058355808
0.6844691 0.045952559 0.096703053
0.69952708 0.35581851 -0.054154873
0.72332811 -0.23945343 -0.29261589
0.68088311 0.092346549 0.073682785
0.69756711 -0.14607751 -0.094957829
0.67282909 0.04598856 0.095821857
0.68961608 0.39759052 -0.075380802
0.6966731 0.47131953 -0.14735699
0.69092208 -0.14500141 -0.088698864
0.67073709 0.12476856 0.057026863
0.67800611 0.27840954 -0.017788887
0.7027781 -0.23585141 -0.27272415
0.66874307 0.20708752 0.016502857
0.67433709 0.32638752 -0.041594028
0.67964607 0.43960753 -0.096728802
0.67170608 0.39762056 -0.07672596
0.6583001 0.23608452 0.0015039444
0.66447407 -0.1407305 -0.063807011
0.6473251 0.12482452 0.055257797
0.64553112 -0.075733423 0.074411869
0.64052808 -0.024176478 0.12783194
0.66517407 0.51613557 -0.13534212
0.6347391 -0.024162471 0.12739611
0.63791311 0.046079516 0.093181133
0.65380007 0.39764655 -0.078072071
0.68596607 -0.31952047 -0.42480898
0.63730907 0.16260952 0.035981178
0.64464211 0.32643753 -0.043827057
0.64596212 0.35591155 -0.058186054
0.65313411 0.51614857 -0.13624191
0.62833107 0.092473507 0.069713116
0.62629008 -0.072820425 0.092143059
0.62316108 -0.02413547 0.12652111
0.63870406 0.32644552 -0.0442729
0.63823807 -0.13651145 -0.039153099
0.6255731 0.16263056 0.035097122
0.63066107 0.27849251 -0.021350861
0.63773811 0.43966153 -0.099873066
0.63171309 -0.1354655 -0.033026218
0.63323212 0.47371653 -0.11691189
0.6072771 0.01028955 0.10845518
0.60882109 0.046137512 0.090988159
0.62395811 0.39768255 -0.080307961
0.65137607 -0.31306946 -0.39057493
0.6149531 0.32647556 -0.046053886
0.62851107 -0.22293043 -0.20102882
0.60210109 0.16266555 0.033335209
0.59421909 -0.024079442 0.12434101
0.59567112 0.010309517 0.10758209
0.60901511 0.32648253 -0.046497822
0.61025912 0.35595351 -0.060861111
0.6218431 -0.22177744 -0.19460392
0.59623408 0.16267252 0.032894135
0.6043101 0.35595953 -0.061306953
0.58406609 0.010326564 0.10670996
0.58162707 0.092545509 0.066204071
0.5755291 -0.065183461 0.13882399
0.59411711 0.39770854 -0.082540035
0.5958361 0.43969855 -0.10300779
0.57106709 -0.024046481 0.12260389
0.5864591 0.35597354 -0.062641144
0.61034209 -0.30546248 -0.35005283
0.59530312 -0.2172035 -0.16906881
0.57454807 0.20722854 0.009428978
0.58051008 0.35597754 -0.063084126
0.58693111 0.51619756 -0.1411891
0.56411511 0.092562556 0.064892769
0.56539911 0.12494552 0.049106121
0.56866211 0.20723355 0.0089879036
0.5821141 -0.21493852 -0.156394
0.55211407 -0.064560473 0.14106798
0.57189608 0.43971154 -0.10479403
0.5536961 0.12495351 0.048232079
0.55801308 0.23620856 -0.0060138702
0.55965608 0.27856052 -0.026665211
0.56590909 0.43971354 -0.10524082
0.5688771 0.51620454 -0.14253092
0.58326811 -0.30047143 -0.32337189
0.54660308 0.092573524 0.063584805
0.5510031 0.20724356 0.0076708794
0.54212809 -0.024021447 0.12043905
0.55211508 0.23621053 -0.0064539909
0.55558109 0.32651955 -0.050489902
0.55831307 0.39772755 -0.085212231
0.55992508 0.43971553 -0.10568619
0.54621708 0.23621356 -0.0068941116
0.53764611 0.010368526 0.10323906
0.55076212 0.35599154 -0.065303802
0.53614408 0.12496156 0.046922207
0.54031909 0.23621452 -0.0073328018
0.54190809 0.27856654 -0.027987957
0.5479551 0.43971854 -0.10657787
0.52909011 0.092580557 0.062280178
0.52604008 0.010371506 0.10237312
0.54196912 0.43971953 -0.10702419
0.54323208 0.47376353 -0.12362814
0.52852112 0.23621655 -0.0082120895
0.5359841 0.43971953 -0.10747004
0.5372321 0.47376454 -0.12407398
0.54973811 -0.29432142 -0.29038906
0.51859009 0.12496352 0.04561615
0.52987909 -0.20601749 -0.10629177
0.51672411 0.23621655 -0.0090889931
0.50991809 0.046217561 0.083592892
0.5252341 0.47376454 -0.12496614
0.53642112 -0.29188848 -0.27730799
0.52340811 -0.2049185 -0.1000948
0.51082611 0.23621553 -0.0095281601
0.51923513 0.47376353 -0.12541294
0.49582613 -0.02401644 0.11699295
0.52315712 -0.28947151 -0.26428986
0.49246511 0.046212554 0.082297802
0.50316608 0.35599154 -0.068843842
0.49062213 0.16271251 0.02502203
0.48542413 0.010364532 0.099357128
0.49721712 0.35598952 -0.069284916
0.48348314 0.12495255 0.043009758
0.47709811 -0.064557493 0.13548279
0.47846311 -0.02402544 0.11570597
0.47962213 0.010361552 0.098927021
0.49267411 0.39772552 -0.090093136
0.50336212 -0.28587449 -0.24488211
0.47132713 -0.064561486 0.13505697
0.48433813 0.32651353 -0.055786133
0.48810312 0.43971053 -0.11102724
0.47265413 -0.11033046 0.11559391
0.47071514 0.092561543 0.057947159
0.46688613 -0.024035454 0.11485004
0.48323512 0.47375354 -0.12808418
0.46644813 -0.10936451 0.12136507
0.46715212 0.16269654 0.023283958
0.47341713 0.35597754 -0.071049213
0.46025512 -0.10840142 0.12712002
0.46270913 0.20722353 0.0011129379
0.46499112 0.27854455 -0.033697128
0.45641011 0.010339558 0.097210884
0.47123513 0.47374752 -0.12897396
0.45907411 0.27853954 -0.034134865
0.45060813 0.010332525 0.096782207
0.44790411 -0.10648441 0.13859177
0.44954813 0.16267854 0.021982193
0.45315513 0.27853453 -0.034573078
0.44723812 0.27852851 -0.035008907
0.43900013 0.010317564 0.095926762
0.44010112 0.046163559 0.078426838
0.44961613 0.35595852 -0.072811127
0.47028011 -0.3769995 -0.40125084
0.43559712 -0.10457945 0.15001392
0.43568712 0.092521548 0.055362225
0.43666813 0.12490654 0.039549828
0.44620213 0.43968454 -0.11412907
0.46359813 -0.37570143 -0.39453697
0.42984912 0.092513561 0.054933071
0.43194413 0.16265655 0.020685196
0.42636713 -0.024090469 0.11186314
0.43540412 0.27851456 -0.03588295
0.44123313 0.47372654 -0.13119602
0.42738712 0.20718253 -0.0014920235
0.42264614 0.046135545 0.077141762
0.43299413 0.39768153 -0.094510078
0.45027611 -0.37311852 -0.38116312
0.41911012 0.12487954 0.038259029
0.42020613 0.16263855 0.019821167
0.42149812 0.20717353 -0.0019259453
0.42495811 0.32646054 -0.060175896
0.42702413 0.39767551 -0.094950199
0.42824313 0.43966752 -0.11545706
0.44363213 -0.37183249 -0.37449503
0.42155612 -0.18778348 -0.0029082298
0.41233212 0.092483521 0.053645134
0.41643912 0.23613453 -0.016508102
0.41986313 0.35592651 -0.075006962
0.41529411 -0.18674147 0.0030450821
0.41173112 0.27848256 -0.037628174
0.40417811 0.010254562 0.093369007
0.41308212 0.32644451 -0.061051846
0.41627011 0.43965453 -0.11634111
0.40904412 -0.18570149 0.0089869499
0.40065411 0.092460513 0.052786827
0.40463811 0.23611552 -0.017375946
0.41028312 0.43964753 -0.11678123
0.42378813 -0.36800146 -0.35460091
0.39481413 0.092447519 0.052359104
0.39052212 -0.064700484 0.12911606
0.39256811 0.010227561 0.092517853
0.40314811 0.39764553 -0.096712112
0.39657611 -0.18363142 0.020829201
0.38475013 -0.064715445 0.12869406
0.39605713 0.35589254 -0.076761246
0.39830813 0.43963253 -0.11766481
0.39974013 -0.26725245 -0.14369392
0.39036113 -0.18260145 0.026730061
0.38095912 0.010198534 0.091669083
0.37792712 -0.10441947 0.14765978
0.37515512 0.010183513 0.091245174
0.37608811 0.046034515 0.073729992
0.38701311 -0.26499045 -0.1313138
0.37796512 -0.18055141 0.038490772
0.37228411 0.12478155 0.034823895
0.36743113 -0.064765453 0.12742996
0.37513313 0.23605853 -0.019543171
0.39097211 -0.36169541 -0.32176399
0.36642912 0.12476653 0.034396172
0.37029713 0.27840751 -0.040671825
0.37435612 0.43959755 -0.11943007
0.37433311 -0.26274145 -0.11898994
0.35688612 -0.024261475 0.10678101
0.36629513 0.35584056 -0.078948975
0.36836812 0.43958753 -0.11987019
0.37793511 -0.35920143 -0.30874109
0.36801213 -0.2616235 -0.11285019
0.35490012 -0.1044935 0.14598322
0.35742712 0.23601854 -0.020837784
0.35845813 0.27838153 -0.0415411
0.36034212 0.35582954 -0.079386234
0.36237913 0.43957755 -0.12031078
0.37143713 -0.35796046 -0.30225182
0.35331011 -0.17648745 0.061853886
0.36495113 -0.35672247 -0.29577923
0.34494111 0.20701355 -0.007543087
0.34661612 0.27835453 -0.042407036
0.34774211 0.32632554 -0.065853119
0.34843412 0.35580456 -0.080258846
0.34441113 0.43954554 -0.12163115
0.34284511 -0.25718141 -0.088434219
0.33842111 0.43953454 -0.12206984
0.32611111 -0.1046015 0.1438961
0.32472312 0.092252553 0.047241211
0.32885313 0.27830952 -0.043706894
0.32289711 0.010014534 0.087440968
0.33149913 0.39751852 -0.10197783
0.32274711 -0.17147744 0.090761185
0.31958613 0.12462753 0.030981064
0.32040814 0.16239852 0.012516022
0.32397613 0.32626951 -0.067592144
0.32644111 0.43951052 -0.12295103
0.31666812 -0.17048442 0.096502781
0.31459412 -0.10464942 0.14306307
0.31453413 0.16237855 0.012088776
0.31610411 0.23590755 -0.02385807
0.31204611 0.045828521 0.069067955
0.31059813 -0.16949546 0.10223389
0.30883414 -0.10467541 0.14264679
0.30719411 0.092190564 0.045967102
0.30370113 0.20689052 -0.010548115
0.30614713 0.32622254 -0.068895817
0.30544811 -0.25062251 -0.052227974
0.29731512 -0.10472751 0.14181709
0.29839113 0.23585254 -0.025148869
0.29385611 0.0098975301 0.085338116
0.29103911 0.16229653 0.010382175
0.29191512 0.20685053 -0.011404991
0.28737012 -0.024531484 0.10174322
0.29565811 0.39743453 -0.10460281
0.28157613 -0.024558485 0.10132504
0.30144411 -0.43307745 -0.40435314
0.28237012 0.32615352 -0.07062912
0.27127612 0.045658529 0.066120148
0.27850512 0.43940154 -0.12645483
0.26419011 -0.024643481 0.10007381
0.2688601 0.23575056 -0.027295113
0.26545012 0.045631528 0.065700054
0.26100212 0.12440151 0.026733875
0.25962311 0.045603514 0.065279007
0.2665171 0.43937054 -0.12732983
0.2691361 -0.33862543 -0.20051003
0.26233912 -0.24312341 -0.010612011
0.25698712 -0.10493541 0.13891888
0.25578812 0.16215754 0.0078291893
0.2537961 0.045575559 0.064859867
0.25858811 0.32607752 -0.072360992
0.2487421 0.091943562 0.041742802
0.24928211 0.12434852 0.025889874
0.24679911 -0.024734437 0.098824024
0.25264212 0.32605755 -0.072793007
0.25012413 -0.24101043 0.0011548996
0.2415601 0.0096465349 0.081573009
0.25029913 -0.33510852 -0.18185806
0.24121311 0.35550952 -0.088088989
0.2311991 0.091857553 0.040480137
0.23296411 0.20661956 -0.015676022
0.23341011 0.23561156 -0.029862881
0.23406211 0.27799755 -0.050603867
0.22300011 -0.065428436 0.11701298
0.2216011 -0.1589545 0.1627841
0.2229041 0.32595056 -0.074952126
0.22333211 0.35544652 -0.089387894
0.22393911 0.39722252 -0.10983181
0.2152721 0.20654052 -0.016952991
0.21627811 0.27792656 -0.05189085
0.21249411 0.0094835162 0.079491138
0.2101181 -0.15903342 0.16196585
0.2078031 0.091734529 0.038801193
0.20347311 0.20648456 -0.017803192
0.2050541 0.32588053 -0.076245785
0.19651811 0.12408453 0.022093773
0.20001811 0.39713955 -0.11157084
0.2005731 -0.32588649 -0.13274479
0.19025211 0.091635525 0.037543774
0.19315411 0.32583255 -0.077106953
0.19403711 0.39711851 -0.1120038
0.18478711 0.12401956 0.021254063
0.1830021 -0.025119483 0.094270229
0.1866271 0.27779651 -0.054032803
0.18755411 0.35531056 -0.091981888
0.1882541 -0.32361746 -0.1206069
0.18139811 -0.15924251 0.15993214
0.1820721 0.39707351 -0.11287212
0.1861881 -0.41016352 -0.2875309
0.17178011 0.0092275143 0.076588154
0.17529711 0.32575554 -0.078396797
0.1759811 -0.3213625 -0.10852718
0.1668421 0.091496527 0.035871983
0.17010711 0.39702755 -0.11373997
0.1641621 -0.15937746 0.15871811
0.1593751 -0.06586045 0.11249399
0.15513411 0.091422558 0.035036087
0.15582411 0.16165257 0.00064277649
0.1565471 0.23524755 -0.03539896
0.1543241 0.0091085434 0.075348854
0.15467711 0.04499954 0.057773113
0.15266711 -0.15947151 0.15790796
0.15319611 -0.10563552 0.13154411
0.15035911 0.20620853 -0.021616936
0.14884311 0.044959545 0.057356834
0.1517601 0.35515952 -0.094569206
0.15485811 -0.40402746 -0.25595379
0.14342411 0.091346562 0.034202099
0.1420121 -0.065993488 0.111269
0.1421321 -0.22256947 0.10473299
0.14117211 -0.15956843 0.15710115
0.14165512 -0.10572743 0.13073206
0.1371721 0.044878542 0.056529999
0.13288011 0.23511755 -0.037096977
0.13322411 0.27753353 -0.057875156
0.13361511 0.32556254 -0.081401825
0.12696211 0.23508453 -0.037520885
0.12392411 -0.15971947 0.15589285
0.12023412 0.12362051 0.016647816
0.11817411 -0.15977144 0.15549088
0.11436211 0.12358052 0.016232014
0.1082821 0.091104507 0.031707764
0.10753311 -0.025681436 0.088932991
0.10284211 0.16131955 -0.003136158
0.1040011 0.35493356 -0.098010063
0.10104612 -0.21566844 0.14391708
0.10091911 -0.15993142 0.15428495
0.097598106 0.27733654 -0.060427189
0.090869114 0.12341553 0.014564991
0.091063112 0.16123956 -0.0039720535
0.089894116 -0.066430449 0.10760593
0.091905117 0.32534754 -0.084399223
0.091288105 -0.30596244 -0.02547121
0.085519105 0.23483455 -0.040481091
0.085944116 0.32531554 -0.084825993
0.079119109 0.12332952 0.013733864
0.079777107 0.27723151 -0.061701775
0.078628108 0.0085225105 0.070006847
0.079983115 0.32528251 -0.085251808
0.079359114 -0.30381644 -0.013820171
0.077790111 -0.21179152 0.16603994
0.074019112 0.32524854 -0.085680008
0.066972107 0.0084215403 0.069189072
0.068158105 0.35474652 -0.10058403
0.066579111 -0.10640144 0.12547588
0.061488111 0.12319654 0.012487888
0.061735108 0.20565355 -0.027935982
0.061041109 -0.026085436 0.085672855
0.06218211 0.35471356 -0.10101223
0.060490109 -0.21006441 0.1758709
0.056205109 0.35468054 -0.10144091
0.04981111 0.16094255 -0.0068941116
0.049969111 0.23460156 -0.043010235
0.050226107 0.35464656 -0.10186911
0.050441109 -0.38387442 -0.1512928
0.04391611 0.16089755 -0.0073108673
0.044197112 0.32507551 -0.087813854
0.04439811 -0.3827225 -0.14526415
0.037930109 0.090553522 0.026745796
0.038020112 0.16085255 -0.0077271461
0.03896511 -0.49948645 -0.36880398
0.037544109 -0.21032143 0.17428923
0.032162108 0.20544153 -0.030032158
0.03196311 -0.026359439 0.083645821
0.03199311 0.0081055164 0.066742897
0.032024108 0.044032514 0.049123764
0.031806111 -0.21038842 0.17389297
0.026296109 0.32496554 -0.08908987
0.02032611 0.12286454 0.0095901489
0.02032611 0.27685153 -0.065936089
0.02032611 0.32492852 -0.08951807
0.02032611 -0.16077244 0.14870405
0.01452511 -0.067162454 0.1023612
0.01433511 -0.37701452 -0.11531496
0.01458711 -0.21059144 0.17271185
0.0086881099 -0.02659148 0.082027912
0.0025331099 0.23426253 -0.046370029
0.002971109 -0.10706842 0.1210742
-0.0029538907 -0.026711464 0.08122015
-0.0034008902 0.23421752 -0.046790123
-0.0034738909 0.27668554 -0.067625046
-0.0043698903 -0.49054444 -0.32424498
-0.0093338899 0.23417151 -0.047210217
-0.0088138897 -0.28813946 0.071958065
-0.0083818901 -0.21087444 0.1711421
-0.015193891 0.20507652 -0.033373833
-0.01449389 -0.067476451 0.1003561
-0.01477889 0.043590546 0.045860767
-0.02086889 0.12250352 0.0067028999
-0.021115892 0.20502853 -0.033790112
-0.021330889 0.27655554 -0.068890095
-0.02147489 0.32465351 -0.09249115
-0.019868892 -0.21102047 0.17036009
-0.02675689 0.12244952 0.0062909126
-0.027039889 0.20497954 -0.034206867
-0.02648589 0.043473542 0.045046806
-0.03220389 0.0074635148 0.062283993
-0.031951889 -0.28407943 0.094359875
-0.03839789 0.089858532 0.021410942
-0.03804389 0.007401526 0.061880112
-0.03912789 -0.36696243 -0.062243938
-0.037711889 -0.28307247 0.09992981
-0.03732089 -0.16146648 0.14475679
-0.044273887 0.08980155 0.021001816
-0.044604894 0.16015953 -0.013531208
-0.05015089 0.089742541 0.020593166
-0.050317887 0.12222856 0.0046467781
-0.056670893 0.20472854 -0.036287785
-0.057069886 0.27628452 -0.071413994
-0.054352891 -0.21147847 0.16801882
-0.054930892 -0.10775244 0.1171031
-0.06190889 0.089624524 0.019777775
-0.062773883 0.23374152 -0.050971985
-0.060658891 -0.2790755 0.12209177
-0.06040189 -0.16176546 0.143188
-0.066371888 -0.27808344 0.12760305
-0.065852895 -0.2116375 0.167243
-0.074657887 0.23364055 -0.051806927
-0.079211891 0.042915523 0.041399002
-0.077355891 -0.2117995 0.16646719
-0.077718884 -0.16199744 0.14201403
-0.078111887 -0.10804641 0.11552286
-0.084797889 0.0068785548 0.058659077
-0.083110884 -0.21188152 0.16608
-0.083494887 -0.16207647 0.14162397
-0.083910897 -0.10812247 0.11512899
-0.090364888 -0.027700484 0.075203896
-0.090938896 0.042784512 0.040592194
-0.091780886 -0.35718846 -0.010221004
-0.088863894 -0.21196544 0.16569185
-0.089269891 -0.16215646 0.14123297
-0.098187894 0.20435452 -0.0391922
-0.10520089 0.32403952 -0.098414898
-0.10740989 -0.46963942 -0.21898699
-0.10045689 -0.27219641 0.16042376
-0.10037389 -0.21213448 0.1649189
-0.1096379 0.15953755 -0.018062115
-0.11073489 0.27584451 -0.075189114
-0.1133789 -0.46844447 -0.21292114
-0.1159959 0.20418555 -0.040434837
-0.11404689 0.00652951 0.056653976
-0.12069489 -0.35187542 0.018239975
-0.11764689 -0.21239352 0.16376305
-0.1187149 -0.10859048 0.11277008
-0.12663589 0.088928521 0.015305042
-0.12698489 0.12144351 -0.00066900253
-0.12739089 0.15935552 -0.019293785
-0.12538189 -0.028139472 0.072815895
-0.1264489 -0.35082245 0.023896217
-0.1333109 0.15929353 -0.019703865
-0.13219389 -0.34977341 0.029539108
-0.1297209 -0.16273749 0.1385088
-0.13923289 0.15923154 -0.020112991
-0.1365909 -0.068989456 0.092019081
-0.14008789 0.23304653 -0.056381226
-0.13429689 -0.26705444 0.18933582
-0.14515489 0.15916854 -0.020524025
-0.14569189 0.20389456 -0.042500019
-0.1436559 -0.3476845 0.040789127
-0.1400349 -0.26714945 0.18895483
-0.1510769 0.15910554 -0.020932198
-0.1519959 0.23293251 -0.057209969
-0.1548719 -0.46018445 -0.17084122
-0.14645089 -0.21284151 0.16183996
-0.1470709 -0.16299844 0.13734722
-0.1477429 -0.10900152 0.11081409
-0.15757689 0.20377451 -0.043324947
-0.1584989 0.27542055 -0.078533173
-0.1554949 0.042017519 0.036167145
-0.1607599 -0.45901942 -0.16488409
-0.1522139 -0.21293449 0.16145706
-0.1619899 0.088517547 0.012876987
-0.15989089 -0.06931448 0.090445042
-0.1688529 0.15891254 -0.022160053
-0.1742419 0.12091154 -0.0039219856
-0.17154589 -0.069480479 0.089659214
-0.1731219 0.041794538 0.034965038
-0.1783659 -0.45554543 -0.14708996
-0.1709819 -0.10934448 0.10925293
-0.17847289 0.0057045221 0.052268028
-0.17782089 -0.34149349 0.074251175
-0.1760059 -0.16344845 0.13541603
-0.17679389 -0.10943151 0.10886383
-0.1873069 0.20346451 -0.04538393
-0.1817949 -0.16354144 0.13502979
-0.18260589 -0.10951948 0.10847521
-0.19256589 0.15864652 -0.023793221
-0.1902009 0.0055455565 0.051474094
-0.18913689 -0.33945549 0.085309982
-0.19606489 0.0054655075 0.051077843
-0.1966369 0.041488528 0.033367157
-0.20380889 0.12055951 -0.0059490204
-0.2056329 0.23239052 -0.060934067
-0.1983569 -0.21370149 0.15840101
-0.2072189 -0.029260457 0.067279816
-0.2123109 0.27490556 -0.082283974
-0.20839989 0.04133153 0.032567978
-0.20321789 -0.26824546 0.18479109
-0.20412889 -0.21380043 0.15802002
-0.2058689 -0.10987949 0.10692215
-0.2162959 0.15837151 -0.02542305
-0.21706489 0.20314056 -0.047439098
-0.2130729 -0.029345453 0.066885948
-0.2142849 0.041252553 0.032169819
-0.21168789 -0.10997152 0.106534
-0.22769889 -0.57687044 -0.35195923
-0.2209899 0.087783515 0.008849144
-0.22156289 0.12034154 -0.0071620941
-0.2222309 0.15830153 -0.025829792
-0.22428189 0.27478653 -0.083115101
-0.2248939 -0.44644046 -0.1002121
-0.2336819 -0.57559443 -0.34572887
-0.22748189 0.12026656 -0.0075659752
-0.22816689 0.15823054 -0.026237011
-0.23280089 0.087629557 0.0080461502
-0.23625489 0.27466452 -0.083946228
-0.23194088 0.041009545 0.030975819
-0.22814989 -0.16430843 0.13195801
-0.2456169 -0.57305646 -0.33331108
-0.2393239 0.12011755 -0.0083727837
-0.2408879 0.20287251 -0.049077988
-0.24224289 0.27460355 -0.08436203
-0.25156888 -0.57179344 -0.32712221
-0.24461891 0.087473512 0.0072441101
-0.2452489 0.12004155 -0.0087780952
-0.24156488 -0.070540428 0.084971905
-0.24823488 0.27454156 -0.084774971
-0.24371789 0.040845513 0.030180931
-0.24793188 -0.44197345 -0.077079773
-0.23878489 -0.21441448 0.15574408
-0.25192288 0.15794253 -0.027862072
-0.25366887 -0.44086552 -0.071328163
-0.25324887 -0.070727468 0.084195137
-0.26021689 0.27441555 -0.085606098
-0.25034389 -0.21462643 0.15498877
-0.25135088 -0.16471148 0.13043213
-0.26936987 -0.5680275 -0.30863714
-0.26533088 0.23174053 -0.065054893
-0.26064587 0.0045355558 0.046730995
-0.26511389 -0.4386605 -0.059863091
-0.27528289 -0.56678045 -0.30250502
-0.26579687 -0.030145466 0.063355923
-0.27728489 0.23160356 -0.065876961
-0.26992589 -0.11093247 0.10267401
-0.27828288 0.004268527 0.04554987
-0.29296789 -0.56306243 -0.28418684
-0.27926087 -0.21516943 0.15310383
-0.29192987 0.086821556 0.0040450096
-0.29267189 0.11941355 -0.011994839
-0.28832689 -0.071305513 0.081870079
-0.28741789 -0.1112355 0.10152102
-0.29860589 0.11933255 -0.012395859
-0.30052888 0.20216453 -0.053165913
-0.29083687 -0.21539247 0.15235281
-0.30649889 0.20209056 -0.053575039
-0.30266589 0.039982557 0.026219845
-0.29780689 -0.16555452 0.12738991
-0.30969089 0.086567521 0.0028500557
-0.31317288 0.23118252 -0.068338871
-0.30769789 0.003808558 0.043588161
-0.30037287 -0.31975245 0.19337606
-0.30110288 -0.27014148 0.178442
-0.30361786 -0.16566348 0.12701082
-0.31561288 0.086481512 0.002450943
-0.31173587 -0.071705461 0.080324173
-0.31273589 -0.030903459 0.060237885
-0.31915787 0.23111051 -0.068747997
-0.30943087 -0.16577351 0.12663412
-0.32235187 0.11900252 -0.014000893
-0.32329988 0.15702152 -0.032719135
-0.31759289 -0.071806431 0.079938889
-0.31860989 -0.031001449 0.059848785
-0.32180789 -0.42783642 -0.0032682419
-0.31399989 -0.21584749 0.15085316
-0.33389789 -0.55452549 -0.24192286
-0.32746288 0.086307526 0.0016551018
-0.31719288 -0.31847346 0.20095205
-0.31840989 -0.27050245 0.17733097
-0.33303988 -0.42571247 0.0079059601
-0.33864388 -0.42465544 0.013473988
-0.32869387 -0.31872642 0.20022011
-0.32995287 -0.27074647 0.17659283
-0.34211189 -0.031399488 0.058297157
-0.34303588 0.0032345653 0.041242123
-0.34423888 -0.42360151 0.019031048
-0.35205987 0.11857551 -0.016002178
-0.34297988 -0.21643651 0.14898586
-0.35800487 0.11848855 -0.016400814
-0.35905287 0.15653056 -0.035137177
-0.35581988 0.039149523 0.022675991
-0.36501488 0.15644652 -0.03553915
-0.36072189 0.002938509 0.040071011
-0.37097988 0.15636253 -0.035942078
-0.36764488 0.038957536 0.021891117
-0.36180088 -0.16679752 0.12323999
-0.38011688 -0.54499948 -0.19441891
-0.37251788 0.0027375221 0.039291859
-0.36918789 -0.11273944 0.096178055
-0.39539987 -0.63081241 -0.35162306
-0.38422689 0.20108151 -0.058859825
-0.37620887 -0.072864413 0.076098919
-0.37841889 0.0026365519 0.038901806
-0.37039188 -0.27163041 0.17401886
-0.37198889 -0.21704543 0.14712811
-0.40125588 -0.62954342 -0.34548521
-0.38207787 -0.072974443 0.075715065
-0.38329089 -0.03212446 0.055590153
-0.37927988 -0.1671524 0.12211418
-0.40710089 -0.62827945 -0.33936119
-0.38360089 -0.21729445 0.1463871
-0.41293687 -0.62701941 -0.33325195
-0.39865988 0.085210562 -0.0031018257
-0.39965788 0.11786151 -0.019189835
-0.40219489 0.20083553 -0.060076237
-0.39381787 -0.073196411 0.074951172
-0.39723089 0.038465559 0.01993084
-0.38940889 -0.21742046 0.14601707
-0.40460289 0.085115552 -0.0034980774
-0.40679589 0.15584356 -0.038350105
-0.39972886 -0.41324246 0.073969841
-0.39203689 -0.32018542 0.19622278
-0.39352688 -0.27215445 0.17255497
-0.39521888 -0.21754742 0.14564705
-0.42458287 -0.62451148 -0.32107306
-0.41157189 0.11767656 -0.019986153
-0.41276887 0.15575552 -0.038752079
-0.39931288 -0.27228749 0.17219019
-0.40102988 -0.21767545 0.14527702
-0.40430689 -0.11342943 0.093904018
-0.42009088 -0.53686047 -0.15352917
-0.41648889 0.084922552 -0.0042858124
-0.41072688 -0.41120851 0.084821224
-0.40684089 -0.21780348 0.14490795
-0.41731489 -0.073649406 0.0734272
-0.42452988 -0.032884479 0.052896023
-0.41846788 -0.21806252 0.14417076
-0.42010689 -0.16801047 0.11950016
-0.43432987 0.084628522 -0.0054688454
-0.43913788 0.22955954 -0.076910019
-0.43277887 0.037853539 0.017587185
-0.42594486 -0.16813552 0.1191268
-0.45353588 -0.61831045 -0.29086208
-0.44265789 0.15530354 -0.040752888
-0.44515088 0.22947651 -0.077315807
-0.43262687 -0.40718043 0.10638809
-0.43010187 -0.2183255 0.143435
-0.43178388 -0.16826248 0.11875486
-0.45330888 0.11701155 -0.022764206
-0.44812587 -0.033334494 0.051361084
-0.45402887 -0.033448458 0.050978184
-0.45650387 0.037431538 0.016030788
-0.44896889 -0.40419149 0.12244797
-0.45848688 -0.074469447 0.070765972
-0.45552987 -0.32175243 0.1922698
-0.47645888 -0.5255425 -0.096178055
-0.47299987 0.00091952085 0.032711029
-0.46130887 -0.32190049 0.19191313
-0.46503088 -0.2191335 0.14123297
-0.46881089 -0.11476648 0.089763165
-0.48456189 0.15464753 -0.043548107
-0.4862099 0.19962251 -0.065729141
-0.47468287 -0.11489248 0.089387894
-0.48356089 -0.034029484 0.049067974
-0.47604787 -0.39927149 0.14899397
-0.47287387 -0.32219946 0.19120121
-0.48793587 -0.075077415 0.068874836
-0.5107789 -0.60620546 -0.23143005
-0.49877188 -0.52111542 -0.073577881
-0.50109494 0.11621553 -0.025927067
-0.50254291 0.15435851 -0.044743061
-0.50424993 0.19934851 -0.066936016
-0.49382886 -0.075201511 0.068497181
-0.49670085 0.00046354532 0.031171799
-0.48834488 -0.21968949 0.13977098
-0.49972388 -0.075326443 0.068120003
-0.49417689 -0.21983051 0.13940716
-0.51178592 0.083289564 -0.01057291
-0.51628488 0.19916254 -0.067739964
-0.50996691 0.036444545 0.01253891
-0.49788687 -0.27468443 0.16603422
-0.50369692 -0.27483344 0.16567612
-0.5237239 0.083073556 -0.011354923
-0.52502292 0.11580253 -0.027503014
-0.5265379 0.15396351 -0.046332836
-0.52186292 0.036218524 0.011765003
-0.5325399 0.15386355 -0.046730995
-0.52332091 -0.075832486 0.066613197
-0.52496493 -0.034874439 0.046402931
-0.52113593 -0.27528548 0.1646018
-0.52695394 -0.27543747 0.16424179
-0.5430069 -0.51242745 -0.028948784
-0.55242389 0.19859356 -0.070147991
-0.54103392 -0.07621944 0.065485954
-0.53937191 -0.1163305 0.085282803
-0.55656588 0.15345752 -0.048317909
-0.54865688 -0.035372436 0.044885159
-0.55398488 -0.5102905 -0.017908096
-0.56257594 0.15335453 -0.048715115
-0.55758893 0.035522521 0.0094490051
-0.5594629 -0.50922644 -0.012403965
-0.56051391 -0.035626471 0.044126987
-0.56199992 -0.0008494854 0.02696085
-0.55127794 -0.3868705 0.21708918
-0.55397588 -0.32439041 0.18624401
-0.56293893 -0.11687744 0.083797932
-0.57894993 0.11483753 -0.031041145
-0.5754739 0.035165548 0.0082941055
-0.55705392 -0.38704145 0.21674299
-0.56427193 -0.22158849 0.13505602
-0.58143789 0.035044551 0.0079097748
-0.57233489 -0.1715405 0.10991001
-0.59094989 0.11461651 -0.031825066
-0.57353592 -0.27668846 0.16139221
-0.59695393 0.11450452 -0.032217026
-0.58833492 -0.077285409 0.06249094
-0.58408588 -0.17183447 0.10918093
-0.60295892 0.11439252 -0.032608986
-0.59934092 0.034679532 0.006758213
-0.5801729 -0.38773441 0.21536303
-0.58768493 -0.22220147 0.13361502
-0.6036489 -0.0017284751 0.0242939
-0.63678092 -0.69904542 -0.33285093
-0.59174091 -0.38808548 0.21467495
-0.6017229 -0.17228246 0.10808802
-0.60423988 -0.11786246 0.081210136
-0.62098289 0.11405253 -0.033782005
-0.62276793 0.15229154 -0.052670002
-0.59752893 -0.38826346 0.21433115
-0.60526091 -0.22267044 0.13253784
-0.64812493 -0.69656742 -0.32092094
-0.60760593 -0.1724335 0.10772514
-0.61381888 -0.4987725 0.042006016
-0.62699288 0.11393756 -0.034173012
-0.61988288 -0.036936462 0.040355206
-0.60853791 -0.27766442 0.1592679
-0.63376188 -0.5809015 -0.10511398
-0.63300592 0.11382252 -0.034564018
-0.63482493 0.15207154 -0.053459167
-0.62387592 -0.078116417 0.060255051
-0.60910589 -0.38862145 0.21364498
-0.61208189 -0.32606649 0.18274307
-0.63941091 -0.0025094748 0.022017002
-0.63378793 -0.11859047 0.079370022
-0.65105492 0.11347353 -0.03573513
-0.64071393 -0.49366844 0.068793774
-0.6476019 -0.078684449 0.05877018
-0.64045393 -0.22363043 0.13039207
-0.65353793 -0.078828454 0.0583992
-0.64359391 -0.2786715 0.15715408
-0.68756992 -0.68802249 -0.27957201
-0.64882588 -0.17351246 0.10518694
-0.66663593 -0.57430446 -0.071675777
-0.66510993 0.033288538 0.0025491714
-0.6470179 -0.32711542 0.18065977
-0.66930091 -0.11948943 0.077167988
-0.68550593 0.07991451 -0.021837234
-0.68916988 0.15105355 -0.057001114
-0.67941391 -0.038319468 0.036606789
-0.70993394 -0.68322647 -0.25622416
-0.69322693 0.11263651 -0.038459778
-0.68718791 -0.0035904646 0.018993855
-0.67285091 -0.27953541 0.15540218
-0.71550488 -0.68203747 -0.25041819
-0.67831892 -0.17430651 0.10338497
-0.67805994 -0.48665845 0.10584497
-0.69753689 0.079661548 -0.02260685
-0.70126593 0.15082055 -0.057786942
-0.69133991 -0.038604438 0.035859108
-0.69507289 0.03262955 0.000644207
-0.6728949 -0.3906585 0.2098999
-0.67617691 -0.32801545 0.17893314
-0.68158489 -0.22479045 0.12790203
-0.7035569 0.079534531 -0.022994041
-0.70731694 0.15070355 -0.058177948
-0.71336991 0.15058553 -0.058571815
-0.71111792 -0.00414747 0.017488956
-0.72162288 0.079148531 -0.024147987
-0.69953293 -0.32875144 0.17755795
-0.7078529 -0.1751225 0.1015892
-0.70452392 -0.48174548 0.131989
-0.72765088 0.079018533 -0.024531841
-0.71894288 -0.080464482 0.054337025
-0.70537794 -0.32893848 0.17721415
-0.73759788 0.15010852 -0.060136795
-0.72489893 -0.080617428 0.053968906
-0.73108691 0.031816542 -0.0016360283
-0.71690792 -0.22581744 0.12577915
-0.73970693 0.078757524 -0.025300026
-0.74153191 0.11164254 -0.041563988
-0.73709488 0.031678557 -0.0020160675
-0.72559494 -0.17562151 0.10051298
-0.7286219 -0.12105048 0.073523045
-0.73681593 -0.080926418 0.0532341
-0.72291589 -0.32950342 0.17618704
-0.76529992 -0.67150545 -0.19871712
-0.73151189 -0.17578948 0.10015583
-0.72523189 -0.39241147 0.20686817
-0.75780791 0.078359544 -0.026452065
-0.7404899 -0.22651947 0.12436914
-0.75906289 -0.0052954555 0.014484882
-0.7368809 -0.39281142 0.20619917
-0.7817629 -0.66806245 -0.1816988
-0.76067388 -0.081552505 0.051766872
-0.74911791 -0.28188646 0.15088415
-0.7872349 -0.66692245 -0.17605209
-0.7710669 -0.0055894852 0.013737202
-0.76429892 -0.12202442 0.07134676
-0.7838949 0.11073953 -0.0442729
-0.77707291 -0.0057384372 0.013362885
-0.77920693 0.030693531 -0.0046629906
-0.75436789 -0.3934195 0.2051959
-0.75804389 -0.33065844 0.17414093
-0.81415594 -0.73935449 -0.29994917
-0.7670539 -0.17681551 0.098015785
-0.78307992 -0.0058874488 0.012989998
-0.7601999 -0.39362442 0.20486307
-0.81970191 -0.73815048 -0.29412985
-0.77620691 -0.12235546 0.070623875
-0.77960193 -0.55219245 0.042154789
-0.79405689 0.077546537 -0.028748989
-0.78456092 -0.082191467 0.050303936
-0.77264392 -0.28264046 0.14950275
-0.80905193 -0.66239941 -0.1535759
-0.7821629 -0.12252247 0.070262909
-0.80207789 0.11034352 -0.045431137
-0.79509789 -0.006187439 0.012240887
-0.80615491 0.077270508 -0.029513836
-0.80111092 -0.0063384771 0.011868
-0.7954849 -0.54915345 0.058022022
-0.8050009 -0.041461468 0.028808117
-0.78736389 -0.33164752 0.17244482
-0.79323292 -0.33184743 0.17210722
-0.80600691 -0.12319744 0.068820953
-0.8079859 -0.28379941 0.14744282
-0.8165679 -0.54514742 0.079030991
-0.8364349 0.076569557 -0.031421185
-0.83849692 0.10953355 -0.04774189
-0.81085193 -0.33245444 0.17109394
-0.81388289 -0.28399551 0.14709997
-0.82390791 -0.12371242 0.067741871
-0.82706994 -0.54316449 0.089474201
-0.84856188 0.076283514 -0.03218317
-0.84103191 -0.042419493 0.026597977
-0.85673493 0.10912055 -0.048895836
-0.83158493 -0.28458941 0.1460762
-0.8375439 -0.54119241 0.099874973
-0.86069489 0.075995564 -0.032944202
-0.85040289 -0.084012508 0.046298981
-0.85305792 -0.042744458 0.025863171
-0.84103489 -0.22965848 0.11843109
-0.86676693 0.075850546 -0.033324242
-0.86134291 -0.0078874826 0.008149147
-0.8728379 0.075705528 -0.033703804
-0.87498993 0.10870153 -0.050047874
-0.86509293 -0.043072462 0.025128841
-0.87341189 -0.0082064867 0.0074090958
-0.85202891 -0.3339045 0.16874218
-0.88498789 0.075411558 -0.034463882
-0.85791892 -0.33411551 0.16840792
-0.88792092 0.028004527 -0.011429787
-0.88918489 -0.043738484 0.023663044
-0.8915329 -0.0086894631 0.0062980652
-0.87295592 -0.28600752 0.14369488
-0.88003993 -0.18026352 0.091303825
-0.89521289 -0.04390645 0.023296833
-0.90004092 0.027692556 -0.012177944
-0.87887388 -0.28621447 0.14335585
-0.87722492 -0.39792252 0.19826698
-0.88149792 -0.33496845 0.16707277
-0.90445089 -0.085571408 0.043045044
-0.88309491 -0.39814842 0.19794083
-0.89071393 -0.28662944 0.14268017
-0.90168691 -0.12602651 0.063091755
-0.91330993 -0.044415474 0.022202015
-0.90988892 -0.18122041 0.089553833
-0.92250389 -0.086105466 0.041964054
-0.93037593 0.026898563 -0.014045238
-0.93976593 0.074059546 -0.037875175
-0.94586289 0.073905528 -0.038252831
-0.9425239 0.026576519 -0.014790058
-0.94860291 0.02641356 -0.015163898
-0.94955891 -0.045454443 0.020013809
-0.95468193 0.026250541 -0.015534878
-0.95560789 -0.045629442 0.019649982
-0.95866489 -0.087193489 0.039810181
-0.95176393 -0.18259752 0.087113857
-0.96469992 -0.087377429 0.039451122
-0.96771288 -0.045983493 0.018923759
-0.9798249 -0.046340466 0.018198967
-0.98281491 -0.087935448 0.038376808
-0.99456692 -0.011552453 4.0054321e-05
-0.99801087 -0.046881437 0.017110825
-1.0094969 0.024752557 -0.018877029
-1.0128149 -0.012079477 -0.0010590553
