# .PCD v0.7 - Point Cloud Data file format
VERSION 0.7
FIELDS x y z
SIZE 4 4 4
TYPE F F F
COUNT 1 1 1
WIDTH 1
HEIGHT 1024
VIEWPOINT 0 0 0 1 0 0 0
POINTS 1024
DATA ascii
0.5914377 -0.98527974 -0.54545212
0.5618577 -0.88518971 -0.49193621
0.54465866 -0.7467677 -0.43078709
0.54199374 -0.88187474 -0.47991514
0.53809667 -0.74575764 -0.42684937
0.5329107 -0.7930997 -0.44175529
0.52482069 -0.97356266 -0.5049181
0.51845872 -0.74274272 -0.41506433
0.50597775 -0.52300471 -0.32603741
0.51159775 -0.97125572 -0.4968791
0.50185972 -0.60864371 -0.35585928
0.49840572 -0.9689607 -0.48886108
0.48302871 -0.38085669 -0.26037216
0.49364573 -0.78691572 -0.41813421
0.49182272 -0.96781772 -0.48486233
0.48395771 -0.66287869 -0.36644745
0.47749573 -0.66194171 -0.36259031
0.4721207 -0.96440667 -0.47289324
0.46978372 -0.86993867 -0.43626308
0.46318671 -0.60323268 -0.33284807
0.45466971 -0.51623768 -0.2956624
0.45127672 -0.37708873 -0.24173307
0.45997572 -0.73383671 -0.37999439
0.44815671 -0.24913269 -0.19214249
0.45815372 -0.65914267 -0.35104513
0.43918672 -0.13654274 -0.14512825
0.44187573 -0.24846464 -0.18848419
0.45172271 -0.65821368 -0.34720707
0.45025972 -0.86674267 -0.42447329
0.44820172 -0.77982265 -0.39081907
0.43560272 -0.24779874 -0.18483019
0.42561871 -0.087774694 -0.11951113
0.44596571 -0.95989972 -0.45701313
0.43231672 -0.37485069 -0.23060703
0.4413287 -1.0407238 -0.48475218
0.42600971 -0.37410873 -0.2269063
0.43418673 -0.72994572 -0.36454344
0.42285073 -0.5120787 -0.2768383
0.42106572 -0.43321365 -0.24634933
0.43478772 -1.0395527 -0.48076439
0.41819471 -0.30632573 -0.19729233
0.42607373 -0.6545257 -0.33190823
0.41650972 -0.5112527 -0.27308941
0.42433572 -0.86251873 -0.40882349
0.4184207 -0.59702569 -0.30623341
0.41597471 -0.77483374 -0.37146425
0.40434372 -0.24449366 -0.16663027
0.39180171 0.048543334 -0.050134182
0.41141972 -0.8604247 -0.40103149
0.40852073 -0.72609466 -0.34917402
0.39811271 -0.24383765 -0.1630044
0.38568473 0.049021304 -0.046635151
0.38491371 0.085324287 -0.032627106
0.38952473 -0.1318087 -0.11640835
0.40870172 -1.0348988 -0.46486616
0.40696672 -0.95322675 -0.43335247
0.39459172 -0.37042671 -0.20848036
0.39052171 -0.17874271 -0.1345191
0.37957472 0.04949832 -0.043142319
0.37692073 0.1765483 0.0058588982
0.38235971 -0.083848715 -0.094568253
0.40049571 -0.95212466 -0.42942905
0.37718171 -0.13063973 -0.10927343
0.38330072 -0.42858964 -0.22412539
0.39570671 -1.0325906 -0.45695114
0.39033172 -0.7708897 -0.35607147
0.37814373 -0.17751771 -0.12734318
0.36579871 0.12853831 -0.0060791969
0.38922071 -1.0314398 -0.45299911
0.3875747 -0.94992965 -0.42159605
0.38568372 -0.85626668 -0.38550949
0.37582973 -0.3682397 -0.19747925
0.38297871 -0.72228271 -0.3338871
0.36486471 -0.12947673 -0.10215425
0.37926671 -0.85523373 -0.38164043
0.35123071 0.25502533 0.049173832
0.35702172 -0.041955709 -0.065137386
0.35023871 0.30590034 0.06875658
0.37468371 -0.94774467 -0.41378212
0.36088172 -0.23993772 -0.14134216
0.34763271 0.12981832 0.0042586327
0.35091272 -0.041429698 -0.06162405
0.34283072 0.38054031 0.10071754
0.35826972 -0.42554575 -0.20940304
0.36645973 -0.85317665 -0.37392139
0.35713071 -0.36606973 -0.1865201
0.34237671 0.088489294 -0.0083613396
0.34008572 0.21030831 0.038482666
0.33827573 0.30654728 0.075489521
0.33541572 0.45860931 0.13396597
0.36006773 -0.85215169 -0.37006807
0.35844773 -0.76601666 -0.33694649
0.34852973 -0.23865074 -0.13415623
0.35616371 -0.64457768 -0.29024839
0.3332397 0.25608128 0.059331894
0.3341957 -0.12659675 -0.084433079
0.32499373 0.38138133 0.11070871
0.34899372 -0.94341069 -0.39822006
0.34730372 -0.85011071 -0.36237812
0.31614271 0.54584831 0.17707968
0.31692171 0.50200629 0.16024351
0.33474272 -0.50071472 -0.22477341
0.33335271 -0.42253369 -0.19475412
0.34093371 -0.84909374 -0.35854149
0.33940572 -0.76312274 -0.32553005
0.33856273 -0.71570665 -0.30732441
0.32115671 -0.078360677 -0.059303284
0.3160997 0.2118113 0.05205965
0.31388873 0.33867133 0.10074759
0.32850373 -0.49991864 -0.22109127
0.33760872 -1.0223496 -0.42159128
0.33096272 -0.64102966 -0.27524519
0.31587872 -0.12488574 -0.073854446
0.3101207 0.21218431 0.055444717
0.31439972 -0.03830272 -0.040641308
0.30721572 0.38221729 0.12066984
0.32468173 -0.6401487 -0.27150822
0.3054817 0.13276732 0.028233528
0.30253971 0.30847031 0.095599651
0.3247807 -1.0201068 -0.41379118
0.32342473 -0.93912166 -0.38274002
0.31263772 -0.29472274 -0.13567019
0.31552672 -0.84505373 -0.34324121
0.29686671 -0.076204717 -0.045315266
0.2955797 0.0039672852 -0.014605045
0.30361873 -0.49675471 -0.20640135
0.31068572 -0.93699473 -0.37503147
0.30035371 -0.29338974 -0.12850428
0.28751671 0.13401532 0.038449764
0.28555572 0.25886029 0.086247921
0.29019171 -0.036243677 -0.026734352
0.28292572 0.42625332 0.15033484
0.28238371 0.4607203 0.16353083
0.3015227 -0.75740367 -0.30283308
0.2854827 -0.1220637 -0.056304455
0.2796227 0.25920433 0.089594841
0.27705172 0.4265033 0.15361595
0.3003177 -1.0873246 -0.42567825
0.29921672 -1.0156558 -0.39825344
0.29251871 -0.5798977 -0.2315011
0.2693727 0.54733527 0.20301294
0.29284471 -1.0145497 -0.39438105
0.29163173 -0.93382365 -0.36350441
0.28713971 -0.63490969 -0.24917412
0.26960972 0.13525331 0.048629761
0.27150872 0.0059162974 -0.00081539154
0.26355472 0.54751831 0.20623875
0.26481971 0.46141329 0.17331982
0.2777037 -0.4158687 -0.16206121
0.28647971 -1.0134478 -0.39051533
0.27498972 -0.23106664 -0.091411114
0.28008771 -0.57823271 -0.22413206
0.26296073 0.18400329 0.070487976
0.26550871 0.0064002872 0.002623558
0.25836873 0.5040983 0.19279861
0.27267072 -0.49284571 -0.18814516
0.27573571 -0.70651871 -0.26979113
0.26890573 -0.23044473 -0.087878227
0.25951374 0.0068833232 0.0060567856
0.2542237 0.38468432 0.15034866
0.25314271 0.46187231 0.17982864
0.26650172 -0.49206966 -0.18450737
0.27477372 -1.0827377 -0.41009903
0.2713477 -0.83808464 -0.31665945
0.2701517 -0.75270468 -0.28405046
0.26193774 -0.16618568 -0.060042381
0.24660672 0.57935333 0.20277262
0.2558887 -0.16560465 -0.056542397
0.24582471 0.13688928 0.062150955
0.24754372 0.0078452826 0.01291275
0.24092972 0.57934034 0.20230675
0.24148771 0.4623293 0.18632269
0.24209471 -0.032189667 0.00088262558
0.24702972 -0.41223174 -0.14405441
0.25252071 -0.83513671 -0.30534029
0.24913171 -0.57410973 -0.20579147
0.23239972 0.26191932 0.11623573
0.22877471 0.54861128 0.22551966
0.23137672 0.34282833 0.14707756
0.24934572 -1.0781987 -0.3946023
0.24017172 -0.35271066 -0.11805439
0.23933871 -0.28683275 -0.092942238
0.24296172 -0.57329065 -0.20213604
0.22899972 0.061038315 0.042887688
0.22805172 0.13810533 0.072249889
0.23061772 -0.070388675 -0.0071883202
0.22652371 0.26225531 0.11955166
0.22299771 0.5487923 0.22872162
0.22552171 0.62119329 0.15058756
0.22897671 0.64813733 0.043611526
0.23327371 -0.28618568 -0.089407444
0.21722871 0.54897231 0.23191977
0.21968871 0.34341031 0.15363979
0.22301272 0.64830232 0.047879696
0.21917571 0.38629931 0.16997194
0.23582272 -1.0047307 -0.35976219
0.23375872 -0.83221072 -0.29406214
0.22721572 -0.28554064 -0.085879326
0.23273972 -0.74714667 -0.26166821
0.23063971 -0.5716607 -0.19484043
0.21623671 0.13891131 0.078962803
0.21920072 -0.11598068 -0.018059254
0.21479371 0.26292431 0.12616587
0.21146572 0.5491513 0.23511362
0.21385472 0.34370029 0.1569128
0.21705572 0.64846629 0.052146912
0.21335572 0.38656533 0.17322874
0.21285972 0.42921829 0.18946362
0.22952372 -1.0036538 -0.3559413
0.20979472 0.1874103 0.10061169
0.21321471 -0.11543673 -0.014606476
0.20685972 0.57925928 0.19951773
0.20794372 0.62173128 0.16297483
0.20754272 0.38683128 0.17648268
0.21512072 -0.28425568 -0.078834057
0.21373571 -0.16157764 -0.032161236
0.20528771 0.062816322 0.056419849
0.20444572 0.13971329 0.085659981
0.20308872 0.26358932 0.13276672
0.20585372 0.011174321 0.036780834
0.20043172 0.50613731 0.22500086
0.21506071 -0.82930869 -0.28283024
0.21413071 -0.74440068 -0.25054216
0.20843372 -0.22431773 -0.052770138
0.19899571 0.098922312 0.073348522
0.19992271 0.011645317 0.040175915
0.19671172 0.31406432 0.1551218
0.19593371 0.38736129 0.18298054
0.20436971 -0.40721971 -0.11902905
0.20793971 -0.74348968 -0.24684238
0.20242071 -0.22371274 -0.049280167
0.20608072 -0.56842571 -0.18030214
0.19346872 0.063699305 0.063162804
0.19310172 0.0993433 0.076704979
0.19529271 -0.11381167 -0.0042734146
0.19186671 0.21945828 0.12233686
0.19441372 -0.028217673 0.028243542
0.19399871 0.012114286 0.04356575
0.19043371 0.62226534 0.17531776
0.19909571 -0.48366874 -0.14478302
0.20512672 -1.0703688 -0.3676753
0.20262872 -0.82738668 -0.27536535
0.20127572 -0.6958037 -0.22537518
0.19995871 -0.56762272 -0.17667913
0.18808171 0.012582302 0.046951771
0.18308672 0.54933232 0.23769855
0.19300872 -0.48291665 -0.14119911
0.19100772 -0.28170675 -0.064796448
0.19558172 -0.74167567 -0.23945618
0.19439271 -0.62216371 -0.19407511
0.18133272 0.10018229 0.083404541
0.18093772 0.1413033 0.099012852
0.18047772 0.1892693 0.11721659
0.18692772 -0.48216671 -0.13762045
0.18562572 -0.3466087 -0.086170197
0.17578672 0.065014303 0.073249817
0.17699872 -0.065749705 0.023644924
0.17299172 0.6227963 0.18762064
0.17239371 0.4309063 0.21205378
0.17207772 0.4650223 0.22499561
0.17168772 0.50713831 0.24097157
0.17959672 -0.34593874 -0.082648277
0.18324871 -0.73987073 -0.23208904
0.17844072 -0.2213127 -0.03537035
0.17107372 -0.065241694 0.027049541
0.17478572 -0.4806717 -0.13047028
0.17938271 -0.99513966 -0.32554531
0.17709371 -0.73897165 -0.22841311
0.17246272 -0.2207157 -0.031902313
0.16295971 0.1903733 0.12713575
0.16161871 0.34627628 0.18621969
0.16379471 0.64992833 0.090356827
0.17167272 -0.8226257 -0.25678539
0.16649072 -0.22012073 -0.028438091
0.16991971 -0.61884767 -0.17955542
0.15816171 0.066319287 0.083302975
0.15962471 -0.11059874 0.016283512
0.15924072 -0.0642277 0.033848763
0.15858671 0.014906287 0.063825607
0.15484272 0.54924631 0.23541164
0.15561771 0.62332231 0.19987965
0.15791571 0.65008932 0.094572544
0.15451372 0.50773227 0.25051451
0.16203572 -0.40229768 -0.094215393
0.16441771 -0.69057173 -0.2034173
0.15333372 -0.063723683 0.037243843
0.15003172 0.57910532 0.19488955
0.15031871 0.31647032 0.18119574
0.14913371 0.4659023 0.23777485
0.16006471 -0.91231364 -0.28405809
0.15933871 -0.82073873 -0.24938631
0.15555172 -0.34327871 -0.068603039
0.15503271 -0.27793068 -0.043860435
0.14586072 0.14365929 0.11892796
0.14431472 0.3471213 0.19592667
0.14341071 0.4661203 0.24096155
0.15058072 -0.47770768 -0.1162262
0.14999771 -0.4009077 -0.087162495
0.15560672 -1.1392787 -0.36659813
0.15121572 -0.56126875 -0.14785147
0.14187372 -0.10901064 0.026509762
0.13788871 0.54919231 0.23404074
0.13877971 0.31706333 0.18767977
0.13855872 0.34740132 0.19915581
0.13738972 0.5083223 0.26002693
0.14221771 0.7786243 0.0086255074
0.14702971 -0.81886071 -0.24200344
0.14555271 -0.61556667 -0.16510344
0.13336471 0.26751029 0.17206764
0.13510272 0.016743302 0.077257633
0.13280872 0.34768128 0.20238066
0.13490272 0.69460231 0.088137627
0.13468871 0.72743034 0.099804878
0.13851872 -0.47623664 -0.10913134
0.13713172 -0.27606565 -0.033449173
0.13628772 -0.15428966 0.012592793
0.12867472 0.10390329 0.11337185
0.12728471 0.57903731 0.19304657
0.12706472 0.34796029 0.20560169
0.12678471 0.39048433 0.22167158
0.12650572 0.43279931 0.23766279
0.13034371 0.7787863 0.017775536
0.13634172 -1.0583527 -0.32585239
0.13037471 -0.15373868 0.016006947
0.12079471 0.43303332 0.24084997
0.12968773 -0.98680466 -0.29545832
0.12563571 -0.3399927 -0.051141262
0.12446572 -0.15318972 0.019418716
0.12700272 -0.55814165 -0.13354111
0.11703872 0.10471833 0.11999083
0.11679672 0.14559531 0.13542271
0.11633172 0.22399032 0.16502094
0.11606771 0.2684713 0.18181372
0.11533672 0.6245383 0.22832966
0.11697672 0.65120131 0.12394667
0.11534072 0.39099532 0.22807264
0.11893772 -0.21541768 -0.00087547302
0.11856572 -0.15264171 0.022825718
0.12096572 -0.55736572 -0.12997532
0.11142872 0.069751322 0.10994577
0.11123072 0.10512429 0.12329388
0.11056372 0.22433233 0.16827869
0.11171572 0.018561304 0.09062767
0.11003572 0.31853431 0.2038269
0.10962871 0.39125031 0.23126698
0.11259372 0.7790283 0.031447887
0.11446971 -0.47331768 -0.0949893
0.11772671 -1.0551357 -0.31454611
0.11688872 -0.90540367 -0.25804234
0.11371572 -0.3386907 -0.044185162
0.11335172 -0.27360064 -0.01962328
0.11564772 -0.68372065 -0.17438745
0.10521372 0.1463623 0.14199591
0.10629871 -0.059731722 0.064259529
0.10430472 0.31882632 0.20704556
0.10389472 0.62488127 0.23641777
0.10534871 0.65151531 0.13228989
0.10559072 0.69542629 0.11499596
0.10330071 0.50948834 0.2789607
0.10669371 0.77910829 0.035990715
0.11116572 -0.9837237 -0.28425407
0.11074772 -0.90442771 -0.25434637
0.10920072 -0.61070865 -0.14355803
0.099632718 0.10593331 0.12988997
0.10005872 0.019463301 0.097290516
0.098013714 0.4339633 0.25355864
0.097845718 0.4678483 0.26633358
0.10210671 -0.39542073 -0.059121132
0.094002716 0.071020305 0.11987686
0.094600715 -0.058746696 0.070976734
0.093292713 0.22535431 0.17803288
0.093087718 0.26974231 0.19475889
0.094916716 0.77926731 0.045060635
0.099528715 -1.1292026 -0.33239603
0.098849714 -0.98168367 -0.27680826
0.098065719 -0.81144971 -0.21266031
0.097465716 -0.68118864 -0.16357327
0.097134717 -0.60910672 -0.13641024
0.087547719 0.22569329 0.1812768
0.087357715 0.27005833 0.1979866
0.087016717 0.34989333 0.22805595
0.087961718 0.65198529 0.14479685
0.089670718 -0.27116066 -0.0058603287
0.089419715 -0.21252769 0.016224861
0.081438713 0.31998628 0.21988869
0.082344718 0.6959883 0.13333368
0.082323715 0.72834527 0.13530397
0.084250718 -0.39339167 -0.048673153
0.086561717 -0.97965366 -0.26937914
0.086249717 -0.90054673 -0.23959923
0.085560717 -0.72576767 -0.17380142
0.083535716 -0.21195465 0.019631863
0.076631717 0.072278321 0.12977171
0.076357715 0.14826334 0.15836573
0.076185718 0.1957683 0.17624092
0.077099718 -0.057278693 0.081022739
0.076064713 0.5788703 0.18891287
0.075414717 0.62573332 0.2565608
0.076407716 0.6522963 0.15310574
0.080681719 -1.0487788 -0.29206514
0.077656716 -0.21138173 0.023036957
0.077430718 -0.14884764 0.046566963
0.078886718 -0.55198568 -0.10512829
0.070202716 0.27100033 0.20764875
0.070642717 0.65245128 0.15724754
0.06955272 0.46891031 0.28208494
0.073743716 -0.80780274 -0.19809628
0.071976721 -0.26934773 0.0044207573
0.073316716 -0.67784375 -0.14921713
0.071783721 -0.21081167 0.026436806
0.064714715 0.19647133 0.18272877
0.065461718 -0.056305707 0.087701797
0.064673722 0.57883132 0.18799591
0.064347714 0.3208493 0.22948456
0.064133719 0.39326429 0.25670671
0.066279717 -0.33354765 -0.016521454
0.06708172 -0.60513765 -0.11861849
0.059312716 0.07352829 0.1396389
0.058908716 0.22737432 0.19744682
0.059131715 0.65276033 0.16552258
0.058329716 0.5096063 0.28045177
0.059783716 0.77974129 0.072126865
0.060729716 -0.46686167 -0.063412189
0.060378715 -0.33291274 -0.01308012
0.060055718 -0.20967466 0.033225536
0.053551715 0.073942304 0.14291954
0.053377718 0.14976633 0.17139769
0.053759716 -0.016781688 0.10884666
0.053281717 0.57879031 0.18708181
0.052983716 0.32142031 0.23586559
0.052759718 0.62640834 0.27258778
0.052721716 0.43579331 0.27882195
0.053501718 0.72874928 0.15105867
0.052643716 0.46954131 0.2914958
0.056294717 -1.1215317 -0.30606413
0.055376716 -0.72148067 -0.15581703
0.047796715 0.074355304 0.1461978
0.047554716 0.19752032 0.19243288
0.047974717 -0.016320705 0.11215782
0.048707716 -0.38938266 -0.027886391
0.049268715 -0.67453474 -0.13493013
0.042045716 0.074767292 0.14947271
0.041987717 0.10991633 0.1626606
0.041843716 0.19786829 0.19566298
0.043631718 -0.8938517 -0.21396732
0.042508714 -0.20798069 0.043380737
0.043153718 -0.6019997 -0.10446024
0.036046714 0.54881835 0.22587967
0.035938717 0.35232729 0.25668383
0.036199719 0.65337431 0.18202353
0.035883717 0.39450228 0.27250195
0.036332719 0.69631433 0.1438427
0.036957718 0.81240028 -0.035274029
0.037007716 -0.4640407 -0.049484253
0.037863716 -1.1182876 -0.29485035
0.037763715 -1.0414886 -0.26604748
0.037672717 -0.97164267 -0.23985243
0.037280716 -0.67289275 -0.12781048
0.036671717 -0.20741874 0.046758652
0.036590718 -0.14512163 0.070122719
0.037187718 -0.60122067 -0.10093021
0.030443717 0.19856131 0.20210695
0.030413717 0.2290343 0.21353054
0.030382717 0.54879534 0.22542667
0.030487716 0.57870734 0.18525362
0.030216716 0.62707627 0.28855753
0.030209716 0.43669531 0.29137468
0.031052716 0.81245732 -0.030639172
0.031424716 -0.80151266 -0.17277813
0.031342715 -0.71809274 -0.14150715
0.031297717 -0.67207474 -0.12425709
0.031173717 -0.54595667 -0.076981068
0.024782717 0.15162331 0.18760872
0.024751715 0.1989063 0.20532465
0.024945717 -0.098736703 0.093803883
0.024702717 0.2734763 0.23326588
0.025464717 -0.89102072 -0.20304823
0.025404716 -0.80062264 -0.16917944
0.025350716 -0.71725065 -0.13794136
0.025016718 -0.20630068 0.05350256
0.025237717 -0.54521173 -0.073480129
0.019077716 0.65383029 0.19435263
0.019000717 0.3952373 0.28193665
0.019123716 0.72851133 0.14151573
0.019156717 0.7802853 0.10344076
0.019421715 -0.8900817 -0.19941807
0.019177716 -0.14354664 0.080160618
0.019308716 -0.5444687 -0.069986343
0.013382716 -0.097738683 0.10045195
0.013382716 0.23002028 0.22313976
0.013382716 0.27408731 0.23963785
0.013382716 0.63059533 0.37308455
0.013382716 0.6962803 0.14265156
0.013382716 0.47099429 0.31334352
0.013382716 0.50940335 0.27690172
0.013382716 0.78036231 0.10789061
0.013382716 -0.4612487 -0.035620213
0.013382716 -0.96770066 -0.22519732
0.013382716 -0.88914567 -0.1957922
0.013382716 -0.14302367 0.083500862
0.013382716 -0.5437277 -0.066493034
0.0076107164 -0.097240686 0.10377073
0.0076387161 -0.013125718 0.13524151
0.0076517165 0.026514292 0.15007162
0.0076187165 0.78043932 0.11233568
0.0072947163 -1.0394397 -0.25869226
0.0073827165 -0.79796964 -0.15840626
0.0074247164 -0.66882473 -0.11008549
0.0074657165 -0.54298967 -0.063006401
0.0019817166 0.1126433 0.18538952
0.0020387163 0.20027733 0.21816254
0.001874716 -0.051047683 0.12417459
0.0022917166 0.58729827 0.36289883
0.0022327164 0.62877333 0.32932281
0.0021667164 0.39596632 0.29134464
0.001897716 0.72841132 0.13754463
0.001657716 -0.38413364 -0.0003900528
-0.0038402844 0.6961683 0.13897276
-0.0041962843 -0.38348573 0.0030288696
-0.0040772837 -0.26165372 0.048569679
-0.0045192838 -0.7130757 -0.12017012
-0.0043512844 -0.54151767 -0.056042194
-0.0093992837 0.11341333 0.19185495
-0.0092452839 0.23132229 0.23590755
-0.0095102843 0.027804315 0.15986776
-0.0087802839 0.58759129 0.36897182
-0.0089752842 0.4382503 0.31321859
-0.0095692836 0.72854829 0.14302158
-0.011183284 -1.0562747 -0.31938314
-0.010584284 -0.79533666 -0.14767122
-0.0099712834 -0.32541674 0.027898788
-0.010476284 -0.71224767 -0.11662722
-0.015014283 0.15418428 0.21016359
-0.014937283 0.20129633 0.22775698
-0.014559284 0.65826333 0.31449175
-0.014619283 0.39669031 0.30072355
-0.014551284 0.4384703 0.31632566
-0.015361283 0.7282353 0.13063192
-0.015795283 -0.3248027 0.031288624
-0.020585284 0.20163429 0.23094654
-0.020285282 0.3549673 0.28818083
-0.020196285 0.62776732 0.30522394
-0.020223282 0.65772933 0.30005693
-0.021072283 0.72841829 0.13793182
-0.021612283 -0.32419068 0.034674644
-0.022139285 -0.59353966 -0.065864086
-0.026505284 0.079630315 0.18849087
-0.026334282 0.15490633 0.21657562
-0.026710283 -0.01043272 0.15488672
-0.025877282 0.35522729 0.29131174
-0.025822282 0.6275593 0.30026293
-0.025912285 0.65719229 0.28555775
-0.026910283 0.78060633 0.1221447
-0.027555283 -0.38090867 0.01666975
-0.027004283 -0.13940364 0.10677195
-0.032312285 0.029507279 0.17287874
-0.031080283 0.58664227 0.34947395
-0.033380285 0.81307232 0.019982815
-0.033379283 -0.38026863 0.020067692
-0.034235284 -0.70895571 -0.1025033
-0.037750285 0.11532128 0.20795155
-0.037495285 0.20264333 0.24050093
-0.038361285 -0.0933097 0.13018894
-0.038228285 -0.047778666 0.14715767
-0.036677282 0.58640331 0.34457874
-0.037104283 0.62714231 0.29031467
-0.037240285 0.50915331 0.27292871
-0.039420284 -0.45507365 -0.0046553612
-0.041409284 -0.90520471 -0.25782347
-0.039032284 -0.32236272 0.044810772
-0.040027283 -0.66242868 -0.081944466
-0.044082284 -0.092823684 0.13347387
-0.043022282 0.23325032 0.25495672
-0.042879283 0.27709633 0.27129173
-0.043681283 0.030353308 0.17936468
-0.042623285 0.35600328 0.30068874
-0.042777285 0.70050633 0.28298759
-0.045257285 -0.45439667 -0.0012331009
-0.049122281 -1.0908928 -0.44403744
-0.048435282 -1.0053556 -0.36532021
-0.046080284 -0.70732266 -0.095461369
-0.045700282 -0.59052366 -0.051949024
-0.048908282 0.15634131 0.22936153
-0.048475284 0.27739233 0.27443981
-0.048300285 0.32643032 0.29269981
-0.047895283 0.4397783 0.33490896
-0.048014283 0.47157931 0.32248783
-0.051089287 -0.4537217 0.0021829605
-0.055329286 -0.046396673 0.15695572
-0.053875282 0.3267023 0.29582787
-0.055772282 0.78047228 0.11463785
-0.05639828 -0.32054967 0.054913521
-0.056148283 -0.25647873 0.078760624
-0.057801284 -0.66179973 -0.079031467
-0.057444282 -0.5890277 -0.045017242
-0.059653282 0.27798331 0.28072691
-0.058707282 0.55615932 0.36406565
-0.059151284 0.58544332 0.32493258
-0.062418282 -0.37709373 0.037014961
-0.062177286 -0.31994873 0.058273792
-0.064513281 -0.71963471 -0.1476512
-0.063951284 -0.66618973 -0.09814024
-0.065961286 0.69872731 0.22427273
-0.065591283 0.73135531 0.25456095
-0.068426281 0.81309932 0.022536755
-0.074188285 -1.0278888 -0.44906521
-0.067948282 -0.31934875 0.061629772
-0.070743285 -0.72423464 -0.16714525
-0.067395285 -0.19755667 0.10691977
-0.069199286 -0.58812767 -0.040777206
-0.071395285 0.15776032 0.24209452
-0.072382286 -0.045024693 0.16672373
-0.070808284 0.27857131 0.28699875
-0.071157284 0.62587833 0.26029253
-0.071823284 0.69827729 0.20942497
-0.071425281 0.73098129 0.23983574
-0.07282228 -0.13534671 0.13315153
-0.07739228 0.083178282 0.21743155
-0.07637728 0.27886432 0.29013062
-0.077653281 0.032862306 0.19873762
-0.076123282 0.32778132 0.30830383
-0.075752281 0.39929631 0.33487272
-0.076660283 0.50894427 0.26985788
-0.079406284 0.7797513 0.073181629
-0.079474285 -0.31815475 0.068331718
-0.079142287 -0.25421768 0.092084885
-0.081527285 -0.59647363 -0.078667164
-0.080715284 -0.53412169 -0.020521164
-0.083019286 0.083567321 0.22063065
-0.081941284 0.27915633 0.29325867
-0.083296284 0.033277333 0.20195389
-0.081508286 0.35779232 0.3224597
-0.080638282 0.51559031 0.38105583
-0.089649282 -0.73820275 -0.22630739
-0.089385286 -0.043663681 0.17645979
-0.08721628 0.32831633 0.3145237
-0.088306285 0.62523931 0.24517965
-0.089574285 0.6969133 0.1644659
-0.091749281 -0.44904369 0.026003838
-0.089911282 -0.1338467 0.14298677
-0.095042281 -0.043212712 0.17969751
-0.093126282 0.58398432 0.29524279
-0.09275528 0.3285833 0.31762886
-0.092572287 0.35829729 0.32865286
-0.092315286 0.39999431 0.34411955
-0.10572428 -0.9587217 -0.46448517
-0.10399929 -0.84794766 -0.36048841
-0.099643283 0.11943132 0.24307489
-0.099081285 0.20627528 0.27527857
-0.098886281 0.23639828 0.28644753
-0.097825281 0.40022531 0.34719753
-0.098324284 0.47127831 0.31861162
-0.10401528 -0.45578772 -0.0073952675
-0.10282829 -0.37271971 0.060583591
-0.10798828 -0.69766575 -0.23498821
-0.10556728 -0.55026573 -0.096294403
-0.10581429 0.034924328 0.21479082
-0.10361329 0.35880029 0.33483171
-0.10318229 0.4413923 0.35834455
-0.11022928 -0.45956665 -0.026108265
-0.10874728 -0.3738547 0.05472374
-0.11904828 -0.96983069 -0.50732231
-0.11296329 -0.61778265 -0.17531633
-0.11186728 -0.55436164 -0.11550617
-0.11021028 0.20692432 0.2815609
-0.10999628 0.23701733 0.29270887
-0.10947228 0.5537703 0.31997967
-0.11129829 0.62437928 0.22491884
-0.11205028 0.65346831 0.18575478
-0.11315829 0.69580132 0.12801456
-0.10847128 0.51502931 0.37213898
-0.11874628 0.7756573 -0.16299629
-0.11936028 -0.62212366 -0.1949873
-0.11820528 -0.55848473 -0.13483715
-0.11641128 0.12053233 0.25258684
-0.11554329 0.23732632 0.29583597
-0.11704129 0.035741329 0.22118855
-0.11485629 0.3296423 0.33001757
-0.11907928 0.72792631 0.11968756
-0.13253628 -0.98108369 -0.55068827
-0.12457828 -0.56263071 -0.15427113
-0.12198928 0.12089729 0.25574875
-0.12167928 0.16090131 0.27055597
-0.12168428 0.58275235 0.27029371
-0.12516028 0.72753632 0.10435295
-0.12908329 -0.47103864 -0.082895279
-0.13934028 -0.9867627 -0.57256746
-0.13506529 -0.77181166 -0.36847305
-0.12856229 -0.0026046634 0.21308661
-0.12824628 0.036553323 0.22757196
-0.12863728 0.62372935 0.20964193
-0.12530129 0.4013733 0.36253691
-0.12630628 0.4711003 0.31646967
-0.14618528 -0.99247867 -0.59458113
-0.13486628 -0.085224688 0.18558073
-0.13448729 -0.040086687 0.20227194
-0.13226528 0.55269134 0.30019474
-0.13741028 0.7267493 0.073467731
-0.15307228 -0.99823171 -0.61673021
-0.13575529 -0.19123465 0.14638758
-0.13834628 0.16193134 0.2799859
-0.14049529 -0.084760666 0.18880987
-0.13943128 0.037362278 0.23394585
-0.14825928 -0.48271865 -0.14066315
-0.14628929 -0.39527768 -0.057071209
-0.14456329 0.08778131 0.25560379
-0.14425129 0.1223473 0.26837254
-0.14389129 0.16227329 0.28312159
-0.14611728 -0.084296703 0.19203568
-0.14571029 -0.039203703 0.2086916
-0.14536828 -0.0013356805 0.22268057
-0.14236829 0.33095133 0.34543657
-0.14212428 0.44112331 0.35539484
-0.14959428 0.7261433 0.049772739
-0.16697629 -1.0098507 -0.66145229
-0.16429329 -0.89530569 -0.55169725
-0.14943129 -0.26063067 0.056434631
-0.14791529 -0.19589275 0.11846495
-0.14652029 -0.12893265 0.17555094
-0.14899528 0.20916933 0.30344772
-0.14769128 0.44108331 0.35497475
-0.15546928 0.72608829 0.047703743
-0.14812028 0.51293528 0.33800554
-0.15908629 -0.40258974 -0.095186234
-0.17119528 -0.90073675 -0.57359409
-0.15380628 0.28288329 0.33365059
-0.16027528 0.69452029 0.086592674
-0.15250228 0.47548732 0.38344383
-0.17407729 -0.74503773 -0.4404912
-0.16123828 0.088909328 0.26507378
-0.16003129 0.20980328 0.30967283
-0.15882829 0.44100329 0.35413456
-0.17434429 -0.49862474 -0.21925926
-0.18512829 -0.91170269 -0.61780024
-0.17029928 -0.34367174 -0.069759369
-0.17862028 -0.66239768 -0.37726927
-0.16678628 0.089283288 0.26822472
-0.16523328 0.2400673 0.32382154
-0.16478628 0.2834453 0.33981752
-0.16398229 0.3615163 0.36860561
-0.16942628 0.62219226 0.17371273
-0.17335129 0.72570932 0.033183575
-0.17855728 -0.41372365 -0.15318727
-0.17675929 -0.34718174 -0.088839054
-0.18361828 -0.60110575 -0.33439302
-0.17811029 0.69402432 0.070650578
-0.16951828 0.4744963 0.3689189
-0.17804728 0.81368428 0.072846889
-0.18512128 -0.41747969 -0.17274427
-0.18325728 -0.35071367 -0.10802937
-0.18119629 -0.27687675 -0.036461353
-0.19628328 -0.81723469 -0.56021833
-0.19468029 -0.75983566 -0.50458241
-0.19037129 -0.60551268 -0.35500145
-0.17748928 0.12449431 0.28721285
-0.17654528 0.2107473 0.31898689
-0.17965229 -0.0026177168 0.21430492
-0.17948928 0.58024132 0.21981764
-0.18374628 -0.14459664 0.076369762
-0.18301028 0.12484831 0.29034472
-0.18861029 -0.097210705 0.10705376
-0.18067129 0.33275533 0.36689472
-0.18033928 0.36224431 0.37775373
-0.18826929 0.65090632 0.11820889
-0.17967428 0.4441933 0.39953375
-0.19235829 0.77817231 -0.015628338
-0.19132228 0.81301528 0.018279552
-0.19836429 -0.42506164 -0.21220207
-0.21350828 -0.93406171 -0.70786047
-0.19415328 -0.2835117 -0.074362278
-0.18753128 0.21137333 0.32518196
-0.19211929 -0.0075116754 0.17917871
-0.19116329 0.57973135 0.20962667
-0.18530528 0.40384731 0.3960228
-0.19603428 0.69352531 0.054628849
-0.18661529 0.4734973 0.35432673
-0.22071528 -0.9397437 -0.73073435
-0.20297629 -0.36143869 -0.16627502
-0.21565929 -0.77491969 -0.56985617
-0.19650228 -0.15038568 0.039723873
-0.19266129 0.24156231 0.33926678
-0.20014028 0.65050429 0.10769176
-0.21462229 -0.52322572 -0.34065723
-0.21176328 -0.43273669 -0.25212812
-0.20153129 0.08561033 0.23984194
-0.19849528 0.21199632 0.33136988
-0.20609628 -0.05471468 0.10223579
-0.20472229 -0.012461722 0.1436677
-0.19620429 0.4041633 0.40044451
-0.19671328 0.44312632 0.38508797
-0.19805728 0.47282732 0.34456396
-0.22147429 -0.52741474 -0.36131144
-0.23526028 -0.95121974 -0.77690935
-0.22985828 -0.78513569 -0.61404133
-0.20507929 0.16420233 0.30187082
-0.20396928 0.21230632 0.33446074
-0.21204929 0.65010029 0.097142696
-0.21892828 -0.059989691 0.065867901
-0.20905828 0.24245131 0.34850597
-0.20750628 0.36344332 0.39294577
-0.21661328 0.62040234 0.13216496
-0.22424129 0.77693331 -0.086285114
-0.23215528 -0.44442767 -0.31290245
-0.22488528 -0.23312074 -0.1047101
-0.24112028 -0.70499867 -0.56962919
-0.21905129 0.11686629 0.22481966
-0.22539629 -0.062650681 0.047532558
-0.22388928 -0.019996703 0.089657784
-0.21331128 0.33427531 0.38517857
-0.22255428 0.62017632 0.12693453
-0.22610429 0.69268429 0.027755737
-0.22988228 0.81183028 -0.077783108
-0.22822128 0.85381532 -0.031382084
-0.23660628 -0.3797527 -0.2656312
-0.22902028 -0.16515964 -0.053703308
-0.24586928 -0.64178973 -0.52441216
-0.22536528 0.11475033 0.20735693
-0.23376828 -0.11675173 -0.021812439
-0.23214829 0.69251531 0.022352695
-0.23374328 0.72428828 -0.021142483
-0.23641728 0.8116293 -0.094063282
-0.24345028 -0.38348264 -0.28585243
-0.23171328 0.11262131 0.18979883
-0.23844329 -0.068018675 0.010553837
-0.22700629 0.2389763 0.31517363
-0.22528128 0.28529632 0.36113691
-0.23231728 0.57792735 0.17371178
-0.23446728 0.61972129 0.11644697
-0.22529128 0.4413293 0.36086798
-0.24298429 0.8114273 -0.11042404
-0.24141529 0.85358733 -0.068613052
-0.24748927 -0.31086367 -0.23041439
-0.26016527 -0.65114969 -0.56806946
-0.23642328 0.1542753 0.21569872
-0.23325428 0.23721528 0.29819393
-0.24043828 0.61949331 0.11119175
-0.24426728 0.69217533 0.011525631
-0.24958327 0.81122428 -0.12686539
-0.24797028 0.85348731 -0.08485508
-0.25990829 -0.46035665 -0.39563227
-0.25172329 -0.24613374 -0.18255806
-0.24601927 0.069980323 0.11614895
-0.2445173 0.10832632 0.15437984
-0.24279627 0.1522553 0.19817781
-0.24080828 0.20301628 0.24878788
-0.23771229 0.28203833 0.32757187
-0.24821329 0.013971329 0.06030798
-0.23569028 0.33365828 0.37903595
-0.24642128 0.61926532 0.10592651
-0.23481928 0.40411329 0.40120888
-0.25034329 0.69200432 0.0060968399
-0.25490028 0.7765063 -0.10987806
-0.25097129 0.10616028 0.13652563
-0.24397728 0.28039533 0.31065369
-0.24844527 0.5471313 0.19942188
-0.25241229 0.61903632 0.10065269
-0.25642827 0.69183332 0.00065994263
-0.26109427 0.77640432 -0.11550713
-0.27123427 -0.39863974 -0.36796427
-0.25746128 0.10398132 0.11857271
-0.26713029 -0.13121575 -0.1170435
-0.25435328 0.54684627 0.1942997
-0.25604829 0.57688129 0.15300894
-0.26729828 0.77630329 -0.1211462
-0.26782829 0.8531853 -0.13405037
-0.2850183 -0.56633073 -0.55293226
-0.27226427 -0.25610465 -0.24215508
-0.29215327 -0.73987168 -0.72678423
-0.25996429 0.19735032 0.1964798
-0.26613528 0.64825833 0.049242973
-0.27351427 0.77620131 -0.1267972
-0.27431929 0.85311133 -0.14600945
-0.28210327 -0.32865173 -0.33172512
-0.26297727 0.27540928 0.25934553
-0.26072827 0.32763731 0.31191874
-0.27044728 0.61834532 0.084780693
-0.27219728 0.64805031 0.043874741
-0.25988829 0.4391433 0.33155775
-0.27662927 0.72327131 -0.059713364
-0.26165229 0.46908331 0.29032755
-0.28018528 0.85312933 -0.14282417
-0.30412528 -0.67996567 -0.70234108
-0.2813713 0.0015193224 -0.03261137
-0.2739493 0.57609034 0.13739252
-0.28087229 0.69114429 -0.021181107
-0.26975727 0.50643134 0.23339891
-0.29968527 -0.41418165 -0.45207024
-0.28378427 0.095137298 0.045742512
-0.27581629 0.27203733 0.22467375
-0.28811628 -0.0010166764 -0.051514149
-0.27344927 0.32457632 0.27781582
-0.29690227 -0.19607669 -0.24881315
-0.28839028 0.13778329 0.072794914
-0.30146229 -0.14612263 -0.21506739
-0.29043728 0.64742529 0.027723789
-0.28155828 0.50579429 0.22325754
-0.31054029 -0.34328574 -0.41497612
-0.29260227 0.18768531 0.10735273
-0.28480929 0.35335129 0.27573395
-0.28505728 0.46769631 0.27037764
-0.31444427 -0.27660865 -0.36455441
-0.29533929 0.26690733 0.17194462
-0.30858228 -0.0087137222 -0.10887814
-0.29598629 0.5448283 0.15821552
-0.29279229 0.31991631 0.22595596
-0.30548328 0.69044733 -0.043169022
-0.29339927 0.5051533 0.21308374
-0.31070429 0.086081326 -0.028745174
-0.32254627 -0.15528864 -0.27527428
-0.30427328 0.21716529 0.10513878
-0.30197328 0.54453731 0.15302753
-0.29773629 0.3504073 0.24122763
-0.30678728 0.61694729 0.052803516
-0.3087723 0.64679527 0.011490822
-0.32518029 -0.20898265 -0.33011532
-0.31753027 0.083783329 -0.047633171
-0.30797029 0.5442453 0.14783287
-0.32002929 0.72223628 -0.098739147
-0.30527729 0.50451028 0.20287895
-0.33404729 -0.10745972 -0.26054621
-0.31245229 0.31517631 0.17324257
-0.30861628 0.46629432 0.25030088
-0.31123227 0.50418735 0.19776154
-0.3434113 -0.29071075 -0.44863224
-0.3395713 -0.21555668 -0.3714962
-0.32616028 0.17773229 0.015696526
-0.34117928 -0.11040872 -0.28077602
-0.32187629 0.25992531 0.10026789
-0.31999427 0.54365933 0.13741589
-0.32212427 0.5739513 0.095378876
-0.32509729 0.61624026 0.036695957
-0.33026427 0.68974429 -0.065303326
-0.35076427 -0.29429275 -0.46997738
-0.34835127 -0.11337465 -0.30112028
-0.32602128 0.5433653 0.13219357
-0.32401827 0.34441632 0.17107296
-0.33336329 0.64594734 -0.010279179
-0.32045427 0.4655883 0.24021482
-0.35413629 -0.22221464 -0.41338205
-0.33984929 0.17366832 -0.021692276
-0.35852429 -0.17094868 -0.3780303
-0.33536729 0.25637233 0.063824654
-0.32915428 0.50321233 0.18236876
-0.36148429 -0.22557467 -0.43451309
-0.35447729 0.031739295 -0.18554306
-0.34216928 0.25458032 0.045449734
-0.35773429 -0.027228713 -0.24666739
-0.33810529 0.54277432 0.12172794
-0.33917928 0.30872631 0.10157585
-0.34896028 0.68921131 -0.082002163
-0.36159128 0.029224336 -0.20533705
-0.35369328 0.16955531 -0.059511185
-0.3517713 0.20371932 -0.024010181
-0.34411028 0.33983231 0.11743164
-0.3552143 0.68903327 -0.08758831
-0.3411513 0.5025593 0.17206573
-0.36375529 0.11379629 -0.13451529
-0.36067727 0.16748029 -0.078588486
-0.35088429 0.33828533 0.099347591
-0.37594628 0.024148285 -0.24528122
-0.36569127 0.19977331 -0.06186533
-0.36775628 0.68867528 -0.098788261
-0.37476128 0.16329229 -0.11706543
-0.37271127 0.19778228 -0.080955029
-0.36650729 0.30212229 0.028286934
-0.36454329 0.33516532 0.062880516
-0.37095028 0.57176828 0.052817822
-0.36369729 0.46136332 0.1786046
-0.38380128 0.24360132 -0.067024231
-0.37710029 0.57149231 0.047459602
-0.38040328 0.29876232 -0.0089812279
-0.3805863 0.61408627 -0.012106419
-0.37132227 0.5009113 0.14616251
-0.4051663 0.013806283 -0.32659626
-0.40257829 0.055095315 -0.28304005
-0.39088127 0.2417323 -0.08615303
-0.38741329 0.29706633 -0.027780056
-0.38680628 0.61384332 -0.017575264
-0.38931528 0.64400828 -0.05979538
-0.38241428 0.37682229 0.056355953
-0.4125793 0.011180282 -0.34722805
-0.40119728 0.18969828 -0.15842915
-0.38943228 0.57093835 0.036711693
-0.42003727 0.0085383058 -0.36798429
-0.40842229 0.18764633 -0.17808104
-0.39634427 0.37389529 0.019394875
-0.39098528 0.45652932 0.10700989
-0.42164129 0.095320284 -0.29379225
-0.41236028 0.23605931 -0.14419031
-0.40815827 0.64335132 -0.07646513
-0.40336829 0.37241828 0.0007557869
-0.40032429 0.41857129 0.049814701
-0.39564228 0.49957731 0.12528753
-0.40801027 0.57010132 0.020525932
-0.41584828 0.29018033 -0.10405111
-0.41358429 0.32394928 -0.068063259
-0.41446328 0.64313132 -0.082043171
-0.4365463 0.090556324 -0.33481026
-0.4142243 0.5698213 0.015112877
-0.42077827 0.64291131 -0.087630272
-0.4377493 0.17931134 -0.25785446
-0.41765729 0.53886235 0.052852631
-0.42434528 0.61237633 -0.050577164
-0.42384928 0.53855634 0.047492981
-0.43760729 0.28490728 -0.16241741
-0.44900429 0.22636831 -0.24321222
-0.43005228 0.53824931 0.042125702
-0.45232829 0.28133631 -0.2019062
-0.44983628 0.31564331 -0.16487312
-0.43691128 0.49356329 0.027189732
-0.44545427 0.56840932 -0.012089252
-0.45975229 0.27953529 -0.22182226
-0.45121929 0.49127832 -0.010126114
-0.45497328 0.53701329 0.020563602
-0.4580223 0.56783926 -0.023034096
-0.46843228 0.35871732 -0.17190933
-0.46928829 0.53505731 -0.015227318
-0.47063529 0.56726635 -0.034016132
-0.47961527 0.40332732 -0.15929604
-0.47299227 0.48779932 -0.066911221
-0.47695729 0.56697834 -0.039521217
-0.48779228 0.60987931 -0.1063323
-0.49599227 0.56611133 -0.056092262
-0.50608325 0.52984726 -0.11058807
