# .PCD v0.7 - Point Cloud Data file format
VERSION 0.7
FIELDS x y z
SIZE 4 4 4
TYPE F F F
COUNT 1 1 1
WIDTH 1
HEIGHT 1024
VIEWPOINT 0 0 0 1 0 0 0
POINTS 1024
DATA ascii
0.50670749 -0.9774102 -0.30971003
0.49279046 -0.8994422 -0.28752089
0.48776546 -0.97533119 -0.30330276
0.48256746 -1.0423032 -0.31699276
0.48146147 -0.9746412 -0.30117178
0.46624345 -0.80860114 -0.25843287
0.46137345 -0.89615512 -0.27693176
0.45870346 -0.72635412 -0.23726082
0.45733646 -1.0394632 -0.30844307
0.45000747 -0.97122717 -0.29054165
0.43501046 -0.80552018 -0.24794865
0.43312547 -0.67892814 -0.21840572
0.43217945 -1.0366561 -0.29992485
0.42758247 -0.72343612 -0.22685003
0.42692047 -0.67836523 -0.21633387
0.41774547 -0.47229815 -0.16633272
0.42590147 -1.0359602 -0.29779911
0.41582847 -0.33979821 -0.13542795
0.41892645 -0.55386114 -0.18535566
0.40970445 -0.33936214 -0.13341093
0.41275647 -0.55334723 -0.18330669
0.40544447 -0.47133112 -0.1622591
0.40709445 -1.0338832 -0.29143572
0.40214145 -0.67612815 -0.20806265
0.39490846 -0.15373218 -0.086320877
0.40042746 -0.55232322 -0.17921305
0.39135545 -0.33806217 -0.12736988
0.39657146 -0.72056115 -0.21648169
0.38968545 -0.21564114 -0.098846912
0.39500046 -0.60536623 -0.18964386
0.39147446 -0.80128312 -0.23334694
0.38438445 -0.27340221 -0.11039686
0.38977847 -0.67502022 -0.20393991
0.38743946 -0.96454918 -0.26942396
0.38643345 -0.88846314 -0.25170898
0.37914446 -0.33720219 -0.12334776
0.37752646 -0.21486819 -0.094863892
0.37005147 -0.10685122 -0.067817688
0.36945245 -0.060871184 -0.057115078
0.37220845 -0.27259016 -0.10640001
0.37651846 -0.60378814 -0.18349695
0.37582245 -0.55029416 -0.17104387
0.36341646 -0.060542166 -0.055150032
0.36240947 0.018119812 -0.036842823
0.37583846 -1.0304632 -0.2808671
0.36612746 -0.27218616 -0.10440397
0.37184045 -0.71829212 -0.20821905
0.36968246 -0.54979014 -0.16900587
0.36252245 -0.46799219 -0.14805698
0.36085847 -0.33592212 -0.11733007
0.36566946 -0.71772921 -0.20615768
0.35931846 -0.21371818 -0.088900089
0.36422047 -0.60274422 -0.17940664
0.36354646 -0.54928923 -0.16697073
0.35477147 -0.33549714 -0.11532688
0.34331846 0.10567582 -0.010841846
0.34223446 0.19463283 0.0098452568
0.34589145 -0.10547519 -0.059938908
0.34533247 -0.05956018 -0.049263
0.34437445 0.019019842 -0.030991077
0.35193846 -0.60170615 -0.17532396
0.33626646 0.19487083 0.011766911
0.33535847 0.2706598 0.029386044
0.34329247 -0.39167714 -0.12458181
0.34260947 -0.33465314 -0.11132574
0.34114745 -0.21257818 -0.082948685
0.33329445 -0.058910191 -0.045343876
0.34197846 -0.79655015 -0.21676683
0.33578146 -0.27018416 -0.094441891
0.32346946 0.27108181 0.033203125
0.32288745 0.32135385 0.044886112
0.31939945 0.10674584 -0.0031080246
0.31297246 0.1479578 0.0083303452
0.31243846 0.19581681 0.019443035
0.31980547 -0.46472323 -0.13393402
0.31897146 -0.38992321 -0.11656475
0.32605547 -1.0250982 -0.26405191
0.32530847 -0.95806921 -0.2484889
0.32348746 -0.79480422 -0.21057892
0.30746347 0.10727584 0.00075101852
0.30511346 0.32193184 0.050580025
0.31290147 -0.38948822 -0.1145649
0.31227845 -0.33256316 -0.10135078
0.31026545 -0.14871013 -0.058671951
0.30327246 -0.057302177 -0.035577774
0.29973647 0.2719208 0.04082489
0.30243045 0.021088839 -0.017385006
0.29757547 0.47306684 0.087509155
0.29711747 0.51570582 0.097404003
0.31365347 -1.0237771 -0.25986576
0.31212047 -0.88104415 -0.22674274
0.30553845 -0.2682122 -0.08452177
0.30908147 -0.59812319 -0.16108608
0.29381347 0.27212882 0.042726994
0.29078346 0.55970085 0.10944891
0.30156147 -0.46334314 -0.12790489
0.30675346 -0.95616317 -0.24224281
0.30241546 -0.54435217 -0.14670086
0.28959045 0.10806483 0.0065279007
0.29176545 -0.10244012 -0.042296886
0.29129246 -0.056666195 -0.031680107
0.28789347 0.27233583 0.044629097
0.28412047 0.63759279 0.12935209
0.28661647 0.39605081 0.073324203
0.28581747 0.47334984 0.091252327
0.29548845 -0.46288621 -0.12589884
0.30126846 -1.0224642 -0.25568867
0.29223245 -0.14766121 -0.052785873
0.28576946 -0.10210717 -0.040342808
0.28242946 0.22781384 0.036157131
0.28197646 0.27254283 0.046528339
0.27951145 0.51608783 0.10300112
0.29440346 -0.95490313 -0.23808765
0.28808647 -0.33091414 -0.093399048
0.29148245 -0.66639221 -0.17118788
0.27804345 0.073265851 0.0021839142
0.27650845 0.22803485 0.038062096
0.27606547 0.27274883 0.048428059
0.27854946 0.022251844 -0.0096416473
0.27289045 0.59281886 0.12262392
0.27407247 0.47363082 0.094994068
0.28889847 -1.0211592 -0.25151682
0.28823546 -0.95427513 -0.23601389
0.28581846 -0.71056414 -0.17951775
0.26704946 0.59291983 0.124475
0.26661345 0.63785481 0.13489008
0.27656645 -0.38690519 -0.10259771
0.28272146 -1.0205102 -0.24943399
0.28207147 -0.95365012 -0.23393965
0.27970546 -0.71002519 -0.17747879
0.27927145 -0.66534317 -0.1671257
0.26581347 0.10910481 0.014211178
0.26781145 -0.10111713 -0.034493923
0.26425347 0.27315885 0.052220345
0.26078546 0.63794184 0.13673401
0.26937845 -0.26588619 -0.072668076
0.27250847 -0.59511316 -0.14894485
0.25987747 0.10936284 0.01612711
0.26140746 -0.055092156 -0.021961689
0.25720245 0.3968758 0.082722187
0.25648445 0.47404882 0.10059834
0.26448545 -0.38605416 -0.098620892
0.27037647 -1.0192171 -0.24527264
0.26905146 -0.87684011 -0.21229696
0.25394645 0.10962081 0.018043995
0.25245547 0.27356684 0.056008339
0.25473145 0.023400843 -0.0019207001
0.24954647 0.59322286 0.13002491
0.25133145 0.39703882 0.084597111
0.25024247 0.51671684 0.11230993
0.26138845 -0.70841622 -0.17137575
0.25683045 -0.20739412 -0.055360794
0.25626847 -0.14559221 -0.041051865
0.24765745 0.15067381 0.029402256
0.24695945 0.22912884 0.047564983
0.24913946 -0.01605016 -0.0091938972
0.24579346 0.66675085 0.07791996
0.24508446 0.43994683 0.096365929
0.24477845 0.47432584 0.10432529
0.25308546 -0.45972514 -0.1118989
0.25804946 -1.0179331 -0.24111986
0.25380346 -0.54051018 -0.13060093
0.24319047 -0.01575315 -0.0072617531
0.24023846 0.3240118 0.071370125
0.23997346 0.35450584 0.078426361
0.23923045 0.44009581 0.09823513
0.25252745 -1.0904431 -0.25597477
0.24989945 -0.78797913 -0.18597603
0.24590445 -0.32807815 -0.079541683
0.24535045 -0.26435816 -0.064796925
0.23542744 0.19881183 0.044240952
0.23516646 0.22956181 0.051355362
0.23478845 0.27417386 0.061677933
0.23690847 0.024252832 0.0038552284
0.23207846 0.59352183 0.1355629
0.23174846 0.63831484 0.14457607
0.23374146 0.3975268 0.090217113
0.24635947 -1.0897801 -0.25389194
0.23161945 -0.05354315 -0.012281895
0.22927445 0.22977781 0.053251266
0.22626147 0.59362084 0.13740635
0.22753045 0.44039184 0.10196495
0.23237047 -0.14423418 -0.033257961
0.23607945 -0.5921582 -0.13686371
0.23563945 -0.53909421 -0.12458897
0.22434846 0.1108948 0.027602196
0.22401944 0.15163881 0.037024021
0.22504345 0.024816811 0.0076980591
0.22045046 0.59371984 0.13924932
0.22262347 0.32456684 0.077012062
0.22168747 0.44053984 0.10382795
0.23229647 -0.87330914 -0.19997883
0.22788346 -0.32688117 -0.073626995
0.23058346 -0.66121113 -0.1509347
0.22690445 -0.20559621 -0.045580864
0.22640646 -0.14389718 -0.031313896
0.21844044 0.11114782 0.029510975
0.21812046 0.15187883 0.038926125
0.21774545 0.19948584 0.049931049
0.22291645 -0.45750916 -0.10194588
0.22730246 -1.0147562 -0.23076582
0.22550046 -0.78576016 -0.17782784
0.22355145 -0.53815818 -0.12058973
0.21280646 0.07620585 0.023283005
0.21414346 -0.098201156 -0.017023087
0.21066645 0.35537881 0.087801933
0.20888045 0.63822484 0.14162827
0.21033844 0.39816982 0.097692013
0.20974845 0.47514582 0.1154809
0.20942244 0.51758087 0.12528801
0.21689445 -0.45707023 -0.09995985
0.22172546 -1.0871482 -0.24557781
0.20574644 0.23063284 0.060811996
0.20757246 -0.013989151 0.0042929649
0.20727646 0.025655806 0.01345396
0.20504144 0.32511681 0.082641125
0.20323145 0.66904783 0.13866901
0.20449546 0.39832884 0.099556923
0.20417646 0.44097883 0.10941219
0.20360446 0.51770282 0.12713718
0.21032044 -0.3822912 -0.08080101
0.21332344 -0.78466213 -0.17376471
0.20044246 0.15259182 0.044625282
0.20192745 -0.052017152 -0.0026359558
0.19987446 0.23084486 0.062699318
0.20164946 -0.013698161 0.0062150955
0.19918844 0.32529885 0.084515095
0.19721746 0.66937184 0.14725733
0.20787245 -0.87099218 -0.19180298
0.20544645 -0.53676319 -0.11460304
0.19509244 0.076990843 0.029010296
0.19333947 0.32547981 0.086389065
0.19121847 0.66969484 0.15582514
0.19228044 0.47555083 0.12104321
0.19198146 0.51794481 0.1308322
0.19832745 -0.38146913 -0.07685709
0.20230746 -0.94569314 -0.20714378
0.20177644 -0.87041712 -0.18976164
0.19792846 -0.32491016 -0.063796043
0.20028245 -0.6586802 -0.14086771
0.19663945 -0.14222813 -0.021611691
0.19941944 -0.53630114 -0.11260891
0.18919545 0.077250838 0.030916214
0.18895546 0.1123988 0.039029121
0.19007745 -0.051413178 0.0012130737
0.18954346 0.026486814 0.019196987
0.18728545 0.35606784 0.09528017
0.18646646 0.47568482 0.12289429
0.19151345 -0.26099122 -0.047168732
0.19111946 -0.20347512 -0.033890724
0.19375944 -0.58878016 -0.12284088
0.18279946 0.15329885 0.050310135
0.18165246 0.32584184 0.090131283
0.18684244 -0.45489514 -0.090054035
0.19102445 -1.0839041 -0.23522186
0.19053945 -1.0110092 -0.21839809
0.18516845 -0.20312619 -0.031949043
0.17692345 0.15353382 0.052204132
0.17613345 0.27615684 0.080497265
0.17561644 0.35640985 0.099013329
0.17359346 0.67028981 0.17143202
0.17534044 0.39911884 0.10886621
0.17506644 0.44170281 0.11869001
0.18059245 0.70688981 -0.079154968
0.18170145 -0.58782721 -0.11884499
0.16978747 0.35657883 0.10087729
0.17441046 0.7071718 -0.069978714
0.16904145 0.47608382 0.12844133
0.17438444 -0.37984121 -0.068986893
0.17327645 -0.20242918 -0.028063774
0.17289245 -0.14091218 -0.013875961
0.16272244 0.5621078 0.15009308
0.16252545 0.59469283 0.15760708
0.16396245 0.35674882 0.1027379
0.17221045 -1.0091622 -0.21223688
0.17083246 -0.78086913 -0.15959167
0.16806746 -0.32297015 -0.054001808
0.17034745 -0.70059812 -0.14108276
0.15976545 0.078537822 0.040424347
0.15956044 0.11363083 0.04851532
0.15932345 0.15423185 0.057875156
0.16051546 -0.049921155 0.010811329
0.15694344 0.56221384 0.15192604
0.15719745 0.51866382 0.14188719
0.16286844 -0.45318019 -0.082154751
0.15486845 -0.095055223 0.0022573471
0.15461245 -0.049625158 0.012726307
0.15302345 0.23251885 0.077752113
0.15116546 0.5623188 0.15375996
0.15232146 0.35708481 0.10645914
0.15208146 0.39974284 0.11629105
0.15546346 0.79542685 -0.022074699
0.15646544 -0.37863314 -0.063099861
0.16001046 -1.0079402 -0.20813608
0.15512145 -0.13993514 -0.008087635
0.15763345 -0.58594322 -0.11088085
0.14734945 0.20211983 0.072576046
0.14896145 -0.094746232 0.0041761398
0.14718345 0.23272485 0.079627037
0.14539346 0.56242383 0.15559006
0.14521646 0.59497881 0.16309214
0.14667246 0.32691282 0.10132933
0.14480546 0.67065281 0.18052721
0.14943546 0.7955358 -0.015914917
0.15090346 -0.45233023 -0.078212738
0.15050045 -0.37823319 -0.061141968
0.15431145 -1.0800802 -0.22285175
0.15391645 -1.0073332 -0.20608997
0.15267846 -0.77926922 -0.15354204
0.14985046 -0.2584362 -0.033538818
0.15224347 -0.6990782 -0.13506603
0.15162644 -0.58547521 -0.10889196
0.14069647 0.35741985 0.11017609
0.14025146 0.44255581 0.12978601
0.14453945 -0.3778342 -0.059184074
0.14708745 -0.86532521 -0.17147398
0.13590646 0.15515184 0.065416336
0.13715845 -0.094130158 0.0080132484
0.13446146 0.44269583 0.13163233
0.14174145 -1.0061232 -0.20200109
0.12809646 0.56273687 0.16107798
0.12923145 0.32743984 0.10691023
0.13420546 0.8285538 -0.1305728
0.13298544 -0.45106614 -0.072314739
0.13262844 -0.37704122 -0.055273056
0.13147944 -0.13864815 -0.00039100647
0.12456646 0.080055833 0.051792145
0.12385745 0.2335428 0.087118149
0.12365245 0.27788883 0.097322941
0.12233645 0.56283987 0.16290617
0.12342345 0.32761484 0.10876894
0.12391945 0.66710883 0.084031105
0.12701845 -0.45064819 -0.070349693
0.12991545 -1.0775702 -0.21463871
0.12612444 -0.25700212 -0.025782108
0.11871345 0.080306828 0.053682327
0.11855846 0.11532283 0.061738968
0.11948045 -0.093215227 0.013758183
0.11803546 0.23374581 0.08898735
0.11658145 0.56294382 0.16473103
0.11711045 0.44311482 0.1371603
0.12004145 0.7418828 -0.015459061
0.11695945 0.47725981 0.14501715
0.12288145 -0.86310816 -0.16338682
0.12249946 -0.7766372 -0.14349079
0.12020246 -0.25664616 -0.023845673
0.11271545 0.11556083 0.063622952
0.11340345 -0.04758215 0.026097298
0.11082945 0.56304681 0.16655493
0.11169245 0.35824782 0.11944818
0.11133445 0.44325382 0.13899994
0.11571445 0.82893085 -0.099957943
0.11743445 -1.0037261 -0.19384289
0.10671445 0.15628684 0.074816227
0.10753145 -0.047294199 0.028001308
0.10737845 -0.0091691613 0.03676796
0.10674145 0.66672283 0.073255062
0.10573145 0.40096486 0.13108301
0.10810246 0.74215883 -0.0047369003
0.10525545 0.51971781 0.15839195
0.10783345 0.79600984 0.010698318
0.11165945 -1.0757102 -0.208498
0.11136745 -1.0031322 -0.19180679
0.11045446 -0.77559614 -0.13948202
0.10862245 -0.31918323 -0.034523964
0.10103945 0.11603582 0.067387104
0.10166045 -0.047007203 0.029904366
0.10151545 -0.0088931918 0.038667202
0.099952452 0.40111583 0.13292599
0.099790454 0.44353083 0.14267826
0.10269646 -0.31881118 -0.032583714
0.095332451 0.081298828 0.061230183
0.095060453 0.15673584 0.078567028
0.095958449 -0.092008114 0.021398067
0.095657453 -0.008618176 0.04056406
0.095515452 0.030788839 0.049621105
0.097246453 -0.44857419 -0.060554028
0.099505454 -1.0744792 -0.20441008
0.098423451 -0.77456117 -0.13547707
0.097974449 -0.65037119 -0.10693407
0.097725451 -0.58133316 -0.091066837
0.089377455 0.11650783 0.071146011
0.088560455 0.63770384 0.12621593
0.090273455 0.74255681 0.010751247
0.088002451 0.52006185 0.16387224
0.09318845 -1.0013602 -0.185709
0.092141449 -0.69411719 -0.11511374
0.083031453 0.27920181 0.11034298
0.08263845 0.40156484 0.1384511
0.082502455 0.44394183 0.14818525
0.086684451 -0.85983717 -0.15130568
0.086407453 -0.77353418 -0.13148165
0.085788451 -0.5804292 -0.087122917
0.077608451 0.15740281 0.084185123
0.077374451 0.23514885 0.10203934
0.077986449 0.031571805 0.055288315
0.076289453 0.5960958 0.18492889
0.077092454 0.3289938 0.12358999
0.077001452 0.35922384 0.13053322
0.077800453 0.66660184 0.06953907
0.07687445 0.40171385 0.14029026
0.079426453 -0.44734716 -0.054693699
0.078674451 -0.19702017 0.0027933121
0.07190945 0.11720985 0.076776028
0.072149456 0.031830847 0.057176113
0.071230456 0.35938483 0.13237619
0.070897453 0.47827682 0.15967226
0.073127456 -0.3169682 -0.022903919
0.072790451 -0.1966902 0.0047111511
0.06621445 0.66655183 0.068054199
0.065243453 0.44434881 0.15368223
0.068635456 -0.85822523 -0.14528465
0.06722445 -0.31660318 -0.020970821
0.066752456 -0.1351912 0.020666122
0.060366452 0.082764804 0.072513103
0.059999451 0.23573983 0.10761309
0.059892453 0.27993882 0.11775494
0.059599452 0.40215683 0.14580011
0.061637454 -0.44613016 -0.048844814
0.06146045 -0.37238419 -0.031923771
0.063273452 -1.1268721 -0.20504904
0.061325453 -0.31623912 -0.019041061
0.054551452 0.083005846 0.074388981
0.054385453 0.15828282 0.091657162
0.054932453 -0.089933157 0.034717083
0.053491451 0.56405783 0.18473911
0.053420454 0.59645879 0.192173
0.053587452 0.52074087 0.1748023
0.05503045 -0.1345762 0.024477005
0.055891454 -0.52564812 -0.0652318
0.048739452 0.083246827 0.076263905
0.048669454 0.11813581 0.084265232
0.048588451 0.1585018 0.093522072
0.048994452 -0.044463158 0.046975136
0.048433453 0.23613083 0.11132526
0.047776453 0.56415683 0.18655109
0.051158454 -1.1256371 -0.20097208
0.051046453 -1.0696362 -0.1881299
0.050769452 -0.93128717 -0.15640068
0.050620452 -0.85662913 -0.13927889
0.050199453 -0.64661515 -0.091115952
0.042597454 0.63748282 0.12037134
0.043031454 0.66645086 0.065086365
0.043387454 0.7961818 0.019803047
0.045004454 -1.0690392 -0.18610096
0.044874452 -0.99672115 -0.16952085
0.044755451 -0.93073416 -0.15439081
0.044024453 -0.5247972 -0.061321735
0.036927454 0.20608985 0.10805702
0.036808454 0.28066683 0.1251502
0.037266452 -0.005921185 0.059463024
0.036423452 0.52107483 0.18025398
0.031216454 0.15915185 0.099110126
0.031391453 0.033620834 0.070344925
0.030620452 0.59668583 0.19667816
0.030976452 0.33033681 0.13833618
0.031433452 0.66639882 0.063601971
0.031737454 0.83032882 0.013820171
0.032060452 -0.44413018 -0.039126873
0.031957451 -0.37049818 -0.022254944
0.032172453 -0.52395213 -0.05741787
0.025432453 0.15936685 0.10097027
0.025675453 -0.04335618 0.054530144
0.024946451 0.56455082 0.19378996
0.024935454 0.59665287 0.19596529
0.025227454 0.33050185 0.14017534
0.025048453 0.47926784 0.17425203
0.025870454 0.79614282 0.017445087
0.026904453 -1.0672622 -0.18002701
0.026817452 -0.99501312 -0.16347599
0.026648454 -0.85452521 -0.13129282
0.026545454 -0.76849616 -0.11158466
0.026000451 -0.31408215 -0.0074868202
0.019853452 -0.043082178 0.056416035
0.019587453 0.63736683 0.11745214
0.019289453 0.52140683 0.18569517
0.020123452 -0.31372619 -0.0055656433
0.020498453 -0.68837214 -0.091366768
0.013550453 0.56474578 0.197402
0.013831453 0.6373378 0.11672401
0.014183452 0.83035684 0.016020298
0.014614454 -0.76750815 -0.10762405
0.0082484521 -0.087619185 0.049864292
0.0080534518 0.23747981 0.12427711
0.0079974532 0.33099484 0.14568233
0.0079794526 0.36111981 0.15257597
0.0079544522 0.4034608 0.16226816
0.0079284534 0.44567782 0.17193127
0.0079144519 0.71471286 0.17753792
0.0079084523 0.47963282 0.17970324
0.0083464533 0.79605579 0.012346268
0.008461453 -0.44255412 -0.031376839
0.0087074526 -0.85296619 -0.12531805
0.0086554531 -0.76701617 -0.1056447
0.002194453 0.71496981 0.18605709
0.0024904525 0.74270982 0.01607132
0.0021854527 0.52173483 0.19112396
0.0024844529 0.79618281 0.019701958
0.0026504528 -0.64295816 -0.075390816
-0.0034375475 0.16043383 0.11025429
-0.0034535476 0.23785985 0.12796593
-0.0034615472 0.2819168 0.13804531
-0.0034045475 -0.0040851831 0.0726161
-0.0034125475 0.035122812 0.081586361
-0.0034865472 0.40374583 0.16591501
-0.0034945472 0.44593781 0.17556715
-0.0035115476 0.71522683 0.19455433
-0.0035095476 0.52184284 0.19293213
-0.0033315476 -0.36827421 -0.010696888
-0.0032685474 -0.68650818 -0.083498955
-0.0032775472 -0.64250815 -0.073431969
-0.0092035476 0.12039685 0.10290337
-0.0092035476 0.20768982 0.12286615
-0.0092035476 0.23804885 0.1298089
-0.0092035476 0.28209281 0.13988304
-0.0092035476 -0.003826201 0.074491978
-0.0092035476 0.59645081 0.19169712
-0.0092035476 0.52195084 0.19473934
-0.0092035476 -0.99164712 -0.15142775
-0.0092035476 -0.68604612 -0.081534863
-0.0092035476 -0.64205921 -0.071475029
-0.0092035476 -0.13126421 0.04534626
-0.0092035476 -0.57340717 -0.055772781
-0.014996547 -0.0035691857 0.07636404
-0.014988547 0.035616815 0.085324287
-0.014896547 0.59641582 0.1909852
-0.014915547 0.40402782 0.16955805
-0.015069548 -0.36754322 -0.006855011
-0.015180547 -0.92531216 -0.13438511
-0.015123548 -0.64161217 -0.069518089
-0.015110547 -0.57298112 -0.053825855
-0.020702548 0.20808285 0.12655592
-0.020672549 0.28244382 0.14355421
-0.020786546 -0.0033111572 0.078236103
-0.020932548 -0.36717916 -0.0049357414
-0.026499547 0.12105983 0.10846996
-0.026304547 0.44645384 0.18282795
-0.026259547 0.52227384 0.2001543
-0.026835548 -0.44022918 -0.019794941
-0.026758548 -0.31092513 0.0097532272
-0.026981547 -0.68466818 -0.075653076
-0.026955547 -0.64072216 -0.065610886
-0.032260545 0.12127984 0.11032295
-0.032389548 -0.040653169 0.073328018
-0.031986549 0.59631085 0.18885612
-0.032000549 0.44658184 0.18463898
-0.031785548 0.71678883 0.24636936
-0.032646548 0.79583585 -0.00036907196
-0.032655545 0.83012486 -0.0029978752
-0.032649547 -0.36645615 -0.0011019707
-0.03320355 -1.0614651 -0.15987968
-0.038050547 0.086761832 0.10424232
-0.03817755 -0.040388167 0.075201035
-0.038139548 -0.0025451779 0.083845139
-0.037422545 0.71684182 0.24815416
-0.038544547 0.79568684 -0.008936882
-0.039250545 -1.1166332 -0.17060471
-0.039194547 -1.0608962 -0.15787506
-0.038983546 -0.84888315 -0.10945177
-0.043768547 0.12171781 0.11402607
-0.043664549 0.20886081 0.13392305
-0.043870546 0.036836803 0.094645977
-0.043238547 0.56570184 0.21540213
-0.043384548 0.59623981 0.1874361
-0.043430548 0.4047268 0.17864609
-0.043157548 0.71631479 0.23071098
-0.043289546 0.52259278 0.2055583
-0.044928547 -0.84838116 -0.10747576
-0.044678546 -0.63939822 -0.059758663
-0.049806546 -0.084812164 0.068683147
-0.049085546 0.59620482 0.18672705
-0.049224548 0.3326028 0.16396523
-0.049562547 0.6370008 0.10872126
-0.048864547 0.71607882 0.22291994
-0.049017549 0.48082283 0.19779921
-0.048627548 0.80036485 0.26168394
-0.050300546 -0.43870413 -0.012098789
-0.051065546 -0.98780513 -0.13744164
-0.050870549 -0.84788013 -0.10550165
-0.050032549 -0.24682319 0.031701088
-0.055320546 0.087444842 0.10980511
-0.055126548 0.2092458 0.1376009
-0.055594549 -0.084536195 0.070559025
-0.055462547 -0.0017871857 0.089442253
-0.055399548 0.037318826 0.098366261
-0.054788548 0.5961678 0.18601799
-0.057032548 -0.98726416 -0.13544989
-0.056927547 -0.92162418 -0.12047005
-0.056672547 -0.76171815 -0.083977699
-0.055664547 -0.12893116 0.060427189
-0.056367546 -0.57003522 -0.040235996
-0.060799547 0.23971981 0.14634609
-0.061231546 -0.0015361905 0.09130621
-0.060291547 0.52290881 0.21095419
-0.062013548 -0.43795013 -0.0082588196
-0.061882548 -0.36466718 0.0084600449
-0.061568547 -0.1894182 0.048440933
-0.062249549 -0.56962013 -0.038299084
-0.066669546 0.16271681 0.13057423
-0.067160547 -0.08398819 0.074304104
-0.066879548 0.63690484 0.10654306
-0.065952547 0.52301383 0.21274996
-0.068678543 -0.84638715 -0.099584103
-0.067483544 -0.24586022 0.037384987
-0.068350546 -0.68150914 -0.061977863
-0.067249551 -0.12835813 0.064185143
-0.068022549 -0.51699221 -0.024456024
-0.072938547 -0.083716154 0.076175213
-0.07275755 -0.0010361671 0.095029354
-0.072026551 0.33323085 0.17124701
-0.071868546 0.40541285 0.18770695
-0.072608545 0.74508983 0.11058617
-0.073552549 -0.36396015 0.012276173
-0.074912548 -0.98565114 -0.12948179
-0.073292546 -0.24554121 0.039277077
-0.073035546 -0.12807214 0.066061974
-0.074000545 -0.56879413 -0.034430981
-0.078303546 0.088342845 0.1172061
-0.078012548 0.2100088 0.14494133
-0.078606546 -0.038555145 0.088279247
-0.077835545 0.28416282 0.16184425
-0.077162549 0.56626081 0.22615004
-0.077546544 0.40554881 0.18951607
-0.078400545 0.74502081 0.10790396
-0.079249546 -0.30786312 0.026889324
-0.07987155 -0.56838322 -0.032497883
-0.082918547 0.52332485 0.21813393
-0.087002546 -1.0564132 -0.14188099
-0.085605547 -0.51580417 -0.018677711
-0.08943855 0.21038681 0.14860535
-0.090130545 -0.038040161 0.092005253
-0.089987546 0.63677382 0.10364103
-0.088567548 0.5234288 0.21992636
-0.09028355 0.79720682 0.079419136
-0.089565545 0.8318398 0.13824511
-0.091238551 -0.43608618 0.0013170242
-0.091034546 -0.3629092 0.017990112
-0.092763551 -0.98405516 -0.12352896
-0.092581548 -0.91853213 -0.10859966
-0.090879545 -0.30719519 0.030682087
-0.090705544 -0.24459219 0.044946194
-0.09179455 -0.63593316 -0.044214725
-0.095508546 0.089008808 0.12274599
-0.09565755 0.038981855 0.11135101
-0.094778545 0.3338508 0.17851305
-0.093765549 0.67348081 0.25588036
-0.094212547 0.52353179 0.22171831
-0.096380547 0.79680282 0.056098938
-0.098706551 -0.98352623 -0.12154675
-0.098511547 -0.91802323 -0.10662699
-0.096688546 -0.30686319 0.032577038
-0.097799547 -0.67929816 -0.052251816
-0.097464547 -0.56715918 -0.026710987
-0.10022955 0.40608782 0.19674015
-0.10009555 0.44808382 0.20630312
-0.10187954 0.74427283 0.078557968
-0.09998855 0.48186082 0.21399498
-0.10211854 0.83090281 0.061466217
-0.10420255 -0.84344912 -0.087790012
-0.10684555 0.12406981 0.13431406
-0.10713055 0.039449811 0.11505032
-0.10617255 0.59583282 0.17965031
-0.10603455 0.36411482 0.18895912
-0.10733255 0.63667381 0.10146713
-0.10523955 0.67298281 0.24254417
-0.10779355 0.74406385 0.070399284
-0.10870454 0.7959848 0.0089621544
-0.10873355 -0.43498313 0.0070471764
-0.11081455 -0.98680222 -0.13319778
-0.10829855 -0.30620217 0.036363125
-0.10917655 -0.56635022 -0.022857666
-0.11268555 0.08966881 0.12827396
-0.11329955 -0.081833184 0.089244366
-0.11313855 -0.037019193 0.099443913
-0.11256455 0.71343583 0.13598394
-0.11128255 0.48208684 0.21758413
-0.11447455 0.83032781 0.014397144
-0.11429854 -0.36152518 0.025589943
-0.11571354 -0.75707221 -0.06442976
-0.11367454 -0.18672323 0.06537199
-0.11502955 -0.56594718 -0.020934105
-0.11812355 0.16452283 0.14709616
-0.12192055 -0.84200215 -0.081911087
-0.12382454 0.16471982 0.14892721
-0.12480155 -0.081303179 0.092967033
-0.12351955 0.24169385 0.1664362
-0.12315055 0.33461285 0.1875701
-0.12303155 0.36454684 0.19438028
-0.12569055 -0.30522013 0.042034149
-0.12651655 -0.51308215 -0.0052466393
-0.12969056 0.1249038 0.14165735
-0.13020456 0.0014098287 0.11357498
-0.13437355 -0.85030115 -0.1138649
-0.13284855 -0.63297915 -0.030684948
-0.13256454 -0.56474817 -0.015168667
-0.13469353 0.28582281 0.18002701
-0.13383454 0.48253483 0.22474718
-0.13783255 -0.43317115 0.016571999
-0.14377055 -1.0311701 -0.29271078
-0.13870254 -0.63256311 -0.028757095
-0.14125356 0.090751827 0.13746595
-0.14069954 0.21205282 0.1650362
-0.14203456 -0.08051616 0.098543167
-0.14183053 -0.035763144 0.10871315
-0.13937154 0.56647885 0.23120403
-0.14000255 0.36497384 0.19979095
-0.14008453 0.67123181 0.19571114
-0.14209154 0.71220481 0.095700264
-0.13927555 0.52434182 0.23601198
-0.15054753 -1.0402982 -0.32551384
-0.14695755 0.090965807 0.1393013
-0.14623654 0.24239385 0.17370796
-0.14602855 0.28614783 0.18365097
-0.14504656 0.56643581 0.23051214
-0.14579454 0.33521384 0.19479799
-0.14565253 0.36511582 0.20159197
-0.14525354 0.44904983 0.22066212
-0.14804053 0.71195585 0.087584972
-0.15738755 -1.0495151 -0.35862875
-0.15423554 -0.87472618 -0.20816565
-0.15190855 0.24256682 0.17552328
-0.15290555 0.041287839 0.12980318
-0.15181154 0.67064083 0.17995214
-0.15109155 0.40727383 0.21293736
-0.15564254 0.74237484 0.0043931007
-0.15071756 0.48286584 0.23010826
-0.15051055 0.52454078 0.23957491
-0.16429254 -1.0588201 -0.39205694
-0.15461555 -0.3036052 0.051459312
-0.15430656 -0.24119318 0.065637112
-0.15564454 -0.51117814 0.0043091774
-0.15817854 0.12592882 0.15081215
-0.15861353 0.041514814 0.13164234
-0.15709856 0.33551085 0.19840527
-0.15633854 0.48297584 0.23189306
-0.15612456 0.52463984 0.24135494
-0.16570255 0.82793981 -0.18073797
-0.16105255 -0.43174422 0.024168015
-0.16039056 -0.30328512 0.053339958
-0.16006956 -0.24089015 0.067510128
-0.16172856 -0.56277812 -0.0055856705
-0.16472954 -0.034774184 0.11610889
-0.16208255 0.5663048 0.22843695
-0.16258854 0.36553681 0.20699215
-0.16213953 0.44940582 0.22603226
-0.16597855 0.71120584 0.063116074
-0.16173655 0.52473783 0.24313402
-0.17144555 0.87031382 -0.16883707
-0.16616455 -0.30296719 0.055221081
-0.16943654 -0.6452682 -0.083600998
-0.16552854 -0.18411112 0.082206249
-0.16520554 -0.12364018 0.095933914
-0.16778055 -0.56450617 -0.013325691
-0.17023855 0.0030718446 0.12649012
-0.16776356 0.56626081 0.22774601
-0.16912854 0.59539878 0.17189503
-0.16822755 0.36567581 0.20878792
-0.17383555 0.74173081 -0.020698071
-0.16734454 0.52483582 0.24491215
-0.17158854 -0.24028814 0.071254253
-0.17612755 -0.65237212 -0.11447763
-0.17431554 0.28695083 0.19269133
-0.17403454 0.33595181 0.20380926
-0.17294955 0.52493382 0.24668932
-0.18474355 0.8700068 -0.219244
-0.19069454 -1.0117441 -0.45434189
-0.18859255 -0.91700816 -0.3713069
-0.18621454 -0.80982816 -0.27736378
-0.18288055 -0.65954316 -0.1456399
-0.17667153 -0.12310314 0.099647045
-0.18106854 -0.57790017 -0.07407999
-0.18213755 -0.078710198 0.11151123
-0.18187255 -0.03404218 0.12164307
-0.17912954 0.56617284 0.226367
-0.17899856 0.44975781 0.23139095
-0.18604055 0.74129784 -0.037529945
-0.17879856 0.48341084 0.23902512
-0.19565955 -0.92571115 -0.40487003
-0.19092256 -0.72009516 -0.22398806
-0.18275854 -0.18325913 0.087795258
-0.18239954 -0.12283623 0.10150099
-0.18635055 0.16684383 0.16898918
-0.18531156 0.33624381 0.207407
-0.18512756 0.36609185 0.21417618
-0.18547153 0.64076686 0.20148134
-0.18461356 0.44987383 0.23317623
-0.19561955 0.79279882 -0.1735611
-0.19735155 0.90686285 -0.23755884
-0.19089955 -0.43656719 0.00087690353
-0.18922654 -0.30170417 0.062731266
-0.18849754 -0.18297613 0.089657307
-0.18812653 -0.12257016 0.10335493
-0.19460255 -0.59154713 -0.13595867
-0.19201654 0.16703284 0.17080736
-0.19328755 -0.03355819 0.12532902
-0.19304955 0.0040038228 0.13384533
-0.19280356 0.042854846 0.14265394
-0.19048956 0.40817082 0.22547913
-0.20351654 -0.68146718 -0.24087667
-0.19384953 -0.12230515 0.10520697
-0.20146155 -0.5984652 -0.16732168
-0.19991755 -0.53606713 -0.11202669
-0.19816554 0.092861831 0.15576792
-0.19794056 0.12733483 0.16358232
-0.19657454 0.33653384 0.21099997
-0.19638056 0.36636585 0.21776104
-0.20226055 0.70968485 0.01363802
-0.21191254 -0.74313319 -0.3214407
-0.19956955 -0.12204123 0.10705805
-0.20384055 0.093068838 0.1575942
-0.20360956 0.12753284 0.16540337
-0.20498955 -0.077699184 0.11889696
-0.20253155 0.28773981 0.20170498
-0.20443654 0.0044648051 0.13751602
-0.20323956 0.63976383 0.17786312
-0.20531055 0.66793782 0.10808134
-0.21063855 0.7404238 -0.071447849
-0.20893255 -0.36945713 -0.013949871
-0.21904054 -0.75096118 -0.35454178
-0.21537155 -0.61250019 -0.23092985
-0.20816556 0.2878958 0.20350409
-0.20919156 0.63942683 0.16995192
-0.22469756 0.86928481 -0.33757782
-0.21808854 -0.46123219 -0.12125301
-0.21201456 -0.23939312 0.077533245
-0.21608156 -0.032601178 0.13268518
-0.21379855 0.28805184 0.20530415
-0.21553755 0.043732822 0.14997196
-0.21345055 0.33696485 0.21638107
-0.21294054 0.40867382 0.23262215
-0.21264353 0.45045084 0.24208307
-0.22303355 0.73998284 -0.088536739
-0.23952153 -0.97976422 -0.61320591
-0.22030756 0.16796684 0.17987919
-0.21974656 0.24459982 0.19722891
-0.21854556 0.4087978 0.23440599
-0.22675556 0.70865583 -0.019762993
-0.21799454 0.48415783 0.25146818
-0.23343855 0.79186082 -0.22667074
-0.22746053 -0.032127202 0.13635826
-0.22465655 0.56580687 0.22085619
-0.22446254 0.36704385 0.22670937
-0.22383454 0.45067781 0.24564028
-0.23291755 0.70839584 -0.02816391
-0.23549056 0.73953885 -0.10571194
-0.23979956 0.79170281 -0.23560381
-0.25132355 -0.88549113 -0.58299208
-0.23042154 -0.19021618 0.047074318
-0.22836754 -0.12187719 0.10900402
-0.24398553 -0.64138615 -0.36178064
-0.23160255 0.16833681 0.18349934
-0.23359755 -0.076936185 0.12489891
-0.22942653 0.45079082 0.24741602
-0.22884753 0.52589482 0.26441193
-0.24910954 0.82608485 -0.330688
-0.24357155 -0.39898121 -0.16804504
-0.23725954 -0.19516015 0.017359257
-0.23783454 0.094293833 0.16851711
-0.23822653 0.044598818 0.15727615
-0.23917556 0.63772881 0.13010502
-0.23442355 0.52598882 0.26617908
-0.25257254 0.79138583 -0.25354385
-0.25351053 -0.49339712 -0.28039408
-0.26147255 -0.74310815 -0.50840378
-0.25870356 -0.65625417 -0.42909908
-0.24288854 0.16870284 0.18711615
-0.24389154 0.044812799 0.15910196
-0.24166355 0.59768283 0.22134209
-0.24094054 0.40929085 0.2415309
-0.23999554 0.52608281 0.26794529
-0.25898454 0.79122585 -0.26254892
-0.25112155 -0.20518613 -0.042890072
-0.26401553 -0.59817421 -0.40309286
-0.24955356 0.045026839 0.1609273
-0.24521056 0.56888384 0.27937508
-0.25127256 0.63704282 0.11403227
-0.24618655 0.45112783 0.25274229
-0.26814753 -0.50669622 -0.34615993
-0.26513353 -0.41737318 -0.2639761
-0.26037654 -0.27636719 -0.13423967
-0.25579354 -0.14050817 -0.0092377663
-0.25416255 0.16906685 0.190732
-0.25314355 0.28912485 0.21786928
-0.25783354 -0.0019281507 0.092927933
-0.25272855 0.33795184 0.22890711
-0.26002353 0.66515982 0.034614086
-0.25148255 0.48478383 0.26209593
-0.27245554 -0.42362118 -0.29655409
-0.27901253 -0.61272216 -0.47120905
-0.26123953 0.092493832 0.15493727
-0.26013955 0.12947381 0.18355513
-0.25979453 0.16924781 0.19254017
-0.25875255 0.28927583 0.2196579
-0.26320055 0.037424803 0.10387802
-0.25770754 0.40965682 0.24686337
-0.27325255 0.73819083 -0.15777206
-0.27832055 0.79074484 -0.28970289
-0.27239054 -0.22057617 -0.13533211
-0.28662053 -0.62010419 -0.50576687
-0.26542553 0.16942883 0.19434834
-0.26501355 0.21590984 0.20484591
-0.27328253 -0.052713156 -0.0056200027
-0.26474753 0.24590683 0.21162128
-0.26953453 0.63600481 0.089772224
-0.26225653 0.52645385 0.2750001
-0.30003253 -0.78417313 -0.68644571
-0.27961254 -0.22580421 -0.16672468
-0.27195853 0.16703981 0.173594
-0.28036955 -0.057081163 -0.035820961
-0.26952255 0.33836681 0.23425817
-0.26887354 0.4098978 0.25041533
-0.29484355 -0.44273221 -0.39617109
-0.30206254 -0.63509119 -0.57591295
-0.28054154 0.11983681 0.10379124
-0.27885053 0.16375583 0.14498711
-0.27483854 0.36823285 0.24275494
-0.28909954 0.70602483 -0.10475111
-0.29979953 -0.38043523 -0.36548376
-0.29425555 -0.23640716 -0.23037672
-0.30989555 -0.64269722 -0.61149979
-0.29678953 -0.11788523 -0.14597368
-0.29303154 -0.02268517 -0.056324005
-0.28070354 0.33864182 0.2378273
-0.31377354 -0.54818821 -0.55120277
-0.30437455 -0.31004822 -0.32693911
-0.29074553 0.20839584 0.13549995
-0.30413753 -0.12265217 -0.17747688
-0.28976655 0.59454983 0.15838814
-0.30517754 0.73704684 -0.20177984
-0.28487554 0.48539484 0.27269316
-0.29776254 0.20527381 0.10655403
-0.30937555 -0.074968159 -0.15944004
-0.30570954 0.013510823 -0.075459003
-0.29584655 0.59415281 0.15043211
-0.29225653 0.3381418 0.23266315
-0.30027854 0.63425386 0.04893589
-0.29117155 0.41037583 0.25751209
-0.29043153 0.48549584 0.27445507
-0.29002354 0.52691084 0.28379822
-0.32958353 -0.56257617 -0.62226295
-0.31372455 -0.17991018 -0.25904894
-0.30484155 0.20212382 0.077349186
-0.29556853 0.52700186 0.28555632
-0.32127255 -0.18504822 -0.2916007
-0.32236454 -0.0400002 -0.18072701
-0.30477154 0.56488681 0.20671129
-0.30805254 0.59335482 0.13446093
-0.30282754 0.40971583 0.24952507
-0.32889155 -0.19023621 -0.32446098
-0.31770453 0.22917885 0.050265312
-0.32784653 0.0010458231 -0.16886902
-0.30780953 0.45175183 0.26405525
-0.33101854 0.73611981 -0.23739576
-0.30708253 0.48579583 0.27974606
-0.30665153 0.52718186 0.28907633
-0.33987355 -0.26946712 -0.42870998
-0.32493654 0.22610581 0.020539284
-0.33744454 -0.048906147 -0.24468374
-0.31689754 0.56402183 0.1910162
-0.33752355 0.73588586 -0.24636078
-0.31244755 0.52694482 0.28537512
-0.35094455 -0.34574223 -0.53095579
-0.34435055 -0.20076418 -0.39113665
-0.33626154 0.13637882 -0.093327045
-0.34968454 -0.15221715 -0.37277269
-0.34295154 -0.0074631572 -0.23260784
-0.33494654 0.66133285 -0.065953732
-0.32012555 0.48330083 0.2425971
-0.36010653 -0.21149921 -0.45909595
-0.35547954 0.042717814 -0.24009609
-0.35127655 0.12921184 -0.15566301
-0.34868154 0.18260181 -0.10354471
-0.34765953 0.66068083 -0.083013058
-0.35207653 0.2628088 -0.052763939
-0.36614555 -0.020535171 -0.33048487
-0.34132853 0.56227583 0.15939999
-0.34545055 0.39626682 0.078042984
-0.34141055 0.47762883 0.15779018
-0.37100655 0.034505844 -0.30519104
-0.36894053 0.075236797 -0.26510286
-0.36383754 0.17584682 -0.16608667
-0.38152555 -0.17290521 -0.50931692
-0.34747455 0.56183684 0.15144825
-0.35661253 0.63103282 -0.025868893
-0.35046855 0.43945384 0.093346119
-0.36608353 0.70275581 -0.20966101
-0.37432855 0.11820281 -0.25136995
-0.38442153 -0.076671183 -0.4439497
-0.37260854 0.70247781 -0.21855068
-0.38682753 0.026134849 -0.37152195
-0.37927553 0.1689648 -0.22979069
-0.39251554 -0.081458151 -0.47828579
-0.35981253 0.56095278 0.13548708
-0.36374855 0.58970284 0.061608315
-0.36519855 0.43520382 0.034398079
-0.36089355 0.51663387 0.11520195
-0.38250053 0.25076282 -0.17711067
-0.37768054 0.34008384 -0.088108063
-0.40066454 0.059207797 -0.39751005
-0.39028555 0.24767882 -0.20893192
-0.37313354 0.55917287 0.1027422
-0.39229053 0.7016378 -0.24536276
-0.39814255 0.24456584 -0.24104166
-0.39307353 0.33479482 -0.15038395
-0.39041853 0.38206285 -0.10289001
-0.38571355 0.46581283 -0.018743038
-0.40607253 0.24142283 -0.2734561
-0.40087655 0.33211285 -0.181952
-0.39918354 0.65803182 -0.1521349
-0.40102154 0.46172681 -0.079741001
-0.39833954 0.50764781 -0.033212662
-0.42472953 0.32391083 -0.27845478
-0.41426954 0.62772083 -0.1023941
-0.42075953 0.62734681 -0.11100674
-0.42983153 0.36960083 -0.26148081
-0.42687455 0.41739583 -0.21243191
-0.42726654 0.62697184 -0.11963987
-0.43379053 0.62659484 -0.12829685
-0.44611955 0.36444682 -0.32702589
-0.44244054 0.54442883 -0.17045307
-0.44010854 0.58007383 -0.13339472
-0.45947453 0.40797281 -0.34290695
-0.45846254 0.65496981 -0.23162889
-0.47182953 0.6542778 -0.24954796
