# .PCD v0.7 - Point Cloud Data file format
VERSION 0.7
FIELDS x y z
SIZE 4 4 4
TYPE F F F
COUNT 1 1 1
WIDTH 1
HEIGHT 1024
VIEWPOINT 0 0 0 1 0 0 0
POINTS 1024
DATA ascii
0.47626245 0.33650398 -0.68647146
0.45560744 0.17487895 -0.46668673
0.47188944 0.36697799 -0.71847153
0.47915745 0.45271999 -0.83085251
0.44587845 0.13910496 -0.41214848
0.43675444 0.02985996 -0.26911688
0.46851343 0.41012096 -0.7669878
0.46509543 0.45382994 -0.81614065
0.46799645 0.48907995 -0.86224461
0.41747043 -0.12495106 -0.059168816
0.42657045 0.065532982 -0.30079079
0.40365344 -0.21721798 0.06861639
0.39416543 -0.25826806 0.12928152
0.38529843 -0.36935002 0.27424955
0.41950944 0.14241797 -0.38605547
0.37281543 -0.45169705 0.38846827
0.37650645 -0.40474206 0.32725334
0.41911843 0.22300196 -0.48343086
0.42131644 0.25141096 -0.52042866
0.37787944 -0.31001598 0.21069622
0.38905343 -0.16558605 0.022611141
0.36473343 -0.47993201 0.43197346
0.37064445 -0.40352398 0.33246756
0.40917143 0.180457 -0.42042589
0.41246843 0.22375596 -0.47675276
0.42145443 0.34176499 -0.63026667
0.35501045 -0.53080803 0.50483513
0.37922245 -0.21283907 0.091200352
0.38290143 -0.16452903 0.028355122
0.39003545 -0.07083708 -0.09352684
0.39986444 0.14487994 -0.36661148
0.41688344 0.37201095 -0.66176176
0.42004743 0.41424799 -0.71664762
0.42588645 0.49217495 -0.81790876
0.36595345 -0.30770808 0.22151518
0.36999345 -0.25378507 0.15144444
0.37314343 -0.211752 0.096822262
0.39920643 0.22525799 -0.46342945
0.38297743 0.0050759912 -0.17761469
0.41007045 0.37263197 -0.65473557
0.41633743 0.45766699 -0.76511478
0.36397845 -0.25267106 0.15696239
0.36707443 -0.210666 0.10243511
0.37063044 -0.16242403 0.039811134
0.35312745 -0.39988607 0.34805822
0.35581744 -0.363388 0.30068111
0.39259443 0.22600597 -0.45678663
0.35406843 -0.30541104 0.23230028
0.33800745 -0.52694899 0.51956749
0.36101544 -0.20958406 0.10804129
0.36774543 -0.11674303 -0.012343884
0.37128744 -0.067886055 -0.075698853
0.37032545 0.0069249868 -0.16541147
0.40253344 0.45874995 -0.75066376
0.37638944 0.18437898 -0.38774872
0.38139144 0.25576198 -0.4801116
0.38971144 0.37448597 -0.63373566
0.34599444 -0.249345 0.17346239
0.32672045 -0.524391 0.52935314
0.34893245 -0.20742708 0.11922121
0.35542944 -0.11471707 -0.00073862076
0.35884845 -0.065931022 -0.063865662
0.35772243 0.0087639689 -0.15325069
0.35992444 0.040739954 -0.19458055
0.39119044 0.49471498 -0.78136587
0.32990944 -0.395078 0.36873531
0.36091644 0.14974594 -0.32803869
0.36336544 0.18593299 -0.37476158
0.36627844 0.22897899 -0.43034267
0.35143843 0.0096799731 -0.14718676
0.37620744 0.37571394 -0.61980247
0.38429445 0.49521896 -0.77410173
0.33689243 -0.20528001 0.13036633
0.31898543 -0.46992105 0.47206545
0.32659245 -0.35749906 0.32690811
0.35242143 0.11976296 -0.28193951
0.35687044 0.18670696 -0.36828566
0.34268245 -0.026750982 -0.092963696
0.36436343 0.29943997 -0.51368952
0.36947444 0.37632596 -0.61285591
0.37226343 0.41829699 -0.66699076
0.32810643 -0.24604505 0.18988323
0.30985945 -0.52057701 0.54397917
0.34027243 -0.06301707 -0.046188831
0.31835943 -0.39269 0.37902832
0.32077643 -0.35632902 0.33213139
0.34803244 0.15135199 -0.31527185
0.35039043 0.18747896 -0.3618207
0.35503343 0.25862396 -0.45348644
0.36275643 0.37693596 -0.60592365
0.37054145 0.49622297 -0.75961351
0.31866443 -0.29858798 0.26444817
0.32802743 -0.15513605 0.079620361
0.30764344 -0.46744698 0.48201656
0.33092844 -0.11069506 0.022360325
0.34847745 0.25933498 -0.44686079
0.33469844 0.044291973 -0.17008591
0.31623545 -0.24385804 0.20078754
0.33326745 0.12223595 -0.26306677
0.29654545 -0.60755199 0.48776531
0.30339345 -0.35283798 0.34774542
0.32215443 0.046054959 -0.15789986
0.34787843 0.46302295 -0.6934309
0.30440345 -0.24168199 0.21165609
0.29538044 -0.38795108 0.39951849
0.29761744 -0.35167998 0.35293531
0.32055643 0.12387395 -0.25053883
0.32459044 0.19054794 -0.3360815
0.32718244 0.23337996 -0.39103651
0.31397745 0.015127957 -0.1110177
0.32888144 0.26145595 -0.42705774
0.33424345 0.35007596 -0.54075575
0.34320545 0.49821398 -0.7308116
0.28507644 -0.46253604 0.50182724
0.28684545 -0.43330008 0.46431446
0.30660543 -0.106713 0.045303345
0.31422043 0.12468898 -0.24429274
0.30556944 -0.02114898 -0.057379723
0.32762745 0.35070395 -0.53396082
0.27738944 -0.51834601 0.55146933
0.28119144 -0.43209702 0.46931124
0.30342743 -0.057255089 -0.011102676
0.28394943 -0.385598 0.40971756
0.29942343 -0.020224035 -0.051484585
0.31828144 0.30414295 -0.4667697
0.30342945 0.048681974 -0.13970375
0.30536744 0.082019985 -0.18238688
0.32272443 0.38056099 -0.56460476
0.33214945 0.54268897 -0.7721715
0.28363043 -0.29186398 0.29629612
0.28673643 -0.238437 0.22789431
0.28915745 -0.19680101 0.17458725
0.32284945 0.49969298 -0.70935869
0.32532445 0.54314101 -0.76492548
0.27782744 -0.29075307 0.30157614
0.28086844 -0.23736101 0.2332902
0.27255845 -0.38325709 0.41988325
0.29698545 0.15768999 -0.26466846
0.30136845 0.23627597 -0.36507177
0.29285845 0.083708942 -0.17015076
0.30785644 0.35257596 -0.51365471
0.31608945 0.50018394 -0.70223379
0.27500844 -0.23628706 0.23868036
0.26142544 -0.51858503 0.54977846
0.27999145 -0.14696199 0.12455654
0.26428643 -0.42850405 0.48425627
0.29065943 0.15847296 -0.25839567
0.29647344 0.26495397 -0.39429283
0.30746144 0.46616799 -0.65108871
0.26120344 -0.38092607 0.43002224
0.26317745 -0.34479004 0.3839035
0.29002944 0.26564795 -0.38777685
0.29474044 0.35381597 -0.50018167
0.29851845 0.42450798 -0.59030676
0.26332244 -0.23414809 0.24942827
0.25078243 -0.51875204 0.5486455
0.26808944 -0.14494401 0.13569832
0.30053043 0.59030396 -0.79385853
0.28972343 0.38353795 -0.53052759
0.29815844 0.54493397 -0.73607683
0.25471243 -0.28633505 0.32261133
0.24545944 -0.51883703 0.54807711
0.26445943 -0.099839985 0.085092545
0.26698145 -0.051579058 0.023628235
0.27174944 0.16080999 -0.23963785
0.27717745 0.26703095 -0.37477684
0.29371643 0.59070694 -0.78656578
0.29990444 0.61983496 -0.94062948
0.28167444 0.35504895 -0.48675585
0.24013443 -0.51892406 0.54750729
0.24608743 -0.34138304 0.39928246
0.26395044 0.13113999 -0.19471264
0.25671244 -0.013811052 -0.010489464
0.26013443 0.054733992 -0.097606659
0.28691843 0.59110898 -0.77929068
0.29245743 0.62083298 -0.92027855
0.27516145 0.35566294 -0.48006344
0.27868244 0.42616999 -0.56966972
0.24321344 -0.28414303 0.3330822
0.23964643 -0.687213 0.42385435
0.26094544 0.19807994 -0.27254057
0.26637545 0.30941194 -0.41388655
0.28511044 0.62175095 -0.90156174
0.24441044 -0.14093703 0.1578784
0.22931343 -0.45046109 0.55085039
0.25799245 0.26909196 -0.35536861
0.27814445 0.67322993 -0.89215088
0.23625444 -0.18745905 0.22366428
0.23851743 -0.13994199 0.16339827
0.22517145 -0.42022103 0.51887321
0.24529243 0.13352495 -0.17630148
0.23857345 -0.011097014 0.0069293976
0.27125645 0.67356396 -0.88438082
0.22604044 -0.280873 0.34872532
0.23909444 0.13431597 -0.1701827
0.24046944 0.16466594 -0.2085948
0.24208345 0.20030195 -0.25369644
0.24711543 0.31135994 -0.39425278
0.21407844 -0.41788 0.52870035
0.22874944 -0.094043076 0.11883831
0.21779844 -0.33575803 0.4247613
0.25760943 0.67412496 -0.87138748
0.24588144 0.42891097 -0.53553677
0.21698044 -0.22569603 0.29209232
0.21880344 -0.18439108 0.23986816
0.21217044 -0.33464104 0.42983341
0.24641344 0.59349597 -0.73592949
0.23634344 0.35931498 -0.44016266
0.23758644 0.38821894 -0.47666979
0.24262944 0.50549197 -0.62478065
0.21123244 -0.22465008 0.29738712
0.20508544 -0.60910708 0.47794247
0.20285344 -0.51957101 0.54349327
0.21300744 -0.18337303 0.24525356
0.21504544 -0.135984 0.18540239
0.20500644 -0.36944109 0.48026133
0.22184144 0.16695499 -0.19010067
0.22509944 0.24478394 -0.28829575
0.19970044 -0.60921198 0.4773531
0.19752544 -0.519669 0.54291534
0.19629744 -0.44335204 0.57992554
0.20094045 -0.33241504 0.43995714
0.22350244 0.36051995 -0.42695951
0.23761643 0.67446399 -0.86390781
0.19533844 -0.33130604 0.44500732
0.20947844 0.16847199 -0.17782259
0.20528044 0.062358975 -0.044215679
0.20658344 0.095292985 -0.085683823
0.21824244 0.38994896 -0.45667458
0.23067544 0.67495501 -0.85232544
0.19928044 -0.089278996 0.14670944
0.20629844 0.24687099 -0.26935577
0.21967945 0.59506595 -0.70730162
0.21181944 0.39052296 -0.45003653
0.22453944 0.70980197 -0.86637259
0.21500044 0.47331095 -0.55416346
0.18630745 -0.27333707 0.38495255
0.18833844 -0.22049505 0.31848955
0.18992044 -0.17932707 0.26670837
0.19341744 -0.08833307 0.15225744
0.18278845 -0.36492306 0.50014925
0.19716343 0.16998094 -0.1655879
0.20005643 0.24756199 -0.26306677
0.19204344 0.032698989 0.0069031715
0.20260245 0.31584495 -0.34886074
0.19321144 0.064029992 -0.032461643
0.18263943 -0.21946305 0.32374525
0.17986344 -0.68841904 0.41729212
0.18593544 -0.13109201 0.21270609
0.18756545 -0.087389052 0.15779448
0.17725743 -0.36380106 0.50510216
0.17859244 -0.327995 0.46011353
0.19102244 0.17073196 -0.15948772
0.19382444 0.24825197 -0.25678682
0.18606244 0.033554971 0.012696266
0.19482245 0.27584594 -0.29142189
0.19629145 0.31647897 -0.34242249
0.18172345 -0.086448014 0.1633234
0.18345045 -0.038663089 0.10334539
0.17302944 -0.32689708 0.46513319
0.18999144 0.31711197 -0.33599472
0.18118544 0.065691948 -0.020746708
0.19161543 0.36350298 -0.39416361
0.20437044 0.67505097 -0.85079861
0.16898344 -0.68865901 0.41608334
0.17997044 0.20758498 -0.1916008
0.18139544 0.24962699 -0.24426079
0.17412944 0.035259962 0.024255276
0.17518944 0.066520989 -0.014902592
0.17630143 0.099330962 -0.056003571
0.19430844 0.63059998 -0.72145987
0.18624844 0.39280295 -0.42359972
0.19019544 0.50925493 -0.56946468
0.16354343 -0.68878204 0.41547632
0.16699244 -0.17532009 0.28802919
0.17168544 -0.036855042 0.1145854
0.16071744 -0.36044806 0.5199213
0.17519844 0.25031096 -0.23801565
0.19142044 0.71016395 -0.85749578
0.15994044 -0.21535808 0.34468555
0.15945645 -0.75947398 0.36316633
0.16581844 -0.035954058 0.1201911
0.16768543 0.20901996 -0.17930984
0.16108544 0.00042897463 0.081432343
0.16224144 0.036954939 0.035772324
0.18254344 0.67859095 -0.76627874
0.17614244 0.47629195 -0.51340246
0.15262444 -0.26697809 0.41570139
0.14953744 -0.52061599 0.53766441
0.15956543 0.14441597 -0.091617584
0.16155843 0.20973396 -0.17318153
0.15519744 0.0013009906 0.087099552
0.15726344 0.068991959 0.0025672913
0.14864744 -0.21332103 0.35510826
0.14848045 -0.75974005 0.36192751
0.15133344 -0.12529999 0.24519253
0.15411544 -0.034158051 0.13137913
0.15352544 0.14517999 -0.085645676
0.16783744 0.63201094 -0.69294167
0.17168944 0.71022201 -0.85643148
0.16207044 0.43586999 -0.44826555
0.16428244 0.51110595 -0.54211855
0.16553244 0.55361497 -0.59514666
0.14688043 -0.080848992 0.19631815
0.14749645 0.14594096 -0.079684734
0.14834444 0.17593896 -0.11706877
0.14934044 0.21115798 -0.16095448
0.14345545 0.0030359626 0.098400116
0.16029544 0.59853697 -0.64369583
0.16125244 0.63236201 -0.68584681
0.15688044 0.47776395 -0.49319267
0.15783644 0.51156592 -0.53531456
0.13590844 -0.26383203 0.4309721
0.13987944 -0.12338907 0.25595236
0.13216744 -0.439197 0.59581709
0.13203844 -0.40066904 0.60149813
0.13759944 0.0039009452 0.10403919
0.13943444 0.071445942 0.01995039
0.14825544 0.39617699 -0.38430548
0.14936244 0.43691999 -0.43502569
0.15140244 0.512025 -0.52852154
0.13201344 -0.76015204 0.36006117
0.13088444 -0.68955106 0.4118104
0.13547143 0.14745694 -0.067792892
0.13175444 0.0047639608 0.1096673
0.14812145 0.63305998 -0.67169666
0.14196543 0.39673495 -0.37779856
0.14934744 0.68012297 -0.73022652
0.12481143 -0.26174802 0.44111538
0.12422743 -0.61084205 0.46899033
0.12724344 -0.16840106 0.32502556
0.13109644 0.21327895 -0.14269352
0.13568544 0.39729095 -0.37130165
0.11927544 -0.26070899 0.44617748
0.12102943 -0.76043504 0.35881138
0.11998943 -0.68981999 0.4105792
0.12385244 -0.077162087 0.21814156
0.12503643 -0.029709041 0.15918732
0.11789543 -0.31605607 0.51493931
0.12095843 0.042824984 0.075792313
0.13136944 0.47970998 -0.4664197
0.11499843 -0.20726699 0.38618851
0.11553643 -0.76057905 0.35818434
0.11454243 -0.68995708 0.40996122
0.11217044 -0.52143198 0.53351736
0.11101843 -0.43964106 0.59348345
0.11049643 -0.39618105 0.6206522
0.11812143 -0.076246083 0.22357416
0.11158443 -0.35053307 0.56399822
0.11898943 0.21468395 -0.1305728
0.11580843 0.074687958 0.042996407
0.12775543 0.60042894 -0.6088295
0.12958644 0.68103194 -0.70875978
0.10617043 -0.34944504 0.56886053
0.11630643 0.37050599 -0.31665659
0.11868744 0.48067498 -0.45310688
0.10771044 -0.027066052 0.17576456
0.10153243 -0.31285399 0.52973843
0.10559344 0.15121597 -0.038232803
0.10267743 0.0090449452 0.13767624
0.10405643 0.076297939 0.05446434
0.11647643 0.68163395 -0.69451952
0.11715543 0.71472597 -0.73546457
0.098300435 -0.20427305 0.40162325
0.10009544 -0.11677009 0.29335356
0.10098343 -0.073511064 0.2398262
0.10224743 0.28565496 -0.1976018
0.10302643 0.32579499 -0.24721766
0.09819743 0.077098966 0.060183525
0.10903243 0.635131 -0.62956953
0.10525443 0.44054997 -0.38905859
0.10605244 0.48163497 -0.43984175
0.10670443 0.51520097 -0.48133087
0.091738433 -0.25555402 0.47136736
0.093543433 -0.16256398 0.35642433
0.089856431 -0.44010705 0.59113121
0.094264433 0.18249995 -0.063267708
0.094905436 0.21747297 -0.1064539
0.092348434 0.077898979 0.065891266
0.10256243 0.63547295 -0.62259674
0.10341943 0.68223298 -0.68033361
0.10036743 0.51564997 -0.47463989
0.10113943 0.55778396 -0.52666569
0.087215431 -0.20228904 0.41187334
0.086431429 -0.61176807 0.46472216
0.087960429 -0.16159898 0.36162853
0.084564433 -0.44022709 0.59054041
0.084077433 -0.39545399 0.62337923
0.08459843 -0.34511501 0.58824015
0.088911429 0.21816599 -0.10044765
0.08962743 0.25971395 -0.15169954
0.095528431 0.60229695 -0.57429075
0.080787435 -0.25350899 0.48139238
0.080182433 0.048592985 0.11536026
0.084683433 0.32761496 -0.22847652
0.085421436 0.37335998 -0.28484774
0.086529434 0.44208497 -0.36953783
0.07781443 -0.84007901 0.29621124
0.074763432 -0.52231699 0.52931643
0.07682243 -0.15967709 0.37201548
0.073865436 -0.34296602 0.59788847
0.077579431 0.26102996 -0.13953781
0.078589432 0.32821894 -0.22224951
0.083226435 0.63649398 -0.6017518
0.080309436 0.44259495 -0.36305189
0.071559429 -0.76179105 0.35311937
0.071265429 -0.158719 0.37719822
0.068680435 -0.44059402 0.58876228
0.06827943 -0.39580804 0.62162018
0.07261543 -0.068997085 0.26674509
0.070092432 0.15566397 -0.0030865669
0.073540434 0.40276998 -0.30697966
0.07745643 0.68342096 -0.65212488
0.07410343 0.44310194 -0.35658073
0.075726435 0.55941999 -0.49962854
0.066712432 -0.84041303 0.29491138
0.064813435 -0.61233205 0.46225548
0.064594433 0.18607998 -0.033729553
0.062857434 0.051034987 0.13218212
0.063253433 0.08186698 0.094304562
0.070997432 0.68371594 -0.64510584
0.067908436 0.44360894 -0.35011959
0.068434432 0.48448396 -0.4003377
0.059407439 -0.612477 0.46163511
0.058088433 -0.44084603 0.58757353
0.061941434 -0.020111978 0.21959209
0.059102435 0.22160399 -0.070578575
0.060380433 0.33001995 -0.20363951
0.057465438 0.082654953 0.099959373
0.053999435 -0.61262208 0.46101618
0.054655436 -0.15586001 0.39269733
0.055203438 -0.10934407 0.3356061
0.052475438 -0.39617401 0.61985111
0.056265436 -0.019253075 0.22503233
0.052501436 -0.33869809 0.61710644
0.053173438 0.22228694 -0.064635754
0.051687438 0.083439946 0.10560226
0.052033436 0.11574697 0.065991402
0.057263438 0.60450494 -0.53326845
0.048147436 -0.24743205 0.5112915
0.048591435 -0.61277002 0.46039343
0.049137436 -0.15491098 0.39784813
0.047205437 -0.39629799 0.61926031
0.047182437 -0.33763701 0.62189341
0.046633437 0.15859199 0.020150185
0.047910437 0.29136097 -0.14247274
0.050504435 0.56103992 -0.47279072
0.043237437 -0.19444698 0.45258045
0.044073436 -0.10751003 0.34609032
0.042190436 -0.44123298 0.58577824
0.042209435 -0.30130404 0.58346939
0.041344438 0.22364694 -0.052776814
0.041696437 0.26493698 -0.10329962
0.042268436 0.33180797 -0.18512583
0.040435437 0.11726695 0.077393532
0.042656437 0.37729496 -0.24078369
0.045564435 0.71764493 -0.65724564
0.043240435 0.44562197 -0.32439184
0.043872435 0.51963794 -0.41495991
0.037780438 -0.19347805 0.4576335
0.038939435 -0.84127909 0.29163933
0.038174435 -0.69204408 0.40117931
0.038126435 -0.15302104 0.40812826
0.038523436 -0.10659605 0.35131931
0.036890436 -0.44136506 0.58517933
0.034966435 0.16004598 0.031712532
0.034652438 0.11802298 0.083079338
0.031945437 -0.24442703 0.52614546
0.033382434 -0.84145802 0.29097939
0.032358438 -0.61322206 0.45852041
0.031387437 -0.39667898 0.61747837
0.028247435 0.019930959 0.20946455
0.028477438 0.055863976 0.16558552
0.029994436 0.29323399 -0.12428474
0.030975435 0.44661999 -0.31159544
0.026286434 -0.44163305 0.58397532
0.027724437 -0.061890066 0.30938435
0.025987435 -0.33341902 0.64097643
0.023679435 0.22567296 -0.035061836
0.023899436 0.26686895 -0.085317612
0.022588436 0.020754993 0.2149272
0.025882438 0.63950694 -0.5399189
0.024495436 0.37895894 -0.22206259
0.026302435 0.71842599 -0.63619471
0.024858436 0.44711798 -0.30521345
0.021678437 -0.15020305 0.42349052
0.018102435 0.29447496 -0.1122098
0.018271437 0.33417094 -0.16058683
0.017361436 0.12028199 0.1000843
0.019571437 0.63983697 -0.53311253
0.018583436 0.40758198 -0.25005674
0.019907435 0.71868497 -0.62920475
0.016319437 -0.69269902 0.39862251
0.016214436 -0.14926809 0.4285965
0.016411437 -0.10296303 0.37216234
0.015676437 -0.44190603 0.58276844
0.015561435 -0.39707202 0.61568737
0.016793435 -0.013294041 0.26287651
0.011752436 0.16292995 0.054722309
0.011846436 0.19241297 0.018827438
0.012173437 0.29509294 -0.10618782
0.011618435 0.12103099 0.10573435
0.013524435 0.718943 -0.62222862
0.013028435 0.56343699 -0.43289948
0.010466436 -0.24045199 0.54585028
0.011258436 -0.90372902 0.24314117
0.011140436 -0.84219104 0.28832912
0.010759436 -0.14833504 0.43369341
0.010371435 -0.44204408 0.58216333
0.0058174361 0.089656949 0.15044451
0.0058854357 0.12177795 0.11137533
0.006986436 0.64049494 -0.51953745
0.0070844353 0.68662298 -0.57564068
0.0072544361 0.76656997 -0.67288065
0.0067354362 0.52224493 -0.37571049
0.0053864359 -0.69303602 0.39733839
0.0054124356 -0.10115904 0.3825345
0.00020643556 0.16436195 0.066169262
0.00027443562 0.22835195 -0.011582851
0.0003464357 0.29632396 -0.094176769
0.00016143592 0.12252295 0.11700726
0.00043643592 0.38115799 -0.19725561
0.00046543591 0.40916097 -0.23128176
0.00050843554 0.44909495 -0.27980375
0.00055143563 0.48959395 -0.32901287
0.00063043553 0.56422794 -0.41969967
-3.656419e-05 -0.76399404 0.34470415
-0.00027856417 -0.29309207 0.62202024
-0.0055535641 0.16507494 0.071881294
-0.0055535641 0.27005595 -0.055550575
-0.0055535641 0.060621977 0.19867516
-0.0055535641 0.29693794 -0.088181496
-0.0055535641 0.76699597 -0.65877247
-0.0055535641 -0.764175 0.34404612
-0.0055535641 -0.69338006 0.39604616
-0.0055535641 -0.29207605 0.6268115
-0.011300564 0.16578597 0.077583313
-0.011412565 0.27068794 -0.049626827
-0.011190564 0.061407983 0.20415831
-0.011937564 0.76720798 -0.65173769
-0.011069564 -0.76435798 0.34338951
-0.010834564 -0.39775199 0.61268234
-0.010789564 -0.32844001 0.6635952
-0.010817564 -0.29106301 0.63159323
-0.017038565 0.16649598 0.083275318
-0.016818564 0.062192976 0.2096343
-0.017555565 0.41072798 -0.21260071
-0.016188564 -0.23553604 0.57032347
-0.016298564 -0.18390709 0.50777626
-0.016173564 -0.44275707 0.57911825
-0.023098564 0.27194798 -0.037809849
-0.023183564 0.29876894 -0.070267677
-0.023898564 0.52438593 -0.34332371
-0.024029564 0.56579697 -0.39344072
-0.021968564 -0.69390804 0.39409924
-0.021816565 -0.61483008 0.45219612
-0.021485563 -0.44290406 0.57850742
-0.021265564 -0.32870501 0.66240644
-0.021321563 -0.28904301 0.64113712
-0.028928563 0.27257597 -0.031914711
-0.027896564 0.02807194 0.26370335
-0.029398564 0.38387597 -0.16648149
-0.029516565 0.41176599 -0.20020151
-0.027443564 -0.69408709 0.39344835
-0.027553564 -0.053197086 0.36196041
-0.027750565 -0.0066070557 0.30563116
-0.026506564 -0.328839 0.6618104
-0.034349564 0.19792295 0.064897537
-0.034531564 0.23231894 0.023351192
-0.033458564 0.028874993 0.26908112
-0.035095565 0.33939797 -0.10598469
-0.035901565 0.49231997 -0.29069185
-0.036292564 0.566576 -0.38037968
-0.033398565 -0.84374303 0.28296137
-0.032806564 -0.094915092 0.41860247
-0.033030566 -0.052339017 0.3671751
-0.033276565 -0.0057800412 0.31093931
-0.043043565 0.64164698 -0.49562645
-0.043452565 0.68669796 -0.57374859
-0.037360564 -0.23164505 0.58977938
-0.038667563 -0.76529998 0.34007835
-0.038395565 -0.69445008 0.3921423
-0.038498566 -0.051482975 0.37238121
-0.049046565 0.60865998 -0.45539665
-0.049388565 0.64088297 -0.51140547
-0.047374565 0.41331297 -0.18168354
-0.049867563 0.68602496 -0.58987284
-0.042632565 -0.23067802 0.59462643
-0.043011565 -0.17920607 0.53257751
-0.042745564 -0.44350308 0.57604933
-0.050912563 0.12914896 0.16729546
-0.056702565 0.71746796 -0.6620307
-0.050119564 -0.84435409 0.28092527
-0.049351566 -0.69481999 0.39083052
-0.056932565 0.17141294 0.12286711
-0.057918563 0.27569097 -0.0025877953
-0.058170564 0.30238897 -0.034705639
-0.062164564 0.63934195 -0.54317379
-0.058965564 0.38655895 -0.13596964
-0.053151563 -0.228751 0.60429955
-0.054833565 -0.69500703 0.39017248
-0.053383563 -0.44381207 0.57481146
-0.054850563 -0.048928082 0.38795519
-0.063258566 0.23557997 0.052200317
-0.064377569 0.34225196 -0.076005459
-0.061823566 0.098753989 0.21665144
-0.062157564 0.13060194 0.17837334
-0.065170564 0.41453999 -0.16693783
-0.059229564 -0.52605098 0.51385212
-0.059837565 -0.090519011 0.4441371
-0.068242565 0.17280298 0.13409853
-0.07191357 0.45151299 -0.2483139
-0.064228565 -0.17548603 0.55229139
-0.066240564 -0.00086206198 0.34261751
-0.063217565 -0.32981306 0.65760946
-0.074679568 0.23687297 0.063676357
-0.081538565 0.63700396 -0.59134674
-0.07940957 0.52140796 -0.38798857
-0.069510564 -0.17456204 0.55720139
-0.07243257 -0.84519607 0.27818727
-0.069346569 -0.44428402 0.57295036
-0.071703568 -4.9054623e-05 0.3478694
-0.080376565 0.23751694 0.069400311
-0.081405565 0.30374396 -0.021240711
-0.087404564 0.60360098 -0.55003548
-0.089620568 0.71437997 -0.7453928
-0.085739568 0.52039099 -0.40329647
-0.086550571 0.56090897 -0.4747467
-0.074089564 -0.22492403 0.6235652
-0.077359565 -0.76669008 0.33538437
-0.076767564 -0.69577307 0.38752747
-0.086062565 0.23815995 0.075113297
-0.089726567 0.40966696 -0.22473764
-0.07930357 -0.22397298 0.62836552
-0.080636568 -0.13281602 0.51923323
-0.079995565 -0.44460601 0.57170153
-0.090748571 0.17556095 0.15645218
-0.091204569 0.20465696 0.12165451
-0.09195257 0.23694897 0.064547539
-0.092846565 0.27552199 -0.0038056374
-0.089130566 0.072214961 0.28005314
-0.10117757 0.63463199 -0.64017248
-0.10411157 0.70998496 -0.86428165
-0.097732566 0.48613095 -0.37701654
-0.098479569 0.51834297 -0.43409967
-0.099423565 0.55901897 -0.50617981
-0.095132567 0.10320294 0.24929333
-0.10778257 0.63383293 -0.65659285
-0.10892257 0.67982399 -0.73829269
-0.10311656 0.44573295 -0.32244968
-0.091491565 -0.52708203 0.51003122
-0.090186566 -0.39998704 0.60350513
-0.092692569 -0.043039024 0.42402411
-0.088935569 -0.27814204 0.69311953
-0.10556657 0.29804999 -0.076569557
-0.10943757 0.44456095 -0.33746767
-0.094894566 -0.22113305 0.64272451
-0.098881565 0.0039849877 0.37401056
-0.094727568 -0.33069605 0.65397024
-0.11095557 0.27109396 -0.044998646
-0.10493556 0.039139986 0.33825111
-0.12015957 0.59927398 -0.63083887
-0.11689357 0.48283595 -0.42298079
-0.11780257 0.51523495 -0.48081589
-0.10103557 -0.16905898 0.58652544
-0.10594457 -0.84651202 0.27404022
-0.10225657 -0.52743703 0.50875044
-0.10078757 -0.40030807 0.60226536
-0.10342757 -0.041374028 0.43426323
-0.11588956 0.23077697 0.010643482
-0.11036957 0.039915979 0.34351635
-0.11295157 0.13176596 0.1878233
-0.12101357 0.40345097 -0.29835749
-0.12551656 0.55518597 -0.56988955
-0.11057257 -0.76794904 0.3313055
-0.10764056 -0.52761608 0.50810623
-0.10663857 -0.44543308 0.56856537
-0.10608957 -0.40047008 0.60164118
-0.10878057 -0.040545046 0.43937016
-0.12315357 0.26810998 -0.072738647
-0.11598156 0.039089978 0.33810234
-0.12395456 0.29371297 -0.11866856
-0.11883057 0.13004899 0.17493153
-0.13450356 0.63060093 -0.72302246
-0.12650356 0.37510294 -0.26467657
-0.13744956 0.708951 -0.89180374
-0.12856756 0.44101095 -0.38291073
-0.13211156 0.55421698 -0.58599186
-0.11147657 -0.16724306 0.59624338
-0.11197057 -0.44560307 0.56793451
-0.11139257 -0.40063304 0.60101843
-0.12281657 0.07019794 0.26651812
-0.13013557 0.29225397 -0.13281584
-0.12374857 0.098496974 0.21562529
-0.13499856 0.43981695 -0.39818668
-0.13630655 0.47949499 -0.4695425
-0.13738056 0.51208293 -0.52814674
-0.12165356 -0.76838201 0.32993555
-0.11754957 -0.12660605 0.55385351
-0.12067857 0.0053549409 0.38312912
-0.12864457 0.068377972 0.25393629
-0.13765857 0.32878995 -0.21553659
-0.14283656 0.47837096 -0.4852047
-0.12507457 -0.61830801 0.43983746
-0.12279157 -0.125727 0.55877352
-0.12382957 -0.080181062 0.50467014
-0.14395656 0.327384 -0.23009253
-0.13552356 0.094933987 0.1900115
-0.13660955 0.12485194 0.13594055
-0.15776455 0.70797193 -0.91794252
-0.15207957 0.55127895 -0.63473988
-0.12707756 -0.16453403 0.61077356
-0.12919056 -0.52834898 0.5055213
-0.12802257 -0.12485105 0.56368256
-0.12917857 -0.079954088 0.5060854
-0.14512756 0.19015098 0.0013685226
-0.14637056 0.22290599 -0.057975769
-0.14883456 0.28783697 -0.17561865
-0.15028256 0.32597196 -0.24471045
-0.14258257 0.12310499 0.12284136
-0.15722357 0.50888497 -0.5761137
-0.15879557 0.55029094 -0.65113354
-0.13099556 -0.21458298 0.67600155
-0.13324556 -0.12397605 0.5685873
-0.13261956 -0.40130001 0.59851456
-0.13627356 -0.043156087 0.42407322
-0.13154756 -0.33178204 0.64967537
-0.15013956 0.16068095 0.038255215
-0.15409656 0.26052999 -0.14310265
-0.14494956 0.029713988 0.27613354
-0.14739156 0.091340959 0.16419744
-0.14858057 0.12134999 0.10969114
-0.13612056 -0.21365601 0.68072939
-0.13743655 -0.16273803 0.62042522
-0.15623055 0.15897995 0.024760246
-0.15874057 0.21970797 -0.085817814
-0.16036355 0.25899297 -0.15734959
-0.15218356 0.061021984 0.20312738
-0.14437556 -0.12792403 0.54717445
-0.14948456 -0.0042880177 0.32204914
-0.14120156 -0.27962905 0.68706512
-0.16496556 0.21809798 -0.099829674
-0.16065156 0.11781698 0.083229542
-0.18101756 0.59121692 -0.78094053
-0.18534456 0.67035097 -0.96454859
-0.17733556 0.50564098 -0.62472391
-0.15232655 -0.619317 0.43651152
-0.14933357 -0.44682807 0.5634861
-0.17121556 0.21648198 -0.11389256
-0.17585756 0.32025695 -0.30380583
-0.16537556 0.085891962 0.12508726
-0.16672356 0.11603898 0.069918156
-0.19224356 0.61839396 -0.9742837
-0.19200756 0.67034096 -0.96462679
-0.18596657 0.54628795 -0.71745777
-0.16048756 -0.76995403 0.32509232
-0.15920857 -0.69888002 0.37741852
-0.15615755 -0.52929908 0.50226545
-0.15467656 -0.44700903 0.56284618
-0.17932557 0.25434196 -0.20045471
-0.18053256 0.28034198 -0.24815655
-0.19891556 0.61838198 -0.97436285
-0.19867057 0.670331 -0.96470451
-0.16323656 -0.61973101 0.43516922
-0.16127656 -0.13430601 0.5125742
-0.16704156 -0.010173023 0.28483534
-0.18085057 0.15210098 -0.029771805
-0.18695356 0.27882195 -0.2628479
-0.19771956 0.50234997 -0.67398882
-0.17311656 -0.84934205 0.26558447
-0.16869356 -0.61994106 0.43449736
-0.16536556 -0.44737405 0.56156445
-0.16214356 -0.28025609 0.68461609
-0.19340356 0.27729499 -0.27760553
-0.18357857 0.080371976 0.085510254
-0.17235456 -0.52988607 0.50029516
-0.16981655 -0.40251702 0.59408712
-0.16842955 -0.33292907 0.64533138
-0.19331457 0.14861494 -0.057374477
-0.20417356 0.35890597 -0.4461298
-0.17408356 -0.22380608 0.63109827
-0.19250757 0.014288962 0.17444229
-0.19583656 0.07665199 0.058862209
-0.22063656 0.54117393 -0.80207491
-0.17967457 -0.22607905 0.61992931
-0.18216255 -0.17948002 0.53356647
-0.18045557 -0.40287703 0.59281445
-0.18846557 -0.06142205 0.31476212
-0.20041256 0.045923948 0.099074364
-0.21291757 0.27267194 -0.3222456
-0.22124957 0.42376894 -0.60300446
-0.22766756 0.54013598 -0.8192296
-0.19382957 -0.77136904 0.32088852
-0.19437855 -0.06349498 0.30238342
-0.21220456 0.14332795 -0.099200726
-0.20463656 0.010348976 0.14851856
-0.22169057 0.30999798 -0.40968657
-0.23921455 0.61789799 -0.9832468
-0.22423556 0.35471296 -0.49298573
-0.19357856 -0.18394202 0.51045322
-0.19396956 -0.53068906 0.49765348
-0.20278557 -0.022170007 0.20909643
-0.21855655 0.14154899 -0.11326265
-0.22021855 0.16986895 -0.16615391
-0.21620756 0.10152996 -0.038520813
-0.23736756 0.46205497 -0.71186161
-0.20330957 -0.70068902 0.37190342
-0.20147356 -0.14950699 0.43032551
-0.19642755 -0.40342706 0.59089327
-0.19370057 -0.28192705 0.67763948
-0.22867256 0.20159495 -0.24315548
-0.23109256 0.24161994 -0.31810284
-0.22065955 0.06911099 0.0049123764
-0.25253758 0.58040297 -0.98202848
-0.24187656 0.41992199 -0.65197182
-0.20730457 -0.15171403 0.41839933
-0.19928557 -0.28429407 0.66664839
-0.23519257 0.19990295 -0.25782251
-0.21608956 -0.77234799 0.31805515
-0.21580356 -0.11144704 0.32667112
-0.23776656 0.13616598 -0.15578747
-0.24174155 0.19820297 -0.27255154
-0.24431556 0.23836595 -0.34814453
-0.23136155 0.036215961 0.032335281
-0.25578356 0.41732597 -0.68498278
-0.26058057 0.49218196 -0.82587671
-0.21667457 -0.19297606 0.4637084
-0.21354157 -0.44908506 0.5557332
-0.21240956 -0.40398806 0.58896351
-0.24610455 0.16286099 -0.22387552
-0.25271857 0.26322997 -0.41328049
-0.26013055 0.37569994 -0.62552166
-0.26549956 0.45718598 -0.77929354
-0.27291656 0.52974093 -0.99167681
-0.22722957 -0.77284807 0.31663132
-0.22335055 -0.62212306 0.42770624
-0.21594857 -0.33449298 0.63967133
-0.25071156 0.13253599 -0.1844368
-0.25492656 0.19477999 -0.30220175
-0.24589656 0.061435938 -0.049919605
-0.27491057 0.48986095 -0.86049461
-0.22426356 -0.44948 0.55442429
-0.26156056 0.19305599 -0.3171196
-0.26621857 0.26002395 -0.44415379
-0.25441357 0.090303957 -0.12220573
-0.27688655 0.41338396 -0.73506784
-0.28212455 0.48869196 -0.87792253
-0.28630155 0.52970195 -0.99183464
-0.23095456 -0.24695903 0.51754427
-0.23977256 -0.12018603 0.27706909
-0.25415257 -0.0057580471 0.042725563
-0.27301356 0.25840896 -0.45969057
-0.28937256 0.48751694 -0.89543056
-0.24394956 -0.77361006 0.31448412
-0.24277157 -0.16515702 0.34587812
-0.24582456 -0.12239403 0.2645483
-0.27243555 0.15572298 -0.28257751
-0.27491656 0.18958497 -0.3471489
-0.29111555 0.41072398 -0.76883745
-0.24604955 -0.20448202 0.40428114
-0.23896956 -0.30113202 0.58857822
-0.26678756 -0.0098750591 0.015740395
-0.26935357 0.024278939 -0.04955864
-0.24844256 -0.25409299 0.48265123
-0.25199458 -0.20681304 0.39225817
-0.25304157 -0.702851 0.36559248
-0.24572556 -0.45028704 0.55179644
-0.24239856 -0.33540505 0.63649035
-0.27577755 0.022258937 -0.063402653
-0.29358256 0.25351894 -0.50671768
-0.25431657 -0.25649005 0.47093439
-0.25857556 -0.70310003 0.36488533
-0.25621855 -0.62350804 0.42356825
-0.27059957 -0.044987977 0.06550312
-0.29021257 0.12144494 -0.27184391
-0.29248655 0.15028298 -0.32726955
-0.30363357 0.29160595 -0.5988965
-0.32015055 0.48043394 -1.0013757
-0.26411057 -0.70335001 0.36417532
-0.26170257 -0.62374407 0.4228735
-0.26688457 -0.17430907 0.29659653
-0.27691656 -0.047117054 0.052134514
-0.25380456 -0.34014398 0.61532736
-0.31066257 0.290025 -0.61512184
-0.32685557 0.48041099 -1.0014567
-0.26718757 -0.62398201 0.42217922
-0.26212057 -0.31097108 0.54305935
-0.30600056 0.14661294 -0.35738564
-0.31220257 0.22162795 -0.50233555
-0.32388455 0.36292595 -0.77535963
-0.27207556 -0.26374203 0.4355135
-0.26981857 -0.53368598 0.48825026
-0.26534256 -0.34517509 0.59285736
-0.26796556 -0.313456 0.53157234
-0.31034955 0.11578399 -0.31639147
-0.31915757 0.21991098 -0.51812744
-0.29883656 -0.020327032 -0.05269146
-0.33816257 0.44458497 -0.95341587
-0.28206357 -0.21861202 0.33146048
-0.28522155 -0.18127698 0.25913048
-0.27114457 -0.34770507 0.58156252
-0.27971756 -0.31845707 0.5084753
-0.31184357 -0.024573028 -0.08045578
-0.33555657 0.243527 -0.60266161
-0.29181457 -0.70462698 0.3606081
-0.30496356 -0.10236508 0.071065426
-0.33075055 0.11004299 -0.36151171
-0.34266356 0.24183297 -0.61890364
-0.35307956 0.35706598 -0.84395885
-0.35681856 0.39842296 -0.92473078
-0.29463956 -0.62519509 0.4186821
-0.28718156 -0.406766 0.57982635
-0.34030655 0.13728797 -0.43382168
-0.32496256 -0.028858006 -0.10845566
-0.33090755 0.035515964 -0.23452091
-0.36429355 0.39702195 -0.94246387
-0.30213556 -0.27603298 0.37558126
-0.30290955 -0.70515007 0.35917044
-0.30013657 -0.62544304 0.41797733
-0.29698357 -0.53482705 0.48483419
-0.29457256 -0.35793108 0.53595924
-0.29751855 -0.32603604 0.47350121
-0.37180156 0.39561397 -0.9602747
-0.32037356 -0.14964598 0.1104002
-0.36155355 0.20943099 -0.61437464
-0.36418056 0.23670298 -0.6680727
-0.37254855 0.32360297 -0.83917379
-0.37533957 0.35259295 -0.89625263
-0.30786055 -0.53529304 0.48345947
-0.32256156 -0.19548303 0.18287134
-0.33065656 -0.11142498 0.01736927
-0.35837355 0.10226297 -0.42259264
-0.36125556 0.13158697 -0.48049068
-0.36465856 0.16621 -0.54884386
-0.34826556 -0.0005800128 -0.21955156
-0.37141755 0.23497695 -0.68460989
-0.35120356 0.029313982 -0.2785697
-0.38282955 0.35108697 -0.91384459
-0.31956255 -0.70594698 0.35700321
-0.31663257 -0.62619501 0.41585827
-0.32511955 -0.70621508 0.35627937
-0.33521155 -0.20030099 0.15704727
-0.31426457 -0.40918499 0.5705595
-0.32157457 -0.33629006 0.42625332
-0.37237057 0.098316967 -0.45353889
-0.37893456 0.16248298 -0.5809145
-0.36812156 0.056778967 -0.37107944
-0.33067557 -0.70648605 0.3555522
-0.32018155 -0.41185409 0.55918837
-0.38612056 0.16060698 -0.59705591
-0.37507457 0.054723978 -0.38628864
-0.33899555 -0.29112798 0.30213547
-0.34401855 -0.24297398 0.20628738
-0.34796357 -0.20516104 0.13102055
-0.32643756 -0.45351309 0.54176235
-0.35437757 -0.20760709 0.11792755
-0.33208457 -0.41722602 0.53632021
-0.39680356 0.12190294 -0.55965567
-0.37000456 -0.12532002 -0.06483078
-0.40787557 0.15492296 -0.64592171
-0.35775757 -0.29882103 0.26476622
-0.36309555 -0.25049001 0.16776609
-0.41519257 0.15301096 -0.66234064
-0.39225155 -0.050875008 -0.25200844
-0.40319756 0.046404958 -0.44779778
-0.35144255 -0.53721899 0.47790623
-0.37378255 -0.21500999 0.078333378
-0.34802455 -0.45442599 0.53904247
-0.35836855 -0.35199505 0.35402727
-0.41852057 0.11598098 -0.60800076
-0.40664455 0.012344956 -0.39884949
-0.38030356 -0.217498 0.065030098
-0.38685155 -0.21999902 0.051671505
-0.40208757 -0.089433014 -0.21257544
-0.37082756 -0.35731906 0.32958317
-0.42081156 0.0080029368 -0.42957258
-0.38889357 -0.26066405 0.11569309
-0.40895957 -0.091763079 -0.22709751
-0.37324956 -0.39235705 0.38296127
-0.37726456 -0.62907606 0.40798616
-0.37327757 -0.53821808 0.47509956
-0.40003055 -0.22503299 0.024789333
-0.37135857 -0.46216804 0.50740242
-0.39596355 -0.31450599 0.1887064
-0.40195355 -0.26581806 0.089338303
-0.37874055 -0.538472 0.47439528
-0.40666056 -0.22756702 0.011267185
-0.38062555 -0.43916208 0.44311714
-0.42279255 -0.096455038 -0.25632763
-0.41886657 -0.18579108 -0.093020439
-0.38356456 -0.46779603 0.48415518
-0.41512057 -0.27101809 0.062773228
-0.43784356 -0.14933008 -0.20645857
-0.40880555 -0.37356609 0.25509453
-0.42839757 -0.27626401 0.035990238
-0.40546757 -0.45040709 0.39545155
-0.40826455 -0.47919399 0.4371314
-0.41173857 -0.45324808 0.38342142
-0.42166755 -0.37907404 0.22987938
-0.44178355 -0.28155702 0.0089912415
-0.44702956 -0.24300808 -0.071036816
-0.43011355 -0.41731507 0.27251244
-0.44837555 -0.33606702 0.084435463
-0.45528457 -0.286897 -0.018232822
-0.43656057 -0.42014903 0.25999737
-0.44115856 -0.38742799 0.19167519
-0.45504856 -0.33881599 0.071164131
-0.43707255 -0.46473199 0.33483648
-0.44303155 -0.42299408 0.24743748
-0.46174857 -0.34157604 0.057841301
-0.45428357 -0.39305705 0.16595745
-0.44921955 -0.63273197 0.39847136
-0.44556457 -0.54551905 0.45008326
-0.45884055 -0.50257105 0.34091234
-0.46281257 -0.47641307 0.28549528
-0.46527556 -0.50554901 0.32867718
-0.46587157 -0.63361508 0.39624023
-0.48241055 -0.44032401 0.17102432
-0.48906755 -0.44325608 0.15811253
-0.47698557 -0.634211 0.39474726
-0.48473555 -0.51456004 0.29168129
-0.48810655 -0.63481504 0.39324856
-0.49783856 -0.52063102 0.26677752
-0.49367055 -0.63511902 0.39249754
