# .PCD v0.7 - Point Cloud Data file format
VERSION 0.7
FIELDS x y z
SIZE 4 4 4
TYPE F F F
COUNT 1 1 1
WIDTH 1
HEIGHT 1024
VIEWPOINT 0 0 0 1 0 0 0
POINTS 1024
DATA ascii
0.53177732 -1.0171249 -0.23876905
0.49480334 -0.92879093 -0.14640617
0.47068134 -0.90411496 -0.055828094
0.48590735 -0.73265386 -0.28506517
0.45116135 -0.93243694 0.061892509
0.46951634 -0.71759486 -0.22194719
0.45657936 -0.76805389 -0.11477947
0.46142936 -0.71016693 -0.1908083
0.44867736 -0.76051795 -0.084602356
0.46036234 -0.61828089 -0.27032423
0.46056834 -0.50815392 -0.37260437
0.43187433 -0.86443996 0.089907646
0.44547835 -0.69551897 -0.12937737
0.45551136 -0.57093787 -0.29110241
0.44421136 -0.49498892 -0.3079071
0.41682035 -0.84905589 0.14644861
0.43938735 -0.55735087 -0.22788048
0.40607736 -0.88512886 0.23008156
0.42780435 -0.37159193 -0.34437704
0.43161136 -0.31925189 -0.41040516
0.38747236 -0.81907988 0.25668573
0.41977334 -0.36563897 -0.31214046
0.39929435 -0.65312886 0.048504829
0.40518335 -0.57045496 -0.055207253
0.38028836 -0.81174493 0.28367472
0.41543835 -0.3077749 -0.34501505
0.39404735 -0.61446989 0.037578583
0.39689535 -0.45692694 -0.12072515
0.37101835 -0.85153186 0.34947395
0.41073436 -0.2542119 -0.37220335
0.36550134 -0.85182595 0.34811068
0.40624136 -0.19656789 -0.40413237
0.38544336 -0.38717389 -0.13111925
0.38837236 -0.34237289 -0.18608904
0.36982435 -0.62609792 0.1620307
0.39824435 -0.19138193 -0.37135029
0.37516135 -0.54445291 0.061854839
0.35905534 -0.67513096 0.25771379
0.36462334 -0.58806789 0.15146494
0.37030736 -0.49918997 0.043010712
0.38734636 -0.1031599 -0.40133429
0.34959334 -0.7985549 0.33127165
0.35034335 -0.73674595 0.31672096
0.37628534 -0.28000486 -0.18670416
0.37923834 -0.23278892 -0.24400949
0.38647434 0.016602099 -0.50741434
0.34341136 -0.85301387 0.34265995
0.34479436 -0.73702693 0.31534672
0.35332134 -0.52554691 0.14702654
0.38038436 0.05311507 -0.5124073
0.37361234 -0.060172915 -0.37638807
0.35205236 -0.42088497 0.056699753
0.35808536 -0.31994486 -0.06449604
0.37051335 0.025073111 -0.44025517
0.37238935 0.057201087 -0.47862434
0.36915636 0.14342111 -0.54276228
0.35393336 -0.12338591 -0.22582006
0.34621236 -0.25868893 -0.065092087
0.33014235 -0.56068695 0.26947069
0.33203635 -0.50712788 0.2300458
0.35038334 -0.046700895 -0.27969837
0.33049634 -0.40356994 0.14200783
0.33886036 -0.25347888 -0.035356045
0.32413235 -0.59857595 0.27695084
0.32718834 -0.46292293 0.21214581
0.33888134 -0.11398697 -0.1637845
0.34278235 -0.042293906 -0.24805641
0.31634834 -0.80031896 0.32305956
0.33157334 -0.24831593 -0.0058803558
0.33683634 -0.1515789 -0.1195941
0.32021534 -0.45706093 0.23950195
0.33145636 -0.10935187 -0.13317728
0.33350235 -0.070826888 -0.17822647
0.34699035 0.18320608 -0.47527027
0.33708134 -0.0034189224 -0.25705004
0.32434934 -0.24319792 0.023338795
0.32679436 -0.19714391 -0.030515194
0.31448236 -0.45676994 0.24061394
0.33188534 0.045563102 -0.27771139
0.32409734 -0.10475791 -0.10284328
0.34388736 0.27723306 -0.54719639
0.30665934 -0.66688597 0.28871059
0.31718835 -0.23812592 0.052303791
0.32216436 -0.14207494 -0.059431076
0.30838636 -0.50252688 0.24994564
0.32595435 0.08092308 -0.28238344
0.30540636 -0.32572591 0.18822575
0.32381734 0.19347006 -0.3758893
0.32588336 0.23541611 -0.42418146
0.31623536 0.19682711 -0.3433733
0.30741736 0.013137102 -0.13296318
0.29268536 -0.38788688 0.21852064
0.28920335 -0.73990691 0.30159855
0.30367935 0.092296064 -0.18823338
0.30740136 0.17187107 -0.27892113
0.31426334 0.31860709 -0.4461441
0.31820434 0.40288311 -0.54218626
0.29358336 -0.12356997 0.057772636
0.28592634 -0.50354195 0.24435663
0.30316535 0.24488306 -0.32619619
0.29144135 -0.012540936 -0.034313202
0.31607336 0.52834606 -0.64759922
0.28140035 -0.3883599 0.21570063
0.28302935 -0.21659791 0.17514753
0.28030536 -0.50379789 0.24295855
0.29573134 0.24798006 -0.29413223
0.27248734 -0.74079597 0.29747152
0.27436036 -0.073727906 0.10219955
0.27597335 -0.036315918 0.06020689
0.27735034 -0.0043809414 0.024357796
0.29163834 0.32695007 -0.34756136
0.30399835 0.61358511 -0.66931248
0.29342034 0.36828011 -0.39395523
0.29670036 0.4443301 -0.47932243
0.28106534 0.25408906 -0.23087645
0.27039635 -0.00035488605 0.053311825
0.28913635 0.4465611 -0.44585228
0.29092735 0.48926109 -0.4935441
0.26078433 -0.8033669 0.3093586
0.26197433 -0.66915488 0.27764988
0.26257434 -0.60155189 0.26167679
0.26644233 -0.16550994 0.15865088
0.26343435 -0.50457394 0.23876286
0.27104136 0.1886071 -0.12355423
0.27383235 0.25710106 -0.19967747
0.27572834 0.30361408 -0.25137043
0.28983134 0.64968508 -0.63598633
0.28337634 0.4912861 -0.45994425
0.25474635 -0.85798991 0.32082367
0.25521734 -0.80367887 0.30798864
0.25980633 -0.27410889 0.18283653
0.26029733 -0.21743488 0.16944265
0.25780633 -0.50483489 0.23736382
0.26666135 0.26008606 -0.16874743
0.27288234 0.41722411 -0.34252214
0.25315335 -0.38955796 0.2086525
0.25370434 -0.32437992 0.19324589
0.25017133 -0.74200094 0.29196262
0.25078234 -0.66973495 0.27488089
0.25049034 -0.027389944 0.12155676
0.25800335 0.22259611 -0.09359026
0.25955734 0.26304406 -0.1381011
0.25115934 0.044507086 0.10239077
0.26848233 0.49527907 -0.39366817
0.24749734 -0.38980091 0.20724297
0.24574234 -0.60238791 0.25750589
0.24654333 -0.50536096 0.23456383
0.25422934 0.31192809 -0.15805149
0.25528935 0.34034508 -0.18917227
0.26574636 0.62083709 -0.49633312
0.26113933 0.4972471 -0.36099243
0.24184033 -0.39004493 0.20583153
0.23806433 -0.85896194 0.31672382
0.24322534 -0.21807194 0.16516256
0.24012834 -0.60266995 0.25611496
0.24043234 -0.56494093 0.24719191
0.23996434 0.091914058 0.090362549
0.24159133 0.15974808 0.041302681
0.23959233 0.044453084 0.10158777
0.25235236 0.45740709 -0.28307533
0.23753034 -0.21828592 0.16373491
0.23793633 -0.16652596 0.15149069
0.23527333 -0.50588989 0.23176479
0.24817634 0.5446521 -0.34372807
0.24021433 0.3173461 -0.097215176
0.23051733 -0.39053595 0.2030077
0.23101534 -0.3253119 0.18757677
0.22648133 -0.91866887 0.32796097
0.23222734 -0.16673088 0.15005875
0.22963333 -0.50615692 0.23036385
0.22868633 0.12466311 0.079619884
0.23698233 0.42857307 -0.18436337
0.22176833 -0.8055799 0.29975557
0.22571133 -0.2754519 0.17430496
0.22651833 -0.16693795 0.14862585
0.22399333 -0.50642395 0.22896385
0.22267634 0.091437101 0.085985661
0.22736533 0.35062808 -0.067490101
0.22999634 0.43078008 -0.15358305
0.23242934 0.50494009 -0.23323727
0.21579434 -0.86027789 0.3112545
0.21663633 -0.74384594 0.28369474
0.21764833 -0.60380697 0.25054884
0.21792133 -0.56605196 0.24161196
0.22080633 -0.16714489 0.14719057
0.21773033 0.20805907 0.056878567
0.21823734 0.2802031 0.039801598
0.22781233 0.58238804 -0.2828021
0.23026633 0.65973806 -0.36548805
0.21060334 -0.80622494 0.2970109
0.21472834 -0.21915197 0.1580205
0.21548533 -0.11145496 0.13252258
0.21302733 -0.46131492 0.21535397
0.21193834 0.20792007 0.055407524
0.21003833 -0.070533931 0.12134695
0.21032433 -0.028657913 0.11142969
0.21243033 0.28007811 0.038321972
0.21977334 0.55146706 -0.21660328
0.22312833 0.66094112 -0.33307409
0.20593533 -0.67210495 0.26380062
0.20639734 -0.60438287 0.24776363
0.20614134 0.20778108 0.05393362
0.20457633 -0.028841913 0.10998058
0.21283033 0.55313206 -0.18552637
0.20822534 0.39744711 -0.020672321
0.21157034 0.51052606 -0.14041042
0.20217533 -0.39178193 0.19594574
0.19867733 -0.92038286 0.32114983
0.19855933 -0.070918918 0.11845779
0.20053333 0.23700511 0.045505524
0.19905433 0.0064160824 0.1001358
0.20111734 0.3281551 0.02391386
0.20814633 0.6317451 -0.23584938
0.19383833 -0.80720186 0.29289055
0.19793634 -0.16798389 0.14145374
0.19605133 -0.46210694 0.21113491
0.19382033 0.090628088 0.078684807
0.19454533 0.2075001 0.050990582
0.19307633 -0.029212892 0.1070838
0.19547734 0.35765809 0.015409946
0.20210233 0.66448605 -0.23758316
0.19599733 0.4414711 -0.0044484138
0.18863234 -0.74541891 0.27679968
0.19189234 -0.22003293 0.15230179
0.19038834 -0.4623729 0.20972776
0.18847233 0.16208011 0.060250759
0.18553634 -0.32722187 0.17622375
0.18265234 -0.8078599 0.29014397
0.18583733 -0.27706397 0.16433477
0.18617834 -0.2202549 0.1508708
0.18409334 -0.56775296 0.23323393
0.18444933 -0.50832987 0.21914864
0.18472433 -0.46263993 0.20831966
0.18267533 0.16192907 0.058781624
0.18177134 0.0058770776 0.095775604
0.18198533 0.042750061 0.087034702
0.18363634 0.3278001 0.019457817
0.18954633 0.71202612 -0.22235107
0.17673934 -0.86263394 0.30167675
0.17705533 -0.80819094 0.28876972
0.17741534 -0.74605691 0.27403975
0.17783433 -0.6736269 0.25686884
0.18013033 -0.27729797 0.16290855
0.17905533 -0.46290886 0.20691156
0.17910933 0.56106806 -0.03736639
0.17797133 0.35732007 0.01094389
0.17820534 0.39918911 0.0010147095
0.18354334 0.7461071 -0.22551441
0.17115234 -0.86297691 0.30030775
0.17180334 -0.7463789 0.27265882
0.17503133 -0.16883695 0.13570976
0.17069334 0.089969099 0.072836876
0.17107934 0.1616261 0.055842876
0.17213233 0.35720706 0.0094537735
0.17235734 0.39908409 -0.00047826767
0.17258334 0.4410851 -0.010439396
0.16619034 -0.74670088 0.27127886
0.16658033 -0.67424393 0.25409174
0.16771534 -0.46344888 0.20409679
0.16490634 0.0898031 0.071374893
0.16588633 0.27905607 0.02647686
0.16734533 0.56092107 -0.040389061
0.16929734 0.7148301 -0.12983227
0.17003134 0.74768108 -0.16350412
0.17458133 0.79910707 -0.3720274
0.16025333 -0.8091929 0.2846446
0.16057533 -0.74702489 0.26989794
0.16130133 -0.60673487 0.2366147
0.16356534 -0.16926897 0.13283491
0.16204134 -0.46372092 0.20268774
0.15947333 0.16132009 0.052901745
0.15984534 0.23604709 0.035168648
0.15888034 0.042048097 0.081202507
0.16145934 0.56084704 -0.041900158
0.16266634 0.71574807 -0.099538326
0.16336633 0.74845707 -0.13291216
0.16124234 0.51711011 -0.031522274
0.15613833 -0.50972593 0.2121315
0.15332434 0.089468062 0.068446636
0.15275234 -0.030534923 0.096928596
0.15309733 0.041871071 0.079743862
0.15572633 0.59367108 -0.051220417
0.15675734 0.74922609 -0.10258436
0.15516034 0.47477508 -0.023001194
0.14968133 -0.67517996 0.24992752
0.15046833 -0.51000786 0.21072674
0.15068634 -0.4642669 0.19987059
0.14768134 0.12245411 0.059111595
0.14806333 0.20635307 0.039195538
0.14839333 0.27866507 0.022028923
0.14967933 0.56069911 -0.044924259
0.15003534 0.63897109 -0.063505173
0.15053934 0.74955308 -0.089752197
0.14318134 -0.86470997 0.29345751
0.14585233 -0.27872193 0.15434885
0.14452633 -0.56979191 0.22344685
0.14660433 -0.11389697 0.11521959
0.14479734 -0.51029193 0.2093215
0.14289834 0.35663211 0.0020008087
0.14326334 0.44059408 -0.01793623
0.14446333 0.71624607 -0.083387375
0.13840534 -0.67580986 0.2471509
0.14013234 -0.27896297 0.15292072
0.13526334 -0.073093891 0.10254192
0.13543734 -0.031113923 0.092569828
0.13654234 0.2354871 0.029252529
0.13853534 0.71620309 -0.084916115
0.13753334 0.47449809 -0.027512074
0.13392934 -0.39487886 0.17896461
0.13197833 -0.86541188 0.29071665
0.13220434 -0.81088889 0.27776766
0.13440934 -0.27920389 0.15149164
0.13059434 0.20591307 0.034763813
0.12965934 -0.031307936 0.091116905
0.13070934 0.23534608 0.027770519
0.13087934 0.2782681 0.017575741
0.13199034 0.5604741 -0.049463272
0.13242434 0.67051911 -0.075604439
0.13135134 0.39833409 -0.010946274
0.13165134 0.47440508 -0.029017448
0.13688134 0.8357951 -0.34439325
0.12637234 -0.86576593 0.28934574
0.12683234 -0.74899697 0.26160574
0.12890634 -0.22253096 0.13654184
0.12933134 -0.11452687 0.11088562
0.12776934 -0.51114988 0.20510578
0.12794934 -0.46537495 0.1942296
0.12476633 0.20576507 0.033285618
0.12532833 0.3562811 -0.0024781227
0.12667134 0.71611708 -0.087977409
0.13062733 0.79967809 -0.33982515
0.12096933 -0.81157792 0.27501392
0.12316634 -0.22276294 0.13510752
0.12357034 -0.11473787 0.1094408
0.12208933 -0.51143789 0.20369864
0.11835533 0.040793061 0.070979595
0.11946733 0.35616308 -0.0039710999
0.12073634 0.71607411 -0.089509487
0.12085333 0.74937207 -0.097422123
0.11742534 -0.22299695 0.13367176
0.11760833 -0.17103088 0.12132168
0.11217634 -0.073909938 0.096740723
0.11243434 0.0036510825 0.078303814
0.11428133 0.56024611 -0.054007053
0.11439133 0.59319109 -0.061839104
0.11374334 0.39800709 -0.015441418
0.11399534 0.47412407 -0.03353548
0.11413634 0.51643705 -0.043592453
0.11820134 0.7997691 -0.3347311
0.10972533 -0.81227195 0.27225971
0.11017334 -0.67740786 0.24020052
0.11072233 -0.51201797 0.20088577
0.10690434 0.088100076 0.056720734
0.10736033 0.23477507 0.021845818
0.10847633 0.59312212 -0.063358307
0.10861734 0.63855612 -0.074160099
0.10885833 0.71598607 -0.092571259
0.11200134 0.79980612 -0.3326664
0.10539634 -0.39621496 0.17187452
0.10374633 -0.92647994 0.29795551
0.10393134 -0.86719394 0.28385878
0.10108934 0.08792609 0.055252552
0.10129833 0.1597541 0.038169861
0.10143033 0.20516807 0.027368546
0.10095134 0.040244102 0.06659174
0.10186833 0.35580707 -0.0084562302
0.10199033 0.39778608 -0.018440247
0.10301133 0.74926209 -0.10202932
0.10221133 0.4739351 -0.036549091
0.10592134 0.79967707 -0.34019232
0.098141335 -0.92685187 0.2965889
0.10049833 -0.11559296 0.10365295
0.099477336 -0.46678293 0.1871748
0.095670335 0.2344861 0.01887989
0.095786333 0.27746111 0.0086545944
0.096637338 0.59298205 -0.066398144
0.096760333 0.63843513 -0.07721138
0.096224338 0.43978709 -0.029958248
0.097205333 0.80354708 -0.11648417
0.092535332 -0.92722595 0.29522085
0.094279334 -0.28092396 0.14148283
0.090050332 0.32583809 -0.0043754578
0.091240332 0.8035211 -0.11802816
0.087210335 -0.81367588 0.26674891
0.087365337 -0.75135791 0.2519207
0.083635338 0.087400079 0.050843716
0.084069334 0.27718806 0.0056796074
0.084894337 0.63831306 -0.080263138
0.084344335 0.3974511 -0.022942066
0.085071333 0.71580911 -0.098707199
0.084518336 0.47364908 -0.04107523
0.082126334 -0.57311392 0.2080369
0.083170332 -0.11624289 0.099308968
0.077563338 -0.033092916 0.078014851
0.078863338 0.5927701 -0.070964336
0.078369334 0.3553251 -0.014442444
0.079023339 0.67003709 -0.089357376
0.078457333 0.39733911 -0.02444315
0.078615338 0.47355208 -0.042585373
0.076220334 -0.6793679 0.23185253
0.077273339 -0.17261994 0.11122751
0.07198634 0.087046087 0.047904968
0.072048336 0.12028807 0.039989948
0.07176134 -0.033294916 0.076555729
0.071827337 0.0023030639 0.068081856
0.073016338 0.63819009 -0.08331728
0.073076338 0.66998208 -0.09088707
0.070299335 -0.81474292 0.26261377
0.070416339 -0.75238895 0.24776697
0.071402334 -0.22489893 0.12217569
0.070947334 -0.46821988 0.18010855
0.06627734 0.15878409 0.029306889
0.067074336 0.63812804 -0.08484745
0.066674337 0.39711308 -0.027449131
0.066871338 0.51574206 -0.055700302
0.065351337 -0.39812994 0.1619339
0.064883336 -0.6800319 0.22906685
0.065059334 -0.5740459 0.2038269
0.060327336 0.086689115 0.044962883
0.060432337 0.15862006 0.027828693
0.060258336 0.038938105 0.05633688
0.060779333 0.39699906 -0.028952122
0.061243333 0.71563005 -0.10485125
0.061371334 0.8033911 -0.1258111
0.062652335 0.83591408 -0.33552027
0.058849335 -0.92949593 0.28701687
0.059790336 -0.28243697 0.13288784
0.059519336 -0.46880293 0.17727995
0.054495335 0.086509109 0.043490887
0.054678336 0.23345709 0.0084795952
0.054389335 0.0017141104 0.063693523
0.055126339 0.59248304 -0.077060223
0.055183336 0.63800406 -0.0879035
0.053971335 -0.33307588 0.14345884
0.053227335 -0.9298799 0.28564882
0.048692338 0.1195991 0.034089565
0.048855335 0.27635407 -0.0032663345
0.048608337 0.038558066 0.053402901
0.049231336 0.63794112 -0.089434147
0.050351337 0.83578509 -0.34614038
0.047662336 -0.87086594 0.27012253
0.047719337 -0.8161869 0.25709391
0.047931336 -0.61295688 0.20866156
0.048446335 -0.11756587 0.090606689
0.048032336 -0.51529193 0.18538857
0.042848337 0.11942506 0.032612801
0.042918339 0.20363307 0.012540817
0.043018337 0.32480907 -0.016341209
0.043043338 0.35458809 -0.023440361
0.043456338 0.80311608 -0.14181519
0.042471334 -0.33361089 0.14059973
0.041974336 -0.93065095 0.28291082
0.042121336 -0.75413597 0.24083567
0.042238336 -0.61328089 0.20726156
0.042603336 -0.17401695 0.10255861
0.042650335 -0.11778891 0.089155674
0.042319335 -0.51559591 0.1839776
0.036904335 -0.034523904 0.067799568
0.037098337 0.27607208 -0.0062522888
0.037324339 0.63781607 -0.092497349
0.037200339 0.43874207 -0.045034409
0.037247337 0.51529706 -0.063287258
0.036500335 -0.68171394 0.22209883
0.036543336 -0.61360586 0.20586061
0.036817335 -0.17425287 0.10111284
0.036852337 -0.11801291 0.087703705
0.031167336 0.15779108 0.02042675
0.031216336 0.27593011 -0.007745266
0.031334337 0.55914712 -0.075284481
0.031366337 0.63775313 -0.094028473
0.031283338 0.43863609 -0.046545029
0.030845337 -0.61393297 0.20445871
0.025316337 0.20316106 0.0080838203
0.025257336 -0.077083886 0.074927807
0.025266336 -0.034940898 0.064876556
0.025273336 0.0007160902 0.056370735
0.025397336 0.59211808 -0.084691048
0.025429336 0.7487691 -0.12205744
0.025204336 -0.33441997 0.13630962
0.025079336 -0.93181992 0.27880287
0.019441336 0.15745509 0.01746273
0.019441336 0.00051409006 0.054904938
0.019441336 0.55898607 -0.078334332
0.019441336 0.83563811 -0.35828543
0.019441336 -0.61458993 0.20165491
0.019441336 -0.57658291 0.1925869
0.019441336 -0.51682591 0.17833185
0.013566337 0.20284307 0.0051088333
0.013625337 -0.077520907 0.072011948
0.013601337 0.03740108 0.044587612
0.013476336 0.63756108 -0.098629475
0.013254337 0.83571106 -0.35230732
0.013645336 -0.17520595 0.095322609
0.0076383371 0.32401609 -0.02534008
0.0076083364 0.3959561 -0.042512417
0.0070603369 0.83566105 -0.3564105
0.0079403371 -0.40095687 0.14770079
0.0078683365 -0.22761297 0.10632563
0.008029337 -0.6152519 0.19884872
0.0079693366 -0.47148097 0.16453362
0.0017633364 0.27521306 -0.015222073
0.0023203362 -0.61558497 0.19744587
0.002296336 -0.57755387 0.18836689
0.0020453371 -0.17568791 0.092426777
0.0020093359 -0.1193769 0.07898283
-0.0040056631 0.11800909 0.020785809
-0.003877664 -0.035994887 0.057560921
-0.004237663 0.39572006 -0.045531273
-0.004272664 0.43798709 -0.055623055
-0.0047236625 0.80237108 -0.18486929
-0.0054266639 0.87898511 -0.38639545
-0.0036276635 -0.33578992 0.12914991
-0.0037166625 -0.2281189 0.10343885
-0.0034256633 -0.57788086 0.18695879
-0.0037606638 -0.1759299 0.090976715
-0.0038076639 -0.11960793 0.077526569
-0.0099616628 0.20220011 -0.0008482933
-0.0099926628 0.23178208 -0.0079131126
-0.010367664 0.59167111 -0.09387207
-0.010414664 0.63730311 -0.10477018
-0.010207664 0.43787709 -0.057139397
-0.010495663 0.71507311 -0.12334728
-0.010530664 0.74853307 -0.13133907
-0.011583664 0.83546406 -0.37254429
-0.0093316641 -0.40182686 0.14342356
-0.0094006639 -0.33606696 0.12771654
-0.0087776631 -0.9341979 0.27057791
-0.0090376642 -0.68447196 0.21093273
-0.0091086626 -0.61625397 0.19463778
-0.0095676631 -0.17617297 0.0895257
-0.015702663 0.084300101 0.025790691
-0.015744662 0.11764807 0.017822742
-0.016187662 0.4719601 -0.066824436
-0.017825665 0.83537507 -0.37975407
-0.015093664 -0.40211892 0.14199591
-0.015446665 -0.12007093 0.074614525
-0.021617664 0.11746711 0.016340733
-0.021846665 0.27462906 -0.021214485
-0.021498663 0.036218107 0.035756588
-0.022376662 0.63717306 -0.10784626
-0.022538664 0.74845308 -0.13443708
-0.020858662 -0.40241194 0.14056873
-0.020168664 -0.87545991 0.25360775
-0.021188663 -0.17666292 0.086625576
-0.021270664 -0.12030387 0.073158741
-0.027493665 0.11728507 0.014859676
-0.027236665 -0.036852896 0.051700592
-0.027295662 -0.0011278987 0.043160915
-0.028229663 0.55832613 -0.090555191
-0.028284663 0.59144408 -0.098470211
-0.026625665 -0.40270591 0.13914156
-0.026819663 -0.2863729 0.11133766
-0.027096665 -0.12053788 0.071701527
-0.033310667 0.083732069 0.021353722
-0.033084661 -0.037069917 0.050232887
-0.034201667 0.55824208 -0.092086315
-0.034349665 0.63704109 -0.11092424
-0.034409665 0.66896105 -0.11855507
-0.034495667 0.71488208 -0.12953424
-0.034119666 0.51419306 -0.081555367
-0.032396667 -0.40300095 0.13771486
-0.031611666 -0.82141495 0.23774052
-0.031865664 -0.68588293 0.20534086
-0.032615662 -0.28664386 0.10989666
-0.032722667 -0.22939992 0.096212864
-0.032820664 -0.17715597 0.083721638
-0.039085664 0.0356161 0.03133297
-0.041256666 0.80180311 -0.21752548
-0.03816966 -0.40329695 0.13628674
-0.037057661 -0.93621993 0.26371765
-0.037295662 -0.82179892 0.23635674
-0.037578665 -0.68623793 0.20394278
-0.038531661 -0.22965991 0.094766617
-0.037721664 -0.61794996 0.18761253
-0.037925661 -0.51998293 0.16418886
-0.045062669 0.083349109 0.018392563
-0.044687666 -0.079756856 0.057404518
-0.046151668 0.55807304 -0.095148087
-0.045777664 0.39487708 -0.056116104
-0.045874663 0.4372111 -0.066241264
-0.046511665 0.71478605 -0.1326313
-0.042720661 -0.93662894 0.26234388
-0.04298266 -0.82218397 0.23497295
-0.043126665 -0.75957894 0.21999884
-0.043294668 -0.68659592 0.20254374
-0.044592664 -0.12124491 0.067327499
-0.051025666 0.11655009 0.0089225769
-0.051616669 0.35253811 -0.047532082
-0.051828668 0.43709809 -0.067761421
-0.049886666 -0.33803487 0.11767292
-0.048535667 -0.87743688 0.24671268
-0.048672669 -0.82257092 0.23358774
-0.050156668 -0.23018086 0.091871738
-0.049183667 -0.61863697 0.18480062
-0.049429663 -0.52062893 0.16135454
-0.058114663 0.55790305 -0.098214149
-0.058329664 0.63677508 -0.11708736
-0.054366663 -0.82295895 0.23220062
-0.054536663 -0.76032794 0.21721363
-0.063055664 0.2007181 -0.014281273
-0.062461667 -0.0023919344 0.034331799
-0.063411668 0.32237506 -0.04339838
-0.064330667 0.63670808 -0.11863041
-0.061285667 -0.40449393 0.13056993
-0.059726663 -0.9378649 0.25822353
-0.060457662 -0.68767488 0.19834375
-0.060768664 -0.58121097 0.17286396
-0.068703666 0.11599106 0.0044665337
-0.068086669 -0.08067596 0.05154562
-0.070434667 0.66860408 -0.12782526
-0.069949664 0.51362312 -0.090723038
-0.071968667 0.8013221 -0.2449832
-0.065399662 -0.93827987 0.25684977
-0.065758668 -0.82373989 0.22942972
-0.066183664 -0.68803692 0.19694376
-0.073942669 -0.080906868 0.05008173
-0.075127669 0.27328408 -0.03472805
-0.074203663 -0.0028189421 0.031383514
-0.076341666 0.63657308 -0.1217165
-0.075531662 0.39426208 -0.063695431
-0.075787663 0.47091508 -0.082051277
-0.078140669 0.80122608 -0.25050116
-0.071667664 -0.76146197 0.21303654
-0.072140664 -0.62002587 0.17917156
-0.072267666 -0.58189189 0.17003965
-0.080500662 0.11561608 0.0014925003
-0.080638662 0.15449411 -0.007818222
-0.081060663 0.27313107 -0.036232471
-0.084321663 0.80112809 -0.25602913
-0.083067663 0.8379041 -0.17149734
-0.078883663 -0.33947289 0.11048555
-0.084444664 -0.40570688 0.1248455
-0.084692664 -0.33976388 0.10904789
-0.083102666 -0.76222491 0.2102499
-0.083377667 -0.68913293 0.19274187
-0.084883668 -0.28912294 0.096916676
-0.084004663 -0.52259493 0.15284586
-0.084177665 -0.4764719 0.14179754
-0.091529667 -0.081606865 0.045681953
-0.092765667 0.22954911 -0.028874397
-0.094068669 0.5573861 -0.10742712
-0.090502664 -0.34005487 0.10760975
-0.088355668 -0.88026488 0.23704767
-0.088823669 -0.76260793 0.20885563
-0.089113668 -0.68950093 0.19133854
-0.090703666 -0.28940392 0.095472813
-0.091364667 -0.12316787 0.055639744
-0.098698668 0.22938508 -0.030375481
-0.098879665 0.2726711 -0.040749073
-0.097878665 0.033562064 0.01655674
-0.10040066 0.63630009 -0.12789822
-0.10292766 0.80083609 -0.27266836
-0.094054662 -0.88067496 0.2356658
-0.096985668 -0.17993295 0.067722797
-0.10398467 0.081396103 0.0035586357
-0.10326567 -0.082077861 0.042746544
-0.10360967 -0.0039018989 0.024006844
-0.10503867 0.32138407 -0.053970337
-0.10676466 0.71429205 -0.1481595
-0.10569367 0.47037807 -0.089688301
-0.11286767 0.87840509 -0.48111629
-0.099755667 -0.88108695 0.23428297
-0.099996664 -0.82611597 0.22110558
-0.10152867 -0.47744095 0.1375227
-0.11022666 0.15358806 -0.015286446
-0.11057366 0.22905511 -0.033381462
-0.10950066 -0.0041208863 0.022528648
-0.11244766 0.63616204 -0.13099527
-0.11133066 0.39350909 -0.07281208
-0.11280766 0.7142421 -0.14971542
-0.11778666 0.74148607 -0.4090333
-0.10518567 -0.94122696 0.2472229
-0.10600266 -0.76376688 0.20467091
-0.10894866 -0.12390387 0.051249504
-0.11672367 0.27220607 -0.04527235
-0.11695866 0.32109606 -0.056997299
-0.11847566 0.63609308 -0.13254309
-0.11862966 0.66811705 -0.1402235
-0.11885166 0.71419108 -0.15127325
-0.12391667 0.74162006 -0.40361118
-0.12439166 0.8787291 -0.42725945
-0.11143166 -0.82691991 0.21832895
-0.11401467 -0.29053593 0.089689732
-0.11454266 -0.18070889 0.063349724
-0.12188366 0.11427909 -0.0089354515
-0.12245867 0.22872311 -0.036389351
-0.12147367 0.032719076 0.010630608
-0.12292266 0.32095206 -0.058511257
-0.12307267 0.35091907 -0.065701485
-0.12349866 0.43571508 -0.086043358
-0.12367167 0.47005108 -0.094279289
-0.11746767 -0.76454592 0.20188189
-0.12677467 -0.083029866 0.036869526
-0.12863266 0.27189308 -0.048290253
-0.12926766 0.39312607 -0.077379227
-0.12966967 0.46994108 -0.09580946
-0.13207866 0.83747005 -0.20621538
-0.13574466 0.87904811 -0.37424135
-0.13354966 0.080392063 -0.0038790703
-0.13288866 -0.040874898 0.025223732
-0.13328767 0.032293081 0.0076646805
-0.13502167 0.35064209 -0.06873703
-0.13657467 0.63588309 -0.1371932
-0.13700067 0.71403807 -0.15595007
-0.12797667 -0.94294488 0.24171352
-0.12830167 -0.88316488 0.22736788
-0.12894367 -0.76533091 0.19908857
-0.14055467 0.27157807 -0.051312447
-0.14261566 0.63581312 -0.13874531
-0.13401966 -0.88358593 0.22598267
-0.13769366 -0.23421192 0.070102692
-0.13570467 -0.5857259 0.15448284
-0.14539666 0.079985082 -0.0068593025
-0.14609067 0.19831407 -0.03526926
-0.14443566 -0.083752871 0.032455921
-0.14468467 -0.041337907 0.022271633
-0.14626567 0.22805208 -0.04240942
-0.14680667 0.32036811 -0.064574242
-0.14698267 0.35036409 -0.071777344
-0.14911667 0.71393609 -0.15907145
-0.15443367 0.74228507 -0.37663031
-0.14768267 0.4696101 -0.10040808
-0.14793366 0.5123421 -0.11066914
-0.15066966 0.83726507 -0.22262335
-0.13911967 -0.98973191 0.24998283
-0.13938867 -0.94381189 0.23895788
-0.14184067 -0.52596593 0.13863182
-0.15152666 0.11330408 -0.016399384
-0.15103066 0.031648099 0.0032114983
-0.15296766 0.35022408 -0.073298454
-0.15470266 0.63567108 -0.14185047
-0.15842967 0.80053109 -0.28911114
-0.15688567 0.83719611 -0.22811127
-0.14791967 -0.48007488 0.12610579
-0.15746367 0.11310709 -0.017894268
-0.15799767 0.19796109 -0.038277149
-0.15695067 0.031431079 0.00172472
-0.15876566 0.32007307 -0.067610264
-0.15922166 0.39247906 -0.085003376
-0.15081066 -0.94468594 0.23620081
-0.15527366 -0.23504496 0.065736771
-0.15306166 -0.58679795 0.15023279
-0.15343967 -0.52665496 0.13578463
-0.15373066 -0.48040986 0.12467575
-0.16395767 0.19778311 -0.039781094
-0.16212167 -0.084482908 0.028037548
-0.16287467 0.031214058 0.00023889542
-0.16701166 0.66761613 -0.15266705
-0.16549866 0.43488109 -0.096748352
-0.16964267 0.91694707 -0.24989939
-0.16043766 -0.3436389 0.090302944
-0.15768267 -0.76731694 0.19209957
-0.15815966 -0.69401789 0.17448854
-0.16114166 -0.23532486 0.064278603
-0.17254867 0.58953309 -0.13547611
-0.16583866 -0.41009593 0.10475683
-0.16628267 -0.34394395 0.088859558
-0.16439067 -0.62578797 0.15659189
-0.17556366 0.15153509 -0.031762123
-0.17588167 0.19742608 -0.042793274
-0.17392667 -0.084973931 0.025089741
-0.18060866 0.8800531 -0.20687723
-0.16837867 -0.88613892 0.21767092
-0.16970366 -0.69478893 0.17167473
-0.17324467 -0.18335891 0.048737526
-0.18124266 0.11231107 -0.023878098
-0.18152067 0.15134507 -0.033263206
-0.18237066 0.27045709 -0.061902046
-0.18065867 0.030558109 -0.0042233467
-0.18497467 0.63531309 -0.1496253
-0.18323767 0.39195311 -0.091112137
-0.18378766 0.46893609 -0.10962248
-0.17495666 -0.76852596 0.18790293
-0.17834467 -0.29373395 0.073746681
-0.17875567 -0.23616886 0.05990696
-0.18781766 0.19706607 -0.045807362
-0.18383667 -0.34486687 0.084520817
-0.18125966 -0.69556689 0.16885853
-0.18420966 -0.2940309 0.072294712
-0.18501866 -0.18389988 0.045810699
-0.18543567 -0.12718391 0.032170773
-0.19224867 -0.0072678924 0.001791954
-0.19734867 0.6672951 -0.16046906
-0.20279767 0.74333012 -0.33387518
-0.19584666 0.4687081 -0.11270046
-0.18756266 -0.62727892 0.15093088
-0.19941066 0.15076911 -0.037770271
-0.19999966 0.22650707 -0.055994034
-0.20071867 0.31902307 -0.078253269
-0.20128267 0.3915531 -0.095704079
-0.20188066 0.46859407 -0.11424017
-0.19051667 -0.99380493 0.23760891
-0.19133967 -0.88787091 0.21212053
-0.20506766 0.11150408 -0.029874325
-0.20382866 -0.0437029 0.007478714
-0.20887966 0.58902907 -0.14479017
-0.20696366 0.34894109 -0.087012291
-0.20764266 0.43402609 -0.10748816
-0.21211167 0.80131412 -0.24220133
-0.20088866 -0.41204393 0.096120834
-0.19916366 -0.62803292 0.14809752
-0.20270267 -0.18471897 0.04141283
-0.20032066 -0.48312891 0.11322689
-0.21103166 0.11130106 -0.031373501
-0.21135166 0.1503821 -0.040780067
-0.20975867 -0.043943942 0.0059957504
-0.21005367 -0.0079629421 -0.0026650429
-0.21558566 0.66710007 -0.16515827
-0.21332566 0.39128506 -0.098767281
-0.21803266 0.80140007 -0.23702717
-0.20817167 -0.23759592 0.052608967
-0.20577666 -0.52981496 0.12294769
-0.21631067 0.029225111 -0.013162136
-0.21935366 0.39115006 -0.10030031
-0.21971266 0.43377709 -0.11056423
-0.22000167 0.4682481 -0.11886311
-0.21259567 -0.41270196 0.093236923
-0.20858966 -0.88918495 0.20795679
-0.21406467 -0.23788393 0.051146507
-0.21077867 -0.62879193 0.14526367
-0.21160766 -0.53017294 0.12151861
-0.21199766 -0.48382092 0.11035872
-0.22679967 0.55539107 -0.14141941
-0.22708766 0.58877307 -0.14945745
-0.22575067 0.43365309 -0.11210203
-0.22641766 0.51100206 -0.13072824
-0.21902366 -0.34674191 0.075830936
-0.21783966 -0.48416793 0.10892582
-0.22928667 0.14979607 -0.0452981
-0.22969267 0.19578809 -0.056376457
-0.22756867 -0.044671893 0.0015449524
-0.23356967 0.63472712 -0.16210318
-0.23426266 0.7131961 -0.18100643
-0.23209666 0.46801507 -0.12194729
-0.22058967 -0.83484292 0.19187355
-0.22534767 -0.29613793 0.062114716
-0.23568667 0.19560206 -0.057887077
-0.23595665 0.22544909 -0.065078259
-0.23383667 -0.0088999271 -0.0086174011
-0.23706667 0.3482101 -0.094655037
-0.23965766 0.63465309 -0.1636672
-0.23994868 0.6668371 -0.17142248
-0.23814966 0.46789807 -0.12349129
-0.24163766 0.80174208 -0.21640444
-0.23077466 -0.34737587 0.072929859
-0.22636166 -0.83527386 0.19047976
-0.22693266 -0.77222896 0.17528963
-0.23274766 -0.12927794 0.020384789
-0.24168266 0.19541711 -0.059401035
-0.23978968 -0.0091369152 -0.01010704
-0.23604067 -0.41403294 0.087466717
-0.23213767 -0.8357079 0.18908167
-0.23340167 -0.69913089 0.15616989
-0.24687766 0.1100651 -0.040387154
-0.24540566 -0.045407891 -0.0029110909
-0.24574666 -0.0093739033 -0.011597157
-0.24953367 0.39046806 -0.1079731
-0.25654265 0.74448109 -0.28638029
-0.25342965 0.80189407 -0.20714331
-0.24253966 -0.34801388 0.070027828
-0.23791666 -0.83614194 0.18768454
-0.24022566 -0.59232891 0.12891674
-0.24460666 -0.12981093 0.017431736
-0.24079765 -0.53197694 0.11436987
-0.25397664 0.22491211 -0.069630146
-0.25557864 0.39033008 -0.10951138
-0.25674164 0.51047009 -0.13847733
-0.24316268 -0.89185488 0.19961452
-0.24502067 -0.69993794 0.15334463
-0.24947865 -0.23963487 0.042369843
-0.25969365 0.19485509 -0.06394434
-0.26090664 0.31748009 -0.093514442
-0.26120564 0.34761709 -0.10078239
-0.26436165 0.66657007 -0.17769814
-0.26204866 0.43289509 -0.12134647
-0.27045065 0.70878005 -0.32607222
-0.26839265 0.7447331 -0.27591133
-0.26569965 0.80183107 -0.21030807
-0.25151566 -0.63148987 0.13532782
-0.25591266 -0.18722689 0.028195858
-0.26484066 0.10943806 -0.044902325
-0.26523665 0.14860606 -0.054349422
-0.26363266 -0.010090888 -0.01607132
-0.26767766 0.39005309 -0.11258745
-0.26810965 0.43276709 -0.12288904
-0.26072165 -0.29798496 0.053369522
-0.25734666 -0.63187993 0.13390684
-0.26183864 -0.18751097 0.026722908
-0.27083665 0.10922706 -0.04640913
-0.27124065 0.14840609 -0.055861473
-0.26922965 -0.046400905 -0.0088624954
-0.27247465 0.2679621 -0.084704399
-0.26960266 -0.010330915 -0.017563343
-0.26998964 0.027173102 -0.026612282
-0.27577966 0.58807808 -0.16193533
-0.27298266 0.31716508 -0.096574306
-0.27329364 0.3473171 -0.10385036
-0.27625564 0.63420105 -0.17306328
-0.28020966 0.74498409 -0.26547146
-0.26777065 -0.18779492 0.025250912
-0.27773166 0.19428807 -0.068492413
-0.27519265 -0.046650887 -0.010349274
-0.27804664 0.22418809 -0.075708389
-0.27557364 -0.010571897 -0.01905632
-0.28187966 0.58798909 -0.16349936
-0.27979165 0.38977408 -0.11566639
-0.28060564 0.46706909 -0.1343174
-0.26829264 -0.70156789 0.14769173
-0.26901865 -0.63266492 0.13106394
-0.28325465 0.14800209 -0.058884144
-0.28762364 0.55443209 -0.15698433
-0.29199165 0.74523407 -0.2550621
-0.28714564 0.50992906 -0.14624214
-0.27718765 -0.41640389 0.077347755
-0.27485865 -0.63305986 0.12964058
-0.28883666 0.10859209 -0.050932407
-0.28926665 0.14780009 -0.060396194
-0.29009965 0.22382206 -0.078750134
-0.28793666 0.026475072 -0.031105042
-0.29372364 0.55433404 -0.15854549
-0.29459664 0.63397205 -0.17777014
-0.29494965 0.66623211 -0.18555927
-0.30013165 0.7095381 -0.29966831
-0.29787064 0.74535811 -0.2498703
-0.29982564 0.55423713 -0.16010618
-0.29716966 0.31652808 -0.10270405
-0.29750666 0.34671211 -0.10999346
-0.29932866 0.50971007 -0.14935446
-0.28896964 -0.41709292 0.074451923
-0.29028365 -0.29955292 0.046067715
-0.28765264 -0.53492892 0.10290766
-0.29949066 -0.011544943 -0.025035381
-0.30356964 0.34655911 -0.11153126
-0.30720866 0.66609508 -0.18871021
-0.29486665 -0.41743791 0.073003769
-0.29562464 -0.35093892 0.056940556
-0.29620564 -0.29986989 0.044605732
-0.29811564 -0.13225186 0.004119873
-0.30928364 0.31620711 -0.10577345
-0.30076566 -0.41778493 0.071554661
-0.30153766 -0.35126889 0.055484772
-0.31334564 0.14698207 -0.066454411
-0.31053466 -0.09087491 -0.0089764595
-0.31424564 0.22308308 -0.084843159
-0.31476164 0.26675308 -0.095397472
-0.31855166 0.58745313 -0.17289305
-0.31534466 0.31604511 -0.10730839
-0.31909764 0.6336621 -0.1840601
-0.32372564 0.71013606 -0.27868128
-0.32130465 0.74585307 -0.22917128
-0.30666766 -0.4181329 0.070106506
-0.30745366 -0.35160089 0.054027557
-0.30874166 -0.24263394 0.027695656
-0.31003964 -0.13280487 0.0011568069
-0.31992966 0.1929431 -0.079130173
-0.32140866 0.3158831 -0.10884428
-0.32561964 0.66588712 -0.19344139
-0.32228565 0.38878411 -0.12646437
-0.31600565 -0.13308287 -0.00032711029
-0.32451165 0.073537111 -0.051831245
-0.32249165 -0.091409922 -0.011954308
-0.32747766 0.31572008 -0.11038017
-0.32931966 0.46609607 -0.1467371
-0.32127866 -0.19039786 0.011976719
-0.32197765 -0.13336086 -0.0018115044
-0.33693266 0.58718109 -0.17760229
-0.32658064 -0.24355292 0.023283958
-0.32795066 -0.13364089 -0.0032954216
-0.33697864 0.10686511 -0.063020229
-0.33747664 0.14615411 -0.072523117
-0.33445865 -0.091947913 -0.014933109
-0.33500066 -0.049199939 -0.025272369
-0.33899665 0.2660501 -0.10152245
-0.33962265 0.31539309 -0.11345625
-0.34718764 0.71072912 -0.25781822
-0.33253264 -0.24386096 0.021814823
-0.34301066 0.10664606 -0.064533234
-0.34146464 -0.013279915 -0.03552103
-0.34920266 0.58699906 -0.18074417
-0.34979966 0.63326907 -0.1919384
-0.35021564 0.66560709 -0.19976139
-0.35303265 0.71087611 -0.25262117
-0.35125265 0.74606508 -0.2192173
-0.34904566 0.10642606 -0.066049099
-0.34699965 -0.04971993 -0.028264046
-0.34747365 -0.01353091 -0.03702116
-0.35431767 0.50870705 -0.16339445
-0.35398865 0.023856103 -0.047632217
-0.36044565 0.50859308 -0.16495848
-0.36066964 0.072167099 -0.060894489
-0.35901266 -0.050242901 -0.031253338
-0.36494166 0.3877691 -0.13729906
-0.36599165 0.46535009 -0.1560812
-0.36771366 0.1451031 -0.080123425
-0.36552066 -0.014287889 -0.041520119
-0.36603865 0.023370087 -0.05064106
-0.37442166 0.63295108 -0.19825649
-0.37163764 0.43052807 -0.14923906
-0.37441665 0.19116706 -0.0928545
-0.37483564 0.22119111 -0.10012627
-0.38213664 0.7116071 -0.22674847
-0.37824166 0.46509808 -0.1592021
-0.38721064 0.6651811 -0.20926619
-0.38589466 0.14446509 -0.084685326
-0.38656166 0.19076508 -0.095907211
-0.38833666 0.31406409 -0.12579012
-0.38877264 0.3443681 -0.13313437
-0.39339066 0.6651091 -0.2108531
-0.38938966 0.38717908 -0.14350605
-0.39406165 0.71172512 -0.22214842
-0.39263764 0.1905641 -0.09743309
-0.39444065 0.31389606 -0.12733316
-0.39727566 0.50790513 -0.17435741
-0.40458766 0.58616108 -0.19492626
-0.40711465 0.34388608 -0.13777542
-0.41145566 0.63246512 -0.20775747
-0.41194364 0.66489208 -0.21562004
-0.41813666 0.66481912 -0.21721125
-0.41454664 0.42957008 -0.1601491
-0.41507766 0.46433207 -0.16858339
-0.42929265 0.5857811 -0.20125008
-0.42683664 0.42929208 -0.16326809
-0.43422765 0.50720406 -0.18377638
-0.44785765 0.58549309 -0.20599222
