# .PCD v0.7 - Point Cloud Data file format
VERSION 0.7
FIELDS x y z
SIZE 4 4 4
TYPE F F F
COUNT 1 1 1
WIDTH 1
HEIGHT 1024
VIEWPOINT 0 0 0 1 0 0 0
POINTS 1024
DATA ascii
0.63806897 0.10837185 0.37107611
0.62462395 0.10493487 0.34194183
0.63642097 0.15575784 0.17705011
0.64155197 0.19549882 0.12823486
0.63532001 0.19608682 0.13312578
0.64354795 0.26040983 0.054182053
0.61343497 0.051791847 0.28957319
0.60396999 0.10341185 0.3275218
0.626149 0.22323984 0.11105299
0.60761696 0.12488884 0.23705578
0.61176097 0.15821987 0.19625282
0.60192299 0.052410841 0.29310417
0.60562199 0.15883183 0.20103598
0.61369395 0.22436887 0.12088013
0.58842796 0.10225886 0.31665802
0.590482 0.016612828 0.29607916
0.59042698 0.053026855 0.29662991
0.57567096 0.14342886 0.38951111
0.569906 0.14383686 0.39237213
0.57900298 0.017251849 0.29959917
0.60485196 0.30768687 0.035973072
0.57284296 0.10109484 0.30575085
0.56650496 0.14132684 0.37097216
0.59341598 0.26468885 0.094029903
0.57326901 0.01756984 0.30136013
0.57321596 0.053943872 0.30190992
0.561351 0.14096087 0.36739588
0.56765199 -0.058751166 0.30195618
0.56759095 -0.017181158 0.30258703
0.59229398 0.30867982 0.046041012
0.57657295 0.22772282 0.150177
0.56176096 0.05455184 0.30542278
0.55102599 0.14022386 0.36022997
0.55609298 0.018518865 0.30662918
0.556041 0.054853857 0.30717802
0.550542 -0.098625183 0.30660391
0.55815297 0.22938186 0.16472197
0.54461199 0.055455863 0.31068516
0.544828 -0.098269165 0.30835819
0.53550196 0.13911086 0.34944487
0.54478198 0.16486484 0.24845505
0.53906 -0.057039142 0.31072903
0.56107998 0.31114286 0.071077824
0.533135 0.10269386 0.31489086
0.53031796 0.13873786 0.34584188
0.53875297 0.16545987 0.25315714
0.53340995 -0.097560167 0.31186295
0.527596 -0.014896154 0.31485701
0.53982198 0.23102784 0.17920303
0.52754796 0.020083845 0.31538486
0.52749896 0.056352854 0.31593418
0.52189898 -0.014573157 0.31660509
0.52185196 0.020393848 0.31713295
0.52180296 0.056649864 0.31768084
0.54247999 0.31260586 0.086002827
0.51604897 0.10353583 0.32013178
0.51626199 -0.055688143 0.31772518
0.52357298 0.32587582 0.23499298
0.516316 -0.096504152 0.3171072
0.51036 0.10381585 0.32187605
0.52158201 0.23266083 0.19360781
0.51046997 0.021011829 0.32062483
0.50659496 0.28523684 0.301476
0.50478595 0.021318853 0.32236814
0.50473797 0.05753684 0.32291603
0.51284701 0.35427582 0.2292881
0.50682497 0.20811987 0.23406696
0.49932897 -0.15110117 0.32150316
0.49925697 -0.095457137 0.32234287
0.48751301 0.18211287 0.39557981
0.50081599 0.20867783 0.23879385
0.493527 -0.054351151 0.32470083
0.49347401 -0.012974143 0.32532501
0.50343299 0.23428386 0.20795679
0.49338299 0.058123827 0.3263979
0.48234499 0.18175787 0.39201784
0.49481601 0.20923382 0.24351501
0.48770899 0.05841583 0.32813978
0.48797399 -0.15036911 0.32498884
0.48198301 0.10519886 0.33057785
0.492706 0.39287284 0.20153618
0.47651696 -0.053359151 0.32991886
0.476466 -0.012025177 0.33054399
0.47642297 0.022843838 0.33106899
0.47066098 0.10574585 0.33405113
0.46681696 0.18068987 0.38130808
0.47687697 0.21089482 0.25763083
0.47085601 -0.053030133 0.33165693
0.47071797 0.059287846 0.33335018
0.47103697 -0.20096415 0.32942486
0.47097397 -0.14927918 0.33020496
0.47090596 -0.093732178 0.33104181
0.46514797 -0.011397183 0.33401489
0.46831596 0.24341983 0.29464293
0.47032398 0.35795182 0.26968384
0.46537799 -0.20058411 0.33116293
0.46524799 -0.093390167 0.33277893
0.45643798 0.17997187 0.37414312
0.46162999 0.24492884 0.30890179
0.45945197 0.023747861 0.33627415
0.45959198 -0.093049169 0.33451414
0.45370498 0.10656184 0.33925009
0.45366699 0.13878584 0.33973598
0.45389298 -0.052050173 0.33686113
0.45380297 0.024046838 0.33800697
0.45375997 0.060151875 0.338552
0.45599097 0.33300185 0.310215
0.461896 0.39566684 0.23517179
0.44802397 0.13904482 0.341465
0.45309198 0.21308887 0.27634621
0.44673097 0.29111087 0.35808611
0.45248997 0.35927486 0.28407907
0.44238499 0.13930285 0.34319592
0.44094497 0.29151785 0.36190701
0.442518 0.024643838 0.34147024
0.44656497 0.35971284 0.28886318
0.44265297 -0.092032135 0.33971214
0.43561998 0.17852384 0.35975599
0.43691897 -0.0098431706 0.34267521
0.43754998 0.24771982 0.33438301
0.43517399 0.29191387 0.36561203
0.44785297 0.43371585 0.19893599
0.43040198 0.17815882 0.35614824
0.43474397 0.36058682 0.29840422
0.43137798 -0.091358125 0.34317303
0.42570198 -0.050434172 0.34551096
0.42561698 0.025532842 0.34665394
0.43209997 0.39771783 0.259408
0.43539697 0.43492684 0.21504307
0.42574698 -0.091023147 0.34490013
0.42040399 0.24870485 0.34276009
0.42071199 0.33573782 0.33856201
0.42942297 0.43530685 0.21993923
0.42018098 -0.1460641 0.3457942
0.42345998 0.43568486 0.22482491
0.41455698 -0.1457122 0.34751987
0.40862697 0.14083785 0.3535471
0.40209398 0.23142785 0.44468594
0.40871197 0.062418818 0.35236788
0.40902799 0.33664083 0.34794617
0.40899098 -0.19685119 0.34846878
0.40304899 0.10896683 0.35478592
0.40321699 -0.049158156 0.35240889
0.40317297 -0.008008182 0.35302687
0.40320197 0.33708984 0.3526268
0.39743999 0.10922986 0.35650492
0.39736697 0.17858982 0.35754681
0.39756197 -0.007705152 0.3547492
0.39764798 -0.089362144 0.35352087
0.39183399 0.10949284 0.35822392
0.39180097 0.14159584 0.358706
0.39068997 0.29309887 0.37478781
0.39188197 0.063255847 0.35753012
0.39367399 0.36361182 0.33158112
0.39203998 -0.089033127 0.35524321
0.38619998 0.14184684 0.36042309
0.38639399 -0.048211157 0.35757113
0.38631698 0.02757585 0.3587079
0.38649198 -0.14396816 0.35613203
0.37730399 0.22803485 0.41112423
0.38075098 -0.0068031549 0.35990524
0.38157299 0.24948782 0.34769821
0.37936798 0.29371482 0.38045502
0.38142598 -0.19627517 0.34988594
0.37210399 0.22769183 0.40756178
0.37519598 -0.047584176 0.36100721
0.37401897 0.29358387 0.37873125
0.37512097 0.02815187 0.36214209
0.37621298 0.36489284 0.34569788
0.36689797 0.22734886 0.4039979
0.36956397 -0.0062051415 0.36333799
0.36943099 0.29233485 0.36536503
0.36869398 0.33941287 0.37660408
0.37041199 0.36531782 0.35038805
0.37098297 -0.19757313 0.34168911
0.36401498 -0.046961129 0.36443615
0.36335099 0.29326582 0.37470007
0.36394197 0.028724849 0.36557102
0.35842797 -0.046651125 0.3661499
0.35252997 0.26100785 0.45862007
0.36435297 0.43941486 0.27327299
0.36905298 -0.27994412 0.19959116
0.35269797 0.11130887 0.37022495
0.35277599 0.029293835 0.3689971
0.34709299 0.14358282 0.37241507
0.34735799 -0.1415692 0.36813784
0.34078899 0.22561687 0.38609982
0.34169498 -0.045727134 0.37128305
0.33737198 0.25940382 0.44195986
0.34162599 0.029859841 0.37241602
0.34680998 0.44051585 0.2876482
0.34476599 -0.20085317 0.3210721
0.33591998 0.18118286 0.37638617
0.33681497 0.29216486 0.36152983
0.33605599 0.03014183 0.374125
0.33602399 0.065991819 0.37466002
0.33643299 0.36696184 0.3678689
0.33152097 0.29190183 0.35845804
0.33060497 0.33938187 0.37387609
0.33270597 0.40435684 0.33850718
0.32495698 -0.003850162 0.37702084
0.32177699 0.25841486 0.43134785
0.32563198 0.36681587 0.36548996
0.32717597 0.40442786 0.33910513
0.32981598 0.44104084 0.29401588
0.32507697 -0.14022011 0.37497425
0.32502797 -0.085157156 0.37580109
0.31923798 0.18187487 0.38150024
0.31933698 0.066796839 0.37977886
0.31368497 0.18210483 0.38320303
0.31372198 0.22540987 0.38255501
0.31387699 -0.044204175 0.37981606
0.31135398 0.25775087 0.42425108
0.31567097 0.29101086 0.34821892
0.31500998 0.33822584 0.35987091
0.31624198 0.40440485 0.33817101
0.31391197 -0.084525168 0.37921095
0.30810797 0.22574282 0.38536596
0.30828899 -0.0029821396 0.38213205
0.31289098 0.44152185 0.29981518
0.32765797 -0.36185318 0.035693169
0.31309897 -0.20485419 0.29609823
0.30255198 0.22597682 0.38725424
0.30561897 0.28946787 0.33152485
0.30271199 0.03181386 0.38434982
0.30945399 0.43883485 0.26185513
0.30779898 -0.20552713 0.29191208
0.30285299 -0.13888711 0.38179302
0.29704598 0.18278885 0.38830519
0.29701099 0.22619087 0.38895416
0.29567799 0.25674886 0.41356897
0.31663299 -0.36345917 0.026634216
0.30249298 -0.20620316 0.28771782
0.29726198 -0.083583176 0.38431692
0.29156199 0.11408782 0.38897181
0.29168698 -0.043002129 0.386621
0.29044199 0.25641286 0.40999889
0.29443297 0.28986686 0.33509207
0.29159898 0.068122864 0.38828516
0.29426697 0.33641386 0.33820391
0.30345798 0.43201783 0.16572189
0.29171899 -0.083271146 0.3860178
0.28602597 0.11433583 0.39066887
0.28600097 0.14623982 0.39114714
0.28611699 -0.0018361807 0.38893223
0.28608999 0.032638848 0.38944912
0.28908998 0.33590782 0.33220196
0.29060599 0.40180984 0.3032732
0.29943499 0.46298984 0.13481188
0.29899597 -0.28947121 0.14318895
0.28618097 -0.082960129 0.38771725
0.28312099 0.29052287 0.34135818
0.28496498 0.33357483 0.30556393
0.29355898 -0.2902202 0.13879585
0.28653499 -0.20824319 0.27509499
0.27508199 -0.042110145 0.3917141
0.27505097 -0.0012681484 0.39232588
0.27499798 0.06890887 0.39337683
0.29449898 -0.36670119 0.0084161758
0.27516598 -0.1372841 0.39004612
0.27511197 -0.082340181 0.39111185
0.26943699 0.11507487 0.39575624
0.26941398 0.14694887 0.39623213
0.26955399 -0.041814148 0.39340878
0.26944199 0.25505883 0.39567089
0.26490298 0.30452883 0.48684216
0.28894797 -0.36751717 0.003841877
0.26383299 0.22745782 0.39912319
0.26396099 0.25517386 0.39651918
0.26394898 0.069427848 0.3967638
0.27406898 0.43384185 0.18983984
0.25839499 0.11556482 0.39914083
0.25834599 0.18436188 0.40016794
0.25502598 0.30289483 0.4692812
0.25842798 0.06968683 0.398458
0.26389399 0.36031687 0.28465986
0.26821798 0.43420383 0.19464207
0.26992097 0.46469784 0.15918207
0.25285798 0.14765185 0.40130711
0.25299099 -0.040933132 0.398489
0.24981797 0.30258185 0.46576595
0.25291198 0.069944859 0.40014791
0.25689799 0.33458686 0.31564188
0.26404697 0.46503684 0.16402912
0.27225098 -0.36998218 -0.0099320412
0.25980899 -0.21168214 0.25391102
0.24734598 0.14788383 0.40299702
0.24744898 0.00013583899 0.40079021
0.25256398 0.36083287 0.29027796
0.26667199 -0.37080914 -0.014540195
0.26080197 -0.29475719 0.1122818
0.24889299 -0.14044911 0.36959314
0.24178398 0.22828984 0.40588188
0.24193898 0.00041383505 0.40247917
0.23938498 0.30195487 0.45872498
0.25531799 -0.2955212 0.1078372
0.23628098 0.22849685 0.40756893
0.23626199 0.25647783 0.40798521
0.23415998 0.30163985 0.45519686
0.23640999 0.03506887 0.40468216
0.23648599 -0.080202162 0.40295887
0.23085198 0.11677486 0.40758705
0.23077998 0.22870284 0.40925407
0.23095497 -0.03977114 0.40524912
0.23088199 0.070968866 0.40690184
0.24432898 -0.29705614 0.098918915
0.23098099 -0.079901159 0.40464783
0.22535497 0.11701483 0.40927219
0.22545499 -0.03948313 0.40693521
0.22540697 0.035599828 0.40805578
0.22965199 0.36247486 0.30883694
0.23146898 0.39916784 0.26636887
0.23481497 0.46671784 0.18816185
0.24427998 -0.3741402 -0.033057213
0.21993199 0.0015178323 0.40922785
0.21845099 0.30068886 0.4445858
0.21991098 0.035863817 0.40973997
0.22394598 0.36288285 0.31346083
0.22572398 0.39954984 0.27105522
0.227525 0.43671283 0.22806406
0.22899598 0.46705183 0.19296694
0.23866498 -0.3749792 -0.037705898
0.21998298 -0.079300165 0.40802097
0.21436897 0.11749184 0.41264009
0.21432698 0.18611884 0.41366291
0.21429998 0.22931582 0.41430616
0.22779498 -0.29937619 0.085485935
0.21448898 -0.079001129 0.40970707
0.20897296 -0.038623154 0.41198778
0.21136898 0.33800483 0.3523469
0.21597898 0.43742186 0.23755217
0.21738499 0.46771684 0.20255518
0.21669897 -0.2172932 0.21963692
0.20337698 0.14972085 0.4164772
0.20348698 -0.038338184 0.41367102
0.20346299 0.002337873 0.41427898
0.20853898 0.40069085 0.28507423
0.21127999 -0.21800417 0.2153182
0.19791397 0.11820287 0.41768408
0.19784996 0.22992384 0.41934824
0.19797999 0.0026088357 0.41595888
0.19793996 0.072480857 0.4170022
0.20447096 0.43812785 0.24700785
0.20749298 0.50635588 0.16833496
0.19243598 0.11843783 0.41936207
0.19235799 0.25803787 0.42144108
0.19215697 0.29908687 0.42680502
0.19554797 0.36490685 0.3364768
0.19712797 0.40144584 0.29438496
0.20042196 -0.2194311 0.20666122
0.18692398 0.18719482 0.42206192
0.18688098 0.29876387 0.42323494
0.18881398 0.33968884 0.3705411
0.19143596 0.40182284 0.29903078
0.18142998 0.23052585 0.42438078
0.18155098 0.0034188628 0.42099714
0.18851596 0.46936685 0.22641802
0.17600498 0.15084684 0.42486715
0.17596298 0.23072582 0.42605591
0.17608199 0.0036868453 0.42267513
0.17594898 0.25861287 0.42647123
0.18407997 -0.22158819 0.19361591
0.17055696 0.11937183 0.42607021
0.17052197 0.18783182 0.42709017
0.17063597 -0.036648154 0.42374611
0.17057997 0.073719859 0.42539024
0.17703098 0.47002083 0.23590994
0.17861998 -0.22231215 0.1892519
0.17446098 -0.14956111 0.31139803
0.16509598 0.11960387 0.42774487
0.16517296 -0.036370158 0.42542124
0.16500896 0.29951882 0.43035412
0.16273096 0.35112286 0.49901819
0.18209496 -0.38351017 -0.084682941
0.16519296 -0.076352179 0.4248271
0.15963596 0.11983484 0.42941809
0.15958297 0.23132086 0.431077
0.15969196 0.0044858456 0.42770004
0.15956897 0.25918287 0.4314909
0.15967497 0.038716853 0.42820883
0.16310099 0.40369186 0.32215881
0.16371998 -0.15089315 0.30297089
0.15973097 -0.076062143 0.42649984
0.15416697 0.15173382 0.43156004
0.15412998 0.23151785 0.43274689
0.16660997 -0.30806416 0.035599232
0.15435797 -0.076197147 0.42546701
0.14867997 0.23171383 0.4344182
0.14875096 0.074696839 0.43208218
0.15416697 0.47131884 0.254807
0.15548697 0.50905085 0.21161795
0.15670598 -0.22522718 0.17172003
0.14907697 -0.076807141 0.42140198
0.14328197 0.12052387 0.43443108
0.14320296 0.30023086 0.43710279
0.14497197 0.36848986 0.37748623
0.14975297 0.50934589 0.21639109
0.13783696 0.12075186 0.43609905
0.13780797 0.18908882 0.4371171
0.13785696 0.075180829 0.43542099
0.14058998 0.40517086 0.34054089
0.15352497 -0.38787311 -0.10850191
0.13244197 0.0058008432 0.43605614
0.13498196 0.40553886 0.34512091
0.13831097 0.50993484 0.22591591
0.15277699 -0.49479419 -0.29195499
0.14778596 -0.38875312 -0.11329317
0.14019498 -0.22743613 0.15849018
0.12689897 0.26030582 0.44150305
0.13381997 0.54960483 0.18573809
0.12151998 0.12143183 0.44110107
0.12156498 0.0063218474 0.43939018
0.12146597 0.26049083 0.44316721
0.14097998 -0.49676019 -0.30207014
0.13286197 -0.31292313 0.0079669952
0.11608798 0.12165684 0.44276619
0.11607597 0.15325987 0.44323587
0.11603498 0.26067585 0.44483185
0.12234997 0.55013287 0.19535589
0.11821298 0.40663585 0.35881996
0.12013298 0.47324285 0.28294611
0.12048697 -0.15630215 0.26897001
0.11059197 0.30127186 0.44709492
0.11018198 0.34815085 0.46387291
0.11263797 0.40699986 0.36337423
0.12914896 -0.49873811 -0.31222677
0.12475797 -0.3923021 -0.1325469
0.11504998 -0.15698713 0.2646842
0.11191998 -0.08112818 0.3927412
0.10523098 0.12210482 0.44609404
0.10527197 0.0070958734 0.44438601
0.10516798 0.30144286 0.44875717
0.10524697 0.076614857 0.44541883
0.10489597 0.34784883 0.46033192
0.10805497 0.44398585 0.32626915
0.10986198 0.51139486 0.24960089
0.12322197 -0.4997322 -0.31732082
0.10597598 0.54912084 0.17597103
0.10151697 0.40772486 0.3724618
0.11021098 -0.31621212 -0.010626793
0.10697798 -0.23191315 0.13181591
0.10124398 -0.082379162 0.38449001
0.094378971 0.15411687 0.44988489
0.094343968 0.26140785 0.451478
0.094330974 0.30178487 0.45207691
0.10069398 0.54830289 0.16047382
0.10452897 -0.31704015 -0.015295982
0.08897198 0.12277287 0.45107794
0.088950969 0.19092983 0.45208788
0.089007966 0.0078628659 0.44937325
0.089695968 0.37188482 0.41655493
0.093078978 0.43893585 0.25505114
0.094130971 0.5087378 0.20480919
0.098839976 -0.31787115 -0.019972801
0.090540968 -0.083637178 0.37621117
0.083503976 0.30212384 0.45539379
0.083570972 0.077554822 0.45206308
0.078137971 0.15475285 0.45486403
0.078095973 0.30229282 0.45704985
0.081548974 0.40036884 0.277215
0.082425974 0.46990085 0.23158121
0.083530977 0.50690985 0.17401886
0.087435968 -0.3195402 -0.029356956
0.084685974 -0.23494214 0.113873
0.07270997 0.23439783 0.45769787
0.072781973 -0.031766176 0.45375299
0.072771974 0.0086218715 0.45434999
0.075991973 0.40048784 0.27864695
0.067307971 0.23458582 0.45935297
0.061906971 0.23477185 0.46100903
0.061961971 0.0091248155 0.45766497
0.061953977 0.04317683 0.45816994
0.061944976 0.07848382 0.45869207
0.064565971 0.36219883 0.30064678
0.066471972 0.46688485 0.18567896
0.06580697 -0.16324311 0.22579479
0.05651997 0.19212884 0.46202803
0.056509972 0.23495787 0.46266317
0.056554973 0.043416858 0.45982504
0.059479974 0.40011784 0.27358913
0.069489971 -0.50881213 -0.36361313
0.051140971 0.12430382 0.46267319
0.05115097 0.078942835 0.46200085
0.053502977 0.36245185 0.30349016
0.056650974 -0.23877913 0.091261864
0.045742974 0.15600586 0.46479177
0.045734972 0.19252282 0.46533203
0.046160974 -0.034534156 0.43486118
0.045839973 0.26214784 0.45784283
0.04575897 0.079171836 0.46365499
0.048832975 0.39779285 0.24346781
0.040338971 0.23551184 0.46761703
0.041732974 0.25225884 0.36113596
0.044843972 0.46279085 0.12345695
0.034966975 0.15641785 0.46809387
0.036600977 -0.09003818 0.33438301
0.030634977 0.22586286 0.37716579
0.031569973 0.33332783 0.29481792
0.032670975 0.39426184 0.19775009
0.033870973 0.46071383 0.091918945
0.035730973 -0.32717413 -0.072014809
0.034085974 -0.24188918 0.073023796
0.02419997 0.19330382 0.47193098
0.024759971 -0.036952138 0.41847515
0.02531597 0.25270587 0.36531878
0.02422297 0.044841826 0.4697361
0.027231976 0.39307284 0.1823678
0.027844973 0.42966583 0.1239171
0.028345972 0.45966685 0.076035023
0.031351976 -0.40692919 -0.21104002
0.029946975 -0.32803518 -0.076798916
0.028424971 -0.2426731 0.068442822
0.025728971 -0.091340184 0.32593298
0.019722972 0.22617185 0.37994099
0.019849975 0.25285482 0.366714
0.018844973 0.045076847 0.471385
0.021767974 0.39187783 0.16691208
0.022756971 -0.24345821 0.063854218
0.020281974 -0.091994166 0.3216958
0.013505973 0.19296986 0.46889591
0.014270972 0.22632587 0.38132906
0.014017973 -0.038171172 0.41023922
0.013474975 0.011343837 0.47252989
0.014385972 0.25300187 0.36810684
0.013465974 0.080528855 0.47355318
0.015771974 0.35458785 0.20934105
0.016276974 0.39067686 0.15138197
0.010758974 0.38946986 0.13577509
0.015050974 -0.51814419 -0.41074276
0.012540974 -0.3306331 -0.091207027
0.0040609725 0.28593683 0.28531218
0.0027279742 0.045775831 0.47632504
0.0052149743 0.38825583 0.12009716
-0.0017220266 0.24890882 0.32798624
-0.00035602599 0.38703686 0.10434294
0.00089797378 -0.33237821 -0.10085821
-0.00077502802 -0.17184514 0.17296696
-0.0073350258 0.22325486 0.35243082
-0.0068270266 0.28307086 0.25531816
-0.0062630251 0.34941882 0.14759922
-0.0059530251 0.38581085 0.088513851
-0.013120027 0.15139383 0.42573118
-0.013361026 0.012548864 0.48075581
-0.013365027 0.081638873 0.48177719
-0.011100026 0.45218286 -0.037407875
-0.0093780272 -0.52237517 -0.43196392
-0.018698025 0.12611383 0.47654009
-0.018024025 0.24436486 0.28349495
-0.017144026 -0.24902314 0.031495094
-0.023771027 0.18160182 0.36876488
-0.023613026 0.21854585 0.30828714
-0.022621026 0.44999385 -0.070538998
-0.022876026 -0.24982721 0.026836872
-0.029353026 0.12212586 0.44455814
-0.029284026 0.14893186 0.40510893
-0.029427025 0.082295835 0.48670006
-0.028725026 0.34414387 0.084664822
-0.028620027 0.38084483 0.02442503
-0.027795026 -0.52558118 -0.44799519
-0.034728028 0.12082684 0.43414021
-0.034690026 0.14720982 0.39071321
-0.034505025 0.27577686 0.17908192
-0.034774028 0.047381818 0.48782206
-0.034775026 0.082513869 0.48833895
-0.034409028 0.34280783 0.068743229
-0.034356028 0.37958783 0.0082259178
-0.033953026 -0.52665716 -0.45335913
-0.040122025 0.14547783 0.37624693
-0.040122025 0.17660886 0.32486105
-0.040122025 0.0097688437 0.46131182
-0.040122025 0.23819786 0.22319508
-0.040122025 0.31571686 0.095240116
-0.040122025 0.34146482 0.052739143
-0.040122025 -0.41837114 -0.27153015
-0.040122025 -0.1770032 0.14161921
-0.045764025 0.27280682 0.14807606
-0.045464028 0.04783386 0.49109793
-0.045485027 0.079771817 0.46759796
-0.045914028 0.37705284 -0.024440765
-0.045969024 0.41468185 -0.086719036
-0.046298027 -0.52881819 -0.46412277
-0.046134025 -0.41934317 -0.27663422
-0.046015028 -0.33946413 -0.13983393
-0.045657028 -0.099992156 0.27026796
-0.046485025 -0.65375715 -0.67809677
-0.051059026 0.14199084 0.34711981
-0.051257025 0.21054083 0.23333502
-0.050873026 0.0085978508 0.45315599
-0.051433027 0.27130985 0.13246298
-0.051629025 0.33875883 0.020505905
-0.051917028 -0.34036118 -0.14474916
-0.051200025 -0.10067213 0.26593304
-0.056260027 0.008009851 0.44906521
-0.057130024 0.26980686 0.11677599
-0.056160025 0.047286868 0.48715401
-0.057425026 0.33739483 0.0042719841
-0.058679026 -0.53099221 -0.47492981
-0.057439025 -0.25470418 -0.0012898445
-0.056751028 -0.10135317 0.26159
-0.061945029 0.11183983 0.36217022
-0.062501028 0.20728183 0.20285511
-0.062644027 0.23190683 0.16174889
-0.062856026 0.26829487 0.10100985
-0.063688025 0.41107684 -0.13727617
-0.063748024 -0.34216517 -0.15460682
-0.062778026 -0.1799981 0.12352514
-0.067464024 -0.047543168 0.34756613
-0.068609029 0.26677483 0.085169792
-0.072039023 -0.65864617 -0.70108795
-0.074068025 0.22871286 0.1305871
-0.072422028 0.041455865 0.44493294
-0.075315028 0.37059784 -0.10754919
-0.075649023 0.40864184 -0.17140293
-0.074833028 -0.25717515 -0.015474796
-0.073451027 -0.10340816 0.24851704
-0.078855023 0.13311887 0.27311182
-0.079179026 0.16466582 0.22000408
-0.079821028 0.22710383 0.11489201
-0.082402028 -0.42523819 -0.30748177
-0.081559025 -0.3448891 -0.16946316
-0.080647022 -0.25800318 -0.020219803
-0.084177025 0.10448986 0.30339622
-0.084493026 0.13131785 0.25810385
-0.086035028 0.26216984 0.037190914
-0.083729029 0.066521823 0.36749506
-0.086840026 0.33047187 -0.078080177
-0.087282032 0.36796784 -0.14137316
-0.091311023 -0.66235214 -0.71846199
-0.089802027 0.10262883 0.28852701
-0.090159029 0.12950683 0.24302006
-0.089296028 0.064590871 0.35292816
-0.093312025 0.36664182 -0.15841818
-0.094565026 -0.4272272 -0.31784582
-0.093477026 -0.34672016 -0.17941809
-0.091277026 -0.18379217 0.10072088
-0.095452026 0.10075885 0.273592
-0.095851026 0.12768787 0.22786903
-0.096883029 0.19730484 0.10966492
-0.094992027 -0.05075717 0.32630682
-0.098425031 0.30134982 -0.066977978
-0.099618025 0.0032428503 0.41609097
-0.10002902 0.031542838 0.37324905
-0.10050502 0.060701847 0.32359695
-0.10441503 0.29987282 -0.083625793
-0.10484502 0.32622784 -0.12849712
-0.10546203 0.36396986 -0.19275188
-0.10859003 -0.53982121 -0.51860809
-0.10676303 -0.42922813 -0.32825089
-0.10143702 -0.10687315 0.22656918
-0.10683402 0.096990824 0.24351215
-0.10731702 0.12402183 0.19735098
-0.10788703 0.15587282 0.14296007
-0.10605603 -0.052056134 0.31775284
-0.10901403 0.21893185 0.035274029
-0.11043502 0.29838687 -0.10037279
-0.11090703 0.32479787 -0.14546919
-0.11487303 -0.54094011 -0.52411699
-0.10984503 -0.26218218 -0.044084072
-0.10705703 -0.10757214 0.22215509
-0.11715203 -0.66734713 -0.74180222
-0.11494102 0.21727186 0.019114017
-0.11571202 -0.2630251 -0.048884869
-0.11956602 0.15229285 0.1116209
-0.12167402 0.25274187 -0.060908794
-0.12312502 0.32191586 -0.1796751
-0.12513202 -0.43225211 -0.34393978
-0.11998003 -0.1876412 0.077704906
-0.12271103 -0.054019153 0.30486107
-0.12324502 0.052805841 0.26410913
-0.12574503 -0.18841821 0.073076248
-0.12396803 -0.10968119 0.20886707
-0.13135803 0.14867586 0.079984188
-0.12761302 -0.0065491796 0.34814119
-0.13546602 0.31900287 -0.21422386
-0.13742402 -0.4342832 -0.35445213
-0.13547003 -0.35321218 -0.21456194
-0.14316103 -0.67240518 -0.7653451
-0.13385203 -0.055336177 0.29622984
-0.14168403 0.31753486 -0.23162985
-0.14150503 -0.35415119 -0.21962404
-0.13730103 -0.18997818 0.063794136
-0.14603102 0.24628985 -0.12792492
-0.13977903 0.017246842 0.27007008
-0.14898103 0.35438585 -0.31572294
-0.14975503 -0.43632716 -0.36500788
-0.14475302 -0.012917161 0.30399418
-0.15344203 0.28775984 -0.21998596
-0.15421703 0.31457382 -0.2667141
-0.15913004 -0.54886919 -0.5630188
-0.14889103 -0.1915471 0.054473877
-0.15346703 0.081532836 0.12029791
-0.15430503 0.10897887 0.072322845
-0.15724704 0.20540786 -0.096231937
-0.15701202 -0.26899821 -0.082744122
-0.16030803 0.10705483 0.056355
-0.16462202 0.24136186 -0.17906904
-0.16601303 0.28464884 -0.25494385
-0.16832203 -0.43941516 -0.38091898
-0.16573903 -0.3579331 -0.23996782
-0.16541103 0.077567816 0.088749886
-0.16743803 0.13759786 -0.016802788
-0.16409603 0.038598835 0.157269
-0.17182103 -0.35888618 -0.24507999
-0.18249604 -0.68011111 -0.80104589
-0.17493203 0.17459887 -0.10178089
-0.16746601 -0.059334159 0.27015018
-0.16798803 -0.021558166 0.24415493
-0.17583802 0.20018786 -0.14690781
-0.17717701 0.23803085 -0.21360922
-0.17967302 0.30855584 -0.33796597
-0.17791203 -0.35984117 -0.25019979
-0.17849603 0.10122186 0.0079731941
-0.18209803 0.19842887 -0.16396999
-0.17491502 0.0045888424 0.1789012
-0.17513204 -0.11612016 0.16856289
-0.19889402 -0.7709021 -0.96584177
-0.18739402 0.17096686 -0.13552999
-0.18838802 0.19666284 -0.18109798
-0.18985903 0.23466486 -0.24849701
-0.19746003 -0.55580121 -0.59681988
-0.19624904 0.23296785 -0.26607513
-0.18659103 -0.1175732 0.15951824
-0.19998503 0.16729486 -0.16962576
-0.19027501 -0.063570142 0.24239111
-0.20106903 0.19309986 -0.21564722
-0.20451802 0.27511287 -0.3620038
-0.21032003 -0.55814117 -0.60818481
-0.19620803 -0.065861166 0.22725582
-0.20745802 0.19130284 -0.23305702
-0.22222301 -0.68796211 -0.83722019
-0.20814702 0.06336683 -0.024108887
-0.21091303 0.12422687 -0.13338995
-0.21387902 0.18949687 -0.25055313
-0.21562102 0.22782087 -0.31935883
-0.20498303 -0.0062581301 0.10091114
-0.22322002 -0.56049412 -0.619596
-0.23278302 -0.77798611 -0.99736214
-0.21437404 0.061295867 -0.040549755
-0.21910903 0.16171587 -0.22138977
-0.22033304 0.18768084 -0.26813984
-0.21108404 -0.0084611773 0.085087776
-0.21324402 -0.20034319 0.0025877953
-0.22063401 0.059212863 -0.057075977
-0.22870404 0.22434282 -0.35534286
-0.21869603 0.019571841 0.014536858
-0.22697803 -0.36758918 -0.29154301
-0.22692302 0.057119846 -0.073679924
-0.23002201 0.11834186 -0.1846199
-0.23334503 0.18401784 -0.30359221
-0.22337902 -0.012902141 0.053205967
-0.22491303 0.017402828 -0.0017089844
-0.23715803 -0.4509812 -0.44011211
-0.24893203 -0.69327813 -0.86160421
-0.23471802 0.083163857 -0.14153099
-0.24192402 0.22082585 -0.39169884
-0.24915102 -0.56524521 -0.64256907
-0.24347603 -0.4520511 -0.44555998
-0.23934004 -0.36955518 -0.30198288
-0.23487103 -0.28042215 -0.14685822
-0.22696602 -0.12272817 0.1275878
-0.26010501 -0.78373414 -1.0228391
-0.24112302 0.081103861 -0.1585598
-0.24092403 -0.2813192 -0.1518569
-0.23276702 -0.12347215 0.12299299
-0.26235303 -0.69596118 -0.873878
-0.24942303 0.11236286 -0.23662996
-0.24043202 -0.048557162 0.057672024
-0.27383602 -0.78663617 -1.0356631
-0.24833402 -0.021922171 -0.011497021
-0.26871103 -0.56884712 -0.65992785
-0.24439701 -0.12496918 0.11377621
-0.26053801 0.074856818 -0.21016884
-0.26490402 0.14833683 -0.34534788
-0.27145103 0.25850284 -0.54804802
-0.25022402 -0.1257202 0.10915518
-0.27158302 0.14638382 -0.36342478
-0.25714403 -0.089422166 0.071824074
-0.25921702 -0.055571139 0.0093359947
-0.26287404 0.0041458607 -0.10090017
-0.27576402 0.10424083 -0.3072052
-0.27829704 0.14441985 -0.38159513
-0.26931304 0.0018948317 -0.11772108
-0.28159603 -0.45854419 -0.47848797
-0.27666202 -0.37552518 -0.33356094
-0.28243703 0.10218084 -0.32508612
-0.28931403 0.20820683 -0.52200079
-0.28356203 -0.28767413 -0.18713713
-0.30048001 0.16509384 -0.48645878
-0.30318102 0.20450985 -0.56012487
-0.28671104 -0.035811126 -0.11097097
-0.28882802 -0.0049291253 -0.16869593
-0.28969103 -0.28859216 -0.19221687
-0.28466901 -0.2102682 -0.055276871
-0.28010902 -0.13214511 0.069079876
-0.29115602 -0.067508161 -0.072822094
-0.29322103 -0.038169146 -0.12783909
-0.30721802 -0.46293813 -0.5006752
-0.30174303 -0.37956411 -0.35482883
-0.30494201 0.031111836 -0.27958012
-0.31240603 0.13443482 -0.47389412
-0.30197701 -0.29043812 -0.20240688
-0.29670003 -0.2119562 -0.065052032
-0.29277703 -0.13722211 0.037073135
-0.30161601 -0.10665613 -0.041565895
-0.30415803 -0.072372139 -0.10626316
-0.32798502 -0.57985312 -0.71268797
-0.32009301 -0.46515518 -0.51183701
-0.31434503 -0.38160318 -0.36553001
-0.30813703 -0.29136521 -0.20752001
-0.33700901 -0.71102017 -0.942379
-0.32061601 0.055500865 -0.36980295
-0.31070802 -0.074823141 -0.12310696
-0.32066002 -0.38262612 -0.37089682
-0.31430402 -0.2922942 -0.21263885
-0.33012903 0.087447822 -0.45286703
-0.31729102 -0.077288151 -0.14003706
-0.33851701 0.19508183 -0.65725613
-0.32048103 -0.29322618 -0.21777105
-0.35725603 -0.80443519 -1.113873
-0.32876801 -0.018912137 -0.27299786
-0.35761902 -0.71521813 -0.96135998
-0.34128103 0.048832834 -0.42469883
-0.33298701 -0.052585125 -0.23087215
-0.35462001 -0.5848431 -0.73647499
-0.33967003 -0.38571614 -0.38706589
-0.33286703 -0.2950992 -0.22806501
-0.34824103 0.046585858 -0.44318914
-0.35111901 0.080955863 -0.50908804
-0.33973402 -0.055033147 -0.24835014
-0.35273901 0.015143871 -0.40564108
-0.35523903 0.044325829 -0.46177578
-0.35819003 0.078767836 -0.52802801
-0.34396502 -0.087278128 -0.20861816
-0.36800602 -0.58736116 -0.74844503
-0.35239401 -0.3877911 -0.3978982
-0.34529102 -0.29698318 -0.23840094
-0.33812603 -0.1554212 -0.077514172
-0.37834001 -0.71945518 -0.98047304
-0.35609302 -0.028489172 -0.34433985
-0.37471601 -0.58862621 -0.7544508
-0.37615603 0.11574084 -0.64634609
-0.37201902 -0.47416013 -0.55696821
-0.35130903 -0.21967715 -0.10951996
-0.37856102 -0.47530121 -0.56266499
-0.37156102 -0.39092714 -0.41423702
-0.40073702 0.13675082 -0.7594099
-0.38399902 -0.038280129 -0.41717911
-0.40167603 -0.5937261 -0.7786088
-0.37151101 -0.16883916 -0.16184092
-0.39514101 0.00095582008 -0.51744699
-0.39106703 -0.040759146 -0.43560886
-0.40844503 -0.5950101 -0.7846818
-0.39082101 -0.39409119 -0.43067503
-0.42011401 -0.72805113 -1.0190949
-0.40529501 0.028146863 -0.59470701
-0.40878001 0.063097835 -0.66350508
-0.39199001 -0.10528815 -0.332057
-0.39726403 -0.39515311 -0.43617916
-0.38510603 -0.17430812 -0.19617414
-0.42043301 0.10273486 -0.76608419
-0.39541301 -0.1430971 -0.28056622
-0.39899403 -0.10791713 -0.35005713
-0.42202002 -0.5975911 -0.79686785
-0.40371701 -0.39621717 -0.44169521
-0.39539301 -0.3046332 -0.2801671
-0.38814902 -0.22493917 -0.1396122
-0.42795703 0.10052282 -0.78642702
-0.40603602 -0.11056119 -0.36815119
-0.40918303 -0.080264151 -0.42819786
-0.44117302 -0.73241013 -1.0386062
-0.43106103 0.056188822 -0.72315788
-0.43846303 0.12606084 -0.862082
-0.41972402 -0.050824165 -0.5103879
-0.42465302 -0.4833861 -0.60288191
-0.41665402 -0.39835519 -0.45275784
-0.448217 -0.73387212 -1.0451412
-0.43153703 -0.011239171 -0.61339283
-0.43857101 0.053858817 -0.74326086
-0.42023101 -0.11589319 -0.40462399
-0.42351702 -0.085480154 -0.46530819
-0.41434801 -0.30754811 -0.2960062
-0.44223303 0.016190827 -0.6927762
-0.45078403 0.09380883 -0.84814405
-0.45371801 0.049157858 -0.78381014
-0.43800801 -0.090751171 -0.50279999
-0.43614301 -0.40158719 -0.4694438
-0.42161003 -0.23676413 -0.20950413
-0.46135503 0.046786845 -0.80424881
-0.44531101 -0.093411148 -0.52170181
-0.46303102 -0.60543221 -0.83375978
-0.43340001 -0.31049019 -0.31194496
-0.43380803 -0.19391912 -0.3191309
-0.46903503 0.044401824 -0.82480717
-0.457917 -0.48926717 -0.63198709
-0.43556401 -0.24263614 -0.2443161
-0.47252601 0.0063768625 -0.77318287
-0.48182601 0.084670842 -0.93205786
-0.47679803 -0.60807818 -0.84616804
-0.44805202 -0.1996612 -0.35508299
-0.47655103 -0.026340127 -0.73202276
-0.44966501 -0.24857312 -0.27949095
-0.45523301 -0.20255619 -0.37320614
-0.46671203 -0.17087513 -0.46211195
-0.47112703 -0.13502711 -0.53534794
-0.46884501 -0.40703911 -0.49749184
-0.47541803 -0.40813917 -0.50313711
-0.503506 -0.003670156 -0.85540009
-0.49414602 -0.077006161 -0.70451498
-0.50740302 -0.036702156 -0.81331205
-0.497563 -0.11245316 -0.6569128
-0.50181705 -0.079708159 -0.72452116
-0.47822401 -0.31745714 -0.34952402
-0.51522505 -0.039331138 -0.83392
-0.52403301 0.027307868 -0.97198915
-0.51840305 -0.61611611 -0.88373709
-0.49170703 -0.21727413 -0.46524096
-0.52538103 -0.61747116 -0.89004898
-0.51174706 -0.49886721 -0.67922497
-0.53100103 -0.044634163 -0.87547922
-0.54015404 0.022291839 -1.0151238
-0.53237104 -0.61882919 -0.89637518
-0.50019801 -0.26986915 -0.40550518
-0.53895706 -0.04730916 -0.89643478
-0.52833503 -0.12368113 -0.73651791
-0.53292602 -0.090672135 -0.80563593
-0.52532303 -0.50130421 -0.69116497
-0.50407404 -0.32150418 -0.37124491
-0.51406306 -0.22630316 -0.52163887
-0.55131704 -0.019193172 -0.98225594
-0.53171003 -0.15784317 -0.69089794
-0.54081601 -0.093454182 -0.82620621
-0.53213102 -0.50252813 -0.69715691
-0.53947204 -0.16076916 -0.71082211
-0.55342102 -0.62293011 -0.91544104
-0.53894901 -0.50375611 -0.70316219
-0.52842206 -0.41706318 -0.54874611
-0.51706702 -0.32354718 -0.38217783
-0.56310099 -0.055432141 -0.96002722
-0.53678805 -0.23548716 -0.57895803
-0.55512601 -0.16667217 -0.75100183
-0.55980402 -0.13517314 -0.81790686
-0.54178804 -0.41932815 -0.56027222
-0.54444504 -0.23858315 -0.59826899
-0.574588 -0.62707013 -0.93464184
-0.54503703 -0.28879315 -0.51727819
-0.58766502 -0.063701153 -1.0247178
-0.59808701 0.0042498708 -1.1700988
-0.57095802 -0.17264515 -0.79163408
-0.58093202 -0.10761017 -0.93077612
-0.54609799 -0.33473319 -0.44482899
-0.552652 -0.29200917 -0.53625298
-0.55988801 -0.24482816 -0.63720894
-0.59594804 -0.066491127 -1.0465279
-0.60080999 -0.035283148 -1.1135402
-0.57320404 -0.21247512 -0.73305988
-0.59199202 -0.14693815 -0.90114117
-0.58012003 -0.51120311 -0.73947001
-0.56800604 -0.29849619 -0.57451487
-0.617697 -0.040777147 -1.1583271
-0.58909899 -0.2186951 -0.77348709
-0.59504002 -0.18173617 -0.85343218
-0.60015303 -0.14992315 -0.92224312
-0.60555702 -0.1163072 -0.99495506
-0.61386299 -0.11924213 -1.0166011
-0.610129 -0.63405615 -0.96693993
-0.58217502 -0.42620617 -0.59516001
-0.57650703 -0.34807914 -0.51978493
-0.58353102 -0.30505913 -0.61319685
-0.59128803 -0.25753516 -0.71636677
-0.63478804 -0.046341181 -1.203649
-0.63809901 -0.080696166 -1.1575069
-0.61328202 -0.22816414 -0.83498096
-0.624924 -0.15898615 -0.98628092
-0.591959 -0.35486513 -0.5578661
-0.59922504 -0.31169516 -0.65229797
-0.63161302 -0.63830119 -0.98650122
-0.64167905 -0.16512018 -1.0295911
-0.62174201 -0.51878911 -0.77627611
-0.61509705 -0.3184101 -0.69183302
-0.63788003 -0.23780113 -0.89752102
-0.64446199 -0.20040911 -0.98022318
-0.65012801 -0.16821414 -1.0514312
-0.64600503 -0.64115316 -0.99962091
-0.61616004 -0.43203419 -0.62458515
-0.66471905 -0.13722414 -1.149107
-0.661318 -0.20678419 -1.023458
-0.66717702 -0.17445916 -1.0954919
-0.66045099 -0.64402312 -1.0128012
-0.64272499 -0.52263516 -0.79486799
-0.63134003 -0.37217218 -0.65489578
-0.64795703 -0.28049618 -0.85919476
-0.675776 -0.17760915 -1.1177158
-0.68207401 -0.14336616 -1.1943169
-0.67837304 -0.21323615 -1.0672002
-0.65678 -0.52521914 -0.80733585
-0.66456699 -0.28723317 -0.9010458
-0.69313002 -0.18397111 -1.1625628
-0.68836403 -0.25760013 -1.0258441
-0.69562703 -0.21976715 -1.1114488
-0.66363901 -0.38638121 -0.73445511
-0.69694901 -0.2609691 -1.0476632
-0.68983799 -0.2974872 -0.964715
-0.68504602 -0.53043419 -0.83243799
-0.67118102 -0.4415471 -0.67235708
-0.68006301 -0.39361113 -0.77490187
-0.69836199 -0.3009482 -0.98618698
-0.72301304 -0.27120215 -1.113893
-0.706384 -0.5343892 -0.85141993
-0.69530499 -0.4519102 -0.727283
-0.71415204 -0.36037713 -0.93846321
-0.724226 -0.31145221 -1.0513349
-0.71352303 -0.53571516 -0.85777378
-0.72271705 -0.36401016 -0.95977879
-0.72194004 -0.4120571 -0.87800407
-0.74172503 -0.31856221 -1.0954061
-0.72784501 -0.53838021 -0.87053299
-0.73045903 -0.41581219 -0.8989749
-0.73902702 -0.41959018 -0.92006493
-0.74222004 -0.54106218 -0.8833518
-0.74564505 -0.47498816 -0.84974289
-0.78017002 -0.4908312 -0.93369818
-0.792974 -0.55058211 -0.92869186
-0.814937 -0.55472618 -0.94835615
-0.82284504 -0.55714911 -0.96033907
