# .PCD v0.7 - Point Cloud Data file format
VERSION 0.7
FIELDS x y z
SIZE 4 4 4
TYPE F F F
COUNT 1 1 1
WIDTH 1
HEIGHT 1024
VIEWPOINT 0 0 0 1 0 0 0
POINTS 1024
DATA ascii
0.85978436 0.35536134 -0.22093916
0.83883137 0.35724336 -0.20090818
0.81513238 0.44566035 -0.20873213
0.80735636 0.40238434 -0.19484615
0.82160139 0.12300336 -0.42594433
0.79615337 0.40175432 -0.20431137
0.79651034 0.44590735 -0.20741606
0.79900438 0.48026335 -0.22913837
0.78919435 0.35803735 -0.19721317
0.77355337 0.22698432 -0.2222333
0.76610434 0.22825432 -0.2105751
0.76930034 0.47980034 -0.23952007
0.76519638 0.19167835 -0.25842905
0.74940437 0.28342736 -0.11424017
0.75936139 0.35765332 -0.20515537
0.76037633 0.44569835 -0.21441793
0.78461635 0.03529036 -0.49418402
0.73205936 0.34355736 -0.010391235
0.74391633 0.23203236 -0.1758523
0.75168735 0.47937134 -0.24797106
0.74564439 0.47933033 -0.24924612
0.73547137 0.19699532 -0.21156931
0.72925436 0.23452634 -0.15291214
0.73780936 0.13916236 -0.2922802
0.72810638 0.19831133 -0.19996214
0.73387039 0.47904733 -0.25479603
0.73873836 0.088998318 -0.36081839
0.73120934 0.090534329 -0.34869528
0.70745337 0.23822933 -0.11880827
0.72937435 0.60071635 -0.33094025
0.71545637 0.68723434 -0.19625902
0.72205037 0.60125834 -0.32042313
0.68498337 0.34854436 0.041350842
0.71388137 0.6525563 -0.24069118
0.71912736 0.47670734 -0.29189014
0.70815337 0.14485931 -0.24500132
0.69890338 0.20352232 -0.1539402
0.68469834 0.29361737 -0.014090061
0.72073835 0.56381434 -0.36889791
0.71474934 0.60179836 -0.30993795
0.70115238 0.68802834 -0.17608595
0.70831537 0.051663339 -0.37024498
0.70021337 0.60287333 -0.28906727
0.70083839 0.053263366 -0.35810518
0.67726737 0.20737535 -0.11985493
0.67345339 0.49086934 -0.081308365
0.67891437 0.15046537 -0.19840431
0.67371535 0.68925738 -0.14538097
0.66591239 0.53535438 -0.06580019
0.67927039 0.10111237 -0.26508808
0.65745938 0.24669933 -0.040627956
0.69583237 -0.0094406605 -0.435534
0.67858237 0.60447037 -0.25800991
0.68831134 -0.0077186823 -0.423172
0.64436537 0.34818435 0.033219814
0.64795536 0.41841435 -0.0040621758
0.66227835 0.48623335 -0.1528163
0.64421433 0.45981035 -0.027234077
0.65468538 0.53118038 -0.13698721
0.65740234 0.10555434 -0.22990322
0.64700836 0.57739532 -0.11995029
0.63274938 0.34807736 0.030896664
0.65652639 0.062728345 -0.28618622
0.62458938 0.30074835 0.054848671
0.64319938 0.57614535 -0.14388037
0.65087235 0.48149833 -0.22580814
0.63936436 0.57488632 -0.16797638
0.63649637 0.61048633 -0.1370573
0.63550234 0.57361734 -0.19224215
0.61531836 0.34791434 0.027413845
0.63041633 0.65719134 -0.13689518
0.62077236 0.45963234 -0.031940937
0.64313537 0.47828433 -0.27531624
0.63472134 0.067375362 -0.25081015
0.63161439 0.57234132 -0.21666908
0.62446338 0.65716434 -0.13810015
0.63545835 0.52402735 -0.25891209
0.60142839 0.30051136 0.050225735
0.60758239 0.16409236 -0.084789276
0.62224138 0.57066834 -0.24904203
0.61314738 0.071965337 -0.21581936
0.62873238 -0.043969631 -0.39217901
0.61657435 0.57040036 -0.25459623
0.60600436 0.073484361 -0.20423508
0.60020238 0.11714137 -0.13791132
0.60690635 0.60688233 -0.21454716
0.60150337 0.65664035 -0.15278912
0.59144539 0.45940134 -0.037826061
0.59301138 0.49304834 -0.055716991
0.59590036 0.65643632 -0.15819931
0.58614933 0.11998034 -0.11532116
0.58124238 0.49295935 -0.058080196
0.60483336 0.5197593 -0.33325815
0.56557834 0.22717136 0.055971622
0.59860635 -0.085368633 -0.40745115
0.57904339 0.65582132 -0.17447996
0.56524938 0.12419736 -0.081732273
0.55505139 0.30001336 0.040994644
0.57865638 0.017284334 -0.24307919
0.56209034 0.45916134 -0.043710232
0.56543535 0.53481334 -0.083975315
0.54617137 0.22961336 0.077288628
0.55670536 0.083940327 -0.12431812
0.54544634 0.17590332 0.014098644
0.54040039 0.22954136 0.076143742
0.57676136 -0.079886675 -0.37090397
0.54163736 0.25810432 0.060931683
0.54549634 0.34721935 0.013485909
0.54975939 0.085410357 -0.11306524
0.57682437 -0.13837969 -0.44945431
0.53764236 0.29981834 0.037532806
0.55645639 0.65499336 -0.19629908
0.54446334 0.45901334 -0.047241211
0.53189236 0.17847234 0.035658836
0.52885336 0.22939634 0.073853016
0.56232536 -0.076269627 -0.34675932
0.53006434 0.25796533 0.058636665
0.55639833 -0.026660681 -0.27228498
0.55038238 0.023699343 -0.19668722
0.53858334 0.45896235 -0.048418045
0.54001135 0.49263835 -0.066356182
0.52427638 0.25789535 0.057488918
0.54930538 -0.02496767 -0.26053524
0.53096336 0.41739535 -0.027479172
0.53587735 0.53460133 -0.089916229
0.52408636 0.13248336 -0.015604019
0.51152635 0.22917533 0.070421696
0.54086536 -0.070898652 -0.31087208
0.51269734 0.25775236 0.055192947
0.51754737 0.37602836 -0.0078349113
0.51538038 0.092675328 -0.057370186
0.53282738 0.60369432 -0.28674221
0.49996638 0.22902536 0.068134785
0.50111234 0.25760835 0.052898884
0.50468737 0.34678435 0.005358696
0.52232939 0.65373534 -0.22927713
0.51220834 0.53442633 -0.094671249
0.50179237 0.095541358 -0.035366058
0.50870037 0.033130348 -0.12832594
0.51907438 -0.12311471 -0.35179615
0.48952335 0.25746232 0.050601959
0.49415737 0.37578535 -0.012495995
0.50769937 0.68788534 -0.19690323
0.50559437 -0.062089682 -0.25191736
0.50033635 -0.013308644 -0.17944813
0.49499735 0.036224365 -0.10586214
0.48717937 0.34659135 0.0018768311
0.50515634 0.6530993 -0.24587393
0.50200033 0.68769932 -0.20237923
0.49151236 0.45854834 -0.057837009
0.47683537 0.22871935 0.06356287
0.48403236 0.41694331 -0.036849976
0.46938935 0.18470132 0.085862637
0.48138437 0.039294362 -0.083549976
0.48424336 0.57789838 -0.12393093
0.47816035 0.41688436 -0.038021088
0.50407434 -0.17698264 -0.40401316
0.46526235 0.22856337 0.061275005
0.49080637 -0.11566663 -0.30402803
0.46789035 0.29899734 0.023686886
0.47509637 0.49210033 -0.079363346
0.45785436 0.18453431 0.083590031
0.48380235 -0.11382365 -0.29219437
0.47781637 -0.055169702 -0.20550728
0.46786535 0.042339325 -0.061396122
0.45208538 0.18445033 0.082452774
0.46053737 0.41670734 -0.041535378
0.46480837 0.53406233 -0.1041851
0.44209936 0.22824436 0.05670166
0.44775537 0.046863317 -0.028450012
0.45566437 0.61067533 -0.14752913
0.44628137 0.34612536 -0.0062503815
0.43476737 0.18419433 0.079043865
0.43730837 0.25677836 0.04027462
0.43877336 0.29863435 0.017919064
0.44969636 0.61063635 -0.14873028
0.44043335 0.34605736 -0.0074110031
0.43051136 0.22808135 0.054415703
0.43294635 0.29856032 0.016763687
0.43908137 0.0012113452 -0.078101158
0.43446237 0.049850345 -0.0066771507
0.44258636 0.57760233 -0.1323061
0.43458435 0.34598833 -0.0085730553
0.44530335 0.65624034 -0.17431736
0.45032835 0.6860013 -0.25203133
0.43845636 0.45805335 -0.068439007
0.44227737 -0.10291767 -0.22206926
0.42784736 0.051335335 0.0041556358
0.43662837 0.57755935 -0.13350296
0.43775335 0.61055732 -0.15113592
0.43255335 0.45799634 -0.069619179
0.44774637 -0.16137767 -0.30780125
0.43067035 0.57751536 -0.13470125
0.43178037 0.61051738 -0.15233707
0.44081637 -0.15946364 -0.29597092
0.41165838 0.18384635 0.074496746
0.42339236 -0.041654646 -0.11464119
0.41468537 0.054287314 0.025704861
0.42074537 0.45788133 -0.071975231
0.42326036 0.53372633 -0.11251593
0.40465936 0.14647835 0.093290806
0.40731737 0.22774935 0.049842834
0.42183736 -0.097563624 -0.18756628
0.40825337 0.25638032 0.034536839
0.41983035 0.61043733 -0.15474319
0.41117436 0.34570837 -0.013217926
0.42388037 0.73433733 -0.22097301
0.41732037 0.53367734 -0.11370611
0.39889535 0.14638436 0.092159748
0.41001737 -0.038342655 -0.092320919
0.40759137 0.41615433 -0.052083969
0.41002035 0.49152133 -0.092383385
0.40832436 -0.094027638 -0.16476202
0.40787235 0.61035538 -0.15714836
0.40302235 0.45770633 -0.075513363
0.41333336 -0.15187871 -0.24906731
0.38862136 0.060123324 0.068369865
0.40085837 0.57729334 -0.14068937
0.39360037 0.34549332 -0.016701221
0.40432537 0.68802536 -0.19991827
0.39580935 0.41602635 -0.054428101
0.39711237 0.45764735 -0.076691151
0.39948836 0.53352737 -0.1172781
0.38159236 0.14610136 0.088768959
0.38498437 0.25605232 0.029946804
0.38617137 0.013695359 0.0093598366
0.38864136 0.37460732 -0.033477306
0.38991636 0.41596234 -0.055602074
0.37695536 0.18330634 0.067680836
0.38353238 -0.031795681 -0.048141956
0.38892335 0.57720333 -0.1430831
0.38187936 0.34534836 -0.019024372
0.38394135 0.61019033 -0.16196108
0.39275536 -0.2249707 -0.31961536
0.37042135 -0.028560638 -0.026278973
0.36751637 0.25580132 0.026504993
0.37795535 0.61014831 -0.16316509
0.38591236 -0.22295368 -0.30776405
0.37950736 -0.14256668 -0.1913662
0.36086136 0.22706032 0.040699959
0.36833635 -0.083590627 -0.097319126
0.36169237 0.25571632 0.02535677
0.37692037 0.73336935 -0.25582838
0.35272735 0.14561737 0.083117008
0.35504836 0.22697133 0.039556026
0.35586637 0.25563133 0.024209976
0.35380936 0.021302342 0.06281662
0.35050836 0.067846358 0.12476492
0.36597836 0.61006331 -0.16557312
0.35841736 0.34505236 -0.02367115
0.36161935 0.45728534 -0.083766937
0.37821636 -0.29584563 -0.39526033
0.35998735 0.61002034 -0.16677713
0.35452935 0.41556835 -0.062638283
0.35664737 0.49101534 -0.10304308
0.36552635 -0.21695065 -0.27246714
0.34341636 0.22679234 0.037268639
0.33902335 0.067630351 0.12252569
0.33539036 0.14531934 0.079725742
0.33837736 0.25537235 0.020767689
0.33464435 0.025797367 0.094459057
0.33327937 0.067521334 0.12140703
0.35011137 0.68773139 -0.21086597
0.34385237 0.45709935 -0.087306976
0.34625137 -0.13343871 -0.13467407
0.33178037 0.22661132 0.034982681
0.34112236 0.57682836 -0.15267611
0.34200436 0.60989034 -0.17039108
0.32480535 0.18245733 0.057455063
0.32914338 -0.07339561 -0.031260014
0.32521537 -0.01743263 0.049066067
0.32178637 0.067301333 0.11916876
0.32982236 0.37389237 -0.04514122
0.33288637 0.49078235 -0.10778618
0.31721637 0.11300236 0.093495846
0.31566536 0.030240357 0.12578487
0.32499737 0.41522837 -0.068505287
0.32694137 0.49072233 -0.10897207
0.33723637 -0.28302562 -0.32329607
0.32656437 -0.12804663 -0.10113001
0.31225437 0.14491433 0.075205803
0.31248736 -0.014308631 0.070267677
0.31028637 0.067079365 0.11693382
0.31908736 0.41515934 -0.06967926
0.32206237 0.53284633 -0.13277292
0.30646735 0.14481133 0.074075699
0.30848837 0.22624332 0.030410767
0.31024137 0.29689336 -0.0074729919
0.32108635 0.73387635 -0.24179029
0.31876135 -0.2032187 -0.19154692
0.29989836 0.11268234 0.090119839
0.30625236 0.37359434 -0.049807072
0.31389835 0.68752635 -0.21817303
0.30726135 0.41501933 -0.072026253
0.31012836 0.5327363 -0.13515902
0.29302835 0.066741347 0.1135807
0.30709037 0.65539634 -0.20217609
0.30785736 0.6874913 -0.21939325
0.29072037 -0.063435674 0.033454895
0.28728035 -0.0081306696 0.11224508
0.28644136 0.031207323 0.13146591
0.30106136 0.65535635 -0.20339108
0.28256637 0.11235732 0.086744785
0.28415936 0.18176532 0.049501896
0.28788736 0.34411937 -0.037616253
0.27933937 0.22577035 0.024693966
0.27479935 -0.0050766468 0.13302183
0.27998537 0.25447536 0.0092878342
0.28265736 0.37328935 -0.054478168
0.28528935 0.49029735 -0.11727524
0.29555038 -0.35346663 -0.36207819
0.27100435 0.11213732 0.084496021
0.27675536 0.37321132 -0.055644989
0.27502036 -0.11397564 -0.013364315
0.26521936 0.11202633 0.083369732
0.26671636 0.18146032 0.046093941
0.26423037 0.066164315 0.1079917
0.27523035 0.57628334 -0.16588116
0.28215137 -0.34901571 -0.33820105
0.25771937 0.030605316 0.12590599
0.26923135 0.57623231 -0.16708326
0.26741335 0.49011034 -0.12083721
0.26665238 -0.1879847 -0.10146713
0.26234335 -0.11052465 0.0082058907
0.25658438 0.25410235 0.0046958923
0.26322937 0.57618034 -0.16828299
0.26391336 0.60929835 -0.18607092
0.24850737 0.14375037 0.062774658
0.25073037 0.25400734 0.0035476685
0.24622038 0.030360341 0.12368298
0.25722635 0.57612836 -0.16948509
0.25253835 0.34362835 -0.044594288
0.25881836 0.65507436 -0.21189308
0.26222837 -0.3424077 -0.30271101
0.24975137 -0.10710168 0.029628754
0.24270238 0.14364135 0.061644077
0.24430938 0.22518432 0.01783371
0.24064638 -0.050508678 0.11771679
0.24487537 0.25391233 0.0023999214
0.23689538 0.14353132 0.060513973
0.23761438 0.18093932 0.040412903
0.23846437 0.22508532 0.016689777
0.23447637 -0.048919678 0.12809563
0.23901638 0.25381637 0.0012516975
0.23471338 0.030112326 0.12146187
0.24521437 0.57602435 -0.17189121
0.24130438 0.37273836 -0.062652111
0.24735138 0.68713033 -0.23159122
0.24290538 0.45598033 -0.10738325
0.24111438 -0.18054461 -0.057356358
0.23394638 0.29575235 -0.022487164
0.23758838 0.48979133 -0.12677431
0.23101437 -0.10201466 0.061494827
0.22320238 0.029861331 0.1192379
0.23963037 -0.41005766 -0.36325836
0.23198637 -0.25031066 -0.13874817
0.21889538 0.11111534 0.074372768
0.21946837 0.14319736 0.057123661
0.22013538 0.18062031 0.037003994
0.21807738 0.065207362 0.099054813
0.22777638 0.60901135 -0.19332027
0.22947037 -0.33156765 -0.24439096
0.21712838 0.34312034 -0.05157423
0.21967238 0.48959535 -0.1303401
0.21922238 -0.24636364 -0.116395
0.20847237 0.18040532 0.034731865
0.20592138 0.029479325 0.11590385
0.21571538 0.6089133 -0.19573736
0.21241838 0.41384435 -0.09082222
0.21312438 0.45563033 -0.11329603
0.21652038 -0.32729161 -0.22134829
0.21287237 -0.24440265 -0.10527897
0.20966038 -0.17140567 -0.003057003
0.20149638 0.11076432 0.070998669
0.19894038 -0.044761658 0.15465975
0.20579438 0.37224835 -0.069664001
0.21043737 0.65473831 -0.22162104
0.21331237 -0.40085769 -0.31574631
0.20343138 -0.16959965 0.0076918602
0.20018637 -0.093666673 0.11389494
0.19569437 0.11064535 0.06987381
0.19751038 0.22437334 0.0086846352
0.19940238 0.34286034 -0.055065155
0.20438138 0.65469533 -0.22283602
0.20053338 0.41369033 -0.093173027
0.19722138 -0.16779971 0.018404961
0.19709937 0.57559431 -0.18151617
0.19394438 0.37208235 -0.072001934
0.19641738 0.5316323 -0.15785933
0.19394937 -0.23856366 -0.072154045
0.18512838 0.17996734 0.030184746
0.18234637 -0.0050786734 0.12978077
0.18926838 0.45534435 -0.11802816
0.18486238 -0.16422069 0.039723873
0.17827538 0.11028636 0.066498756
0.17874338 0.14239734 0.049213886
0.18269138 0.41345632 -0.096702099
0.18735138 -0.39180267 -0.26890421
0.18452437 -0.31674969 -0.16444492
0.18143438 -0.23470867 -0.05025816
0.17083737 -0.0053506494 0.12756968
0.17131738 0.028698325 0.10923767
0.17574237 0.34250736 -0.059721947
0.17733037 0.45519835 -0.12039423
0.17520937 -0.23279262 -0.039367199
0.17258337 -0.16066861 0.060898781
0.16554438 0.028565347 0.10812569
0.17187537 -0.31258965 -0.1419611
0.16327238 0.29462534 -0.036356926
0.16023637 0.063951313 0.087884903
0.16390038 0.34232837 -0.062048912
0.16281638 -0.22898161 -0.017691135
0.15827538 -0.085008621 0.16811705
0.15502737 0.10979831 0.061999798
0.15355937 -0.0057646632 0.12425375
0.15683737 0.25242132 -0.014829159
0.15887737 0.41313732 -0.10140896
0.15940937 0.45497733 -0.12394714
0.14730738 -0.046037674 0.14477205
0.14821437 0.028163314 0.10479307
0.15436438 0.53119636 -0.16623831
0.15050538 -0.22520065 0.0038337708
0.14825937 -0.15364671 0.10282993
0.14339338 0.10955036 0.059751987
0.14473237 0.22341937 -0.0016121864
0.14556637 0.29433233 -0.039827347
0.14019938 0.34196436 -0.066709042
0.14185637 0.48870933 -0.14580297
0.14061238 -0.30233264 -0.086419106
0.13209838 0.14144737 0.04017067
0.13049938 -0.0063266754 0.11983299
0.13585638 0.48863935 -0.14699411
0.13631438 0.53100431 -0.16983318
0.13646138 -0.37412071 -0.17717314
0.12964037 -0.085763693 0.16265583
0.12626037 0.14132535 0.039041042
0.12473037 -0.0064686537 0.11872768
0.12508337 0.027617335 0.1003499
0.12545137 0.06316632 0.081182957
0.13075037 0.57497334 -0.19477415
0.12079137 0.17871433 0.017680645
0.12240236 0.34168535 -0.070205212
0.12007037 -0.21587372 0.057021618
0.11601737 0.29383433 -0.045609951
0.11772537 -0.36763263 -0.14343023
0.11596637 -0.29426765 -0.04266119
0.10844637 0.10879236 0.053002834
0.10873437 0.14095736 0.035647869
0.10803537 0.062764347 0.077830791
0.11377237 -0.46456265 -0.26817513
0.10519137 0.41239733 -0.11200809
0.10376137 -0.29028165 -0.021003246
0.10051737 0.57467937 -0.20080423
0.096070372 -0.20853865 0.098938942
0.094795369 -0.13993561 0.18484306
0.091476366 0.17812133 0.011996746
0.094465367 0.57461935 -0.20201015
0.092705369 0.34121335 -0.076033115
0.092927366 0.37059432 -0.091893196
0.085115366 0.10827333 0.048502922
0.086125366 0.25114232 -0.028625965
0.08696837 0.37050337 -0.093063354
0.087263368 0.41214335 -0.11554432
0.083735369 -0.087009668 0.1539259
0.079736367 0.17787933 0.009721756
0.080029368 0.22219133 -0.014204025
0.078247368 -0.047832668 0.1315937
0.081007369 0.37041134 -0.094234943
0.073864371 0.17775834 0.0085849762
0.074136369 0.22207636 -0.015348911
0.074571371 0.29311532 -0.053712368
0.075299367 0.41197133 -0.11790133
0.066941366 -0.0079306364 0.10767889
0.067335367 0.061804354 0.070014
0.069316372 0.41188532 -0.11908007
0.066492371 -0.19952464 0.15056086
0.061330374 0.02605933 0.088130951
0.061514374 0.061664343 0.068895817
0.056447372 0.22172934 -0.018784046
0.055173375 -0.048454642 0.12720394
0.054987375 -0.087813616 0.14847088
0.050197374 0.13968933 0.02434206
0.050667372 0.25047332 -0.035529137
0.050846372 0.29269332 -0.058346272
0.051174372 0.36994433 -0.10009623
0.051854372 0.5300703 -0.18662834
0.048965372 -0.19419765 0.18113184
0.052759372 -0.55050468 -0.30192232
0.044333372 0.13955933 0.023211956
0.044475373 0.17714137 0.0028967857
0.044642374 0.22149432 -0.021076202
0.043774374 -0.0085346699 0.10326099
0.045202374 0.36984932 -0.10126734
0.045646373 0.48753634 -0.16488028
0.046522371 -0.5480206 -0.29025412
0.038361374 0.10720634 0.039500713
0.038209371 0.061098337 0.064427853
0.039131373 0.34033233 -0.08653307
0.039505374 0.45341334 -0.14766693
0.039617375 0.48746035 -0.16607523
0.037539374 -0.14162362 0.17402267
0.037716374 -0.088305712 0.14519787
0.032707375 0.17689133 0.00062179565
0.032277372 0.025323331 0.082576752
0.033370372 0.41135734 -0.12615919
0.033342373 -0.43479168 -0.12074804
0.026380373 -0.0089966655 0.099945068
0.026991373 0.25001734 -0.040132999
0.026727373 -0.33629668 0.020220757
0.027930373 -0.54062963 -0.25549316
0.020858373 0.13903236 0.018685818
0.021013374 0.22101736 -0.025660038
0.014939373 0.10665733 0.034998894
0.015038373 0.17651033 -0.0027923584
0.014823373 0.024873316 0.079244614
0.015478373 0.48715135 -0.17085314
0.0088813715 -0.25946963 0.14713907
0.0088443719 -0.14249861 0.16861582
0.0032503726 0.17625433 -0.0050683022
0.0033273725 0.33972335 -0.093540192
0.0033613723 0.41090631 -0.13206434
0.0031243726 -0.089309692 0.13865376
-0.0026486276 0.10623837 0.031622887
-0.0026486276 0.17612433 -0.006207943
-0.0026486276 -0.0097796321 0.094421864
-0.0026486276 0.33962035 -0.094707966
-0.0026486276 -0.2557466 0.16754293
-0.0026486276 -0.1920867 0.19310474
-0.0026486276 -0.089479685 0.13756371
-0.0085676275 0.22040933 -0.031391144
-0.0084596276 -0.009937644 0.093317986
-0.0086576277 0.41072333 -0.13442612
-0.0085796276 -0.41937363 -0.044041157
-0.0083726272 -0.19227266 0.19203281
-0.014234629 -0.050393641 0.1140337
-0.014741627 0.48675734 -0.17682314
-0.014269628 -0.32227969 0.093816757
-0.020029627 -0.050560653 0.11293602
-0.020384626 -0.41504467 -0.022456169
-0.019807627 -0.25021565 0.197896
-0.019898627 -0.14339268 0.16321278
-0.020756627 -0.52134061 -0.1645503
-0.026257627 0.17560136 -0.010762215
-0.026396627 0.24895936 -0.050498009
-0.025819628 -0.31834066 0.11453772
-0.025493627 -0.24838567 0.20795107
-0.026755627 -0.51897168 -0.15335608
-0.032337628 0.24883932 -0.051650047
-0.032719627 0.41035134 -0.13915634
-0.031567629 -0.3163836 0.12484598
-0.031535629 -0.090342641 0.13211298
-0.037642628 0.023485363 0.069245815
-0.038537629 0.33899236 -0.10172129
-0.037167627 -0.14393961 0.15997076
-0.043859627 0.13753235 0.0062389374
-0.044901628 0.45222735 -0.16431522
-0.044630628 -0.51191962 -0.12000608
-0.050335627 0.29080933 -0.078057289
-0.049322627 0.023168325 0.067023754
-0.050516628 0.33877832 -0.10406017
-0.048704628 -0.31055462 0.15556908
-0.048298627 -0.24736369 0.21367264
-0.050551627 -0.50958765 -0.10896492
-0.056126628 0.24835235 -0.056261063
-0.056306627 0.29069436 -0.079217911
-0.055319626 0.058724344 0.046550751
-0.055359628 -0.40225267 0.041445732
-0.054014627 -0.24756467 0.21261072
-0.054243628 -0.19379365 0.18345785
-0.054681629 -0.091046691 0.12775183
-0.062078629 0.24822932 -0.057414055
-0.062506631 0.33856332 -0.10639906
-0.062336627 -0.50494862 -0.08699131
-0.067650631 0.17466432 -0.018733978
-0.068253629 0.29046136 -0.081539154
-0.066859633 0.022689342 0.063691616
-0.065450631 -0.2479707 0.21048689
-0.072513632 -0.011732638 0.081164837
-0.074229628 0.29034436 -0.082701206
-0.071476631 -0.19437861 0.18024492
-0.079065628 0.10435736 0.016983986
-0.078312628 -0.39388561 0.083348751
-0.077225633 -0.19457567 0.17917204
-0.079874627 -0.4980576 -0.054310322
-0.084958628 0.10420835 0.015856743
-0.085422628 0.17425334 -0.022151947
-0.085717633 0.21876234 -0.046307087
-0.083919629 -0.052441657 0.10086489
-0.083302632 -0.14543366 0.15132809
-0.092514634 0.33801734 -0.11225128
-0.088345632 -0.24879265 0.20624065
-0.096994631 0.13624835 -0.0039520264
-0.095561631 -0.052793682 0.098670006
-0.096398629 0.05763036 0.038725853
-0.098746628 0.36744136 -0.129457
-0.099063627 0.40929437 -0.152174
-0.10290763 0.13610333 -0.0050849915
-0.10380463 0.24735236 -0.065489292
-0.10414563 0.28975236 -0.088509083
-0.10453263 0.33779532 -0.11459303
-0.10477063 0.36733532 -0.13063335
-0.10510763 0.40919536 -0.15335703
-0.10098263 -0.3856436 0.12470293
-0.10106663 -0.0924927 0.11903
-0.10882563 0.13595635 -0.0062179565
-0.10815463 0.057312369 0.036489964
-0.11508363 0.17355633 -0.027853966
-0.11548563 0.21810335 -0.05204916
-0.11220263 -0.14639461 0.145926
-0.11445463 -0.48451161 0.010076046
-0.11925363 -0.01309365 0.072325706
-0.12171963 0.24696934 -0.06895113
-0.12212263 0.28939033 -0.091997147
-0.11700863 -0.24983966 0.20093489
-0.11751963 -0.19597566 0.17167377
-0.12174663 -0.5518347 -0.07048893
-0.12626463 0.10314536 0.0079689026
-0.12811862 0.28926831 -0.093159199
-0.12337663 -0.37752366 0.16552591
-0.12974763 -0.64297068 -0.18205214
-0.13290763 0.17313033 -0.031275272
-0.13367562 0.24671036 -0.071260929
-0.13131863 0.020875335 0.051465988
-0.12799563 -0.29762363 0.22455168
-0.13012563 -0.093422651 0.11357975
-0.13324362 -0.54712462 -0.04880619
-0.13371563 -0.2978456 0.22349882
-0.14530763 0.21742934 -0.05779314
-0.14563762 0.24644935 -0.073571205
-0.14306562 0.020536363 0.049242973
-0.13999562 -0.37151265 0.19579887
-0.14805463 -0.05441463 0.088792801
-0.15269662 0.33688831 -0.12397003
-0.15472363 -0.69380569 -0.21686506
-0.15813363 0.28865331 -0.098976135
-0.15482062 0.020194352 0.047019958
-0.15399063 -0.46909368 0.083594799
-0.16217162 0.13461035 -0.01641798
-0.16359963 0.24605435 -0.077036381
-0.16476162 0.33665633 -0.12631798
-0.15646362 -0.36556864 0.22578382
-0.15791562 -0.19741869 0.16417885
-0.16636263 -0.68855667 -0.19427013
-0.16810963 0.13445735 -0.017553329
-0.16920562 0.21688032 -0.062394142
-0.16297662 -0.25156164 0.19245005
-0.16730462 -0.53321266 0.01537466
-0.17594062 -0.62290967 -0.0934062
-0.17786862 -0.014861643 0.061274052
-0.18158062 0.24565333 -0.080502987
-0.18163262 -0.62044561 -0.082493305
-0.17672662 -0.09495163 0.10485888
-0.17620362 -0.46046269 0.12485981
-0.18256362 -0.095145702 0.10376978
-0.18900262 -0.055719614 0.081109047
-0.18528962 -0.2998817 0.21403408
-0.19296563 -0.6155436 -0.060773373
-0.19102962 -0.30011261 0.21298409
-0.19177462 -0.25266862 0.18714762
-0.20083563 -0.6730547 -0.12740231
-0.20439762 0.17137337 -0.044970989
-0.20193163 0.018798351 0.038124084
-0.19577862 -0.36183763 0.24542189
-0.21077463 -0.78168869 -0.25984716
-0.19753963 -0.25289261 0.18608904
-0.20007962 -0.095734715 0.10049868
-0.20073862 -0.51961267 0.078301907
-0.20973963 0.13337034 -0.025494099
-0.21036962 0.17122334 -0.046113968
-0.20782962 0.018620312 0.03701067
-0.21218163 -0.6679666 -0.10541534
-0.20592362 -0.095932603 0.099410057
-0.21514162 0.10075831 -0.0089483261
-0.21434662 0.054320335 0.0163517
-0.20721263 -0.36232471 0.24334288
-0.22230862 -0.77615666 -0.23701239
-0.21782963 -0.66543567 -0.094471931
-0.21177062 -0.096131682 0.098319054
-0.21174863 -0.51514661 0.099006653
-0.21963562 0.018262327 0.034785748
-0.21722862 -0.5129267 0.10930872
-0.22761662 0.13289434 -0.028900146
-0.22418563 -0.056867719 0.074522018
-0.21865462 -0.36281562 0.24126387
-0.22654063 -0.60106468 0.0035219193
-0.22269063 -0.51071465 0.11957598
-0.23428263 0.17061633 -0.050683022
-0.23511262 0.21532333 -0.075053215
-0.23005663 -0.057061672 0.073423862
-0.23144862 0.017902315 0.032561779
-0.22551963 -0.30151868 0.20667696
-0.22932063 -0.096732616 0.095048904
-0.24111962 0.21517736 -0.076206207
-0.23735963 0.017720342 0.031448841
-0.23321062 -0.20021164 0.15026474
-0.24488062 0.099929333 -0.014592171
-0.24769463 0.24414235 -0.093232155
-0.24397263 0.053449333 0.010753632
-0.25224262 0.17015332 -0.054112911
-0.24482663 -0.20065367 0.14812374
-0.25134364 -0.6504606 -0.029593945
-0.24858262 -0.59159267 0.045684814
-0.24689262 -0.097340703 0.091777802
-0.24437962 -0.50194764 0.16032267
-0.25510365 0.017171323 0.028109074
-0.25583863 0.053096354 0.0085139275
-0.24729562 -0.36406064 0.23606968
-0.24953063 -0.25494862 0.17655087
-0.26030064 -0.017462671 0.045793056
-0.26177564 0.052918315 0.0073928833
-0.25432163 -0.30271566 0.20142508
-0.26771563 -0.75446069 -0.14722538
-0.25531763 -0.25518262 0.17549086
-0.25749063 -0.15151262 0.11892986
-0.25861764 -0.097750664 0.089597702
-0.25187263 -0.43124771 0.26518488
-0.26620665 -0.017653644 0.044686794
-0.26771665 0.052740335 0.0062727928
-0.26047665 -0.49545765 0.19054174
-0.27538964 0.13159835 -0.037986279
-0.27622163 0.16952932 -0.058688164
-0.27784163 0.24343234 -0.099024296
-0.27035764 -0.58226168 0.087301731
-0.26917464 -0.15194464 0.11676979
-0.26306665 -0.43056667 0.26883793
-0.27802363 -0.018039644 0.042473793
-0.27879563 0.016430318 0.023656845
-0.27162963 -0.30344665 0.19827271
-0.28445163 -0.7464956 -0.11417198
-0.28554764 0.052200317 0.002910614
-0.27599263 -0.36533165 0.23087788
-0.27972963 -0.20200372 0.14170408
-0.28424364 -0.6358217 0.034011841
-0.28086564 -0.1523807 0.11460972
-0.27448764 -0.43109965 0.26678801
-0.29334465 0.13110137 -0.041396141
-0.29423165 0.16905332 -0.062120914
-0.29527864 0.21384531 -0.08658123
-0.28555664 -0.20223272 0.14063263
-0.28797364 -0.098788619 0.084145069
-0.29855865 0.098395348 -0.0247612
-0.30023965 0.16889435 -0.063266277
-0.29479864 -0.05924964 0.06134367
-0.29507864 -0.6310147 0.054939747
-0.30453464 0.098221362 -0.02589035
-0.30532664 0.13076735 -0.043669224
-0.30733964 0.21354336 -0.088889122
-0.30168664 -0.018818676 0.038046837
-0.29720965 -0.57079363 0.13857269
-0.31337464 0.21339136 -0.090042114
-0.30304563 -0.20292163 0.13742304
-0.31941164 0.21323836 -0.09119606
-0.32446763 -0.85065961 -0.2004261
-0.31120664 -0.62387371 0.086074829
-0.32545263 0.21308535 -0.092351913
-0.31050363 -0.36688864 0.22465086
-0.33002064 -0.84783864 -0.189219
-0.31738663 -0.099847674 0.078691959
-0.30880663 -0.43272662 0.26063585
-0.32846463 0.097519338 -0.030413151
-0.33031765 0.16808635 -0.068991184
-0.32629463 0.014911354 0.014746666
-0.32327563 -0.10006166 0.077600956
-0.32719165 -0.61680961 0.11691284
-0.34358662 0.21262234 -0.095814228
-0.33819363 0.014524341 0.012519836
-0.34657463 -0.83944166 -0.1558342
-0.33913264 -0.72059464 -0.0063500404
-0.33076563 -0.25829768 0.16171885
-0.34963763 0.21246636 -0.09696722
-0.33355564 -0.36794662 0.22049999
-0.35205963 -0.8366636 -0.1447773
-0.34451064 -0.71805668 0.0042409897
-0.33658662 -0.25854361 0.16065979
-0.33776963 -0.61214566 0.13730669
-0.35335264 0.12940335 -0.052770138
-0.33932364 -0.36821365 0.21946192
-0.34106463 -0.30645263 0.18567371
-0.36297664 -0.83114171 -0.12277937
-0.36538363 0.12905532 -0.055047989
-0.35564163 -0.20503867 0.12779284
-0.35351765 -0.60521269 0.16765404
-0.36905265 0.049598336 -0.012789249
-0.35664263 -0.3690207 0.21635199
-0.36585563 -0.70800662 0.046247959
-0.35342064 -0.47771668 0.27584791
-0.37857363 0.16676235 -0.07816124
-0.37395063 0.013345361 0.0058307648
-0.36885563 -0.15575671 0.098409653
-0.38102263 0.049215317 -0.015034199
-0.36820263 -0.36956465 0.21427679
-0.37009463 -0.3077457 0.18042803
-0.38461164 -0.82022071 -0.079214096
-0.36912864 -0.5983566 0.1977129
-0.37474063 -0.15598869 0.097331047
-0.37639263 -0.1020267 0.067782879
-0.38846365 0.095717371 -0.041729927
-0.39532962 -0.81482267 -0.057650089
-0.38694763 -0.69810462 0.087720871
-0.38323063 -0.26054668 0.15218687
-0.38651764 -0.15645564 0.095169067
-0.38822365 -0.10247266 0.065598965
-0.37633464 -0.4788866 0.27178669
-0.37768564 -0.43609262 0.24834585
-0.38555765 -0.3703866 0.21116686
-0.41253462 0.094977319 -0.046262264
-0.39714065 -0.37094069 0.20909405
-0.40260363 -0.69077468 0.11847591
-0.39171264 -0.53521466 0.29912567
-0.41855863 0.094790339 -0.047394276
-0.39994264 -0.58486772 0.25698996
-0.40072164 -0.43724871 0.24425077
-0.40873164 -0.37149763 0.20701885
-0.41246265 -0.26182866 0.14689302
-0.40502563 -0.58264768 0.26676083
-0.43174464 0.12709635 -0.067583084
-0.42775664 0.011526346 -0.0042080879
-0.42900363 0.047653317 -0.024020195
-0.43516064 -0.90238369 -0.12187815
-0.41831765 -0.2620877 0.14583397
-0.43110862 -0.06413269 0.036058903
-0.42250064 -0.3101356 0.17098475
-0.44048664 -0.89955163 -0.11096001
-0.42326364 -0.68112671 0.15902901
-0.42607564 -0.20797467 0.11495209
-0.41515064 -0.57823265 0.28621674
-0.42971164 -0.10405862 0.057957649
-0.44102365 0.047255337 -0.026267052
-0.43756464 -0.79363263 0.027220726
-0.42839065 -0.67873764 0.16908693
-0.43194565 -0.37262464 0.20287371
-0.44277364 -0.79102862 0.037672997
-0.43964264 -0.15859866 0.085445881
-0.43860063 -0.67398465 0.18910599
-0.44752863 -0.10475063 0.054681778
-0.45773965 0.010489345 -0.0097913742
-0.44585663 -0.31122363 0.16678762
-0.44368464 -0.67162061 0.19907284
-0.46685064 0.093271315 -0.056466103
-0.46244663 -0.024399638 0.0081310272
-0.46374464 0.010280311 -0.010906219
-0.44875264 -0.6692667 0.20900297
-0.45349163 -0.26366365 0.13947868
-0.47112265 0.04624933 -0.031888008
-0.45380563 -0.66691971 0.21890402
-0.44762564 -0.5735327 0.30841064
-0.44895864 -0.53835166 0.28909588
-0.46331963 -0.15957367 0.081122875
-0.47732663 -0.88002467 -0.035531044
-0.45469663 -0.53867161 0.28809404
-0.45682964 -0.48311961 0.25758696
-0.46426764 -0.44051564 0.23300076
-0.47266564 -0.3746376 0.19562101
-0.46479464 -0.5745157 0.30542707
-0.46618065 -0.5393157 0.28608894
-0.48389563 -0.77054167 0.12011385
-0.48432162 -0.37522161 0.19354868
-0.47885764 -0.65531671 0.26794863
-0.48875862 -0.26527369 0.13312578
-0.49297464 -0.16081262 0.075716972
-0.49516064 -0.10663366 0.04594183
-0.50317365 -0.86638963 0.017301083
-0.49402565 -0.76551366 0.14039469
-0.49464464 -0.26554561 0.13206673
-0.49687165 -0.21104169 0.102108
-0.48198363 -0.57550967 0.30244303
-0.51337665 0.044808328 -0.039766312
-0.49907064 -0.7630136 0.15049171
-0.50053561 -0.26581764 0.13100672
-0.50709665 -0.10711265 0.043756962
-0.49905562 -0.44235265 0.22686672
-0.52393866 0.0081423521 -0.022083282
-0.51029366 -0.3142966 0.15524864
-0.51850063 -0.85832965 0.048596859
-0.50911361 -0.75804162 0.17058372
-0.51232165 -0.2663666 0.12888908
-0.50493962 -0.57685065 0.29846573
-0.51067066 -0.44297361 0.22482491
-0.53273267 -0.068014622 0.017339706
-0.53601164 0.0077053308 -0.024320126
-0.53758162 0.043969333 -0.044270039
-0.52648264 -0.21235871 0.096752644
-0.51462263 -0.48627567 0.24745274
-0.51648366 -0.4432857 0.22380209
-0.52792263 -0.31515563 0.15210199
-0.51367664 -0.64046967 0.33111191
-0.53460366 -0.16258371 0.068146706
-0.52041465 -0.48659766 0.24644089
-0.54655361 -0.027516663 -0.0074129105
-0.52902967 -0.74820566 0.21039486
-0.52374464 -0.5426017 0.27607489
-0.54056066 -0.1628406 0.067065716
-0.55074662 -0.068724632 0.014033794
-0.55258167 -0.027745664 -0.008523941
-0.55675662 -0.068962693 0.01293087
-0.54875267 -0.84247863 0.11029005
-0.55021763 -0.21342862 0.092468739
-0.55374461 -0.83987069 0.12046194
-0.56093562 -0.1093117 0.033915997
-0.54361361 -0.48789561 0.24239063
-0.54558265 -0.4448626 0.21869278
-0.54871863 -0.73851264 0.24971104
-0.54229563 -0.64224565 0.32621002
-0.56693166 -0.10956061 0.032821655
-0.57672262 -0.028667688 -0.012970924
-0.56325066 -0.31690061 0.14580774
-0.56368363 -0.83468366 0.14070177
-0.56804866 -0.21424162 0.089256763
-0.55097163 -0.57959068 0.29051685
-0.55848062 -0.73371863 0.26918602
-0.57141662 -0.26916468 0.11829662
-0.55673665 -0.57993865 0.28952408
-0.56307161 -0.44582164 0.21563101
-0.58234364 -0.16466165 0.059490681
-0.58493763 -0.11031067 0.029538631
-0.59485966 -0.029367685 -0.016309261
-0.58590466 -0.21506262 0.086041927
-0.56997967 -0.54531372 0.26806879
-0.59891063 -0.070653677 0.0052089691
-0.60091066 -0.029602647 -0.017422199
-0.58382362 -0.38035572 0.17594194
-0.59430462 -0.16518962 0.05732584
-0.57848763 -0.48987663 0.23631668
-0.60696363 -0.029838681 -0.018534184
-0.57982463 -0.58134162 0.28555393
-0.60029066 -0.1654557 0.056242943
-0.58430964 -0.49021065 0.23530579
-0.60378462 -0.2158916 0.082828045
-0.58821762 -0.64515269 0.31837368
-0.61227065 -0.16598964 0.054077625
-0.59716862 -0.58240664 0.28257704
-0.60179162 -0.49121964 0.23226976
-0.60397762 -0.44809866 0.20848083
-0.62169164 -0.21672964 0.079612732
-0.60476464 -0.54739666 0.2620697
-0.60983163 -0.44842768 0.20745993
-0.63727766 -0.031029642 -0.024100304
-0.62234765 -0.31988871 0.1353178
-0.60548061 -0.64626265 0.31543875
-0.64120466 -0.072385669 -0.0025191307
-0.60774165 -0.71371269 0.35148573
-0.61124164 -0.6466347 0.3144598
-0.61638266 -0.54810071 0.2600708
-0.61929762 -0.49223864 0.2292347
-0.63420165 -0.3204987 0.13321972
-0.61700362 -0.64700866 0.31348276
-0.62513763 -0.49258065 0.22822475
-0.64013267 -0.32080567 0.13216972
-0.62800962 -0.54880869 0.25807285
-0.65428865 -0.16788661 0.046495914
-0.65721262 -0.11339164 0.01639986
-0.63682663 -0.49326766 0.22620201
-0.65200162 -0.32142162 0.13007164
-0.63430566 -0.64813769 0.31054783
-0.63772863 -0.58493268 0.27563381
-0.67150164 -0.073647618 -0.0080423355
-0.66357261 -0.21871769 0.072106838
-0.65515363 -0.5860337 0.27265978
-0.66264361 -0.45144463 0.19827175
-0.67226762 -0.38513863 0.16040993
-0.67818761 -0.38546562 0.15937471
-0.68756866 -0.21987367 0.067818642
-0.66678363 -0.58677363 0.27067804
-0.68410963 -0.38579464 0.15833902
-0.68768066 -0.32329464 0.12377596
-0.69645065 -0.16982865 0.038908005
-0.67782766 -0.49571061 0.21912289
-0.69641864 -0.27536166 0.096038818
-0.70852363 -0.17039168 0.036738873
-0.69208163 -0.45315969 0.19317007
-0.71160966 -0.22104561 0.063525677
-0.69215566 -0.55278969 0.24708462
-0.71456367 -0.17067468 0.035655975
-0.71776664 -0.11605465 0.0054330826
-0.70387763 -0.45385361 0.19112778
-0.72636867 -0.27690065 0.090736866
-0.73599261 -0.11687171 0.0021409988
-0.71308064 -0.49784863 0.21305704
-0.71556562 -0.55427361 0.24309206
-0.73875862 -0.17181563 0.03131485
-0.73837066 -0.27752364 0.088614941
-0.74481565 -0.17210269 0.030230999
-0.74776566 -0.22283268 0.057085991
-0.73074561 -0.4989326 0.21002483
-0.74943864 -0.38947868 0.14694691
-0.75984067 -0.22343564 0.054938793
-0.76240766 -0.27878165 0.08437109
-0.76252365 -0.55729771 0.23510695
-0.78934562 -0.3288027 0.10592794
-0.77429265 -0.55806565 0.23311186
-0.77798164 -0.50187671 0.20194197
-0.80220461 -0.22557867 0.047419071
-0.80554867 -0.17502964 0.019371986
-0.78389966 -0.50225067 0.20092964
-0.80826867 -0.22588861 0.04634285
-0.81163967 -0.17532766 0.018283844
-0.81063163 -0.28134561 0.075877666
-0.82040662 -0.22651172 0.044193745
-0.82382965 -0.17592561 0.016110897
-0.82648164 -0.22682464 0.043118954
-0.81651866 -0.46067166 0.17174101
-0.83481866 -0.28265166 0.071630001
-0.82247663 -0.46104169 0.17071962
-0.84693062 -0.28331065 0.069505692
-0.83134866 -0.50527871 0.19284773
-0.83440262 -0.46178567 0.16867971
-0.84511465 -0.39507365 0.13037395
-0.85559964 -0.33252764 0.094370842
-0.86299163 -0.22872162 0.03666687
-0.85231566 -0.4629097 0.1656189
-0.86314064 -0.39615369 0.12726593
-0.87373567 -0.33356667 0.091216087
-0.89189965 -0.33461368 0.088062763
-0.89551061 -0.28598964 0.061002731
-0.89324963 -0.39797664 0.12208271
-0.89796066 -0.33496571 0.08701086
-0.89928263 -0.39834464 0.12104797
-0.91378164 -0.28701162 0.057811737
-0.91135466 -0.39908361 0.11897373
-0.92344165 -0.39982772 0.11690092
-0.95041364 -0.28908265 0.051427841
-0.96485662 -0.33890271 0.075437069
-0.97095764 -0.33926761 0.074383736
-0.98317164 -0.33999968 0.072278023
