# .PCD v0.7 - Point Cloud Data file format
VERSION 0.7
FIELDS x y z
SIZE 4 4 4
TYPE F F F
COUNT 1 1 1
WIDTH 1
HEIGHT 1024
VIEWPOINT 0 0 0 1 0 0 0
POINTS 1024
DATA ascii
0.52481627 0.31545961 0.036807537
0.51587129 0.28985864 0.076181412
0.50996929 0.29018462 0.079400539
0.51293528 0.31608659 0.043322563
0.49818525 0.29083562 0.085825443
0.49516323 0.31702262 0.05307579
0.48925325 0.31733364 0.056317806
0.48055723 0.29180664 0.095443726
0.47024724 0.25048661 0.15644264
0.47745323 0.31795263 0.062797546
0.46060723 0.21445763 0.21003246
0.46444523 0.25082862 0.15957737
0.46298823 0.29277062 0.10503054
0.44912323 0.2151736 0.21618748
0.46359324 0.35570264 0.021459579
0.44708323 0.25184864 0.16896439
0.45393124 0.31918162 0.075714588
0.43061724 0.19801462 0.31944847
0.44130924 0.25218761 0.17208767
0.44548124 0.29372764 0.11459064
0.45176324 0.35627764 0.028016567
0.42555925 0.1975196 0.31444168
0.43554023 0.25252563 0.17520666
0.42803025 0.29467762 0.12412453
0.43051624 0.32039964 0.088583469
0.40752223 0.22814161 0.34025574
0.41253123 0.25386864 0.18765879
0.41643023 0.29530764 0.13046455
0.42580923 0.39498562 -0.0071172714
0.40000525 0.15207964 0.29162645
0.40016323 0.19502664 0.28927946
0.41302225 0.32130563 0.098203659
0.39506224 0.19452363 0.2842226
0.39233324 0.22671962 0.32530165
0.40485424 0.29593563 0.13679361
0.40720424 0.32160562 0.10140467
0.40139323 0.32190561 0.10459948
0.38327622 0.1161496 0.29818678
0.37748125 0.085186601 0.30391979
0.37884822 0.19445163 0.28249264
0.37707624 0.2252866 0.31027269
0.38753822 0.29687059 0.1462636
0.38978922 0.32250363 0.11098576
0.37242723 0.11621863 0.29807138
0.37285024 0.15224761 0.29134035
0.37820423 0.25586063 0.20624876
0.38177922 0.29718059 0.14941359
0.39038023 0.39656061 0.012709618
0.36700323 0.1162526 0.29801464
0.36742124 0.15228063 0.29128361
0.36791223 0.1946196 0.28337574
0.37602723 0.29748964 0.15256262
0.37821123 0.3230986 0.11735773
0.37243223 0.3233946 0.12053871
0.37862524 0.39708063 0.019289494
0.35662723 0.22335762 0.29011965
0.35286623 0.26999259 0.35250473
0.36665922 0.32369059 0.12371874
0.35039124 0.08535862 0.30363464
0.35113522 0.15237361 0.29111671
0.35160422 0.19470662 0.28320646
0.34989724 0.040832639 0.31195259
0.34570724 0.15240359 0.29105949
0.35307923 0.2987206 0.16512251
0.35806122 0.36077863 0.080003738
0.35451624 0.43832862 0.14057159
0.34073624 0.19476265 0.28309441
0.33776525 0.2683686 0.3346324
0.33907923 0.040901601 0.31183958
0.35226125 0.36105362 0.083225727
0.34671924 0.40859962 0.17933846
0.33485425 0.15246159 0.29094744
0.33330423 0.0063896179 0.3182354
0.33367124 0.040934622 0.31178141
0.34238824 0.43954262 0.15826178
0.32905024 0.1164726 0.29761982
0.32942623 0.1524896 0.29088974
0.33481523 0.40972662 0.19450378
0.32443625 0.19484264 0.28292847
0.32285425 0.040999591 0.3116684
0.33215225 0.32544965 0.14272547
0.33373722 0.47713062 0.11391449
0.31857625 0.15254563 0.29077959
0.32797623 0.47734562 0.11720848
0.31279224 0.11655861 0.2974515
0.31136623 -0.026714385 0.32421875
0.31884423 0.30054563 0.18387461
0.30699822 0.26565462 0.30456257
0.30629724 0.0065535903 0.31795168
0.31171125 0.41124761 0.21464062
0.30230123 0.15262359 0.2906127
0.30270824 0.19494259 0.28270578
0.30057523 -0.026650369 0.32410574
0.30297324 0.22238261 0.27757978
0.30089524 0.0065846443 0.31789637
0.31073225 0.47798562 0.12700653
0.29518124 -0.026618361 0.32405043
0.29549524 0.0066156387 0.31784058
0.30180824 0.30144864 0.1932168
0.30243725 0.44117361 0.18081665
0.28978723 -0.026587367 0.32399464
0.29009622 0.0066446066 0.31778574
0.29428023 0.37295762 0.23374081
0.29475823 0.41198561 0.22414255
0.28570223 0.11669159 0.2971735
0.28603125 0.15269762 0.29044676
0.28403425 -0.06585741 0.33127975
0.29108024 0.44163463 0.18722057
0.28060722 0.15272164 0.2903924
0.28098723 0.19503462 0.28248549
0.27899924 -0.026528358 0.32388258
0.28114125 0.26335961 0.27927446
0.27960724 0.041234612 0.3112216
0.28296024 0.37359461 0.24141359
0.28782824 0.47883362 0.14005661
0.27486825 0.11674064 0.29706335
0.27580023 0.22249162 0.2773056
0.27594724 0.26289761 0.27419043
0.27389923 0.0067296028 0.31761742
0.27420324 0.041261613 0.31116676
0.28037325 0.32882363 0.18032837
0.27735925 0.37383461 0.24423361
0.27974725 0.44209263 0.19360781
0.27012923 0.1950776 0.28237772
0.26787424 -0.065767407 0.33111143
0.27036723 0.2225126 0.27725077
0.26850125 0.006757617 0.31756163
0.27409023 0.44232163 0.19680882
0.26754025 -0.10437638 0.33832645
0.26403725 0.1167866 0.29695368
0.26248825 -0.06573838 0.33105659
0.26541224 0.26222461 0.2666707
0.26310325 0.0067836046 0.31750536
0.27311122 0.51818961 0.097117424
0.26183623 0.31506062 0.34540939
0.26843923 0.44254962 0.20000839
0.27071923 0.47946262 0.14979362
0.26216024 -0.10434639 0.33827066
0.25743023 -0.026417375 0.32365847
0.25991723 0.26235563 0.26779938
0.25770622 0.0068095922 0.31745243
0.25799325 0.041337609 0.31100082
0.26069924 0.37436062 0.25025558
0.26101923 0.41344562 0.24306059
0.26279423 0.4427776 0.20320082
0.25442424 0.26248664 0.26892853
0.26163724 0.51856762 0.10371256
0.24779025 0.11685264 0.29678965
0.24807823 0.15285259 0.29006338
0.24633124 -0.065656364 0.33089066
0.25203624 0.33037561 0.19756746
0.24982023 0.41392863 0.24936247
0.25366423 0.48008862 0.15951872
0.24237624 0.11687362 0.29673576
0.24094725 -0.065630376 0.33083439
0.24320424 0.2226066 0.27697945
0.24176824 0.31211859 0.31123543
0.24423122 0.41416761 0.25247478
0.24589625 0.44345662 0.21274567
0.23696223 0.1168946 0.29668045
0.23723823 0.15289164 0.28995466
0.23556325 -0.065605402 0.33078146
0.23777324 0.2226246 0.27692556
0.23611924 0.0069066286 0.31723166
0.23638323 0.041430593 0.31078053
0.24447623 0.51913166 0.1135807
0.23657125 0.3116926 0.3062005
0.23870224 0.41431263 0.25428772
0.24237424 0.48043361 0.16481256
0.23836324 -0.17083043 0.26253462
0.23526725 -0.10420841 0.33799267
0.23154724 0.11691463 0.29662657
0.23047224 -0.026292384 0.32338572
0.23234023 0.22264165 0.27687263
0.23264024 0.26261961 0.26940155
0.23072124 0.0069286227 0.31717777
0.23518223 0.3311516 0.2061286
0.23666525 0.48070961 0.16920376
0.22720324 0.26263559 0.26934767
0.22532624 0.0069516301 0.31712246
0.22557923 0.041473627 0.31067181
0.22615224 0.31083763 0.29610348
0.22767124 0.4145686 0.25743151
0.22905324 0.44413161 0.22226954
0.22791924 -0.17264539 0.25111866
0.22176623 0.26265061 0.26929474
0.22093123 0.31040859 0.29104376
0.22216624 0.4146876 0.25889444
0.22536424 0.48112062 0.17564249
0.21509025 0.086003602 0.30224943
0.21477824 0.041513622 0.31056356
0.22168124 0.5198766 0.12668037
0.22379124 0.54841161 0.070485592
0.21667124 0.41479263 0.26015282
0.21404724 -0.10532236 0.33003378
0.20989524 0.11698765 0.29641151
0.21014124 0.15298063 0.28968573
0.21089324 0.26267964 0.26918745
0.20914124 0.0070136189 0.31695938
0.21046424 0.30954659 0.28089666
0.21157023 0.37455061 0.25072145
0.20886724 -0.10616541 0.32444859
0.20518824 0.22271961 0.27660465
0.20374523 0.0070326328 0.3169055
0.21032023 0.52024662 0.13321543
0.20615624 0.37447563 0.24955845
0.20845723 0.4817346 0.18528461
0.20692223 -0.17630738 0.22815037
0.19787824 -0.065448403 0.33039761
0.20465024 0.52043062 0.13647747
0.19996224 0.30868059 0.27071476
0.20031025 0.41487661 0.26074362
0.20110224 0.44524461 0.23807049
0.20283423 0.48193762 0.18848562
0.20468724 -0.24361736 0.13542175
0.19847724 -0.10785836 0.31324339
0.19388624 0.15302759 0.28952456
0.19249624 -0.065429389 0.33034277
0.19458424 0.26271862 0.26902771
0.20090124 0.54907966 0.083485603
0.19329524 0.33973163 0.30686855
0.19535723 0.37425363 0.24631882
0.19473423 0.4151656 0.26461363
0.19327024 -0.10870838 0.30762482
0.18824524 0.11705261 0.29619646
0.18873024 0.19533664 0.28156757
0.18711424 -0.065409362 0.33028936
0.18735825 -0.026128411 0.32295179
0.18890023 0.22276062 0.27644348
0.19518323 0.54926163 0.087055683
0.18996523 0.37411562 0.24435377
0.19160624 0.48234361 0.19489336
0.19397324 -0.24561435 0.12352657
0.18264523 0.086105645 0.30192947
0.18173124 -0.065391362 0.33023453
0.18371123 0.26274359 0.26892138
0.18599924 0.48254561 0.19809341
0.18860024 -0.24661833 0.11755943
0.18282524 -0.1104154 0.29635239
0.17742124 0.11708164 0.29608965
0.17918824 0.37379563 0.23987341
0.17854524 0.41489661 0.26030779
0.17895724 0.44589663 0.2472024
0.18040024 0.48274761 0.20128679
0.17245723 0.19537461 0.28140879
0.17638823 0.52134562 0.15274572
0.18086624 -0.32424539 0.0061898232
0.17782824 -0.24863333 0.10559177
0.16580524 -0.026062369 0.32273579
0.16598924 0.0071516037 0.3165307
0.16618124 0.041666627 0.31008148
0.17075424 0.52152765 0.15598345
0.16765724 0.30785561 0.26034069
0.16842924 0.37339061 0.2343297
0.16922024 0.48314962 0.20767069
0.16118824 0.11712164 0.29593039
0.16020624 -0.065325379 0.33002138
0.16175723 0.22281963 0.27617979
0.16059624 0.0071656108 0.31647778
0.16078223 0.041679621 0.3100276
0.16512623 0.52170861 0.15922642
0.16673024 0.55010062 0.10353851
0.16174924 0.3372646 0.27646351
0.16335624 0.37234262 0.2206707
0.16363923 0.48334962 0.21085882
0.16182923 -0.11386037 0.27367735
0.15561524 0.086173594 0.30166435
0.15577623 0.11713362 0.29587841
0.15482424 -0.065310359 0.3299675
0.15538324 0.041693628 0.30997562
0.15721023 0.41381961 0.24455357
0.15713724 0.4459376 0.24718142
0.16159624 -0.25167841 0.087546349
0.15020923 0.086185634 0.30161047
0.15110324 0.26280564 0.26860571
0.15221123 0.41262361 0.22762442
0.15254223 0.48364162 0.21542645
0.15616524 -0.25269943 0.081505775
0.15377323 -0.18564636 0.16991472
0.14533924 0.19542861 0.28114557
0.14425224 -0.066362381 0.32266474
0.14566924 0.26281464 0.26855373
0.14441824 0.0072056055 0.31631756
0.14458723 0.041717589 0.30986977
0.14840624 0.52198762 0.16401052
0.15361924 0.54341757 -0.035062313
0.14635023 0.44565061 0.2425437
0.14707424 0.48361862 0.21489573
0.14598323 -0.11646938 0.25655079
0.13939923 0.086207628 0.30150557
0.13971624 0.15315062 0.2889967
0.13991624 0.19543862 0.2810936
0.13886924 -0.02599436 0.32247066
0.14023525 0.26282263 0.2685008
0.13902624 0.0072176456 0.31626558
0.14783424 0.54358763 -0.031711578
0.14055124 0.33559662 0.25601959
0.14302924 -0.18754643 0.1581254
0.13374923 -0.068006396 0.31142759
0.13348123 -0.02598238 0.32241869
0.13379024 0.041740596 0.30976439
0.13618423 0.48344961 0.21180058
0.12858824 0.086227596 0.30140162
0.12888324 0.15316862 0.28889179
0.12848523 -0.068832397 0.30579281
0.13186523 0.52192163 0.16234541
0.12974024 0.33532661 0.25253153
0.13057724 0.41190761 0.21701956
0.13672124 -0.33311933 -0.043687344
0.13005124 -0.11910141 0.23932076
0.12318424 0.086236596 0.30134773
0.12331525 0.11719364 0.29556465
0.12321124 -0.069660366 0.30014658
0.12270824 -0.025961399 0.32231236
0.12299525 0.04175961 0.30965853
0.13051423 0.54409266 -0.021661282
0.12522024 0.41153061 0.21161079
0.12514424 0.4438616 0.21496773
0.13325123 -0.4039914 -0.14228153
0.13115723 -0.33424336 -0.049981594
0.12886223 -0.25784844 0.051116467
0.11790625 0.11720163 0.29551077
0.11822524 0.19547063 0.2808857
0.11792824 -0.07049036 0.29449177
0.11732224 -0.025951385 0.32225943
0.11745725 0.0072576404 0.31605482
0.11759824 0.04176861 0.30960655
0.12388224 0.51443762 0.021633625
0.11879625 0.33553064 0.25471163
0.12008124 0.41041261 0.1958046
0.12012324 0.48240161 0.19389057
0.12760024 -0.40520138 -0.14876652
0.11263724 0.15319163 0.28873539
0.11263525 -0.071323395 0.28882265
0.11193625 -0.025942385 0.32220745
0.11291025 0.22289562 0.27570868
0.11220125 0.041776597 0.30955458
0.11455225 0.41052961 0.19732475
0.11507825 0.4811106 0.17218971
0.12193825 -0.40641433 -0.15526533
0.10708524 0.11721665 0.29540777
0.10748225 0.22290164 0.27565765
0.10763224 0.26286364 0.26818752
0.10680325 0.041784644 0.3095026
0.11244925 0.51480061 0.0282197
0.10780125 0.30793661 0.25976658
0.10943224 0.40919563 0.17849874
0.10933024 0.44180763 0.18357658
0.11626325 -0.40763241 -0.1617794
0.11235825 -0.26097435 0.032728672
0.11055725 -0.19331437 0.12246275
0.10167625 0.11722362 0.2953558
0.10116325 -0.025926411 0.32210255
0.10128225 0.0072826147 0.31589746
0.10140625 0.041791618 0.30945063
0.10236125 0.30794162 0.2597146
0.10199624 0.37695861 0.2787075
0.11299225 -0.50354737 -0.29399061
0.11057924 -0.40885335 -0.1683073
0.10330825 -0.12353939 0.21036959
0.096390247 0.15321064 0.28858042
0.096699245 -0.073836386 0.27174854
0.095777243 -0.025919378 0.32205153
0.096629247 0.22291261 0.2755537
0.096920244 0.30794561 0.25966263
0.097015247 0.33554959 0.25450468
0.098404244 0.40922663 0.17871952
0.10008325 0.47604162 0.087125778
0.10719225 -0.50488836 -0.3007803
0.10317624 -0.33991438 -0.081655502
0.10130624 -0.26307338 0.020405769
0.097931243 -0.1244334 0.20454645
0.090976246 0.15321565 0.28852844
0.095347248 0.51534361 0.0380826
0.091480248 0.3079496 0.25961065
0.091570243 0.33555365 0.25445271
0.10138124 -0.50623339 -0.30758333
0.097548246 -0.34105843 -0.088031292
0.094188243 -0.19623643 0.10446548
0.085352242 0.086284637 0.30098438
0.085448243 0.11723959 0.29519939
0.085690245 0.19550461 0.28057575
0.085004248 -0.025907397 0.32194757
0.085775249 0.22292161 0.27545071
0.085107245 0.0073006153 0.31574249
0.086039245 0.3079536 0.25955963
0.095556244 -0.50758237 -0.31440544
0.088710248 -0.19721538 0.098440647
0.080039248 0.11724359 0.2951498
0.080676243 -0.076371372 0.25457048
0.080467246 0.26288563 0.26793051
0.084598243 0.54542261 0.0049586296
0.080599248 0.30795664 0.25950861
0.080618247 0.37540162 0.25825739
0.079607248 0.41950461 0.32265282
0.087732248 -0.41377336 -0.19456434
0.081738248 -0.1271354 0.18699837
0.074544244 0.086292624 0.30088139
0.074630246 0.11724764 0.2950964
0.074923247 0.22292864 0.27534771
0.075253248 0.37500963 0.25312471
0.080599248 -0.34451133 -0.10724354
0.079074249 -0.26730841 -0.0043973923
0.069315247 0.15323061 0.28832245
0.069426246 0.19551462 0.28042173
0.069497243 0.22293162 0.27529764
0.072626248 0.51606059 0.051190376
0.073951244 0.58717763 -0.04365921
0.069879249 0.37461662 0.24798059
0.071900249 0.47703263 0.10324335
0.074929245 -0.34566838 -0.11367464
0.063737243 0.086298645 0.30077982
0.063813247 0.1172536 0.29499435
0.064004242 0.19551665 0.28036976
0.064568244 -0.078927398 0.23729038
0.064169243 0.26289362 0.26777744
0.064347245 0.33556664 0.25419474
0.068202242 0.58732164 -0.040294647
0.066281244 0.47722861 0.10645676
0.072149247 -0.51301938 -0.34183836
0.069247246 -0.34683043 -0.12012053
0.065458246 -0.12985939 0.16934347
0.058332242 0.086300611 0.30072737
0.059178248 -0.079784393 0.23150682
0.058152243 0.0073186159 0.31548548
0.058838248 0.30796564 0.25930262
0.060666248 0.47742561 0.10966682
0.066267245 -0.51438934 -0.34873724
0.052994244 0.11725664 0.29489374
0.053218246 0.22293663 0.27514458
0.053303242 0.2628966 0.2676754
0.052761242 0.0073206425 0.31543541
0.055648245 0.51659358 0.060984612
0.053457245 0.33556962 0.25409269
0.053551242 0.37445962 0.24574566
0.053037249 0.41727862 0.2910614
0.057849243 -0.34916335 -0.1330533
0.054552242 -0.13168836 0.15751171
0.047525242 0.086302638 0.3006258
0.047585249 0.1172576 0.29483938
0.047656246 0.15323764 0.28811741
0.047870249 0.26289761 0.26762438
0.047438249 0.041829646 0.3089366
0.050989248 0.5877496 -0.030215263
0.054470249 -0.5171414 -0.36257935
0.050087243 -0.20415336 0.055915356
0.042177245 0.11725861 0.29479074
0.042951241 -0.0823704 0.21408367
0.044359244 0.51694661 0.067496777
0.044737242 0.54656661 0.028103352
0.045264244 0.58789062 -0.026864529
0.047321245 -0.42252737 -0.24107122
0.046408243 -0.35150939 -0.14604235
0.03906624 0.54672861 0.031394482
0.037124246 0.33557063 0.25394058
0.036933243 0.41620162 0.27578545
0.040671244 -0.35268837 -0.15255833
0.039762244 -0.27484137 -0.048313618
0.038121246 -0.1344524 0.13967371
0.031411245 0.15323764 0.28796577
0.031473242 0.19552064 0.28006458
0.031247245 0.041829646 0.30878353
0.033400245 0.5468896 0.034685612
0.031735241 0.37454161 0.24660444
0.031546243 0.41584063 0.27067471
0.032685243 0.4783996 0.12567663
0.035671242 -0.42506236 -0.25449419
0.034922242 -0.35387033 -0.15909052
0.03410124 -0.27593035 -0.054643631
0.038591243 -0.70248038 -0.62625933
0.037821241 -0.62929636 -0.52818727
0.025909243 0.086301625 0.30042362
0.025949242 0.11725563 0.29463768
0.026156245 -0.033982396 0.2649436
0.026087245 0.22293663 0.27489042
0.026139243 0.2628966 0.26742268
0.026198244 0.30796564 0.25899744
0.028124245 0.58831465 -0.016822338
0.026285244 0.37454161 0.24655437
0.025802242 0.45062563 0.31576252
0.029830242 -0.42633635 -0.26122761
0.027787244 -0.20818144 0.031333447
0.03174524 -0.63083237 -0.53547621
0.020454245 0.041825593 0.3086834
0.021848245 0.51764858 0.080485821
0.020749243 0.41511661 0.26043081
0.020404244 0.45070362 0.31690359
0.021533245 0.4787856 0.13206053
0.023977244 -0.42761344 -0.26797628
0.015101245 0.086296618 0.30032253
0.015167242 0.15323263 0.28781366
0.016930243 0.61774361 -0.048811436
0.015009245 0.45078063 0.31804276
0.018792244 -0.52549833 -0.40448761
0.018113242 -0.42889434 -0.27474022
0.016068244 -0.13817537 0.1157155
0.019554244 -0.63391739 -0.55010557
0.010226244 -0.08760941 0.17891741
0.0098082442 0.2229296 0.27473879
0.010627244 0.51799661 0.0869627
0.010798244 0.54753065 0.047809601
0.011205243 0.6178686 -0.04543829
0.010528244 -0.13911337 0.10969353
0.0043642428 0.19550961 0.27981043
0.004408244 0.2628876 0.26721954
0.0042642429 0.041816592 0.30853271
0.0051622428 0.54769063 0.051083565
0.005353244 0.58887458 -0.0034842491
0.004481243 0.37453461 0.24635172
0.0048462432 0.47936261 0.14161444
0.0068022441 -0.52831835 -0.41858721
0.0063472427 -0.43146843 -0.28831434
0.0053182431 -0.21225733 0.0065407753
-0.0011107568 0.086286604 0.30017281
-0.00094375573 -0.038097382 0.23612165
-0.0010437574 0.22292364 0.27463865
-0.0010247566 0.26288462 0.26716852
-0.0011327565 0.041811645 0.3084836
-0.00046775676 0.54784966 0.05435276
-0.00070375577 0.47955361 0.14479351
0.00078924373 -0.52973443 -0.42566061
0.00044724345 -0.43276042 -0.29512453
-0.00058075599 -0.1409964 0.097614765
-0.0062727565 -0.090263367 0.16116858
-0.0063927565 -0.038927376 0.23032379
-0.0064707566 0.22291964 0.27458763
-0.0065297568 0.041806638 0.30843258
-0.0056327563 -0.36224538 -0.20521021
-0.0045717563 -0.81366235 -0.81332064
-0.006150757 -0.14194137 0.091555595
-0.011913756 0.11723161 0.29428768
-0.011907756 0.15321261 0.28756237
-0.011792757 -0.09115237 0.15523052
-0.011925757 0.041801631 0.30838346
-0.011788757 0.4799346 0.1511426
-0.011272756 -0.53258044 -0.43985748
-0.011387756 -0.43535739 -0.30878925
-0.011646757 -0.2153464 -0.012192249
-0.011057757 -0.71569437 -0.68671656
-0.011144757 -0.64171642 -0.58698654
-0.017324757 0.1532076 0.28751373
-0.017324757 0.001948595 0.27608252
-0.017324757 0.51885861 0.10310078
-0.017324757 0.54832363 0.064146519
-0.017324757 0.30794364 0.25859547
-0.017324757 0.33554763 0.25343657
-0.017324757 0.41351461 0.23783875
-0.017324757 -0.81728643 -0.82915926
-0.017324757 -0.21638137 -0.018463612
-0.017324757 -0.64329034 -0.59441662
-0.022745756 0.19548661 0.27956057
-0.022756757 0.26286763 0.26696968
-0.022764757 0.30793959 0.2585454
-0.023271756 -0.43797141 -0.3225193
-0.023186756 -0.36588937 -0.22519827
-0.023798756 -0.88496238 -0.92602253
-0.023011757 -0.2174204 -0.024749279
-0.028132755 0.086256623 0.29992247
-0.028142758 0.11721361 0.29413843
-0.028204758 0.30793464 0.25849581
-0.028199757 0.44704363 0.2614727
-0.028375756 0.48050162 0.16064548
-0.029460758 -0.53688234 -0.46127844
-0.030130757 -0.8209334 -0.84507656
-0.029719757 -0.64645344 -0.60932541
-0.033569757 0.15318865 0.28736353
-0.033795759 -0.04311341 0.2011466
-0.034128755 0.54879463 0.073911667
-0.033645757 0.30792862 0.25844669
-0.034270756 0.5898416 0.019730568
-0.033696756 0.41357461 0.23869848
-0.033892758 0.48069063 0.16380644
-0.035548754 -0.53832442 -0.46845055
-0.034666754 -0.28925139 -0.13166237
-0.034161754 -0.14671141 0.061067581
-0.039013758 0.19546664 0.27941179
-0.039031759 0.22288662 0.27428865
-0.039105758 -0.0012263656 0.25309658
-0.039406754 0.48087862 0.16696644
-0.040471755 -0.2903834 -0.13817549
-0.040141754 -0.22055441 -0.04368639
-0.042168759 -0.6496374 -0.62431145
-0.044372756 0.11718965 0.29399061
-0.044828758 -0.044804394 0.18939066
-0.044491757 0.2628426 0.26676941
-0.045135759 0.51971161 0.1191678
-0.045304757 0.54910761 0.080407619
-0.044527754 0.30791664 0.2583456
-0.046754755 -0.37079841 -0.25205755
-0.046286754 -0.29151839 -0.14469862
-0.049838759 -0.8926844 -0.95879841
-0.049751759 0.086222589 0.29972553
-0.049781755 0.11718065 0.29394054
-0.050360754 -0.045654356 0.18349457
-0.050680757 0.51988065 0.12237263
-0.049702756 0.48937362 0.30905581
-0.053887755 -0.54268032 -0.49007225
-0.05319076 -0.44457334 -0.35711622
-0.055913754 -0.82829839 -0.87715054
-0.055191755 0.11717063 0.29389238
-0.055232756 0.15315562 0.2871666
-0.055902757 -0.046505392 0.17758751
-0.055185758 0.040006638 0.29491568
-0.05645676 0.54941761 0.086891651
-0.055409759 0.30790263 0.25824642
-0.055092759 0.48944062 0.31020164
-0.058609754 -0.37327534 -0.26557732
-0.062394753 -0.83015341 -0.88521719
-0.060561754 0.086202621 0.29962969
-0.060601756 0.11716062 0.29384279
-0.061454758 -0.047359407 0.17166758
-0.061048754 -0.004437387 0.22992277
-0.060850754 0.3078956 0.2581954
-0.066175759 -0.54560536 -0.50457144
-0.068889759 -0.83201534 -0.8933053
-0.065967754 0.086191595 0.29958057
-0.066066757 0.1531356 0.28706741
-0.067019753 -0.048217356 0.16573238
-0.06656076 -0.0052464008 0.22409868
-0.067284755 0.52038658 0.13196754
-0.066333756 0.33549362 0.25298643
-0.066391759 0.3744716 0.24570036
-0.066448756 0.41354162 0.23839855
-0.066516757 0.44493362 0.22975636
-0.072341755 -0.54707533 -0.5118494
-0.070513755 -0.37576741 -0.27916241
-0.075400755 -0.83388335 -0.9014163
-0.071373753 0.086179614 0.29953051
-0.071596757 0.2228356 0.27399063
-0.071563758 0.037724614 0.27777338
-0.071734756 0.30787861 0.25809765
-0.071972758 0.44500762 0.23091269
-0.076482758 -0.37701935 -0.28597641
-0.075536758 -0.29724532 -0.1775403
-0.074702755 -0.22690743 -0.081931591
-0.073831759 -0.15350837 0.017836571
-0.079831757 -0.65930742 -0.66969442
-0.076834753 0.1171276 0.2936964
-0.076898754 0.1531136 0.28697062
-0.076974757 0.19540364 0.27906656
-0.078857757 -0.10203338 0.08296442
-0.077023759 0.22282565 0.27394247
-0.077095754 0.26279265 0.26647282
-0.077365756 0.41352761 0.23829937
-0.077025756 0.48725262 0.27379036
-0.082464755 -0.37827438 -0.29280663
-0.087137751 -0.73615032 -0.77963924
-0.084515758 -0.10295737 0.076861382
-0.082531758 0.036192596 0.26628971
-0.082672752 0.33546859 0.25283861
-0.082748756 0.37444863 0.24555159
-0.082824752 0.41351962 0.23824978
-0.089500755 -0.45262939 -0.39916229
-0.088457756 -0.37953335 -0.29965019
-0.087317757 -0.29956037 -0.19077921
-0.095969751 -0.90643841 -1.0169635
-0.095015757 -0.83952242 -0.9258666
-0.086312756 -0.22904938 -0.094792366
-0.087733753 0.15308964 0.28687477
-0.087965757 0.26277161 0.26637459
-0.088120751 0.33545959 0.25278759
-0.088202752 0.37444061 0.24550247
-0.087998755 0.48663262 0.26353455
-0.097127758 -0.55300039 -0.54112339
-0.093227752 -0.30072242 -0.1974225
-0.092136756 -0.23012644 -0.1012454
-0.098846756 -0.66421133 -0.6926384
-0.093246758 0.19536859 0.27892065
-0.094274752 -0.0093243718 0.19479942
-0.093542755 0.034651637 0.25475645
-0.093503758 0.3078416 0.25789976
-0.093566753 0.33545059 0.25273848
-0.093744755 0.41350362 0.2381506
-0.093497753 0.48632061 0.25839376
-0.10335676 -0.55449337 -0.54848623
-0.10170475 -0.45534843 -0.41330719
-0.10048375 -0.38206333 -0.31339025
-0.10928576 -0.91042644 -1.0337772
-0.10816775 -0.84331232 -0.94227219
-0.10646976 -0.74138743 -0.80330324
-0.098403752 0.086112618 0.29929066
-0.098567754 0.1530636 0.28677559
-0.098737754 0.22277963 0.27374554
-0.099848755 -0.010147393 0.18890381
-0.099013753 0.33544064 0.25269079
-0.099281758 0.44507262 0.23219872
-0.11476476 -0.84521633 -0.95050526
-0.10249776 -0.1584484 -0.013442516
-0.10389075 0.1170606 0.2934556
-0.10416675 0.22276759 0.27369738
-0.10427076 0.26273865 0.26622772
-0.10438875 0.3078196 0.25780058
-0.10466476 0.41348663 0.23805046
-0.11585376 -0.55749136 -0.56326151
-0.11395875 -0.45808333 -0.42751932
-0.11255775 -0.3846094 -0.3271904
-0.12265976 -0.91444033 -1.0506763
-0.12137675 -0.84712738 -0.95876026
-0.10967375 -0.23337334 -0.12068462
-0.10826375 -0.15944535 -0.019739628
-0.11798275 -0.66916138 -0.71574831
-0.10921676 0.086081624 0.29919481
-0.10940275 0.15303564 0.2866807
-0.11297075 -0.10761738 0.046140671
-0.11698075 -0.30540842 -0.22413921
-0.11502676 0.2227416 0.27360058
-0.11568675 0.031544626 0.23154974
-0.11535676 0.33540863 0.25254154
-0.11547176 0.37439263 0.24525547
-0.11558676 0.41346762 0.23795271
-0.12626477 -0.46083635 -0.44180059
-0.12295076 -0.30658835 -0.23085642
-0.13244376 -0.74844736 -0.83513165
-0.13081177 -0.67248839 -0.73125124
-0.12124875 0.0307616 0.22571754
-0.12071875 0.30778462 0.25765467
-0.12092575 0.37438163 0.24520445
-0.14130276 -0.85289544 -0.98365259
-0.12565775 0.15298861 0.28653574
-0.12579575 0.19528663 0.27862978
-0.12891977 -0.057806373 0.099645615
-0.12601575 0.26268661 0.26603365
-0.12787975 -0.014296353 0.15923643
-0.12616275 0.30777264 0.2576046
-0.12637976 0.3743706 0.24515676
-0.12661076 0.4450286 0.23194981
-0.14101076 -0.56354636 -0.59303141
-0.13862176 -0.46360534 -0.45614529
-0.13492376 -0.30895942 -0.24433851
-0.14551677 -0.75201136 -0.85116339
-0.13100375 0.084943593 0.29043865
-0.13095276 0.1169796 0.29321575
-0.13207676 0.44501862 0.23190165
-0.14733276 -0.56507236 -0.60051823
-0.14481877 -0.46499532 -0.46334362
-0.14296076 -0.39104038 -0.36197233
-0.15466176 -0.85677141 -1.0003514
-0.15207477 -0.75380141 -0.85920954
-0.13664776 0.19525462 0.27853441
-0.13674676 0.2226826 0.27340841
-0.13799976 0.0284006 0.20814848
-0.13743076 0.41342661 0.23775482
-0.15367076 -0.56660336 -0.60802555
-0.14217676 0.22266662 0.27335978
-0.14232676 0.26264364 0.26588774
-0.14259976 0.33534664 0.25229645
-0.14289276 0.41341561 0.23770571
-0.16995676 -0.92869633 -1.1105194
-0.16808276 -0.86067337 -1.0171394
-0.15100776 -0.24106532 -0.1665535
-0.14895277 -0.16650635 -0.064202309
-0.14776376 0.26262861 0.26583958
-0.15049876 -0.017659366 0.13527679
-0.14921877 0.02681464 0.1963768
-0.14804876 0.33533365 0.25224972
-0.16349277 -0.46919435 -0.48504257
-0.16135576 -0.3949464 -0.38303661
-0.15901977 -0.31374437 -0.27148247
-0.15481175 -0.16752738 -0.070611477
-0.15908176 -0.11521739 -0.0037064552
-0.15320176 0.26261264 0.26579046
-0.15618077 -0.018506408 0.12925577
-0.15365677 0.37431061 0.24491262
-0.15381676 0.4133926 0.23760748
-0.17276177 -0.57122236 -0.63064957
-0.16751276 -0.39625734 -0.39009142
-0.17845576 -0.76102239 -0.89160252
-0.15835276 0.1951856 0.27834272
-0.15863876 0.26259661 0.26574278
-0.16187376 -0.019355357 0.1232214
-0.16048177 0.025220633 0.18455458
-0.19046076 -0.93490738 -1.1365047
-0.16656376 -0.16957837 -0.083467484
-0.18508776 -0.7628414 -0.89975357
-0.18268876 -0.68600637 -0.79403257
-0.16430975 0.080548644 0.2559104
-0.16343676 0.11686361 0.29293251
-0.16378176 0.1951676 0.27829552
-0.16390276 0.22259861 0.27316952
-0.16757876 -0.020207405 0.11717367
-0.18555976 -0.57432741 -0.64582634
-0.18228576 -0.47343236 -0.50689554
-0.19510776 -0.86855441 -1.0509763
-0.17245877 -0.17060834 -0.089920521
-0.16989677 0.079808593 0.25011349
-0.16885176 0.11684263 0.29288578
-0.16920877 0.19514865 0.27824879
-0.16933477 0.22258061 0.27312136
-0.17178877 0.023616612 0.17268181
-0.17002776 0.3742696 0.24476576
-0.18606277 -0.40021139 -0.4113555
-0.18331376 -0.31858844 -0.29887724
-0.19580376 -0.68944043 -0.8099246
-0.17549476 0.079066634 0.24430561
-0.17426576 0.11682063 0.29283762
-0.17463677 0.19512862 0.27820158
-0.17476676 0.2225616 0.27307272
-0.17901976 -0.021918356 0.10504055
-0.17529976 0.33525962 0.25200653
-0.19841176 -0.57745034 -0.66107559
-0.19488077 -0.47628039 -0.52155256
-0.18690476 -0.24778837 -0.20644522
-0.17985776 0.15280062 0.28606272
-0.18634777 -0.066795409 0.038207531
-0.18475676 -0.022778392 0.098956585
-0.20485976 -0.57901937 -0.66872835
-0.19553576 -0.32103235 -0.31267023
-0.19215377 -0.067708373 0.031988621
-0.18583576 0.26250863 0.26550341
-0.19050676 -0.023639381 0.092856407
-0.21132277 -0.58059436 -0.67640352
-0.20753077 -0.47914439 -0.53627825
-0.20166776 -0.32225937 -0.31959057
-0.19896877 -0.25005633 -0.21986437
-0.19615476 -0.17475837 -0.11586523
-0.19070177 0.15275663 0.28596878
-0.19797076 -0.068624377 0.025759697
-0.19106576 0.22250259 0.27292967
-0.19151077 0.30758959 0.25702572
-0.19671476 0.2624706 0.26540756
-0.20024776 0.019565642 0.14278078
-0.19695777 0.3075726 0.2569766
-0.21108176 -0.2523374 -0.23334455
-0.20178077 0.19502461 0.27796459
-0.20963776 -0.070465386 0.013257504
-0.20215476 0.26245064 0.26536179
-0.20597176 0.018748641 0.13676262
-0.20240577 0.30755359 0.25693035
-0.22013476 -0.32596439 -0.34044647
-0.24300577 -0.88259536 -1.1110463
-0.21405177 -0.17790335 -0.13547564
-0.23869276 -0.77761239 -0.96570539
-0.23549876 -0.69987434 -0.8580842
-0.20721076 0.1950016 0.27791882
-0.20759577 0.26243061 0.26531363
-0.21170776 0.0179286 0.13073158
-0.22631676 -0.32720739 -0.34743023
-0.24216576 -0.70163244 -0.86618137
-0.22135276 -0.072316408 0.00070142746
-0.24384576 -0.58853942 -0.71504641
-0.25683674 -0.88666743 -1.1284146
-0.22934677 -0.25578636 -0.25368023
-0.22604576 -0.18001634 -0.14862442
-0.25224876 -0.78136533 -0.98240852
-0.22067076 0.073052645 0.19740343
-0.21893977 0.11165762 0.25096846
-0.22321476 0.016282618 0.11863041
-0.25039375 -0.59014434 -0.72283459
-0.23205976 -0.18107742 -0.15522051
-0.25554875 -0.7051664 -0.88244057
-0.22458576 0.11093962 0.24515152
-0.22324076 0.15261161 0.28568935
-0.23106676 -0.029743373 0.049794674
-0.25223675 -0.48931342 -0.58838224
-0.24875176 -0.41366035 -0.48332644
-0.27073076 -0.89076537 -1.1458726
-0.23808676 -0.18214136 -0.16183043
-0.22866577 0.15258563 0.28564358
-0.22936377 0.2623446 0.2651248
-0.23690677 -0.030625403 0.043590546
-0.25867876 -0.49078435 -0.59589958
-0.24772476 -0.25926644 -0.27415419
-0.23779276 0.070760608 0.17960978
-0.23454677 0.22232461 0.27255535
-0.23480776 0.2623226 0.26507854
-0.26513675 -0.4922604 -0.60343552
-0.26145276 -0.41640037 -0.49792957
-0.28469276 -0.89489037 -1.1634274
-0.25387776 -0.26043338 -0.28101254
-0.25017977 -0.18427938 -0.17509842
-0.24352176 0.069992602 0.17365265
-0.25353375 -0.13096738 -0.10605621
-0.25084475 -0.076992393 -0.030930519
-0.24862276 -0.032398403 0.03113842
-0.27160776 -0.49374038 -0.61098719
-0.26782277 -0.41777641 -0.50525522
-0.26368675 -0.33474344 -0.3896842
-0.25624377 -0.18535334 -0.18175554
-0.28641075 -0.79085439 -1.0245433
-0.24926277 0.069222629 0.16768456
-0.24727876 0.10804659 0.22176456
-0.24502076 0.15225863 0.28334951
-0.24542077 0.22227561 0.27246237
-0.27420676 -0.41915733 -0.51260042
-0.26996076 -0.33601338 -0.39678431
-0.25501376 0.068449616 0.16170359
-0.25297976 0.10731864 0.21588659
-0.25066376 0.15158063 0.2775898
-0.26272476 -0.078882396 -0.043680191
-0.25800577 0.011285603 0.082015514
-0.28459176 -0.49671441 -0.62614918
-0.28060475 -0.42054242 -0.51996136
-0.29606375 -0.71590644 -0.9317174
-0.26077676 0.067674637 0.15570974
-0.27158576 -0.13400435 -0.12565327
-0.26868275 -0.079831362 -0.050076485
-0.26628375 -0.035075366 0.012360573
-0.26384374 0.010444641 0.075867653
-0.29664177 -0.60151738 -0.7778883
-0.28701675 -0.42193133 -0.52734137
-0.28254876 -0.33856338 -0.41103554
-0.27451175 -0.1885944 -0.20181227
-0.30709878 -0.79662234 -1.0500884
-0.26655275 0.066897631 0.1497016
-0.27762976 -0.13502336 -0.13221741
-0.26969576 0.0095996261 0.069702625
-0.28886577 -0.33984536 -0.41818762
-0.30969375 -0.71953338 -0.94831324
-0.27233875 0.066118598 0.14368153
-0.27014977 0.1051206 0.19817972
-0.26696774 0.19472164 0.2774086
-0.28368378 -0.13604438 -0.13879538
-0.27811876 -0.036874354 -0.00022649765
-0.27813578 0.065336645 0.13764954
-0.27334377 0.14884561 0.25442553
-0.28663075 -0.082695365 -0.069352627
-0.28405276 -0.037777364 -0.0065402985
-0.28143176 0.0079045892 0.057339668
-0.31073475 -0.50272042 -0.65669823
-0.29730475 -0.26870233 -0.32945633
-0.29289576 -0.19186538 -0.22201157
-0.32338676 -0.72318333 -0.96499538
-0.27783677 0.1946646 0.27731752
-0.29583076 -0.13809639 -0.15199327
-0.32340077 -0.60813242 -0.80978727
-0.31730577 -0.50423342 -0.66438246
-0.33491278 -0.80440134 -1.0844655
-0.28327477 0.19463462 0.27727175
-0.29865777 -0.084619403 -0.082275391
-0.32389477 -0.50575143 -0.67208719
-0.31929177 -0.42894334 -0.56451559
-0.30521676 -0.19406241 -0.23555422
-0.33714476 -0.72685736 -0.98176527
-0.29319975 0.10215962 0.1743927
-0.29046977 0.14677364 0.2369256
-0.30802977 -0.1401614 -0.16525364
-0.29912475 0.005343616 0.038691521
-0.33049577 -0.50727338 -0.67980862
-0.31611577 -0.27230042 -0.35046244
-0.34404677 -0.72870344 -0.9901824
-0.31414676 -0.14119834 -0.17190552
-0.30791375 -0.04141736 -0.031939507
-0.34363076 -0.61314839 -0.83392525
-0.31758776 -0.19627243 -0.24915838
-0.31390876 -0.042334378 -0.038323402
-0.36299175 -0.81228441 -1.1192093
-0.31316277 0.060598612 0.10118151
-0.31060675 0.099917591 0.15642166
-0.32642075 -0.1432814 -0.18525457
-0.31991577 -0.043253362 -0.044722557
-0.33001077 -0.19849533 -0.26282454
-0.37005275 -0.81427139 -1.1279535
-0.33257875 -0.14432842 -0.19195318
-0.32894176 -0.089479387 -0.11483431
-0.34138477 -0.27715033 -0.37870264
-0.33624375 -0.19961244 -0.26968336
-0.35849175 -0.43750232 -0.60972118
-0.37880376 -0.73802441 -1.0326004
-0.33483377 0.00015258789 0.0010275841
-0.36507577 -0.43894535 -0.61732054
-0.34874678 -0.20185643 -0.28344536
-0.39133975 -0.82027239 -1.1543264
-0.38580477 -0.73990637 -1.0411515
-0.34726176 -0.092430353 -0.13454533
-0.34407178 -0.046958387 -0.070461273
-0.38450977 -0.62332839 -0.88276052
-0.36572075 -0.35553342 -0.50534534
-0.35501775 -0.20298344 -0.29035139
-0.39846978 -0.82228535 -1.1631656
-0.35339576 -0.093420386 -0.14114952
-0.37829077 -0.44184333 -0.63257742
-0.40561777 -0.82430643 -1.1720285
-0.39826477 -0.62676543 -0.89920664
-0.36760277 -0.20524734 -0.30421352
-0.41278177 -0.82633239 -1.1809144
-0.41397578 -0.74749833 -1.0755816
-0.37603778 -0.15174133 -0.23927164
-0.37186977 -0.0964064 -0.16103935
-0.41208175 -0.63022441 -0.91573763
-0.40410575 -0.52434736 -0.76604843
-0.39179277 -0.36089343 -0.53496361
-0.42106077 -0.74941236 -1.0842466
-0.38229877 -0.15281337 -0.24609423
-0.41088977 -0.52592939 -0.77400827
-0.40489477 -0.44769543 -0.66331625
-0.39834675 -0.36224443 -0.54241323
-0.38657877 -0.20867044 -0.32512331
-0.41769075 -0.52751642 -0.78198957
-0.40491676 -0.36359936 -0.54988241
-0.44241875 -0.75519234 -1.1103835
-0.40116477 -0.15604943 -0.26665735
-0.43991375 -0.63721138 -0.94906139
-0.40747875 -0.15713435 -0.27354336
-0.44691277 -0.63897234 -0.95744753
-0.43818375 -0.5323084 -0.8060503
-0.43174377 -0.4536224 -0.69436646
-0.45674276 -0.75907642 -1.1279225
-0.44504577 -0.53391534 -0.81411123
-0.43133876 -0.36906141 -0.57993746
-0.46393076 -0.76102835 -1.1367264
-0.45192677 -0.53552836 -0.82219553
-0.47113776 -0.76298743 -1.1455593
-0.47836077 -0.76495141 -1.1544094
-0.47507676 -0.64607435 -0.99120951
-0.48560175 -0.76692337 -1.1632886
-0.48215976 -0.6478644 -0.99970627
-0.46565175 -0.4611364 -0.73361921
-0.45126876 -0.2984404 -0.50177765
-0.49285975 -0.76890236 -1.1721902
-0.48926076 -0.64966041 -1.0082273
-0.47248176 -0.46265441 -0.74153137
-0.46470577 -0.3759864 -0.61793137
-0.50013876 -0.77088636 -1.1811166
-0.49637777 -0.65146142 -1.0167685
-0.48656377 -0.54367036 -0.86292028
-0.50743276 -0.77287835 -1.1900663
-0.47815776 -0.37878734 -0.6332612
-0.50053275 -0.54696435 -0.87935925
-0.49995476 -0.46877235 -0.77337646
-0.52501971 -0.65872842 -1.0511632
-0.51456976 -0.55027944 -0.89588356
-0.52867174 -0.55361634 -0.91249657
-0.53574771 -0.55529338 -0.92083359
-0.58314574 -0.67355233 -1.1210723
