# .PCD v0.7 - Point Cloud Data file format
VERSION 0.7
FIELDS x y z
SIZE 4 4 4
TYPE F F F
COUNT 1 1 1
WIDTH 1
HEIGHT 1024
VIEWPOINT 0 0 0 1 0 0 0
POINTS 1024
DATA ascii
0.99249691 0.0060843229 -0.75162649
0.97889793 0.0066943169 -0.74838257
0.92886388 0.018502295 -0.65910387
0.90777791 0.10842228 -0.58934355
0.91985393 -0.040407717 -0.69370985
0.91155893 0.016361296 -0.67838478
0.90713394 0.058943272 -0.6398468
0.90577292 0.015644312 -0.68483162
0.8905949 0.10650432 -0.60828066
0.88479292 0.16311729 -0.55696344
0.87860692 0.20158231 -0.50224686
0.90074092 -0.083284736 -0.69803047
0.87135291 0.2024743 -0.49428749
0.86976391 0.25117528 -0.48012066
0.8782509 0.055520296 -0.67187548
0.8828249 -0.042431712 -0.7133007
0.87545991 -0.12506771 -0.70581388
0.84969193 0.20513529 -0.4705286
0.86903989 -0.17383766 -0.70688581
0.84148788 0.1180203 -0.51187086
0.83774191 0.17214829 -0.47710371
0.84023494 0.032067299 -0.55968666
0.85746491 -0.0857687 -0.7209115
0.83297491 0.033166289 -0.55160475
0.8302319 0.07353127 -0.5257287
0.8270759 0.11999631 -0.4959445
0.85070491 -0.1265527 -0.71889353
0.82105088 0.2086463 -0.43909883
0.81763393 0.2530123 -0.46649456
0.83276689 -0.070266724 -0.61047888
0.81273192 0.12196028 -0.48009491
0.82240492 -0.023129702 -0.57291174
0.82464093 -0.16563976 -0.65661764
0.80410492 0.037528276 -0.51947069
0.8099879 -0.16294169 -0.64003277
0.8007049 -0.019645691 -0.54864073
0.81340891 -0.21574676 -0.67371178
0.7959289 0.29758227 -0.56464386
0.80607194 -0.2143327 -0.66536856
0.78263289 0.040765285 -0.4955759
0.78009188 0.080768287 -0.47011471
0.77376491 0.1803323 -0.40672445
0.78922188 -0.062948704 -0.56158876
0.80336493 -0.28556073 -0.7032795
0.79874992 -0.21292365 -0.65704775
0.78813988 -0.15892565 -0.6153059
0.76458192 0.21553832 -0.37718344
0.7676869 -0.059339762 -0.53741789
0.7813589 -0.28106868 -0.67811966
0.77689791 -0.20872366 -0.63221169
0.75424492 0.045034289 -0.46399069
0.75925589 -0.15362871 -0.58262444
0.75607491 -0.10099173 -0.54929066
0.7624169 -0.20594466 -0.61575651
0.73777592 0.086848319 -0.42319584
0.73504192 0.13254929 -0.39428186
0.73125392 0.21820629 -0.35420752
0.75951189 -0.27661872 -0.65314674
0.75520289 -0.20456171 -0.60755968
0.73312789 0.04820329 -0.44049978
0.7307809 0.087850273 -0.41544151
0.74343288 0.2992723 -0.55054379
0.72380292 0.088850319 -0.40770674
0.73777592 -0.14969969 -0.55832577
0.73470491 -0.097267747 -0.52522182
0.72949094 -0.0082607269 -0.4690218
0.74503791 -0.27367473 -0.63660574
0.71913189 0.050298274 -0.42493153
0.7141999 0.1353783 -0.37125444
0.74853492 0.36308128 -0.74492168
0.7411989 0.36380231 -0.7362709
0.7345019 -0.33823073 -0.66267872
0.72651988 -0.19907272 -0.57497454
0.70845389 -0.004912734 -0.44550991
0.72326088 0.32721031 -0.60980368
0.6960519 0.092817307 -0.37694645
0.70644492 -0.092355728 -0.49339962
0.71075892 0.30031031 -0.54173756
0.6994229 -0.091137648 -0.48549366
0.69700289 -0.047550678 -0.45811081
0.68756491 -0.0015956759 -0.42216778
0.69771791 0.3007223 -0.53821564
0.7035079 0.32780832 -0.60440683
0.6700989 0.19348031 -0.29277468
0.68542492 -0.088711739 -0.46973658
0.67413193 0.22024828 -0.33934689
0.68306392 -0.045235693 -0.44247675
0.68063492 -0.0004966855 -0.4144249
0.69855791 -0.33054674 -0.6213727
0.7030279 0.36311328 -0.74854946
0.67424691 -0.13812673 -0.48648882
0.66922891 0.2580893 -0.42734671
0.66682291 0.0016912818 -0.39899445
0.68430293 -0.32750773 -0.60499859
0.65515989 0.2209183 -0.33439255
0.67722988 0.32859731 -0.59721565
0.64810091 0.09964931 -0.3237977
0.66518688 0.30174232 -0.5294137
0.67067093 0.3287943 -0.59541845
0.64131492 0.1006133 -0.31627989
0.6485039 -0.039509714 -0.40372181
0.63652092 0.062610269 -0.33308172
0.63123894 0.19644928 -0.26814365
0.6522029 0.30214632 -0.52589369
0.63479292 -0.037243724 -0.38835049
0.65101993 0.32937932 -0.59002876
0.63008988 -0.079153657 -0.40746355
0.64193892 -0.31850171 -0.55635977
0.63516593 -0.1816957 -0.47125483
0.6162219 0.06561929 -0.31051874
0.6173209 0.22224331 -0.32448244
0.61641693 -0.076800704 -0.39207983
0.6110279 0.2224623 -0.32282972
0.59878993 0.15092427 -0.24387169
0.60960388 -0.075629711 -0.38441658
0.61172891 0.25999528 -0.41203356
0.6209839 -0.31406069 -0.53230762
0.6144799 -0.17778265 -0.44777966
0.58757293 0.10822129 -0.25675344
0.58757693 0.19802028 -0.25681067
0.59216893 0.22311431 -0.31787252
0.59198391 0.013492286 -0.31541491
0.61893493 0.36941427 -0.67384958
0.60709393 -0.31112266 -0.51636744
0.6040259 -0.24521673 -0.47556877
0.59393489 -0.17390573 -0.4244709
0.57227689 0.1544683 -0.21462488
0.60572791 0.36977631 -0.67015362
0.59326988 -0.3082037 -0.50050783
0.56939489 0.072537303 -0.25847673
0.56276387 0.073513269 -0.25111055
0.56904989 -0.068675756 -0.33880663
0.57356793 0.26124132 -0.40182686
0.56716889 -0.026115716 -0.3125639
0.58577091 0.33129728 -0.57207155
0.58273691 -0.37829375 -0.52974844
0.5561499 0.074487269 -0.24376249
0.56049192 -0.025020719 -0.3050828
0.57583493 -0.37675476 -0.52178049
0.56979793 -0.23837066 -0.43651581
0.56000888 -0.16752172 -0.38599157
0.54133987 0.1147303 -0.20556355
0.56175792 0.30491728 -0.50126886
0.56207788 -0.37369072 -0.50589752
0.53294891 0.15970731 -0.17125368
0.54444289 -0.11471474 -0.3398428
0.5264439 0.16057128 -0.16407967
0.53567791 -0.062975764 -0.30128765
0.55963087 0.3710283 -0.65722275
0.54838389 -0.37064576 -0.49009275
0.54538888 -0.29812276 -0.44558764
0.52551287 0.20021427 -0.24060774
0.52904892 -0.06184566 -0.29383564
0.53554291 0.26246828 -0.39161777
0.55947387 0.41100532 -0.75191545
0.52445787 -0.11113966 -0.31728268
0.52921891 0.26267028 -0.3899169
0.51899588 0.024911284 -0.23393869
0.53605688 0.30569029 -0.49423552
0.52646887 -0.16123271 -0.34796381
0.50721186 0.16280931 -0.1456356
0.5170669 0.22567528 -0.29804182
0.49502191 0.16325527 -0.14248848
0.50459987 0.22609431 -0.29473591
0.5102669 0.26327431 -0.38481283
0.52091992 0.33316529 -0.55413246
0.51165789 -0.29105365 -0.40691853
0.48893189 0.1634773 -0.14091444
0.52027589 0.37208331 -0.64614964
0.53118092 0.44465628 -0.82191277
0.50768292 -0.36162376 -0.44315052
0.48435691 0.085005283 -0.16403961
0.49145192 -0.10525167 -0.28003073
0.49214891 0.22651029 -0.29142857
0.4976519 0.26367432 -0.38140965
0.50799692 0.33353227 -0.55054569
0.51961589 0.4119963 -0.74051952
0.49586591 -0.22367072 -0.35221148
0.49330792 -0.15503871 -0.31037569
0.4799349 0.030983269 -0.19036579
0.50719088 0.37243032 -0.64245987
0.51777488 0.44496629 -0.81802654
0.49508792 0.33389831 -0.54696083
0.5006519 0.37260431 -0.64061356
0.46855891 -0.010033727 -0.20211887
0.48085791 -0.35570073 -0.41222668
0.4638029 0.20235229 -0.22439051
0.46356392 -0.050731719 -0.22025251
0.46728691 0.2273373 -0.28481483
0.46210191 -0.0089877248 -0.1948905
0.47168592 -0.28270972 -0.36111164
0.4694359 -0.21844471 -0.32208967
0.45099691 0.12735331 -0.10559368
0.4610799 0.22754228 -0.28316069
0.44639891 0.16501427 -0.12988853
0.45487592 0.22774732 -0.28150558
0.4492279 -0.0069026947 -0.18048191
0.44777492 0.035962284 -0.15449858
0.46089792 -0.35130465 -0.38922167
0.45399991 -0.1477257 -0.26584148
0.4383139 0.12911427 -0.091565609
0.44419891 -0.047461689 -0.19850159
0.46288291 0.33480328 -0.53799963
0.46802291 0.37346232 -0.63139677
0.45294392 0.3081463 -0.47139168
0.42568791 0.13086528 -0.07760191
0.43307692 0.2033993 -0.21627569
0.43002492 -0.0037996769 -0.15899277
0.43454391 -0.14411867 -0.24380684
0.42058089 0.094276309 -0.093261719
0.41939491 0.13173628 -0.070642471
0.4265309 -0.093735695 -0.20679569
0.44021291 0.30851632 -0.46787882
0.45764792 0.44634429 -0.8005538
0.4285219 0.26583731 -0.36269379
0.4237479 -0.2094487 -0.2700429
0.41007292 0.16630828 -0.12042952
0.4122079 -0.042072713 -0.1625638
0.41094491 -0.0007237196 -0.13764477
0.4274959 0.30888432 -0.46436453
0.4005959 0.13433629 -0.049854755
0.40855691 0.20422727 -0.20978165
0.4046129 0.00029528141 -0.13056183
0.42899591 0.37447727 -0.62034273
0.41484889 -0.34120071 -0.33617067
0.41082489 -0.20691276 -0.25532484
0.40879992 -0.13935876 -0.21465445
0.39435691 0.1351983 -0.042956829
0.4024359 0.20443231 -0.20815754
0.41479492 0.3092503 -0.46085262
0.41795492 0.33605027 -0.52545977
0.4271749 0.41424727 -0.71397352
0.39195392 0.16694832 -0.11569548
0.39631692 0.20463729 -0.20653486
0.39317891 -0.038877726 -0.1412015
0.4115499 0.33622628 -0.52366877
0.41601691 0.3748123 -0.61665964
0.42438391 0.4470953 -0.79086161
0.40182289 -0.33835173 -0.3211689
0.38825589 -0.086986661 -0.16364479
0.38686392 -0.037819684 -0.13411379
0.3856979 0.0033363104 -0.10940266
0.38449889 0.045703292 -0.083966732
0.40210691 0.3096143 -0.45733881
0.40514991 0.3364023 -0.52187872
0.41403091 0.41456228 -0.71018553
0.41774392 0.4472433 -0.78892374
0.39712092 -0.40011466 -0.35162449
0.3953329 -0.33693469 -0.31369591
0.3763949 0.13601232 -0.037003517
0.38056192 -0.036763728 -0.12703991
0.37942091 0.0043432713 -0.10238266
0.40305391 0.37514532 -0.6129775
0.40746492 0.41471827 -0.70829153
0.39060792 -0.3986237 -0.34408569
0.3779839 0.20524931 -0.20165968
0.38070792 0.2301603 -0.26164675
0.3847549 0.26717931 -0.35078144
0.38410991 -0.39713669 -0.33656454
0.36930692 -0.083656669 -0.14227962
0.3706049 -0.13232267 -0.17141962
0.35816291 0.10328132 -0.024029732
0.36301592 -0.082551718 -0.13518381
0.36839291 0.2305553 -0.25833464
0.3660349 -0.19815373 -0.20433378
0.35199392 0.1041683 -0.017189503
0.35673991 -0.081451654 -0.12811279
0.37717092 0.37580532 -0.60561657
0.3596929 -0.19691765 -0.19711685
0.34663191 0.13709027 -0.029295444
0.3598209 0.26793528 -0.34397268
0.34823391 0.009337306 -0.067508698
0.3746939 0.41549528 -0.69882965
0.3566879 -0.32851672 -0.26920986
0.3396959 0.1059323 -0.003554821
0.34377992 0.16862732 -0.10306358
0.3535969 0.26812327 -0.3422718
0.34203592 0.01032728 -0.060578823
0.3681519 0.41564929 -0.69693756
0.3713699 0.44827428 -0.77537489
0.35182992 -0.38976872 -0.29921389
0.34704891 -0.19445574 -0.18272877
0.33777091 0.16883528 -0.10148287
0.33585089 0.011314273 -0.053664684
0.35149992 0.31105131 -0.44329071
0.35408092 0.33779031 -0.50755358
0.34224692 -0.25595367 -0.21293068
0.33063191 -0.028429687 -0.071012497
0.34115592 0.26849729 -0.33886671
0.34771392 0.33796132 -0.50576353
0.35134792 0.37645727 -0.59825563
0.3550759 0.41595531 -0.69315672
0.33290091 -0.12540972 -0.12875986
0.32256392 0.055163324 -0.014970779
0.33888391 0.3114053 -0.43977785
0.3485449 0.41610831 -0.69126558
0.33120492 -0.32298672 -0.23988771
0.31976891 0.16945428 -0.096741676
0.31708291 0.20725131 -0.18540144
0.32252392 0.26905328 -0.33375978
0.3199029 -0.38250971 -0.26228571
0.31703591 -0.25079072 -0.18409586
0.3031069 0.1111663 0.037002563
0.31631792 0.26923829 -0.33205557
0.32897192 0.41656327 -0.68559361
0.30179289 0.17006731 -0.091995716
0.31011689 0.26942229 -0.33035469
0.2910969 0.11258328 0.047944546
0.31860191 0.44942731 -0.75990868
0.2996619 -0.31616676 -0.20360565
0.28523889 0.11279631 0.049459457
0.2928139 0.2080363 -0.17889357
0.30629891 0.37758231 -0.5853858
0.28952289 -0.1174947 -0.079689503
0.28142491 0.13941228 -0.012309551
0.28675291 0.20823127 -0.17726469
0.2886759 0.23306727 -0.2367959
0.2799789 0.061625302 0.032446384
0.29483491 0.31262928 -0.42748785
0.29987592 0.37774128 -0.58354664
0.28831992 -0.37535775 -0.22577477
0.28463691 -0.18235874 -0.11173868
0.27352789 0.1132223 0.052489281
0.27786991 0.17087728 -0.085664749
0.27471691 0.02103132 0.014655113
0.29345891 0.37789929 -0.58170891
0.28204489 -0.37393975 -0.21852255
0.28089792 -0.3121227 -0.18202972
0.2842339 0.33964831 -0.48786974
0.28992891 0.4174633 -0.67426062
0.27578291 -0.37252569 -0.21128464
0.2746709 -0.31078267 -0.17486954
0.2659269 0.17127931 -0.08249855
0.26334691 -0.017282724 0.0044403076
0.2626439 0.022941291 0.02814436
0.28063491 0.37821531 -0.57803345
0.2559869 0.1138553 0.057038307
0.2642599 0.23382229 -0.23016262
0.2610909 -0.23939276 -0.12014484
0.2581619 0.23400927 -0.22850466
0.24993989 0.066162288 0.065880299
0.2504639 0.20938927 -0.16749573
0.24602389 -0.062186718 -0.0034284592
0.25893891 0.34030932 -0.4807148
0.24677989 -0.10974073 -0.031374454
0.24597991 0.23438227 -0.22518682
0.2437309 -0.30414069 -0.13931084
0.23423392 0.1410563 6.8187714e-05
0.23612291 0.17227328 -0.074575901
0.2396979 -0.44528365 -0.21579885
0.23656791 -0.23442268 -0.0921278
0.22834691 0.1412583 0.0016183853
0.23235992 0.2099613 -0.16260767
0.22671789 0.028606296 0.068266392
0.22980189 0.2717663 -0.3082118
0.2151559 0.11531228 0.0676651
0.21537089 -0.0093947053 0.058204174
0.22165191 0.23512232 -0.21855068
0.22595489 0.31450331 -0.40817451
0.21233389 0.17305827 -0.06823349
0.21428689 0.21052831 -0.15771866
0.21749589 0.27211928 -0.3048048
0.20839891 0.072406292 0.11209917
0.2095069 0.23548931 -0.21523046
0.2148059 0.34144932 -0.46819258
0.2054539 -0.16714966 -0.021742821
0.20045689 0.17344832 -0.065059662
0.1994499 -0.16600275 -0.014921665
0.19188792 0.11613232 0.073747158
0.19452289 0.17364132 -0.063472748
0.20100689 0.31517029 -0.40115166
0.1964829 -0.43500769 -0.16555977
0.1872299 0.14266229 0.012469292
0.1903629 -0.43355668 -0.15844679
0.18027189 0.11653829 0.076790333
0.1755069 0.1430583 0.015573502
0.17919689 0.23639631 -0.20692873
0.17314491 0.23657632 -0.20526791
0.1785389 0.3806743 -0.5486517
0.1696219 -0.16032076 0.018949509
0.1662209 0.21201628 -0.14466763
0.1670959 0.23675531 -0.20360756
0.1619899 0.038742304 0.14051533
0.1708349 0.3425653 -0.45567465
0.16600591 -0.42779565 -0.13014746
0.1647969 -0.28731668 -0.04865551
0.1636939 -0.15919375 0.025681496
0.1631389 -0.094693661 0.063100338
0.1564959 0.00021529198 0.12414646
0.1622719 0.27368331 -0.28946447
0.15584791 0.08025229 0.17053843
0.16368389 0.31615627 -0.39061689
0.15930191 -0.34643972 -0.076788902
0.15881291 -0.28604865 -0.041787624
0.1572559 -0.093641758 0.069742203
0.15209889 0.14384431 0.021786213
0.1542359 0.21238232 -0.14140368
0.1510309 -0.045880675 0.10342026
0.1506739 0.0011612773 0.13066339
0.1550069 0.2371133 -0.20028353
0.1523319 -0.21747065 0.0040512085
0.14506489 0.3166433 -0.38534784
0.1409349 -0.28226674 -0.021271706
0.13457191 0.14442629 0.026449203
0.14047891 0.3815673 -0.53764057
0.1342299 -0.15360868 0.059122562
0.1338419 -0.089464664 0.096170425
0.13086289 0.23782128 -0.19363546
0.1332759 0.34350431 -0.44494677
0.12235691 0.11853528 0.092031479
0.1229019 0.14481229 0.029559135
0.1165789 0.11873132 0.093558311
0.11696491 -0.21041274 0.0443964
0.1102419 0.0077093244 0.17592049
0.1127869 0.23834729 -0.1886487
0.1101929 0.0819543 0.18293333
0.1151719 0.38215327 -0.53030348
0.1058679 0.17648131 -0.039629459
0.1067679 0.23852128 -0.18698454
0.1072999 0.27520627 -0.27411556
0.1043749 0.047687292 0.20478249
0.10885391 0.3822993 -0.52846861
0.1059949 -0.41368175 -0.060470581
0.1048379 -0.084308743 0.12889433
0.0992679 0.11931729 0.098139286
0.099980906 0.17666632 -0.038037777
0.1012079 0.27537328 -0.27240944
0.10173491 0.31776232 -0.37305689
0.0998239 -0.3332777 -0.0082035065
0.099644899 -0.27356768 0.026091099
0.093500897 0.11951232 0.099668503
0.0931179 0.082556307 0.18739319
0.093475901 -0.14592075 0.10535812
0.087387905 0.011393309 0.20148754
0.088726901 0.23904032 -0.18199444
0.0874319 0.082756281 0.1888814
0.089381903 0.31807727 -0.36954451
0.082141899 0.14614427 0.040459156
0.083374903 0.34473032 -0.43064356
0.0823339 -0.40814972 -0.033017635
0.076075904 -0.03316772 0.1876421
0.0759909 0.052066267 0.23642731
0.0770429 0.31839031 -0.36603069
0.076370902 -0.32811773 0.018823147
0.076244898 -0.20232975 0.090821266
0.076185897 -0.14267266 0.1249671
0.076121904 -0.079225659 0.16128254
0.070789903 0.27619928 -0.26387787
0.070877902 0.3185463 -0.3642745
0.064713903 -0.031252682 0.20040321
0.064713903 0.083548307 0.19483709
0.064713903 0.3451823 -0.42527866
0.064713903 -0.40404272 -0.012581825
0.064713903 -0.20004976 0.10396433
0.058964901 0.1206643 0.10884428
0.058642901 0.27652627 -0.26046371
0.058555901 0.31885731 -0.36076164
0.058421902 0.38344729 -0.51379871
0.058903903 -0.3242867 0.038946152
0.058966901 -0.19891465 0.11051416
0.058996901 -0.1394527 0.14445543
0.053218901 0.12085527 0.11037636
0.0523999 0.31901228 -0.35900545
0.052132901 0.38358927 -0.51196575
0.039562903 0.38387132 -0.50829744
0.042033903 -0.073219657 0.19971228
0.0354039 0.17866528 -0.020502567
0.035018899 0.2159313 -0.10870075
0.0339499 0.31947327 -0.35373354
0.035925902 -0.2602427 0.099134445
0.036391899 -0.07222867 0.20607233
0.028329901 0.27733529 -0.25192547
0.031062901 0.056696296 0.27008724
0.030715901 0.0847193 0.20378733
0.0241469 0.1480003 0.056061268
0.023160901 0.21627527 -0.10542488
0.021664903 0.31977832 -0.35022068
0.024717901 -0.19217169 0.14953136
0.0249229 -0.13309276 0.18307543
0.018794902 0.1219843 0.11957216
0.017850902 0.17919832 -0.015713692
0.019711901 -0.023700714 0.25092411
0.0168299 0.2410723 -0.16201353
0.018789902 -0.25668073 0.11876249
0.012490902 -0.3919307 0.047955513
0.0139319 -0.068291664 0.23138332
0.0073409006 0.1223563 0.12264156
0.0061609 0.1795513 -0.012519836
0.0048859008 0.24140328 -0.15868044
0.0074209012 -0.25432265 0.13178349
0.001617901 0.12254131 0.1241765
0.0010239035 0.1487273 0.06231451
-0.00052309781 0.2169553 -0.098869801
-0.002868101 0.3203823 -0.34319162
-0.0079490989 0.27828932 -0.24167585
-0.0096471012 0.34695131 -0.4038229
-0.0047080964 -0.3879627 0.067880154
-0.0035161003 -0.18663871 0.18168116
-0.013987102 0.27844727 -0.23996687
-0.015826099 0.34709531 -0.40203476
-0.0095490962 -0.25081074 0.15121222
-0.022000097 0.34723932 -0.40024567
-0.0161191 -0.38533473 0.081098557
-0.022429101 -0.46842873 0.040109158
-0.024243101 0.029207289 0.3262825
-0.026418097 -0.24732876 0.17052221
-0.025906101 -0.18226767 0.20716953
-0.0359651 0.2179603 -0.089028835
-0.029713102 0.030072272 0.33239222
-0.030398101 0.058835268 0.28621435
-0.0405031 0.34766829 -0.39488173
-0.032019101 -0.24617469 0.17693233
-0.030989096 -0.12272871 0.24640322
-0.030469097 -0.060549736 0.28139448
-0.039340101 0.14997727 0.073272228
-0.041864097 0.2181263 -0.087385654
-0.035575099 -0.014494717 0.31294823
-0.042774096 0.24270928 -0.14533758
-0.044127099 0.2792263 -0.23142052
-0.035972096 0.059026301 0.28768539
-0.041046098 -0.013587713 0.31908512
-0.050146095 0.27938128 -0.22970963
-0.041542098 0.059216321 0.28915548
-0.042635098 0.087185323 0.22324038
-0.042043097 -0.1206907 0.25891733
-0.041465096 -0.058640718 0.29377556
-0.050849102 0.15032929 0.076406479
-0.054661095 0.24303031 -0.14199972
-0.056162097 0.27953529 -0.22799873
-0.048760101 -0.24273074 0.19608831
-0.051534101 0.033167303 0.35434341
-0.060600094 0.24319029 -0.14032984
-0.052675098 0.059595287 0.29209614
-0.063996099 0.32186127 -0.32561588
-0.0543181 -0.24158967 0.20244837
-0.0536521 -0.17687273 0.23873949
-0.053054102 -0.11866367 0.27138138
-0.056563102 -0.46010566 0.079909325
-0.062348105 0.15067929 0.079540253
-0.057044096 0.033360302 0.35578728
-0.068188094 0.2798413 -0.22457981
-0.071286105 0.34837532 -0.38593864
-0.058546096 -0.11765468 0.27759647
-0.057880096 -0.055796683 0.31225348
-0.062812097 -0.51420569 0.055420399
-0.068094097 0.15085429 0.081110477
-0.069556095 0.18179327 0.0082793236
-0.071311094 0.21894628 -0.079176903
-0.074196093 0.27999431 -0.22286749
-0.076188095 0.3221513 -0.32209778
-0.077433102 0.34851527 -0.38415051
-0.0660531 -0.29716671 0.1827445
-0.065403096 -0.2393167 0.21512842
-0.077192105 0.2191093 -0.077533722
-0.082278095 0.32229632 -0.32033968
-0.071607105 -0.29597366 0.18912649
-0.079577096 0.15120029 0.084248543
-0.083071105 0.2192713 -0.075888634
-0.073557101 0.033933282 0.36012316
-0.077149101 -0.29478467 0.19549751
-0.079772092 -0.50992668 0.075278282
-0.083920099 0.12524927 0.14725733
-0.085314102 0.15137327 0.085818291
-0.091051094 0.15154529 0.087389469
-0.098201104 0.2805993 -0.21602345
-0.085841097 -0.11265075 0.30848026
-0.095283099 0.12560028 0.15034342
-0.096783094 0.15171629 0.088959217
-0.098559104 0.18263131 0.016295433
-0.1006921 0.21975428 -0.070957661
-0.091567092 0.060902297 0.30241156
-0.093171097 0.088834286 0.23675919
-0.094751097 -0.36735666 0.17210817
-0.0912681 -0.11165869 0.31461954
-0.090431102 -0.050180733 0.34888411
-0.1009601 0.12577528 0.15188742
-0.1025141 0.1518873 0.090530396
-0.1065601 0.21991432 -0.069312572
-0.1002871 -0.36609876 0.17851019
-0.096686102 -0.11066866 0.32074738
-0.1014581 -0.44922674 0.13221931
-0.1101421 0.18296331 0.019504547
-0.10055111 -0.0037786961 0.3857851
-0.11393409 0.24460727 -0.12529373
-0.11617509 0.2810483 -0.21088886
-0.1038681 -0.23146069 0.2591095
-0.1082001 0.061454296 0.30684042
-0.1113271 -0.36359572 0.19127512
-0.11018509 -0.28771567 0.23345518
-0.11257509 -0.44654465 0.14516449
-0.1112401 -0.0020266771 0.39776134
-0.1274991 0.18345731 0.024321556
-0.13000709 0.22054929 -0.062732697
-0.11657009 -0.0011547208 0.40373135
-0.1174921 0.035435319 0.37171555
-0.1192761 0.061819315 0.30979538
-0.13697109 0.32357532 -0.30450869
-0.1211131 -0.28538573 0.24600744
-0.1191761 -0.16422868 0.3132391
-0.1236471 -0.44387865 0.15805435
-0.13684309 0.15290231 0.099965096
-0.14347011 0.2453773 -0.11693144
-0.12995309 -0.16216171 0.32548428
-0.1346761 -0.44122672 0.17089415
-0.15205309 0.28193331 -0.20061255
-0.13792911 0.090262294 0.24881315
-0.1551531 0.32399327 -0.29922962
-0.1364361 -0.22484767 0.29632616
-0.1462931 0.1271553 0.16425133
-0.1534121 0.22117627 -0.056144714
-0.16120711 0.32413131 -0.29746962
-0.14307109 0.0031713247 0.43341351
-0.1672591 0.32427031 -0.29570866
-0.15034711 0.03653729 0.38043451
-0.1699551 0.28236932 -0.19547272
-0.15467411 0.090787292 0.25334215
-0.15258211 -0.22158265 0.31477022
-0.1491721 -0.040121734 0.41494226
-0.17108709 0.15389627 0.10941648
-0.1658991 -0.35128474 0.25434017
-0.15972611 -0.038325727 0.42680454
-0.1685901 -0.48770976 0.17915916
-0.16751811 -0.43336165 0.20910645
-0.16412011 0.0065022707 0.45637417
-0.16900611 0.063431323 0.32312346
-0.16978511 -0.2750597 0.30188131
-0.1649881 -0.037430704 0.43271828
-0.18519011 0.1850673 0.040398121
-0.16952011 0.0066862702 0.45780134
-0.17452011 0.063607275 0.32460737
-0.1766901 -0.34886372 0.26680231
-0.1739721 -0.21727073 0.33919621
-0.1726661 -0.15400767 0.37399817
-0.17149109 -0.097095728 0.40530634
-0.1702401 -0.03653872 0.43862247
-0.19427308 0.22225428 -0.044606686
-0.20351309 0.32508832 -0.28514671
-0.18049011 -0.27280068 0.3141613
-0.17929509 -0.21619976 0.34527254
-0.17676011 -0.096145749 0.41126013
-0.1849421 -0.48365474 0.19826555
-0.20010108 0.22240531 -0.042957783
-0.18031409 0.0070523024 0.46065712
-0.18202111 -0.09519875 0.41720343
-0.19037411 -0.4823097 0.20461035
-0.1995551 0.15471131 0.11730528
-0.2024501 0.18554032 0.045230389
-0.18570709 0.0072333217 0.46208525
-0.1911571 -0.27055275 0.32639837
-0.19251209 -0.09331274 0.42905235
-0.20120409 -0.47963274 0.21726036
-0.1964871 0.007596314 0.46494532
-0.1994791 0.038150311 0.39355516
-0.2004891 -0.21194673 0.36946344
-0.2140061 0.12915832 0.18285418
-0.21660808 0.15519327 0.12204313
-0.20187509 0.00777632 0.46637726
-0.20576409 -0.21089172 0.37548256
-0.2196331 0.12932229 0.18440819
-0.22542909 0.18616432 0.051677227
-0.2072601 0.0079553127 0.46780729
-0.21037409 0.038502276 0.39647818
-0.21589708 0.092672288 0.26998854
-0.21907008 -0.54667866 0.19730139
-0.2126421 0.0081343055 0.46923923
-0.2375541 0.24775732 -0.090125561
-0.21855408 0.064997315 0.33650017
-0.2119211 -0.029489696 0.48544455
-0.22143608 -0.42054069 0.27179432
-0.22404808 0.065168321 0.33798933
-0.22986108 -0.54388976 0.20997429
-0.24662909 0.22360331 -0.029747486
-0.22954008 0.065339267 0.3394804
-0.23254508 0.093174279 0.27454042
-0.23345408 -0.47169065 0.25490713
-0.2483691 0.18677932 0.058130264
-0.25512308 0.24818927 -0.085090637
-0.2591151 0.28448528 -0.16973877
-0.23809209 0.093340278 0.27605915
-0.2273981 -0.026884735 0.50282335
-0.23415309 0.008844316 0.47497654
-0.24051809 0.065678298 0.34246016
-0.23720908 -0.20461667 0.41135311
-0.2355741 -0.14210975 0.44538736
-0.25631508 0.15629929 0.13311625
-0.26682308 0.24847531 -0.081731796
-0.24600309 0.065847278 0.34395313
-0.2491751 0.093671322 0.27909756
-0.24843508 0.039716303 0.40672827
-0.24761409 -0.20254874 0.42321825
-0.2566641 -0.53698575 0.24143648
-0.25026408 0.0093712807 0.47928524
-0.2602511 0.09400028 0.28213835
-0.2563701 -0.33112872 0.35874748
-0.24954709 -0.08311975 0.49343634
-0.27017808 0.13076729 0.19841146
-0.2843551 0.24890029 -0.076693535
-0.28870708 0.28516728 -0.1611495
-0.26534909 -0.4638797 0.29212141
-0.26471609 0.040227294 0.41113043
-0.2946181 0.28530228 -0.1594305
-0.2679241 0.066517293 0.34992552
-0.2726281 -0.53288972 0.26016712
-0.25810409 -0.021739721 0.5372901
-0.27063009 -0.46259069 0.29828024
-0.28138509 0.13108331 0.2015295
-0.2663551 0.0098922849 0.48359919
-0.27684608 0.094488323 0.28670216
-0.2665211 -0.13630474 0.48047829
-0.27590209 -0.46130466 0.30442715
-0.30186409 0.24932128 -0.071651459
-0.28237408 0.094650269 0.28822517
-0.2716471 -0.13534665 0.48628855
-0.27001008 -0.079487681 0.5165205
-0.29591009 0.15737927 0.14420938
-0.28097808 0.040733278 0.41553926
-0.27861109 -0.1964097 0.45855141
-0.2824291 0.010407269 0.48792028
-0.2876361 -0.3242377 0.39478731
-0.2837441 -0.19539666 0.46440125
-0.3112601 0.18842828 0.075912476
-0.28778309 0.010578275 0.48936224
-0.32413608 0.28597027 -0.15083456
-0.2989451 0.095132291 0.29279852
-0.28886908 -0.19438565 0.47023916
-0.3251771 0.24987531 -0.064924717
-0.30074009 0.067504287 0.35890245
-0.29570609 -0.24874973 0.44620037
-0.30211911 -0.45492971 0.33498812
-0.30262908 0.041400313 0.42142725
-0.30998009 0.095451295 0.29584932
-0.33682108 0.25014931 -0.061559677
-0.31620809 -0.56706965 0.28538656
-0.3261261 0.13232332 0.21402025
-0.30917808 0.011255324 0.49513531
-0.31344408 0.041730285 0.4243741
-0.31343609 -0.31858075 0.42450714
-0.3054781 -0.07322669 0.55651426
-0.3353931 0.15843427 0.15532732
-0.3449921 0.22604132 -0.0016036034
-0.3484531 0.25042129 -0.05819273
-0.3143571 -0.18937469 0.49927235
-0.32521009 -0.51947868 0.32181835
-0.32118809 -0.39714372 0.38758135
-0.31986308 0.011590302 0.49802732
-0.3594771 0.28675729 -0.14050865
-0.3236911 -0.31634068 0.43631744
-0.36007708 0.25069129 -0.054823875
-0.32634908 -0.24243772 0.48126841
-0.33561409 -0.5168407 0.33400726
-0.3205471 -0.070579648 0.57349825
-0.33326909 -0.44739568 0.37127638
-0.36588508 0.2508263 -0.053139687
-0.3712391 0.28701532 -0.13706589
-0.33893108 0.068630278 0.36940432
-0.32954308 -0.1863997 0.51656532
-0.32744208 -0.12497675 0.54950142
-0.3625111 0.1897313 0.090499401
-0.33246109 -0.12404871 0.55518436
-0.3774941 0.25109327 -0.049768448
-0.3415491 -0.23932076 0.49865627
-0.33962309 -0.18443072 0.52803946
-0.38329509 0.25122631 -0.048084736
-0.35789108 -0.55618465 0.33440018
-0.3538501 -0.4424417 0.3952384
-0.37955511 0.19015628 0.095369339
-0.36503509 0.097011268 0.3111372
-0.36306009 -0.55484068 0.34047556
-0.34730208 -0.016741693 0.57464314
-0.3504501 -0.065349698 0.60719013
-0.3640871 -0.43998468 0.40715122
-0.37173209 -0.50772274 0.37630033
-0.38741708 0.13397229 0.23125029
-0.4025391 0.2274093 0.015000343
-0.37234008 -0.38531268 0.44686127
-0.39297709 0.13411927 0.23282146
-0.36837208 -0.016079724 0.58034134
-0.3793751 -0.43632472 0.42493916
-0.38788509 0.070038319 0.38295031
-0.39248309 0.097770274 0.31880331
-0.3870751 -0.50386775 0.39425516
-0.39331409 0.070191324 0.3844595
-0.3816981 -0.23113167 0.54455709
-0.37959608 -0.17665768 0.57352209
-0.39387909 -0.54685473 0.37668133
-0.39217108 -0.50259066 0.40021849
-0.41924608 0.19113129 0.10674715
-0.38912711 0.01371032 0.51689053
-0.3841531 -0.015589714 0.58462238
-0.4151921 0.1347003 0.23910427
-0.40892708 0.098219275 0.32341242
-0.4040781 -0.54422176 0.38865948
-0.3849521 -0.059352756 0.64604139
-0.38941008 -0.015427709 0.58605051
-0.4252421 0.1607483 0.18083048
-0.4091661 -0.5429107 0.39463234
-0.38984808 -0.058505654 0.65155315
-0.41501209 0.070800304 0.39049816
-0.44188011 0.19167632 0.11326027
-0.44841611 0.22846931 0.028312206
-0.42535409 0.09866327 0.32802439
-0.40183508 -0.11132276 0.63368416
-0.41751808 -0.49625468 0.42986345
-0.45414007 0.22859931 0.029978275
-0.41042009 -0.014784694 0.59177113
-0.4176181 -0.37493765 0.49927616
-0.44762009 0.16130632 0.18722534
-0.41935509 -0.29565072 0.54636145
-0.4318701 0.045209289 0.45696926
-0.4700461 0.2531653 -0.022759438
-0.46447909 0.19221431 0.11977816
-0.42621109 -0.22212768 0.59540653
-0.4376381 -0.4912467 0.45338249
-0.4347471 -0.42315972 0.48931456
-0.43688911 0.015120268 0.53002024
-0.44258809 0.045512319 0.45995045
-0.43751711 -0.3704077 0.52229738
-0.4650591 0.13597828 0.25327253
-0.43525508 -0.16975665 0.61578655
-0.4545511 -0.53127372 0.44787931
-0.48704606 0.19274431 0.12630653
-0.45277607 0.015580297 0.53440952
-0.46306109 -0.60948372 0.41193247
-0.48670012 0.16226232 0.19843626
-0.45806807 0.015732288 0.53587341
-0.45597309 -0.29340672 0.56056738
-0.4543221 -0.22548771 0.58001947
-0.45306706 -0.17383873 0.59481144
-0.49831611 0.19300628 0.12957239
-0.47309411 -0.60678768 0.42377424
-0.46379012 -0.36875975 0.53229332
-0.49269307 0.13666928 0.26116514
-0.51127207 0.22987431 0.046657562
-0.46799511 -0.29645967 0.54633331
-0.47263008 -0.48291671 0.49281549
-0.47104311 -0.41904974 0.5111475
-0.48004609 0.046553314 0.47040033
-0.49088407 0.10039127 0.34652853
-0.47231412 -0.22980869 0.55878115
-0.4770211 -0.17934167 0.56660032
-0.4732731 -0.012911677 0.60900927
-0.48450011 0.01648432 0.54320621
-0.4815461 -0.12238073 0.57630539
-0.4787401 -0.013183713 0.60774946
-0.4893021 -0.42415071 0.48940754
-0.52645707 0.19365227 0.13774538
-0.53406411 0.2303713 0.053340435
-0.5072211 0.1008113 0.3511672
-0.4904381 -0.23417068 0.53738451
-0.5256831 0.16319329 0.20967436
-0.50141007 0.047136307 0.47638512
-0.4951421 -0.18351376 0.54525423
-0.50432408 -0.53311074 0.44436646
-0.50324106 -0.49187171 0.45626736
-0.5015521 -0.42757869 0.47482109
-0.50259811 -0.23710167 0.52302837
-0.49965709 -0.12633765 0.55502748
-0.51050508 -0.53497469 0.43697119
-0.49674708 -0.016716719 0.58669853
-0.51180512 -0.12899566 0.54075432
-0.55454808 0.19428527 0.1459322
-0.51616108 0.017367303 0.55203247
-0.5195151 -0.18913674 0.51654434
-0.51488811 -0.020282686 0.56548834
-0.55346811 0.16384327 0.21771526
-0.5601601 0.19441032 0.14757156
-0.52254212 -0.078423738 0.54185915
-0.53108311 -0.38692772 0.45233822
-0.55901909 0.1639713 0.21932411
-0.53340012 0.047993302 0.48538637
-0.52705711 -0.022678733 0.55126143
-0.53729308 -0.38861072 0.44495916
-0.5645681 0.16409928 0.22093534
-0.57955211 0.23134232 0.066728115
-0.54454911 0.074267268 0.42695522
-0.55070812 0.10190731 0.36356735
-0.54139608 -0.31518674 0.45940447
-0.53944111 -0.2460047 0.47952318
-0.53795409 -0.19340169 0.49482012
-0.54491609 -0.43974876 0.42317915
-0.53809512 0.016615272 0.54910517
-0.55613512 0.1020413 0.36512041
-0.54244411 -0.13571572 0.50475454
-0.54091811 -0.082257748 0.52031755
-0.55117309 -0.44150865 0.41572523
-0.57566106 0.16435432 0.22415924
-0.54707611 -0.083543658 0.51309824
-0.56698507 0.10230929 0.36822844
-0.5656361 -0.51021469 0.38174438
-0.5622921 -0.39539671 0.41524553
-0.5565151 0.013134301 0.52760649
-0.56603408 0.074815273 0.43306732
-0.5922851 0.16473132 0.22899723
-0.56532508 0.048831284 0.49441242
-0.57264107 -0.32320166 0.42239046
-0.56393009 -0.029956698 0.50814342
-0.57636607 -0.44860876 0.38571548
-0.5978241 0.16485631 0.23061132
-0.57013208 -0.03118372 0.50089216
-0.58121109 -0.40054369 0.39275837
-0.58754909 -0.40226972 0.38522339
-0.60274106 0.13930428 0.29287148
-0.59158111 -0.32807267 0.39994717
-0.58781707 -0.20497274 0.43606615
-0.59743911 -0.51960874 0.34374714
-0.62176406 0.1957553 0.16562843
-0.5922761 -0.14668965 0.44618845
-0.6051501 -0.56365573 0.32370853
-0.6038481 -0.52150571 0.33608913
-0.59060812 -0.092661738 0.4620595
-0.58882409 -0.034885705 0.47903013
-0.63294107 0.19599432 0.16891956
-0.60003811 0.0048822761 0.47680044
-0.61066806 -0.33299065 0.3773303
-0.60489511 -0.14947772 0.43135643
-0.60136807 -0.037374675 0.46435833
-0.63852608 0.19611228 0.17056417
-0.61706311 -0.33463967 0.36975241
-0.61427212 0.07601428 0.44686127
-0.62347412 -0.33629465 0.36215544
-0.61397308 -0.039878726 0.44961548
-0.6275391 -0.46308374 0.32474232
-0.64205807 0.16583729 0.24354124
-0.64969009 0.1963473 0.17385721
-0.61892807 0.0012903214 0.45474625
-0.6258871 -0.21384668 0.3911972
-0.62394106 -0.15369165 0.40896511
-0.6475811 0.16595829 0.2451601
-0.62385511 0.043047309 0.46006155
-0.64050007 -0.46676075 0.30929756
-0.63160306 -0.00112468 0.43994713
-0.6367231 -0.1565237 0.3939414
-0.64919108 -0.53495765 0.28190136
-0.65748608 0.1405443 0.30881119
-0.64434206 -0.0035536885 0.4250741
-0.64577311 -0.04620868 0.41241741
-0.65351909 0.10437328 0.39318037
-0.65989411 -0.27534473 0.33723021
-0.66841412 0.14078629 0.31200838
-0.65891409 0.10449731 0.3947444
-0.66882807 -0.34803069 0.30839729
-0.67387408 0.14090627 0.31360626
-0.66357607 -0.0072277188 0.40261412
-0.66707408 -0.10877168 0.37238026
-0.67979211 -0.47793674 0.26246548
-0.6700201 -0.0084596872 0.3950901
-0.66851312 0.034909308 0.40801811
-0.6672461 0.07136327 0.41888332
-0.67946106 -0.28014374 0.31410742
-0.67757809 -0.22594666 0.33026218
-0.67546511 -0.16513073 0.34838915
-0.67648107 -0.0096957088 0.38754511
-0.67495811 0.033731282 0.40050411
-0.68005008 -0.11151767 0.35715914
-0.69718909 0.16701931 0.25975418
-0.68142211 0.032550275 0.39297152
-0.70451111 -0.43431973 0.24613047
-0.7011531 0.14149928 0.32160854
-0.71652406 0.19771832 0.19365835
-0.69171709 0.10470331 0.40016413
-0.71301609 -0.48741865 0.22285652
-0.69820309 0.10361129 0.39262629
-0.71502411 -0.36003566 0.25363111
-0.70904112 -0.015938699 0.3495183
-0.72454911 -0.43984568 0.22229242
-0.7175011 0.14184928 0.32641649
-0.71560508 -0.017198682 0.34185314
-0.72370708 -0.23679566 0.27586937
-0.73018211 0.16770327 0.26950932
-0.71776712 0.10031527 0.36989737
-0.7418111 -0.36702073 0.22186947
-0.73041207 -0.063150764 0.3133831
-0.74475211 -0.4454267 0.19825554
-0.74581808 -0.29648173 0.23567343
-0.74373907 -0.24152076 0.25224543
-0.75152206 -0.44729972 0.19019938
-0.7392711 0.14230829 0.33283615
-0.74665409 0.16803932 0.27439547
-0.75531209 -0.37054765 0.20585632
-0.75255108 -0.2981447 0.22771311
-0.7504521 -0.24310565 0.24432755
-0.75831109 -0.4491787 0.18212223
-0.7447111 0.14242232 0.33444309
-0.76093608 0.19859332 0.20690155
-0.74409211 0.09587127 0.33930922
-0.75930411 -0.29981375 0.21972942
-0.7571851 -0.24469674 0.2363863
-0.75036007 -0.067163706 0.29003811
-0.76647907 0.19870031 0.20855951
-0.75535208 -0.0248487 0.29542637
-0.76607412 -0.30148768 0.21172619
-0.76393408 -0.24629271 0.2284255
-0.75936407 -0.12837172 0.26410437
-0.75704408 -0.068508744 0.28221512
-0.77069712 0.091368318 0.30839348
-0.77720511 -0.072573662 0.2586174
-0.7822051 -0.030031681 0.26405525
-0.78896207 -0.031338692 0.25616121
-0.7908361 0.087953269 0.28499031
-0.7955541 0.1363793 0.29226732
-0.79758507 0.086807311 0.27714539
-0.80433911 -0.078055739 0.22685528
-0.80934709 -0.035283685 0.23234653
-0.80750412 0.0093612671 0.24597836
-0.82393306 -0.38853574 0.12446451
-0.81859511 -0.25925171 0.16394711
-0.81117111 -0.079438686 0.21885824
-0.82290107 -0.19816375 0.17496729
-0.8195731 0.044465303 0.24158335
-0.83788311 -0.39220572 0.1079154
-0.82981211 -0.19972265 0.16683531
-0.82488507 -0.082215667 0.20280409
-0.83487409 0.0042933226 0.21406031
-0.85191309 -0.39590073 0.091270447
-0.8589561 -0.3977567 0.082912445
-0.84560007 -0.086416721 0.1785531
-0.8576501 -0.2060107 0.13407755
-0.8525421 -0.087825656 0.17042542
-0.85756111 -0.044642687 0.17600727
-0.85559708 0.00044929981 0.18989134
-0.8674131 -0.27087665 0.10634518
-0.88020307 -0.40336466 0.057700157
-0.86917007 -0.1518997 0.13522243
-0.89828211 -0.33437872 0.055368423
