# .PCD v0.7 - Point Cloud Data file format
VERSION 0.7
FIELDS x y z
SIZE 4 4 4
TYPE F F F
COUNT 1 1 1
WIDTH 1
HEIGHT 1024
VIEWPOINT 0 0 0 1 0 0 0
POINTS 1024
DATA ascii
0.99347508 0.0075800419 0.01902771
0.99692309 0.03787601 -0.047462463
1.0031332 0.077744007 -0.13430548
1.0057302 0.10598201 -0.19653511
0.99138111 0.077465057 -0.13820934
0.99979913 0.10584801 -0.19849253
0.98550212 0.077326 -0.14015627
0.99387211 0.10571104 -0.20047712
0.9977771 0.13913202 -0.27378845
0.95051211 -0.022124946 0.069031715
0.98363012 -0.14793301 -0.1711812
0.98200911 0.10543704 -0.20442343
0.96207708 0.037014008 -0.058917522
0.9760741 0.10529906 -0.20639515
0.97013509 0.10516101 -0.2083683
0.98530108 0.17884403 -0.36747313
0.92586809 -0.065014958 0.075012684
0.92306411 -0.017777979 0.095890522
0.99290007 0.20541102 -0.42404032
0.95825511 0.104882 -0.21231318
0.95328009 -0.14789093 -0.17503119
0.94429111 0.076334 -0.15376711
0.98065913 0.20515805 -0.42816019
0.92704213 0.036246002 -0.069487095
0.90679008 -0.070002913 0.0389328
0.90090209 -0.11375093 0.038246632
0.92851412 0.104177 -0.22215509
0.94883913 0.17805505 -0.37972307
0.93666613 0.17778802 -0.38380527
0.88908309 -0.076906919 -0.0097732544
0.86485708 0.064022005 0.13438463
0.93161207 0.20412302 -0.44469452
0.87838012 -0.0023029447 -0.0686903
0.87038612 -0.23568594 -0.004509449
0.87221611 -0.18227398 -0.019198418
0.9116261 0.17783004 -0.38655329
0.8711341 -0.083917022 -0.059138298
0.87261009 -0.040600955 -0.071073532
0.87385911 -0.0039349794 -0.081176281
0.86932409 -0.0055719614 -0.093700409
0.86516511 -0.12826896 -0.059830189
0.86206812 -0.087463021 -0.084075451
0.82654113 0.11695004 0.15932178
0.85897112 -0.045714974 -0.10866833
0.82064712 0.11707604 0.15963364
0.81842113 0.14753604 0.12918186
0.8369801 -0.18275893 -0.026453495
0.8596701 0.22285903 -0.26900721
0.83914113 0.034267008 -0.095565319
0.82716912 -0.23304498 0.0055885315
0.82548511 -0.174945 0.019818783
0.83055812 0.087944031 -0.074242115
0.81502211 0.17921305 0.058013916
0.82025909 -0.072199941 0.013428688
0.82479513 0.21179205 -0.076769352
0.8089481 -0.065192938 0.059148788
0.81511211 -0.23268199 0.006280899
0.80035812 -0.061633945 0.082048893
0.80033213 -0.017531991 0.082274914
0.82761008 0.234981 -0.15348434
0.7935921 0.059252024 0.089444637
0.80306113 -0.23232198 0.0069727898
0.78844911 -0.061331987 0.082708836
0.82600212 0.27173001 -0.24688816
0.7825911 0.065285027 0.13412857
0.79079407 -0.10795999 0.062128544
0.77638412 0.14906001 0.13711786
0.76969308 0.19543302 0.19630051
0.77615011 0.066046 0.13919067
0.80496311 0.27927905 -0.16995716
0.82684213 0.31334603 -0.36501312
0.7883001 -0.29842901 -0.021404266
0.76828808 -0.013853967 0.1044507
0.77649111 0.25430202 0.030743599
0.79461509 0.28299004 -0.13212013
0.81608009 0.31696802 -0.32500648
0.77898312 -0.23161697 0.0083475113
0.75215513 0.19575804 0.19721365
0.75484508 0.23913002 0.17284966
0.76465207 -0.060737967 0.084022522
0.75870711 -0.060591936 0.084349632
0.7742641 0.29028904 -0.057701111
0.75452912 0.025869012 0.12250376
0.75256211 0.06655705 0.14045763
0.76695609 -0.23126996 0.0090327263
0.76405412 -0.17121696 0.035531521
0.76425511 0.29387903 -0.021098137
0.76413709 -0.29769301 -0.020013332
0.73698312 0.23970401 0.17630959
0.76092809 -0.35701394 -0.045915127
0.7348901 0.066933036 0.14140463
0.77652311 0.35586303 -0.24817038
0.75206608 -0.29733193 -0.019319057
0.7229591 0.19628805 0.19873857
0.76622611 0.359182 -0.2094903
0.74292111 -0.23058891 0.010394573
0.73712212 -0.10657895 0.06510973
0.72070813 0.11913306 0.16495657
0.72900909 -0.059873939 0.085978508
0.73383212 0.30001605 0.0400877
0.73413509 -0.17041492 0.037208557
0.73116809 -0.10642993 0.065439701
0.72809207 0.29989004 0.038163662
0.7191031 0.026650012 0.12441492
0.7073471 0.15521801 0.18139553
0.72234809 0.29976302 0.036239624
0.71135008 0.067423046 0.14266253
0.73747009 0.36773002 -0.11009836
0.75291508 0.39993 -0.25955534
0.72794712 -0.29662192 -0.017940521
0.72491312 -0.230088 0.011411667
0.69963211 0.19670105 0.19995356
0.70547009 0.067544043 0.14297676
0.72583711 0.34148502 -0.055814266
0.69380409 0.19680202 0.20025587
0.7129181 -0.22975993 0.012087822
0.7073651 -0.10584295 0.066750526
0.68981612 0.155541 0.18231249
0.6879791 0.19690305 0.20055866
0.72801608 0.40495104 -0.19705153
0.70692313 -0.22959697 0.012423515
0.70426011 -0.16963601 0.038872719
0.73035109 0.44331104 -0.28202534
0.69547409 -0.10555494 0.06740284
0.68585211 0.26282001 0.10491753
0.68196309 0.068020046 0.1442256
0.69783711 -0.29575896 -0.016228199
0.69232011 -0.16933095 0.039535522
0.6705091 0.19720203 0.2014637
0.67498213 0.23820704 0.15584087
0.67955011 -0.011842966 0.10926151
0.67609107 0.06813705 0.14453793
0.6863541 -0.16918099 0.039865494
0.66468912 0.19730103 0.20176554
0.67565811 -0.05863595 0.088883877
0.67364711 -0.011714995 0.10957861
0.6820811 0.29886502 0.022780895
0.67022008 0.06825304 0.14484692
0.70423311 0.40450501 -0.20518923
0.68038911 -0.16902995 0.040195942
0.67765111 -0.10512996 0.068377495
0.66214812 0.12024701 0.16803789
0.66062713 0.15606403 0.18383455
0.65887111 0.19739801 0.20206547
0.65479308 0.15616703 0.18413782
0.6618461 -0.011462986 0.11021185
0.66307008 0.26227701 0.097379684
0.6705541 0.29860502 0.018934727
0.66019011 0.027889013 0.12756681
0.68457711 0.36667001 -0.12804651
0.7067951 0.47450903 -0.36091614
0.67377913 -0.29508793 -0.014869213
0.65261608 0.068597019 0.1457777
0.68636912 0.40416503 -0.21129322
0.70071208 0.47440803 -0.3630271
0.64313108 0.15637106 0.18474293
0.64675212 0.068710029 0.14608669
0.66750109 0.34025705 -0.075481415
0.68041009 0.40405101 -0.21332836
0.63561308 0.19778305 0.20326567
0.66165411 0.340132 -0.077447414
0.66690308 0.36630905 -0.13403034
0.6581831 -0.353948 -0.040027142
0.6479761 -0.10443997 0.069994926
0.63826311 -0.010966957 0.11147261
0.6350261 0.068935037 0.14670467
0.64974809 -0.29443395 -0.013519287
0.64705712 -0.22802591 0.01576376
0.6446321 -0.16815102 0.042163849
0.63425308 -0.057719946 0.091118813
0.63079411 0.028480053 0.1291256
0.6625151 0.40370703 -0.21943331
0.6181851 0.19806504 0.2041626
0.62648213 -0.010724962 0.1121006
0.64409709 0.33975405 -0.083347321
0.63272613 -0.16786492 0.042815685
0.6154111 0.12108904 0.17047691
0.61745113 0.069266021 0.14762878
0.63407713 -0.35327399 -0.038666248
0.6267761 -0.16772401 0.043142796
0.62082708 -0.16758394 0.043466568
0.61834109 -0.10377192 0.071599483
0.6007691 0.19834203 0.20505571
0.6073041 0.028938055 0.13036776
0.62651712 0.33937204 -0.089245319
0.63148212 0.36557603 -0.14599514
0.61601412 -0.35277998 -0.037647247
0.61121613 -0.22713196 0.017742634
0.5940361 0.069697022 0.14885473
0.61478609 0.33911502 -0.093178272
0.58491212 0.15734905 0.18774986
0.58998513 0.23606902 0.12796879
0.59292412 -0.056846976 0.093331814
0.60119313 0.297001 -0.0041251183
0.60398012 -0.35245693 -0.036973476
0.59704512 -0.16703093 0.044761658
0.58702409 -0.056725025 0.093645573
0.5953961 0.29686403 -0.0060462952
0.61468208 0.40277201 -0.23571825
0.5830341 0.26031804 0.071014881
0.6086911 0.40265304 -0.23775434
0.58379608 0.29659003 -0.0098881721
0.58139008 -0.22641492 0.019376755
0.56294608 0.12198305 0.17319155
0.56722808 0.23548001 0.12054491
0.56625408 0.029710054 0.13252258
0.57993108 -0.35182297 -0.035632133
0.57100213 -0.10274899 0.074143887
0.55585712 0.15781301 0.18923855
0.56178808 -0.0094469786 0.11552477
0.59745109 0.44091702 -0.32772923
0.5739221 -0.35166693 -0.035297394
0.56947112 -0.22613502 0.020027637
0.54940408 0.19798601 0.19762468
0.55591309 -0.0093349814 0.11583376
0.57817811 0.36444706 -0.16394949
0.56141609 -0.16623199 0.04668951
0.5437721 0.19783002 0.19580984
0.55013412 0.23503304 0.11497784
0.5543341 0.25959605 0.061606884
0.54727608 0.070524037 0.15128565
0.55755609 -0.22585893 0.020675659
0.5444321 0.23488301 0.11312389
0.5325011 0.19751805 0.19217777
0.5428381 0.25930303 0.057843685
0.56668007 0.401811 -0.25201035
0.54789412 -0.29184592 -0.0078744888
0.53301811 0.23458105 0.10941267
0.53769213 -0.16571796 0.047965527
0.55465108 0.40156603 -0.25608444
0.56097609 0.44023204 -0.34020948
0.5359391 -0.29156196 -0.0072212219
0.5317651 -0.16559196 0.048282623
0.52159613 0.23427802 0.10570478
0.51635611 -0.055334926 0.09738493
0.51981515 0.29504502 -0.031012058
0.51990914 -0.350317 -0.032314301
0.51195711 -0.10155094 0.077282906
0.5044421 0.23381805 0.10014057
0.50828314 0.25841403 0.046559811
0.5139811 0.29490203 -0.032933235
0.49726114 -0.0082659721 0.11889887
0.49477613 0.07139802 0.15399361
0.49674612 0.25811303 0.042797565
0.48894912 0.071491003 0.15429163
0.51850009 0.40082306 -0.26830912
0.5019291 -0.34988701 -0.031330109
0.48155212 0.123263 0.17735577
0.49647012 0.294469 -0.038693428
0.48435414 0.031142056 0.13677549
0.50281215 0.33658504 -0.13053608
0.5067721 0.36288702 -0.18789148
0.51246613 0.40069801 -0.27034712
0.49593914 -0.34974599 -0.031002522
0.47467715 0.15902501 0.19336271
0.48153815 0.233199 0.092726707
0.47730014 0.071676016 0.15488958
0.49689212 0.33644801 -0.13250208
0.48817414 -0.29046702 -0.0046262741
0.46994412 0.12343502 0.17794371
0.47580314 0.23304302 0.090873718
0.49483213 0.36262101 -0.19188309
0.50038713 0.40044606 -0.27442551
0.48220915 -0.29033494 -0.004304409
0.46414214 0.12352002 0.17823792
0.46798313 -0.0077619553 0.12041569
0.48504314 0.33617103 -0.13643646
0.47624612 -0.29020393 -0.0039834976
0.47256514 -0.16438198 0.051434517
0.47911513 0.33603203 -0.13840342
0.46206912 0.2572 0.03151989
0.46600714 -0.34905696 -0.029375076
0.46432313 -0.28994501 -0.0033421516
0.46244013 -0.22379601 0.025790691
0.45174313 -0.054166913 0.10075569
0.46725014 0.33575302 -0.14233637
0.45836315 -0.28981698 -0.0030221939
0.45482913 -0.16403699 0.052370548
0.44197014 0.19494301 0.16315889
0.46131313 0.335612 -0.14430332
0.43417814 0.15958405 0.19540071
0.43629014 0.19477803 0.16134691
0.43873614 -0.0072769523 0.12192488
0.43766612 0.031893015 0.13917255
0.45537412 0.33547205 -0.14626932
0.46934414 0.43845904 -0.37144518
0.44127613 -0.10022998 0.080992699
0.42839712 0.15966105 0.19569254
0.43183613 0.031983018 0.13946962
0.43074813 0.072386026 0.15726089
0.42704612 -0.0070889592 0.12252378
0.43309912 0.25642502 0.022123814
0.41683814 0.15981305 0.19627094
0.41923612 0.194278 0.15591383
0.43012914 -0.34826696 -0.027440071
0.42363313 -0.099919915 0.081907749
0.41833213 0.231453 0.072349548
0.40528512 0.15996301 0.19684887
0.40951914 -0.0068129897 0.12341976
0.40852514 0.03233701 0.14065647
0.41818112 -0.34801197 -0.026799202
0.41349113 -0.16326499 0.054538727
0.41442814 0.29239303 -0.065568447
0.42767712 0.39890003 -0.29889917
0.39461213 0.12448603 0.18173981
0.40103814 0.23096704 0.066795826
0.39526913 0.23080301 0.06494379
0.39200214 -0.0065429807 0.12431383
0.38523212 0.032679021 0.1418376
0.39131412 -0.22241402 0.029545784
0.38837913 -0.099322915 0.083730698
0.37725613 0.12471205 0.1826067
0.38660812 0.25515902 0.0070939064
0.39582714 0.33403802 -0.16594028
0.38694414 -0.28836501 0.00077676773
0.37364513 0.19292301 0.14143181
0.37794513 0.23031002 0.059391499
0.37359312 0.03284502 0.14242554
0.36568913 0.12486005 0.18318272
0.37910113 0.29147506 -0.077085495
0.39116314 0.39810401 -0.31114912
0.37355813 -0.22209096 0.030472755
0.36222014 0.19257802 0.13781071
0.38084415 0.36000502 -0.2298255
0.37043014 -0.34703696 -0.024258137
0.36631513 -0.16243994 0.056988716
0.36317414 -0.28791392 0.0020265579
0.34758213 0.16067404 0.19971848
0.35316613 -0.098757029 0.085538864
0.34901413 0.229478 0.050138474
0.34365812 0.073592007 0.16164494
0.35254213 -0.34668994 -0.023314476
0.34322014 0.22931004 0.048289776
0.34578314 0.25402504 -0.0060534477
0.34658214 -0.34657693 -0.02300024
0.33368313 -0.0056969523 0.12726688
0.35067314 0.35929 -0.23981619
0.33807814 -0.22147202 0.032315731
0.32524014 0.12535405 0.18519068
0.33622015 -0.42416394 -0.056611061
0.31909212 0.160133 0.19386673
0.32294515 -0.052135944 0.10734749
0.32126614 0.033557057 0.14505386
0.32870913 -0.34624195 -0.022062302
0.32239413 0.25336605 -0.013562202
0.30888912 0.074029028 0.16337585
0.32398912 0.33225703 -0.18955326
0.31798413 0.33210605 -0.19152117
0.30744213 -0.16149199 0.06001091
0.29637712 0.12568802 0.18661356
0.30156013 -0.16140199 0.060311794
0.29060614 0.12575203 0.18689871
0.29068214 0.159217 0.18500185
0.29672915 -0.22079396 0.034442902
0.28483713 0.12581605 0.18718147
0.28790513 -0.051651955 0.10911179
0.28710014 -0.0050769448 0.12960052
0.29309314 0.25253105 -0.022950172
0.29627612 0.28926301 -0.10395718
0.29994914 0.33164901 -0.19742823
0.29432914 -0.42336595 -0.054409504
0.29196712 -0.28666198 0.0057277679
0.27907014 0.12587905 0.18746471
0.28194913 0.190108 0.11250067
0.28722513 0.25236201 -0.024828434
0.28135413 0.25219303 -0.026705265
0.28439814 0.28894001 -0.10779619
0.28791115 0.33134204 -0.20136547
0.26790813 0.15847403 0.17791557
0.26964813 -0.0048579574 0.13046885
0.27513912 -0.34529901 -0.019277096
0.27041411 -0.42293596 -0.053163528
0.26181012 0.22690302 0.022397518
0.26443812 -0.42283201 -0.052853107
0.26041314 -0.16079998 0.062396526
0.25943911 -0.097401977 0.090280533
0.25024313 0.126185 0.18887472
0.25315112 0.18919903 0.10346985
0.25597411 0.22672701 0.020549774
0.25783813 0.25151104 -0.034213066
0.25359014 -0.097324967 0.090573788
0.25013512 0.22655106 0.0187006
0.24638914 -0.0045759678 0.13162279
0.25195312 0.25133902 -0.036091328
0.24869013 0.287956 -0.11931419
0.24651313 -0.42252493 -0.051925182
0.24363613 -0.219993 0.037143707
0.24279213 -0.16055596 0.06328392
0.23366813 0.074887037 0.16708183
0.24054113 -0.42242396 -0.051614285
0.23774213 -0.219908 0.037442684
0.23604514 -0.097097993 0.091448784
0.22719713 0.12641805 0.18999767
0.22794414 0.15715206 0.16552067
0.22957914 -0.05091095 0.11201859
0.22788814 0.074948013 0.16736364
0.23352513 -0.34462702 -0.017142296
0.22143713 0.12647504 0.19027662
0.23358713 0.32993603 -0.21909237
0.22758414 -0.34453499 -0.01683712
0.21567914 0.126531 0.19055653
0.23166314 0.39447904 -0.36431408
0.21850914 -0.096879005 0.092320919
0.21209714 -0.050704956 0.11288166
0.21055213 0.075127006 0.1682086
0.22548413 0.394333 -0.36636209
0.20917813 0.22530103 0.0057625771
0.20525414 0.034919024 0.15078688
0.20477514 0.075185001 0.16848993
0.21701513 0.35601002 -0.28382635
0.19991213 -0.0040509701 0.13390875
0.20475714 0.24994701 -0.051107407
0.20936213 0.32929903 -0.22697449
0.20382813 -0.34417892 -0.015629292
0.20239213 -0.21942401 0.039219856
0.19265214 0.12674803 0.1916728
0.19884513 0.24977005 -0.052983284
0.18689613 0.1268 0.19194984
0.19158113 0.22475803 0.00021886826
0.19492513 0.286448 -0.13659525
0.18744813 0.075355053 0.1693306
0.20074113 0.39374804 -0.3745594
0.19278814 -0.42166603 -0.049169064
0.18210514 0.15560704 0.15136766
0.18508713 0.328655 -0.23485851
0.18642513 0.35523301 -0.29384136
0.17395914 0.22420901 -0.0053243637
0.17133613 -0.050251961 0.11488485
0.16388513 0.12700403 0.19306087
0.17095113 0.28576404 -0.14427519
0.16435814 0.075572014 0.17044878
0.16652413 -0.15959299 0.067080498
0.16684613 0.32816702 -0.24077225
0.16176613 -0.28475392 0.012327671
0.15238214 0.12710202 0.19361258
0.15630813 0.223656 -0.010866165
0.15348513 -0.0035749674 0.13617373
0.15530114 -0.21883202 0.041563511
0.15293613 0.28524703 -0.15003729
0.14994913 -0.28460598 0.012916565
0.14088313 0.12719703 0.1941638
0.14306512 0.18562204 0.069180489
0.14508913 -0.42098093 -0.046758175
0.14404213 -0.28453302 0.01320982
0.14090914 0.28489906 -0.15388012
0.14248113 0.32750905 -0.24866152
0.13856313 -0.34328997 -0.012351513
0.13273212 0.22291005 -0.018257141
0.13028812 -0.0033559799 0.13729572
0.13489214 0.28472406 -0.15580225
0.13177413 -0.21855998 0.042724609
0.12765212 0.247612 -0.07550621
0.12887213 0.28454906 -0.15772247
0.12721212 -0.42074394 -0.045862198
0.12670612 -0.34314191 -0.011762142
0.12284812 0.28437304 -0.15964317
0.11222813 0.12664902 0.18933868
0.11529913 -0.420591 -0.045269489
0.10722413 0.15301704 0.1283927
0.10978413 0.24706101 -0.081136227
0.10667612 0.07606405 0.17321777
0.10825712 -0.21830297 0.043877602
0.10793813 -0.15895796 0.069952488
0.10130712 -0.003099978 0.13868952
0.10270713 -0.28405297 0.015248775
0.10208412 -0.15890002 0.070237637
0.095661126 0.15261 0.12486076
0.097857125 0.24669105 -0.084891319
0.095334128 0.035936058 0.15609694
0.095148124 0.076154053 0.17376757
0.089875124 0.15240604 0.12309456
0.089555122 0.035982013 0.1563735
0.094166122 0.35283405 -0.32391834
0.083568126 0.125606 0.18066263
0.084698126 0.183658 0.051151752
0.085433125 0.221394 -0.033035278
0.083927125 -0.0029549599 0.13952351
0.080590129 0.28312904 -0.17309427
0.081806131 0.35250604 -0.32793331
0.079572126 -0.42016101 -0.043500423
0.072222129 0.03611505 0.15719891
0.066675127 -0.049273968 0.11994553
0.067461126 -0.34246802 -0.0088434219
0.067127131 -0.21789098 0.045879841
0.061707124 0.220622 -0.040423393
0.060866125 -0.049227953 0.12022352
0.062432125 0.28258801 -0.17885923
0.061118126 -0.158517 0.072218895
0.055092126 0.15116704 0.11250448
0.055057127 -0.049181998 0.12050152
0.055380128 -0.21778202 0.0464468
0.049057126 0.076486051 0.17595291
0.049609125 -0.28350902 0.017837524
0.049320128 -0.095162988 0.10056162
0.04331813 0.12411904 0.16852665
0.043880127 0.22003806 -0.045964241
0.044026129 0.24499804 -0.10178328
0.043344125 0.036323011 0.15856886
0.043869127 -0.41977203 -0.041748524
0.043780126 -0.34222901 -0.0076913834
0.043712128 -0.28345299 0.018123627
0.037931129 0.21984202 -0.047811508
0.037601128 -0.0026039481 0.14172983
0.038029127 0.244807 -0.10366011
0.038445126 0.35134405 -0.34199047
0.031920128 -0.28334594 0.018692493
0.026023127 -0.048965991 0.12188053
0.026023127 -0.0025239587 0.14227486
0.026023127 0.24442405 -0.10741615
0.026023127 -0.28329396 0.018975735
0.020267127 0.076670051 0.17730761
0.020129127 -0.28324199 0.01925993
0.020201128 -0.09494102 0.10194874
0.014414127 -0.048884988 0.12242889
0.013590127 0.35066903 -0.35002947
0.014235128 -0.28319192 0.019542694
0.0086641274 -0.0024099946 0.14309359
0.0027131271 0.14926904 0.096627712
0.0028051268 -0.048806965 0.12297773
0.001140127 0.35032904 -0.35405111
0.0022371281 -0.41936994 -0.039728165
0.0023561269 -0.34185195 -0.0056934357
-0.002833873 0.036617041 0.16074085
-0.0048268735 0.32339704 -0.29605722
-0.0037078727 -0.41931701 -0.039442062
-0.0032068733 -0.158005 0.075289726
-0.0091878716 -0.21725094 0.049536705
-0.016094873 0.24306601 -0.12055826
-0.020226872 0.12172401 0.14947271
-0.022124873 0.24287003 -0.12243748
-0.021539873 -0.41916597 -0.038587093
-0.026023874 0.12150204 0.14774179
-0.026206871 -0.048626959 0.12434053
-0.028814873 0.27981305 -0.20770836
-0.025912872 0.036747038 0.16182089
-0.027217874 -0.34161496 -0.004278183
-0.027014872 -0.28286898 0.021509647
-0.034924872 0.27962404 -0.20963144
-0.036290869 0.34929705 -0.36612129
-0.032426871 -0.15780795 0.076669693
-0.038879871 0.17934704 0.013321877
-0.037808873 -0.048560977 0.1248827
-0.037612878 -0.0021399856 0.14525986
-0.037448876 0.036807001 0.16235781
-0.038795874 -0.28278697 0.022067547
-0.044798873 0.17913604 0.011519909
-0.048164874 0.32214403 -0.30990219
-0.043820873 -0.09452498 0.10496569
-0.052328877 0.24188101 -0.13182735
-0.054371871 0.32196301 -0.31188345
-0.051254876 -0.41893601 -0.03717041
-0.063694872 0.21642601 -0.079211235
-0.066792876 0.32160002 -0.3158412
-0.063136876 -0.41885197 -0.036608219
-0.067516871 0.14666402 0.075475693
-0.070489876 0.24128103 -0.13746214
-0.068602875 -0.34132898 -0.002322197
-0.067476876 -0.15760303 0.07831049
-0.073389873 0.14644301 0.073715687
-0.077817872 0.03699404 0.16422558
-0.086402878 0.347893 -0.3822341
-0.085146874 0.14599901 0.070190907
-0.086328872 0.17763805 -0.0010843277
-0.088683873 0.24067605 -0.14309835
-0.086898871 -0.41869795 -0.035489082
-0.089347877 0.037041008 0.16475677
-0.090353876 -0.094288945 0.10712767
-0.095809877 0.11879802 0.12698269
-0.099791877 0.21518201 -0.090294361
-0.098777875 -0.41862798 -0.03493309
-0.097681873 -0.28243291 0.024828911
-0.10164788 0.118568 0.12525463
-0.10582187 0.21497202 -0.092143059
-0.10120688 -0.0018499494 0.1482029
-0.10852087 0.27731305 -0.2327342
-0.10869887 0.145105 0.063144684
-0.10997387 -0.34109497 -0.00038814545
-0.11332888 0.11810803 0.12179756
-0.11459387 0.14487904 0.061382771
-0.12083588 0.27692103 -0.23658609
-0.11240687 0.037126005 0.16581392
-0.11473887 -0.21663392 0.054479599
-0.11917388 0.11787605 0.1200676
-0.12049287 0.14465404 0.059623718
-0.12205387 0.17633104 -0.011884212
-0.12122888 -0.28232002 0.025920868
-0.12353387 0.077325046 0.18395948
-0.12711386 -0.28229499 0.026191711
-0.12524086 -0.094146967 0.10873365
-0.13300087 -0.28226995 0.026463509
-0.13170886 -0.15731096 0.081282616
-0.13673186 0.11717904 0.1148839
-0.14788787 0.319188 -0.34159946
-0.13888587 -0.28224599 0.026734829
-0.13754687 -0.15728998 0.081549644
-0.14259087 0.11694503 0.1131568
-0.14412387 0.14374405 0.05257988
-0.14217186 -0.048112988 0.12969875
-0.14652586 0.077389002 0.18500662
-0.15790087 0.17500305 -0.022685528
-0.15376386 -0.048078954 0.13022661
-0.15898986 -0.0016669631 0.15084076
-0.16987687 0.17455602 -0.026284218
-0.16476686 -0.001652956 0.15110159
-0.17842887 0.21241504 -0.11431408
-0.18011987 0.23757505 -0.17128944
-0.18262987 0.27492505 -0.25586128
-0.17495887 -0.34083295 0.0026016235
-0.17333987 -0.21642494 0.057163715
-0.17579886 0.037298024 0.1686945
-0.18303387 -0.502666 -0.068109512
-0.18786687 0.17388004 -0.031684399
-0.18273787 -0.048008978 0.13154173
-0.18156187 0.037309051 0.16895485
-0.18424186 -0.15715492 0.083675861
-0.18853186 -0.047996998 0.13180065
-0.19850387 0.23694003 -0.17693043
-0.18732387 0.037320018 0.16921473
-0.18918286 -0.093966961 0.11164379
-0.19365087 -0.0015939474 0.15240669
-0.21069686 0.31727403 -0.36144638
-0.19499487 -0.093955994 0.11190462
-0.20093887 -0.50261402 -0.067293167
-0.20449087 -0.34075701 0.0039415359
-0.20263387 -0.21635699 0.058490753
-0.20080587 -0.09394598 0.11216688
-0.20591487 -0.04796797 0.13258362
-0.21158387 -0.41819096 -0.029749393
-0.21287587 -0.50258493 -0.066753387
-0.21098086 -0.0015679598 0.15318489
-0.22610587 0.27349603 -0.26936626
-0.21750286 -0.047951996 0.13310289
-0.21613087 0.037361026 0.17050791
-0.21590586 0.075997055 0.17664766
-0.22345386 -0.41816795 -0.029213428
-0.22220887 -0.34072399 0.0047416687
-0.22725385 0.14048302 0.027939796
-0.23321888 0.21044201 -0.1309495
-0.22173387 0.075747013 0.17496872
-0.22405288 -0.093912959 0.11321068
-0.22756585 0.075496018 0.17329073
-0.24768788 0.23522103 -0.19197845
-0.25103188 0.27266705 -0.27708817
-0.23676386 -0.15707099 0.086037636
-0.24515486 0.13976902 0.022660732
-0.24067786 -0.047929943 0.13413763
-0.24148688 -0.093896985 0.11398792
-0.24868187 -0.50252903 -0.065142155
-0.25409988 0.17135602 -0.051482201
-0.25766388 0.20955002 -0.13834524
-0.24647087 -0.047926962 0.13439751
-0.25173786 -0.34069192 0.006061554
-0.25454086 0.11238402 0.080353737
-0.25141287 -0.0015349984 0.15498781
-0.25426987 -0.15706003 0.086815834
-0.25310886 -0.093891025 0.11450577
-0.26061586 -0.50251997 -0.064612389
-0.26046786 0.11213702 0.078627586
-0.27236786 0.234348 -0.19950533
-0.26639688 0.11189002 0.07690382
-0.26385286 -0.047921956 0.1351676
-0.26296487 -0.0015319586 0.15550089
-0.28227386 0.27161902 -0.28674746
-0.26222086 0.037388027 0.17255878
-0.27093688 -0.41812599 -0.02709341
-0.27687186 -0.41812491 -0.026829243
-0.27177685 -0.15705693 0.087592602
-0.27826488 0.11139405 0.073453903
-0.29479685 0.27119601 -0.29061031
-0.28280687 -0.41812694 -0.026568413
-0.27879086 -0.21629298 0.061888695
-0.27761188 -0.15705693 0.087850571
-0.29710686 0.23346603 -0.20703745
-0.28598088 -0.28198695 0.03335762
-0.28464785 -0.21629393 0.062147617
-0.29467887 -0.41813195 -0.026044369
-0.29282185 -0.047928989 0.13644791
-0.29184487 -0.0015389919 0.15677547
-0.29636586 -0.21630096 0.062663555
-0.31288087 0.20750904 -0.1549902
-0.31570286 0.23279804 -0.21268511
-0.30095387 -0.15706897 0.088878632
-0.31468588 0.168998 -0.069480419
-0.30368587 0.072172046 0.15148067
-0.30808187 -0.21631098 0.063176632
-0.30830985 0.037369013 0.17458963
-0.31394085 -0.21631801 0.063433647
-0.31122386 -0.093910933 0.11706877
-0.32029486 -0.50254893 -0.061983109
-0.31991887 0.10963702 0.061382771
-0.33433285 0.23212504 -0.21833706
-0.31703585 -0.093917012 0.11732388
-0.32133386 0.071390033 0.1464529
-0.32758588 -0.04796499 0.13797092
-0.32559386 0.037349045 0.17534685
-0.32865888 -0.093932986 0.11783075
-0.35299587 0.23144603 -0.22398949
-0.34032586 -0.34075296 0.009955883
-0.33917588 -0.047982991 0.13847494
-0.34028387 -0.093951941 0.11833668
-0.35731485 0.16731 -0.082082272
-0.37027088 0.26861 -0.31382036
-0.34491286 0.070337057 0.13975191
-0.36341888 0.16706705 -0.083881378
-0.34960988 -0.0016109943 0.15930176
-0.35804686 -0.34079397 0.010721684
-0.35495287 -0.21639001 0.065216541
-0.36590987 -0.41825998 -0.022948265
-0.36804187 -0.50265896 -0.059918404
-0.37135386 0.13460803 -0.014275074
-0.37563887 0.16657805 -0.087482452
-0.36263186 0.069540024 0.13472557
-0.36986086 -0.34082699 0.011231899
-0.38175586 0.16633201 -0.089283466
-0.36814988 -0.048042953 0.13973093
-0.37778488 -0.41829693 -0.022440434
-0.37253186 -0.21643603 0.065975666
-0.38345686 0.13410205 -0.017792225
-0.38787585 0.16608602 -0.091082096
-0.37272087 -0.001660943 0.16030073
-0.37169287 0.037265003 0.17734957
-0.38595086 -0.50272095 -0.05915451
-0.38572288 0.10681301 0.042423725
-0.39557385 0.13359302 -0.021308422
-0.40012586 0.16559201 -0.094684124
-0.38427585 -0.0016909838 0.1607995
-0.38321787 0.037236035 0.17784882
-0.41180187 0.20376003 -0.18460608
-0.41546586 0.22914702 -0.2428441
-0.41801786 0.20352101 -0.18645906
-0.39474586 0.03720504 0.17834473
-0.39816988 0.067928016 0.12468052
-0.40017888 -0.15728295 0.093175888
-0.39841387 -0.094099998 0.12084389
-0.40976086 0.105766 0.035530567
-0.41377786 0.13282502 -0.026583195
-0.42423588 0.20328104 -0.1883111
-0.40955585 -0.28226101 0.038706779
-0.41580185 -0.50284696 -0.057887077
-0.41985285 0.132568 -0.028341293
-0.41004285 0.067385018 0.1213336
-0.41544187 -0.28228593 0.038955688
-0.41004187 -0.094139934 0.12134171
-0.43081987 0.16434604 -0.10368824
-0.43668586 0.20279902 -0.19201708
-0.44684887 0.22797501 -0.25227737
-0.45268586 0.26571602 -0.33900738
-0.42193186 0.066840053 0.11798668
-0.42721686 -0.28233695 0.039454937
-0.42528087 -0.21662498 0.068225861
-0.43371686 -0.50293791 -0.057135105
-0.43810186 0.13179201 -0.033616066
-0.45905387 0.26549006 -0.3409462
-0.45942986 0.22750205 -0.25605249
-0.43383387 0.066292048 0.11464167
-0.44076586 -0.34111392 0.014242649
-0.43330288 -0.094229937 0.12233067
-0.46572685 0.22726405 -0.25794125
-0.47180286 0.26503503 -0.34482718
-0.47833386 0.22678804 -0.26171732
-0.48456886 0.26457804 -0.34870815
-0.46357986 -0.50311399 -0.055890083
-0.46441087 -0.34124398 0.015231609
-0.45656785 -0.094332933 0.12331581
-0.49735186 0.26411802 -0.35259008
-0.47552684 -0.50319195 -0.055395126
-0.49291089 0.20060003 -0.20869541
-0.49727288 0.22606903 -0.2673831
-0.47057587 0.035314023 0.16986656
-0.47805187 -0.21689093 0.070445538
-0.48829487 0.10229003 0.013137817
-0.48159084 0.064071 0.10126257
-0.48806086 -0.34139097 0.016213894
-0.47983888 -0.094449997 0.12429476
-0.49345186 -0.50331998 -0.054658413
-0.5162499 0.225344 -0.27305222
-0.49397388 -0.34143102 0.016457558
-0.50130492 -0.55913591 -0.078822136
-0.49942687 -0.50336492 -0.054414272
-0.48832789 -0.0020989776 0.16522551
-0.49988684 -0.34147096 0.016701698
-0.49564788 -0.21699703 0.071175575
-0.52892292 0.22485703 -0.27683306
-0.50580287 -0.34151292 0.016944885
-0.49729684 -0.094546914 0.12502384
-0.51258689 0.101197 0.0062508583
-0.50555789 0.062944055 0.094575882
-0.50531691 -0.15779495 0.097603798
-0.54865289 0.26225704 -0.36813545
-0.50615489 0.033585012 0.1600647
-0.52035987 -0.419101 -0.016483307
-0.51324892 -0.21711195 0.071905613
-0.51116091 -0.15783203 0.097845554
-0.5247559 0.10064703 0.0028057098
-0.52986389 0.12782502 -0.059992313
-0.51756293 0.062377036 0.091234684
-0.55431688 0.22387701 -0.28439617
-0.52399492 0.032712042 0.15516663
-0.55457389 0.15920204 -0.13972139
-0.56703991 0.22338402 -0.28817844
-0.5412969 -0.34178495 0.018395901
-0.54724789 -0.50376797 -0.052474499
-0.5472129 -0.34183395 0.018636703
-0.55322689 -0.503824 -0.052235126
-0.57470793 0.197335 -0.23281336
-0.54213989 -0.048831999 0.14708376
-0.57977891 0.22288805 -0.2919631
-0.54623687 -0.15807402 0.099292755
-0.56129891 -0.55967498 -0.076404095
-0.57327592 0.15840805 -0.1451292
-0.54783291 0.031537056 0.14863873
-0.5543319 -0.21741402 0.073591709
-0.56730288 -0.55973601 -0.076165199
-0.55197489 -0.0024719834 0.16787767
-0.55970389 0.060368001 0.079539776
-0.57358891 0.098419011 -0.010967255
-0.57916391 0.12564802 -0.074061394
-0.60669792 0.26011801 -0.3856473
-0.56607389 -0.21750903 0.0740695
-0.56378192 -0.15820694 0.10000992
-0.5635519 -0.0025499463 0.1683569
-0.60531092 0.22188801 -0.29953623
-0.61316991 0.25987703 -0.38759518
-0.57194591 -0.21755695 0.074307919
-0.59152889 0.12509704 -0.077578068
-0.57781792 -0.21760702 0.07454586
-0.59196687 0.097572029 -0.016133308
-0.5769819 -0.049076974 0.14851761
-0.5813309 -0.15834796 0.1007247
-0.61078888 0.15680301 -0.15594816
-0.5827899 -0.049120963 0.14875555
-0.59457088 -0.34226596 0.020543575
-0.61705488 0.156533 -0.15775251
-0.6036399 -0.41987395 -0.013137341
-0.60049289 -0.34232497 0.020778656
-0.5956859 0.029152036 0.1355896
-0.60202992 0.058325052 0.06785059
-0.60641587 -0.34238493 0.02101469
-0.6130529 -0.50444996 -0.049862385
-0.65209287 0.25842005 -0.39928913
-0.61233991 -0.34244597 0.021250725
-0.60990989 -0.28365898 0.046958923
-0.60719091 -0.21787095 0.075728893
-0.6040929 -0.002845943 0.17002058
-0.6130659 -0.21792698 0.075965881
-0.60795188 -0.095338941 0.12957382
-0.61184192 -0.04935199 0.14994049
-0.60988587 -0.0028919578 0.17025566
-0.6651029 0.25793004 -0.40319014
-0.61378092 -0.095389009 0.1298089
-0.63498491 0.095571041 -0.028184414
-0.61567992 -0.0029379725 0.17049265
-0.6547429 0.154899 -0.16857719
-0.6610409 0.154625 -0.1703825
-0.68232191 0.21883005 -0.3222785
-0.65382087 -0.34290397 0.022885799
-0.66583389 0.094122052 -0.036791325
-0.6891439 0.19263703 -0.26626635
-0.6498149 0.026414037 0.12092161
-0.66319489 -0.42056394 -0.010804176
-0.65045887 -0.0032329559 0.1719017
-0.67294288 -0.50520003 -0.047541142
-0.66188687 0.025798023 0.11766386
-0.66893089 0.055043042 0.049492836
-0.66329688 -0.15911698 0.10401392
-0.71459788 0.217529 -0.33176517
-0.66792792 0.025488019 0.11603594
-0.66627192 -0.095880032 0.13191652
-0.6739729 0.025178015 0.11440563
-0.67501593 -0.15924096 0.10447884
-0.67210788 -0.095938921 0.1321497
-0.69348788 -0.56130803 -0.07127142
-0.6909219 -0.50544798 -0.046853065
-0.68940192 -0.34333801 0.024268627
-0.68362689 -0.21867001 0.078760624
-0.69691592 -0.50553393 -0.046627522
-0.70298988 0.092359006 -0.047120094
-0.6816299 -0.049990952 0.15274858
-0.67945892 -0.0034989715 0.17307091
-0.69896191 -0.42103398 -0.0094270706
-0.68951291 -0.21873796 0.07899189
-0.68378192 -0.096058965 0.13261271
-0.72423792 0.15184301 -0.18843412
-0.73402888 0.19075304 -0.27929544
-0.69327092 -0.050108969 0.15321064
-0.70562488 0.053217053 0.039483547
-0.71088988 -0.42119896 -0.008972168
-0.71175492 0.052909017 0.037814617
-0.71685392 -0.42128396 -0.0087461472
-0.72090387 -0.50588799 -0.0457201
-0.72784388 0.091169 -0.05400753
-0.7533319 0.18993604 -0.28488207
-0.71305889 -0.21902096 0.079909801
-0.71019387 -0.15963697 0.10586262
-0.74119788 0.11827201 -0.11980724
-0.74963892 0.150711 -0.19566011
-0.72402787 0.052293003 0.034479618
-0.73562092 -0.56195796 -0.069693089
-0.71520787 -0.0050369501 0.16619778
-0.72247893 0.022670031 0.10138369
-0.75377887 0.11768603 -0.12332726
-0.76236492 0.150141 -0.19927406
-0.77267492 0.18911403 -0.29047346
-0.73397988 -0.285115 0.051810741
-0.76007587 0.11739105 -0.12508821
-0.72821093 -0.050481975 0.15459347
-0.74282593 -0.34406197 0.026315689
-0.75090587 -0.50635695 -0.044598103
-0.78559488 0.18856204 -0.29420233
-0.74862188 0.051052034 0.027808666
-0.73986489 -0.050613999 0.15505171
-0.75470787 -0.34423494 0.02676487
-0.74219489 -0.096712947 0.13491058
-0.77149791 0.089060009 -0.066059113
-0.7576499 -0.28544402 0.052713871
-0.75126791 -0.16013992 0.10745859
-0.75151992 -0.050747991 0.15550852
-0.77492291 -0.50675595 -0.043711185
-0.79163092 0.11590904 -0.13389349
-0.8186509 0.21325803 -0.36218214
-0.76949191 -0.28561497 0.053161621
-0.7660839 -0.21971297 0.081953526
-0.78382188 -0.56277692 -0.067918301
-0.76347589 -0.0076429844 0.15348768
-0.81345087 0.14783305 -0.21373749
-0.76901191 -0.050955951 0.15619183
-0.79588091 -0.56299496 -0.067481518
-0.79294592 -0.50706697 -0.043050289
-0.80280787 0.087532043 -0.074668407
-0.81985587 0.147542 -0.21554518
-0.78347188 0.019468009 0.08511591
-0.79037088 -0.34477997 0.028104782
-0.7989549 -0.50717402 -0.042831421
-0.80908293 0.087224007 -0.076390266
-0.80045587 -0.42258894 -0.0056180954
-0.80794388 -0.563218 -0.067045212
-0.83268189 0.14695704 -0.21916342
-0.80419987 0.048216045 0.012802601
-0.81097788 -0.50739002 -0.042395115
-0.79826087 -0.16076994 0.10926056
-0.8041389 -0.16085303 0.10948467
-0.80401689 -0.051392913 0.1575489
-0.81001788 -0.16093695 0.10970879
-0.83208191 -0.56367898 -0.066179276
-0.84870189 0.11319602 -0.14974642
-0.87001592 0.18490905 -0.31846142
-0.8228159 -0.28643298 0.055162907
-0.81917793 -0.22048497 0.083963871
-0.8363409 -0.42321897 -0.0043082237
-0.8410489 -0.50795293 -0.04131031
-0.84144187 0.046292007 0.0028009415
-0.84232491 -0.42332792 -0.0040912628
-0.83797491 -0.34556699 0.029864788
-0.87771392 0.14488703 -0.2318325
-0.83689392 -0.22075999 0.084625721
-0.8657549 0.084421039 -0.091890335
-0.88416487 0.14458805 -0.2336421
-0.8961519 0.18376201 -0.32593632
-0.90407789 0.209665 -0.38696337
-0.84487689 0.016190052 0.068861485
-0.83942688 -0.16136992 0.11082077
-0.89062291 0.14428902 -0.23545218
-0.90269989 0.183474 -0.32780647
-0.86028391 -0.42366099 -0.0034422874
-0.8663559 0.044994056 -0.003865242
-0.85461891 -0.22104394 0.085286617
-0.85119891 -0.16154993 0.11126089
-0.8475529 -0.098106027 0.13896179
-0.87114489 -0.50854695 -0.040240288
-0.88472587 0.08347404 -0.097058296
-0.91580492 0.182895 -0.33154631
-0.92390889 0.20882004 -0.39269114
-0.87226087 -0.42388999 -0.003013134
-0.86434788 -0.28712797 0.056694508
-0.85341489 -0.098191977 0.13918257
-0.89105791 0.083156049 -0.098780155
-0.8607859 -0.013004959 0.12809992
-0.8695569 0.014858007 0.062362671
-0.87371892 -0.34620297 0.031167507
-0.8864519 -0.56479299 -0.06426239
-0.92892992 0.18231404 -0.33528709
-0.88424289 -0.42412293 -0.0025854111
-0.8913399 0.043684006 -0.010531425
-0.8902359 -0.42424095 -0.0023713112
-0.87826592 -0.22143602 0.08616066
-0.89524192 -0.50904393 -0.039392471
-0.94207591 0.18172902 -0.33902931
-0.95041889 0.20768404 -0.4003334
-0.88811189 0.013850033 0.057488918
-0.88810188 -0.28754795 0.057563782
-0.88417989 -0.22153592 0.086378574
-0.8799789 -0.052443981 0.1604495
-0.89430487 0.013513029 0.055864811
-0.90385687 0.043024004 -0.013864517
-0.96370292 0.207111 -0.40415525
-0.90050292 0.013174057 0.054240704
-0.89242887 -0.16220796 0.11279774
-0.9382109 0.108859 -0.17443037
-0.89168191 -0.052618027 0.16088963
-0.90193087 -0.22184396 0.087028503
-0.95544487 0.141258 -0.25357533
-0.9036929 -0.015412986 0.11700583
-0.9202159 -0.42484891 -0.0013113022
-0.9836669 0.20624804 -0.40989447
-0.9289459 0.041696012 -0.020530224
-0.91598892 -0.01610899 0.11383772
-0.93337989 -0.34735096 0.033304691
-0.9219119 -0.16270602 0.11388254
-0.96101391 0.079617023 -0.11773539
-0.98803389 0.13971502 -0.26264238
-1.0014709 0.17906505 -0.35588837
-0.9833039 0.106637 -0.18678045
-0.95024091 0.010440052 0.041250706
-0.98976386 0.10631603 -0.18854618
-1.0011029 0.13909304 -0.26627111
-1.0076469 0.13878101 -0.26808739
-0.96271992 0.0097490549 0.038003922
-0.9591639 -0.018567979 0.10275459
-0.97521484 0.0090540051 0.034757614
-0.95911688 -0.09988296 0.14311886
-0.96784991 -0.053830981 0.16372967
-0.97773087 -0.019633949 0.098006725
-0.97958684 -0.054029942 0.16416073
-0.99013186 -0.020347953 0.094842911
