# .PCD v0.7 - Point Cloud Data file format
VERSION 0.7
FIELDS x y z
SIZE 4 4 4
TYPE F F F
COUNT 1 1 1
WIDTH 1
HEIGHT 1024
VIEWPOINT 0 0 0 1 0 0 0
POINTS 1024
DATA ascii
1.0525399 0.014374495 -0.13924408
1.045856 0.015028477 -0.13520384
1.0315419 -0.15650058 -0.16324711
1.0234179 -0.15410948 -0.14895391
1.0210199 -0.11339056 -0.175488
1.0146359 -0.11297858 -0.17360306
1.0574889 -0.072179556 -0.4824338
1.00246 -0.21134555 -0.12968206
0.98837495 -0.07814157 -0.25184584
0.97253692 -0.26768148 -0.13314104
0.98013294 -0.07577455 -0.23629189
1.008691 -0.067082524 -0.45175791
0.94809991 0.03520745 0.0053949356
0.96667594 -0.26782656 -0.13476372
0.96436793 -0.11045051 -0.16338873
0.93725491 0.08414048 -0.0026926994
0.96614593 -0.073713541 -0.22363567
0.93457991 -0.0015585423 0.017765999
0.95461595 -0.15057158 -0.1354599
0.95021391 -0.26978648 -0.14832687
0.94708896 -0.20924556 -0.12426805
0.92575294 0.11853045 -0.0058517456
0.93435991 0.025223494 -0.072582722
0.91343093 -0.078650475 0.043842316
0.93514895 -0.20922554 -0.12569189
0.91088891 -0.04510355 -0.029606819
0.91840994 -0.21075952 -0.13716984
0.89441395 -0.11996555 0.054120064
0.91411895 -0.26953053 -0.15142775
0.88936692 -0.12092757 0.047291279
0.90900594 -0.2707665 -0.15924883
0.88582194 -0.12381959 0.028219223
0.88934493 -0.091965556 -0.048670769
0.90275991 -0.27040648 -0.1579237
0.88575095 -0.094818592 -0.068275928
0.86921394 -0.17622852 0.067380905
0.87867492 -0.1296525 -0.010231972
0.87144792 -0.13555253 -0.049106121
0.86866295 0.14581949 -0.12663889
0.87006295 -0.021837533 -0.13847208
0.87452996 0.012600482 -0.17621279
0.86227393 0.019678473 -0.12373304
0.85966492 0.10198849 -0.15318871
0.85068196 0.22995245 -0.076141834
0.84724092 0.27747846 -0.046623707
0.84593892 -0.0073415637 -0.03545475
0.85020596 0.026647449 -0.072057724
0.83237696 -0.22785258 0.080866337
0.85203594 0.14456248 -0.13971186
0.82729393 0.00096648932 0.023039341
0.82218796 -0.17529356 0.067512035
0.81632495 -0.17519557 0.067440033
0.81794995 -0.11869049 0.053182125
0.81655294 0.038390458 0.013503075
0.81772292 0.27751046 -0.049667835
0.84014493 -0.34789252 -0.24956799
0.80460393 -0.1750015 0.067295074
0.80608493 0.086595476 0.0012450218
0.80473596 0.038546443 0.01336813
0.80345994 0.20484746 -0.02863884
0.82625091 -0.34498751 -0.23508406
0.79445791 -0.11832452 0.052902222
0.78973591 -0.076684475 0.042346954
0.79090494 -0.034360528 0.03166914
0.79833794 0.23461646 -0.036199093
0.78702694 -0.17471659 0.067082882
0.79157495 0.20497149 -0.028767109
0.79357696 0.27799946 -0.047194004
0.78116995 -0.17462349 0.067013264
0.77845895 0.15932548 -0.017343998
0.77969295 0.20509446 -0.028892994
0.77521193 0.038925469 0.013035297
0.77375394 0.20515448 -0.028955936
0.76622593 -0.076347589 0.042074203
0.77570695 0.27816445 -0.047379971
0.76220596 -0.22665548 0.079999924
0.76360494 -0.17434859 0.066801071
0.7651149 -0.11788452 0.052555084
0.76340991 0.039072454 0.012904167
0.78498691 -0.33643854 -0.19238281
0.75965291 0.12061048 -0.0077180862
0.76187992 0.20527446 -0.029080868
0.76265991 0.23496544 -0.036572933
0.75653195 0.0019184947 0.022231102
0.76508492 0.32715946 -0.059836864
0.75052494 -0.22646856 0.079859257
0.75190091 -0.17416954 0.066663265
0.75338596 -0.11771452 0.052417278
0.75784492 0.27832544 -0.047562122
0.75160992 0.039217472 0.012772083
0.75911993 0.32720947 -0.059896946
0.74483395 0.23513347 -0.0367589
0.7459439 0.27842945 -0.047683716
0.73579592 -0.11746454 0.052214146
0.73598891 0.12086946 -0.007973671
0.73206496 -0.033574522 0.030997276
0.73889393 0.23518848 -0.036820889
0.73999393 0.27848148 -0.047744751
0.72717291 -0.22610354 0.079581261
0.72923195 0.087497473 0.0003991127
0.73295391 0.23524249 -0.036881924
0.73527491 0.32740146 -0.060135841
0.72407395 -0.11730254 0.052078247
0.72332793 0.087562442 0.0003361702
0.71442991 -0.033352554 0.030801296
0.72107893 0.23535049 -0.037004948
0.70966792 -0.2258395 0.079371929
0.71233994 0.12111747 -0.0082268715
0.71329391 0.15999949 -0.018036842
0.71740192 0.32754046 -0.060316086
0.72421092 -0.32407653 -0.13039589
0.7056179 0.087753475 0.00014591217
0.70165193 -0.075483561 0.041337013
0.71025896 0.27873147 -0.048048019
0.69971591 0.087815464 8.1062317e-05
0.70255691 0.20583749 -0.029700756
0.69680291 -0.03313756 0.030603886
0.70327091 0.23550647 -0.037188053
0.69553995 0.1601705 -0.018223763
0.69092995 -0.033066511 0.030539989
0.69953495 0.32767546 -0.060492992
0.7042399 -0.32007456 -0.11026192
0.68633991 -0.22549951 0.079099178
0.6840589 -0.0752635 0.041140079
0.68505794 -0.032997549 0.03047514
0.68201691 0.087999463 -0.00010681152
0.68477893 0.20599645 -0.029883862
0.68002295 0.0028364658 0.021385193
0.68762994 0.32776344 -0.060608864
0.67722493 -0.11668253 0.051545143
0.67779291 0.16033745 -0.018408775
0.67954093 0.23570848 -0.037427902
0.68054396 0.27896947 -0.048346043
0.67006391 -0.17300653 0.065711975
0.67098695 0.12152946 -0.0086627007
0.66911894 0.040153444 0.011872292
0.67572594 0.32784945 -0.060728073
0.66508394 0.12158549 -0.0087227821
0.66596693 0.16044545 -0.018529892
0.66061294 -0.074980497 0.040881157
0.66866493 0.27906144 -0.048464775
0.67126292 -0.3135345 -0.07728672
0.65966892 -0.11646354 0.051349163
0.66108495 0.20619947 -0.030124664
0.66175294 0.23585445 -0.03760767
0.66272694 0.27910644 -0.048523903
0.66382694 0.32793349 -0.060843945
0.65414494 0.16055149 -0.018652916
0.64983791 -0.032594562 0.030090332
0.65582496 0.23590249 -0.037667751
0.65817893 -0.31096256 -0.064297676
0.64823294 0.16060346 -0.018713951
0.64924192 0.20629847 -0.030244827
0.64303696 -0.07477653 0.040687084
0.64212096 -0.11625051 0.051154137
0.64074492 0.08840549 -0.00053977966
0.64598292 0.32805645 -0.06101799
0.63389993 -0.22478354 0.078495979
0.63641596 0.16070545 -0.018835068
0.63804591 0.23604149 -0.037846088
0.63898093 0.27928245 -0.048758984
0.64003694 0.32809645 -0.061074734
0.62807691 -0.22470748 0.078431129
0.62896091 0.08851546 -0.00066280365
0.63148594 0.20644248 -0.030424118
0.62637293 -0.032340527 0.029837132
0.62458092 -0.11604548 0.050961018
0.62377596 0.12196344 -0.0091519356
0.61961293 -0.074513555 0.04043293
0.61753893 -0.17234349 0.065122128
0.61873394 -0.11597848 0.050898075
0.61965096 0.20653546 -0.03054285
0.62027293 0.23617649 -0.038023949
0.61927193 -0.30339551 -0.025982857
0.61170691 -0.17227352 0.065058231
0.60952294 0.0035794377 0.020631313
0.61625993 0.32825249 -0.061306
0.60608596 0.12211645 -0.0093340874
0.61031795 0.32828945 -0.06136179
0.59951293 0.088780463 -0.00096702576
0.60437596 0.32832748 -0.061419964
0.59429395 0.12221545 -0.0094518661
0.59119695 -0.031980515 0.029463291
0.59658593 0.23634946 -0.038255692
0.59745395 0.27957147 -0.049164772
0.58917093 0.16109145 -0.019310951
0.58449894 -0.074143529 0.040058136
0.59249395 0.32840049 -0.061532021
0.58326995 0.16113746 -0.019370079
0.58416593 0.20680147 -0.030894756
0.57596594 0.08898145 -0.0012068748
0.57736796 0.16118246 -0.019427776
0.57361996 -0.031809509 0.029280186
0.57883096 0.23647344 -0.038432121
0.58061695 0.32847148 -0.061645985
0.57199591 -0.11547053 0.050393105
0.57234293 0.20688647 -0.031012058
0.56695092 -0.073967576 0.039873123
0.56818891 -0.29364455 0.023592949
0.56407195 -0.22393548 0.077722073
0.56507391 -0.17174649 0.064549923
0.56482995 0.12245244 -0.0097489357
0.56190395 -0.031699538 0.029158115
0.56699491 0.23655349 -0.038546085
0.56873995 0.32854146 -0.061760902
0.55924797 -0.17168355 0.06448698
0.55893892 0.12249744 -0.0098080635
0.55966693 0.16131449 -0.019604683
0.56188893 0.27980047 -0.049509048
0.55376893 0.16135746 -0.019661903
0.54759794 -0.17156148 0.064363003
0.54654896 0.089218438 -0.0015029907
0.54787093 0.16139948 -0.019721031
0.54356396 -0.073744535 0.039627075
0.55003995 0.27987248 -0.049623013
0.54297495 -0.28891051 0.047748089
0.54081893 -0.2236805 0.077470303
0.54280591 -0.11517859 0.050085068
0.53771794 -0.073690534 0.03956604
0.53912693 0.0042244792 0.019901276
0.53979897 0.041362464 0.010528088
0.54499698 0.32867545 -0.061983109
0.53500497 -0.22361851 0.077408314
0.53594893 -0.17144251 0.064239025
0.53478491 0.089308441 -0.0016188622
0.53689092 0.20712644 -0.031355858
0.5301789 0.16152346 -0.019894123
0.5315069 0.23678148 -0.038889885
0.5274049 0.0043224692 0.01978302
0.52805996 0.041456461 0.010411263
0.53312993 0.32873946 -0.062094688
0.52430391 -0.17132759 0.064116955
0.52092195 -0.031337559 0.028737068
0.52219093 0.041502476 0.010352135
0.51714694 0.089439452 -0.0017938614
0.51838893 0.16160244 -0.020009995
0.51917392 0.20723945 -0.031527996
0.51434398 -0.073482513 0.039327145
0.52042693 0.28004444 -0.04990387
0.51266193 -0.17121458 0.063994884
0.51363093 -0.11490548 0.049782276
0.51450491 0.28007746 -0.049958706
0.51045394 0.041592479 0.010233879
0.50554192 -0.28198159 0.083221912
0.50595391 -0.22332358 0.077099323
0.50265896 -0.073382497 0.039207935
0.50014591 -0.22326648 0.077039242
0.49951294 0.089564443 -0.001967907
0.50070596 0.16171747 -0.020178795
0.50195092 0.23695648 -0.039169788
0.49339294 -0.28034556 0.091404915
0.49555793 0.20738345 -0.031753063
0.49097693 -0.07328558 0.039090157
0.49604192 0.23699045 -0.039227009
0.49285492 0.041722476 0.01006031
0.48759794 -0.2802875 0.091342926
0.48938194 -0.17099953 0.063753128
0.48891994 0.16179049 -0.020293713
0.48180294 -0.28023148 0.091281891
0.47996593 -0.031009555 0.028324127
0.47713792 0.16186249 -0.020405769
0.46827093 -0.030922532 0.028209209
0.46882194 0.0047704577 0.019200325
0.46442392 -0.28006649 0.091102123
0.46530592 -0.2229445 0.076677322
0.46611094 -0.17079759 0.063517094
0.46605194 0.20754945 -0.032032013
0.46242392 -0.030879557 0.028151989
0.46790093 0.32906145 -0.062697887
0.45594293 -0.07301259 0.038739204
0.46197292 0.3290875 -0.062752724
0.45251194 0.089871466 -0.0024228096
0.44663993 0.089906454 -0.0024800301
0.44712493 0.12324846 -0.010895729
0.44540292 0.0049304366 0.018970966
0.44180194 0.16206247 -0.020740032
0.44245595 0.20767349 -0.032252789
0.43843395 -0.072886586 0.038566113
0.44008192 0.042077482 0.0095481873
0.43697393 0.23729748 -0.039778709
0.43758392 0.28046244 -0.050675869
0.43369594 0.0050064921 0.018857002
0.43827093 0.32918948 -0.062967777
0.43201295 -0.11424351 0.048959255
0.43107092 0.23732549 -0.039832115
0.43166992 0.28048849 -0.050728798
0.42540592 -0.17047548 0.06310606
0.42150494 -0.030601561 0.027750969
0.42199194 0.0050794482 0.018744946
0.41809893 -0.27966654 0.090629101
0.41886693 0.20778847 -0.032470703
0.41566095 -0.030564547 0.027696133
0.41614094 0.0051154494 0.018690109
0.42050093 0.32926148 -0.063129902
0.41078094 0.042251468 0.0092682838
0.41457793 0.32928348 -0.063181877
0.40727893 -0.22247553 0.076092243
0.40554392 0.090137482 -0.0028676987
0.40147692 -0.22243249 0.076035976
0.39858893 0.0052174926 0.018522263
0.39494795 -0.27948749 0.090394974
0.39565793 0.23748249 -0.040156841
0.38939193 0.20792049 -0.032742023
0.39028993 0.28065848 -0.051104069
0.38472393 -0.17019153 0.062707901
0.38009593 -0.072512507 0.038003922
0.38437894 0.28068048 -0.051156998
0.37758794 -0.27936351 0.090223312
0.37959394 -0.11389756 0.0484519
0.37426493 -0.072479486 0.037948132
0.37846994 0.28070247 -0.05121088
0.37519094 0.0053444505 0.018301964
0.37117794 0.16240245 -0.021392822
0.37171093 0.20799345 -0.032901764
0.37205693 0.23757648 -0.040370941
0.36601692 -0.27928448 0.090111256
0.36446995 0.090338469 -0.0032501221
0.36349595 0.0054044724 0.018192291
0.36148494 -0.17004752 0.062485218
0.35860392 0.090364456 -0.0033020973
0.35677394 -0.072383523 0.037783146
0.35806593 0.042524457 0.0087752342
0.35630894 -0.11376357 0.048229218
0.35403293 0.20806044 -0.033061981
0.35094294 -0.072353482 0.037729263
0.34687093 0.090415478 -0.0034089088
0.34814194 0.20808244 -0.03311491
0.34595394 0.0054884553 0.01803112
0.33548692 0.12378448 -0.011928082
0.33426192 0.0055414438 0.017924309
0.33131292 -0.27906954 0.089776993
0.33190492 -0.22199154 0.075365067
0.33302695 -0.11364257 0.048011303
0.32961392 0.12380648 -0.01198101
0.32841495 0.0055664778 0.017869949
0.32552892 -0.27903652 0.089721203
0.32412693 0.16258246 -0.02181673
0.32221594 -0.030070543 0.026821136
0.31974593 -0.27900457 0.089668274
0.32082894 -0.16982758 0.062103271
0.31637892 -0.030045509 0.026768208
0.31396392 -0.27897358 0.089612007
0.31168494 0.090552449 -0.0037269592
0.31236795 0.16262245 -0.021920681
0.30470592 -0.029997528 0.026660919
0.30292994 -0.22184348 0.075095177
0.30101994 0.20823544 -0.033531666
0.29848695 -0.072113514 0.037246227
0.29918993 0.0056834817 0.017606258
0.29661793 -0.27888548 0.089451313
0.29577294 0.28095746 -0.051939011
0.29367292 0.042784452 0.0081920624
0.29179993 -0.16969359 0.061835289
0.28885192 0.16269445 -0.022129059
0.28554693 -0.22176456 0.074935913
0.28335595 0.20828444 -0.033684731
0.28360295 0.23785549 -0.041152
0.28396493 0.28098649 -0.052042007
0.27927595 -0.27880549 0.089291096
0.27709493 0.16272748 -0.022232056
0.27805895 0.28099948 -0.052092075
0.27581495 0.0057644844 0.017397881
0.27395993 -0.22171652 0.074830055
0.27064592 0.09068346 -0.0040898323
0.26968893 -0.029872537 0.02634716
0.26857993 -0.16960049 0.061625957
0.26569194 0.20832747 -0.033839703
0.26591992 0.23789746 -0.041304111
0.26237494 -0.22167051 0.074726105
0.25892293 0.090715468 -0.0041909218
0.25946295 0.16277146 -0.02238369
0.26034892 0.28103745 -0.05224371
0.25391793 0.20835447 -0.033939838
0.24854194 0.28106046 -0.052343845
0.24499694 -0.22160959 0.074571133
0.24536493 -0.16952157 0.06141901
0.24576093 -0.11329448 0.047223091
0.24263993 0.28107148 -0.052394867
0.23881593 -0.27865052 0.088926315
0.23468193 -0.029771507 0.026041031
0.23303694 -0.27863157 0.08887434
0.23412994 -0.11326158 0.047121048
0.22961894 0.09078449 -0.004445076
0.23055993 0.23796844 -0.041605949
0.22725794 -0.27861357 0.088824272
0.22831494 -0.11324549 0.04707098
0.22375794 0.090796471 -0.0044946671
0.22396293 0.12410444 -0.012902737
0.23555593 -0.44105554 -0.48726988
0.22182994 -0.22154057 0.074366093
0.21789794 0.090807438 -0.0045437813
0.21809593 0.12411445 -0.012953758
0.21832593 0.16285646 -0.022737026
0.21717994 -0.029730558 0.025891304
0.21761294 0.042991459 0.0075302124
0.21603893 -0.22152448 0.074315071
0.21668394 -0.11321759 0.046969891
0.21203794 0.090818465 -0.0045938492
0.21222894 0.12412548 -0.013003826
0.21245094 0.16286647 -0.022785664
0.21134694 -0.029718518 0.025841236
0.20722693 0.28112549 -0.052693844
0.20445794 -0.22149658 0.074215889
0.20505494 -0.11319149 0.046870232
0.20031893 0.090837479 -0.0046930313
0.20069993 0.16288447 -0.022884846
0.19945893 -0.071822524 0.036377907
0.19445793 0.090846479 -0.0047430992
0.19384693 -0.029685557 0.025691986
0.19520393 0.23801947 -0.041903019
0.18931293 0.23802644 -0.041953087
0.18952194 0.28114647 -0.052839756
0.18818793 0.0059714913 0.016642094
0.19717193 -0.43404949 -0.45129395
0.18680793 -0.27851355 0.08847332
0.18708493 -0.22146058 0.074067116
0.18218192 -0.029667556 0.025594234
0.18251893 0.043048441 0.0072321892
0.18103093 -0.27850258 0.088425159
0.17771994 0.28115749 -0.052937984
0.17573392 -0.16935956 0.060819149
0.16947393 -0.27848351 0.088325977
0.16993093 -0.1693505 0.060770035
0.16516194 0.090881467 -0.004986763
0.16544794 0.16292447 -0.023178101
0.16591693 0.28116745 -0.053035736
0.16412994 -0.16934359 0.060721874
0.15930294 0.090886474 -0.0050349236
0.15869394 -0.071764588 0.036035061
0.16001594 0.28117144 -0.053082943
0.15832794 -0.16933656 0.060674191
0.15301993 -0.029635549 0.025351048
0.15314493 0.0060114861 0.016350269
0.15252693 -0.16933155 0.060625076
0.14758593 0.090895474 -0.0051307678
0.14807293 0.23805946 -0.042292118
0.14821494 0.28117746 -0.053180695
0.14742793 0.043083489 0.0069422722
0.15289293 -0.42615855 -0.4105401
0.14672592 -0.16932654 0.060576916
0.14691193 -0.11310959 0.046382904
0.14172593 0.090898454 -0.0051789284
0.14231294 0.28118044 -0.053228855
0.14092293 -0.16932154 0.060529232
0.13586792 0.090901494 -0.0052280426
0.13641293 0.28118247 -0.053277016
0.13573092 0.043089449 0.0068459511
0.13497293 -0.22139752 0.073633194
0.12957893 -0.071745515 0.035797119
0.12968993 -0.029621542 0.025158882
0.12988293 0.043091476 0.0067982674
0.12903193 -0.27844453 0.087992191
0.12461194 0.28118545 -0.053370953
0.12325493 -0.2784425 0.087944984
0.11829193 0.090905488 -0.0053687096
0.11818694 0.043094456 0.0067043304
0.11771894 -0.16931248 0.060340881
0.11210993 -0.071742535 0.035655975
0.11272393 0.23806846 -0.042578697
0.11169993 -0.27844155 0.087852001
0.11181293 -0.22139156 0.073446274
0.10670093 0.16294545 -0.023655891
0.10592294 -0.2784425 0.087805271
0.10611493 -0.16931248 0.060249329
0.10071594 0.090904474 -0.0055098534
0.10094293 0.23806745 -0.042673111
0.10023393 -0.22139454 0.073352337
0.10040093 -0.1130985 0.046005249
0.094951928 0.16294348 -0.023748875
0.095051929 0.23806548 -0.042719841
0.095108934 0.28118348 -0.053608894
0.096712932 -0.41644251 -0.36000681
0.088817932 -0.071748495 0.035470009
0.090518937 -0.41539156 -0.35451603
0.088589936 -0.27844954 0.087666988
0.083095931 0.043085456 0.0064249039
0.077357933 0.20849544 -0.035393715
0.077199936 -0.029632509 0.024741173
0.078164935 -0.41330957 -0.34361696
0.071367934 -0.029637516 0.024695873
0.071258932 -0.27846456 0.087533951
0.071283937 -0.22141349 0.073126316
0.071306929 -0.16933358 0.05997324
0.065526932 -0.071766496 0.035288334
0.065543935 0.0060034394 0.015647888
0.065847933 -0.41124952 -0.33281374
0.065480933 -0.27847159 0.087488174
0.065517932 -0.11312258 0.045732021
0.059701934 0.09087944 -0.0058341026
0.059701934 0.005997479 0.015602112
0.053911932 -0.22143555 0.072992325
0.047984932 0.090866446 -0.0059247017
0.047969934 0.1241715 -0.014336109
0.048021935 0.0059844851 0.015512943
0.042103931 0.12416446 -0.014380932
0.042181931 0.0059764385 0.015467167
0.036134932 0.23802346 -0.043181896
0.036096931 0.28114349 -0.054071903
0.036306933 0.043037474 0.0060601234
0.030498933 0.0059584379 0.015377998
0.024450932 0.16288048 -0.024300098
0.024390932 0.20844346 -0.035806656
0.024815932 -0.11318457 0.045421124
0.018575933 0.16287148 -0.024343967
0.018392932 0.28112245 -0.054209709
0.018760934 0.043008447 0.0059270859
0.013113935 -0.071850538 0.034888268
0.013039932 -0.029723525 0.024249077
0.012567934 0.23799247 -0.043364048
0.013186932 -0.11320949 0.045332909
0.0068999343 0.12411046 -0.014649868
0.0068229325 0.16285247 -0.024435043
0.0072889328 -0.071863532 0.034843922
0.0013719313 -0.029749513 0.024161339
0.00078193098 0.23797345 -0.043453693
-0.0044620708 -0.029762506 0.024117947
-0.0052150637 0.28108746 -0.054389
-0.0045480654 0.0058884621 0.015116215
-0.0038580671 -0.27862048 0.086968899
-0.0099260658 -0.16949248 0.059360981
-0.016010068 -0.071923494 0.03467226
-0.017022066 0.28106749 -0.054480076
-0.015581064 -0.22159851 0.072474003
-0.015892066 -0.11328459 0.045119286
-0.022440068 0.12404948 -0.014868736
-0.022559069 0.16279346 -0.024654865
-0.022700064 0.20836145 -0.036163807
-0.021373071 -0.22161758 0.072432041
-0.028308064 0.12403446 -0.014913082
-0.028587066 0.20834947 -0.036209106
-0.028040066 0.042903483 0.0055770874
-0.03295707 -0.22165859 0.072349072
-0.040045068 0.12400448 -0.01500082
-0.043382064 -0.39371252 -0.23991299
-0.046069071 0.16273648 -0.024829865
-0.045593068 0.042852461 0.0054483414
-0.049370065 -0.39278948 -0.23497295
-0.051947065 0.16272044 -0.024873734
-0.055878066 -0.27881658 0.086600304
-0.063523069 0.12393749 -0.015172005
-0.062811069 -0.029940546 0.023694038
-0.064050063 0.23783445 -0.043939114
-0.064250067 0.28096646 -0.054833889
-0.062424064 -0.11344457 0.044785976
-0.069803074 0.20824546 -0.036512852
-0.075265065 0.12390047 -0.015255928
-0.075842068 0.23780245 -0.044026852
-0.079186067 -0.38825452 -0.21061087
-0.073222071 -0.27889752 0.086481094
-0.073512062 -0.22182751 0.072066307
-0.073776066 -0.16972852 0.058907986
-0.080959067 0.090564489 -0.0068826675
-0.080509067 0.0056524873 0.014564037
-0.087006062 0.12386048 -0.015341759
-0.085925072 -0.072171569 0.034173965
-0.086157069 -0.030031562 0.023529053
-0.087633073 0.23776847 -0.044111729
-0.091057062 -0.38647854 -0.20102692
-0.085387066 -0.16978252 0.058827877
-0.092685074 0.090522468 -0.0069680214
-0.093099073 0.16259444 -0.025171757
-0.093360066 0.20817447 -0.03668499
-0.096981063 -0.38559759 -0.19626665
-0.098749071 0.12381947 -0.015423775
-0.097833067 -0.030080557 0.02344799
-0.099684075 0.28087044 -0.055093765
-0.10880807 -0.38385153 -0.18681097
-0.10213406 -0.27905059 0.086286068
-0.11028007 0.090453446 -0.0070910454
-0.11074106 0.16253245 -0.025296688
-0.10950907 -0.030133545 0.023367882
-0.11122106 0.23769349 -0.044282913
-0.11149707 0.28083444 -0.055180073
-0.10973707 0.0055304766 0.014358997
-0.11471006 -0.38298655 -0.18211699
-0.10791707 -0.27908349 0.086248875
-0.11534707 -0.030160546 0.023328304
-0.12168407 0.042566478 0.0049099922
-0.12649307 -0.38127053 -0.1727891
-0.11987607 -0.22207057 0.071753979
-0.12023206 -0.16996157 0.058594227
-0.12838507 0.16246444 -0.02542305
-0.12870707 0.20805144 -0.036937714
-0.12891607 0.23763245 -0.044409752
-0.13398507 0.12367946 -0.015672684
-0.13481407 0.23761147 -0.04445076
-0.13312507 0.0054214597 0.014199257
-0.13105306 -0.27922451 0.086099148
-0.14603207 0.16239148 -0.025546074
-0.14421907 -0.072460532 0.033777237
-0.14694507 0.28071445 -0.055434704
-0.14346607 -0.17009759 0.058441162
-0.14390007 -0.11384249 0.044230938
-0.15582107 -0.37706959 -0.14984894
-0.15841307 0.23752046 -0.044617653
-0.16307907 0.090215445 -0.0074548721
-0.16754706 -0.072595477 0.033625126
-0.17481707 0.090156496 -0.0075349808
-0.17511207 0.12348849 -0.015955925
-0.17649707 0.28060246 -0.055643082
-0.17406806 0.0052034855 0.013925076
-0.17439507 0.042303443 0.004553318
-0.17206007 -0.22240853 0.0714221
-0.17301607 -0.11402154 0.04404211
-0.18098807 0.12345946 -0.015995026
-0.18133807 0.16223145 -0.025788784
-0.18175107 0.20783144 -0.037307739
-0.17959607 -0.030507505 0.022899151
-0.18655607 0.090093493 -0.0076127052
-0.18543807 -0.030543506 0.022861004
-0.18792006 0.23739547 -0.044824123
-0.18611307 0.042238474 0.0044760704
-0.18313107 -0.27959454 0.085773945
-0.18414307 -0.17036557 0.05818224
-0.19128206 -0.030579507 0.022824287
-0.19382307 0.23736846 -0.044864655
-0.19829607 0.090029478 -0.0076909065
-0.19899607 0.16214246 -0.025908947
-0.19747105 0.0050644875 0.013772011
-0.20239007 -0.37060654 -0.1142478
-0.19631407 -0.11417854 0.043893337
-0.20106608 -0.22262549 0.071243286
-0.20838806 -0.072862506 0.033364296
-0.21153405 0.23728645 -0.044985771
-0.20955408 0.042098463 0.0043210983
-0.20686805 -0.22267151 0.071208
-0.21591106 0.089927495 -0.0078077316
-0.21625707 0.12326849 -0.016230106
-0.21665907 0.16204947 -0.026026726
-0.21713206 0.20766145 -0.037549973
-0.21503007 0.0049524903 0.013659
-0.21207806 -0.27983153 0.085602283
-0.21267006 -0.22271848 0.071174145
-0.21962106 -0.1143465 0.043750286
-0.22765806 0.089856446 -0.0078840256
-0.22843707 0.16198444 -0.026105881
-0.22714007 0.041987479 0.0042080879
-0.23128608 -0.36672652 -0.09266901
-0.22366107 -0.27993155 0.085534096
-0.22427806 -0.22281551 0.07110405
-0.22545007 -0.11439157 0.043713093
-0.23220006 -0.030855536 0.022563934
-0.23515606 0.23716849 -0.045146942
-0.23065707 -0.17072153 0.057898045
-0.23127806 -0.11443555 0.043678284
-0.24021608 0.16191745 -0.026184082
-0.24072906 0.20753646 -0.037706852
-0.23886606 0.04191047 0.0041351318
-0.24663007 0.20750445 -0.037745953
-0.24696907 0.23710644 -0.045224667
-0.24430406 0.0047534704 0.013474941
-0.25703007 0.089668453 -0.0080718994
-0.25742808 0.12301946 -0.016498089
-0.25789008 0.16181248 -0.026298046
-0.25459707 -0.11462355 0.043538094
-0.26469508 0.23701048 -0.045342922
-0.26878306 0.089588463 -0.0081458092
-0.26677006 -0.073305488 0.033007145
-0.26729107 -0.031118512 0.022348881
-0.27060407 0.23697644 -0.045382023
-0.27465907 0.089548469 -0.0081830025
-0.28204608 0.20729744 -0.037977695
-0.27845407 -0.073402524 0.03293705
-0.27580407 -0.28042948 0.085241318
-0.28302306 -0.17118251 0.057594299
-0.29325107 0.16158646 -0.026525021
-0.29424706 0.23683846 -0.045537949
-0.29481906 0.28003049 -0.05644989
-0.29654908 -0.031357527 0.022173882
-0.30015907 0.23680246 -0.045574665
-0.29319406 -0.28061152 0.08514595
-0.29396307 -0.22346354 0.070708275
-0.29466507 -0.1712935 0.057528019
-0.30504206 0.16150647 -0.026599884
-0.30182508 -0.073606491 0.032801151
-0.30570906 -0.35719252 -0.038911819
-0.30125806 -0.11503458 0.04326725
-0.30767107 -0.073659539 0.032767296
-0.31461605 0.0042034388 0.013048172
-0.31059006 -0.28080058 0.085053921
-0.31213507 -0.17146754 0.057432175
-0.31293008 -0.11514556 0.043201923
-0.32217807 0.12256849 -0.016903877
-0.31996608 -0.031561553 0.022037983
-0.32275006 -0.35510349 -0.026977062
-0.31639007 -0.28086555 0.08502388
-0.31876707 -0.11520159 0.043169022
-0.32841906 -0.35441649 -0.023036957
-0.32219008 -0.28093159 0.084994316
-0.32460308 -0.11525953 0.04313612
-0.33346406 0.089105487 -0.0085449219
-0.33453205 0.16129649 -0.026783943
-0.33520707 0.20695144 -0.03831768
-0.33564508 0.23657644 -0.04580307
-0.33985007 0.12243348 -0.017012119
-0.34043306 0.16125345 -0.026818752
-0.33690307 -0.073934555 0.03260088
-0.33807307 0.0039984584 0.012912273
-0.35223407 0.16116446 -0.026892662
-0.34925207 -0.031832516 0.02187109
-0.35104606 -0.35171354 -0.0074677467
-0.34539807 -0.28120351 0.084877968
-0.35700408 0.088911474 -0.0086836815
-0.35444906 -0.074108481 0.032505989
-0.35511106 -0.031889558 0.021838188
-0.35379907 -0.11555648 0.042978287
-0.36289206 0.088861465 -0.0087189674
-0.36213008 0.040937483 0.0033888817
-0.35964206 -0.11561859 0.042947292
-0.36800706 0.040884495 0.0033559799
-0.36281207 -0.28141749 0.08479023
-0.36457506 -0.17203057 0.057152271
-0.36548308 -0.11568153 0.042915344
-0.37707806 0.23628944 -0.0460639
-0.37778407 0.27951545 -0.056985855
-0.37359408 -0.34908354 0.0077991486
-0.36861706 -0.28149056 0.08476305
-0.36955208 -0.22430253 0.070312977
-0.38055506 0.088707447 -0.0088219643
-0.37442306 -0.28156459 0.084733963
-0.37716806 -0.11580849 0.042852879
-0.38370806 -0.074413538 0.032347202
-0.38441706 -0.032181561 0.021676064
-0.38892108 0.23620248 -0.046136856
-0.38501605 0.0035554767 0.012646198
-0.38564005 0.04071945 0.003256321
-0.39290407 0.1219945 -0.017325878
-0.39028108 -0.032242537 0.021644115
-0.39283305 -0.22459054 0.070199013
-0.40617606 0.20642245 -0.03875494
-0.40127206 -0.074605584 0.032254219
-0.40263307 0.0033784509 0.012549877
-0.39865407 -0.22466457 0.070170879
-0.41001007 0.088438451 -0.0089898109
-0.41060007 0.12183648 -0.017428875
-0.40850607 0.0033184886 0.012517929
-0.40916306 0.040490448 0.0031251907
-0.41801506 0.20632648 -0.038825989
-0.41438207 0.0032564402 0.012485027
-0.41884407 -0.074803591 0.032163143
-0.41960907 -0.032556534 0.02148819
-0.41809207 -0.11627948 0.04264307
-0.42547607 -0.032621562 0.021458149
-0.43358806 0.088211477 -0.0091218948
-0.42963806 -0.34281754 0.044670105
-0.44306904 0.27904248 -0.05739069
-0.43564108 -0.11649358 0.042556286
-0.44538307 0.088094473 -0.009185791
-0.44675606 0.16036946 -0.027451038
-0.44079506 -0.34161651 0.051826
-0.44415808 -0.28252053 0.084415913
-0.44997305 -0.28260553 0.084391117
-0.45108604 -0.2253685 0.069927216
-0.46450007 0.16020346 -0.027551651
-0.46539909 0.20592248 -0.039104939
-0.46683306 0.27885646 -0.057533741
-0.46140307 0.0027424693 0.012238026
-0.45691609 -0.22545052 0.06990099
-0.45905304 -0.11678851 0.042443275
-0.47132707 0.2058695 -0.039138794
-0.47277808 0.27880847 -0.057569027
-0.46857905 -0.22561848 0.069849014
-0.47076404 -0.1169405 0.042386055
-0.48078305 0.087727487 -0.0093798637
-0.48318309 0.20576149 -0.039207935
-0.47980708 0.039740443 0.0027461052
-0.47547305 -0.17343652 0.056616306
-0.48419905 -0.033310533 0.021159172
-0.48493505 0.0024684668 0.01211834
-0.48569906 0.039674461 0.0027160645
-0.49328405 0.12103146 -0.01789093
-0.48919708 -0.075665593 0.031815052
-0.48716307 -0.17360258 0.056564331
-0.50097507 0.20559549 -0.039309025
-0.49191308 -0.22596359 0.069748878
-0.49301004 -0.17368555 0.056539059
-0.50690705 0.20553946 -0.039341927
-0.49774808 -0.22605157 0.069725037
-0.51185805 0.15973747 -0.027814865
-0.51283908 0.20548248 -0.039374828
-0.50927806 0.039400458 0.0025949478
-0.50186908 -0.33531749 0.08991003
-0.50470507 -0.17385554 0.056487083
-0.50591606 -0.1174165 0.04222393
-0.51693904 0.12077945 -0.018015862
-0.51877308 0.20542544 -0.03940773
-0.51267606 -0.075976491 0.031704903
-0.52035409 0.27840847 -0.057851791
-0.50942105 -0.22623158 0.069675922
-0.52630705 0.27835649 -0.057886124
-0.52025908 0.0020364523 0.01194334
-0.52107406 0.039259493 0.0025372505
-0.51292604 -0.33422756 0.096607208
-0.51400709 -0.28360558 0.084129333
-0.53225905 0.27830344 -0.057919025
-0.52697206 0.039187491 0.0025072098
-0.52566004 -0.28379858 0.08408308
-0.52694005 -0.22650754 0.069604874
-0.54148704 0.15942645 -0.027973652
-0.54251909 0.20519048 -0.03953886
-0.53617007 -0.076299548 0.031597137
-0.53877205 0.039042473 0.0024490356
-0.53278005 -0.22660053 0.069581985
-0.53523308 -0.11783457 0.042094231
-0.55012006 0.27814245 -0.058022022
-0.54382509 0.0017344952 0.011827946
-0.54467309 0.038969457 0.0024199486
-0.53616506 -0.33457553 0.096824169
-0.53862208 -0.22669554 0.069559097
-0.55439806 0.20506948 -0.03960371
-0.54792309 -0.076465487 0.031545162
-0.55380106 -0.07654953 0.03151989
-0.55478305 -0.034231544 0.020823956
-0.55031008 -0.22688651 0.06951189
-0.56351006 0.086783469 -0.0098056793
-0.55362409 -0.33489048 0.09676218
-0.55738109 -0.17466152 0.056267262
-0.56942606 0.086711466 -0.0098347664
-0.56656009 -0.034394562 0.020771027
-0.57292604 0.23459148 -0.047208786
-0.57144004 -0.076806545 0.031442165
-0.57419705 0.038591444 0.0022783279
-0.56784809 -0.22718048 0.069446087
-0.58126307 0.086564481 -0.0098938942
-0.58300805 0.15896749 -0.028192043
-0.58411205 0.20475745 -0.039764881
-0.57834208 -0.034561515 0.020718098
-0.57231206 -0.28460753 0.08391428
-0.57631904 -0.11845255 0.041921139
-0.58799607 0.11996448 -0.018382072
-0.59005809 0.20469344 -0.039795876
-0.58601207 0.038436472 0.0022230148
-0.57954305 -0.22738051 0.069403172
-0.59100604 0.001098454 0.011611938
-0.58274209 -0.33543253 0.096664906
-0.60195208 0.20456445 -0.039857864
-0.59497106 -0.077159524 0.031343937
-0.60268909 0.23428446 -0.047370911
-0.59254009 -0.17523551 0.056129932
-0.60494608 0.086264491 -0.010007858
-0.60675704 0.15869248 -0.028312683
-0.60374409 0.038197458 0.0021409988
-0.60781205 -0.034990549 0.020591259
-0.6167931 0.086110473 -0.010064125
-0.61764604 0.11959946 -0.018527985
-0.60880208 -0.2278955 0.069298267
-0.61852008 -0.077524543 0.031247139
-0.62651807 0.23402947 -0.047496796
-0.62052709 0.00067746639 0.011480331
-0.61600107 -0.17563558 0.056043148
-0.62951404 0.11944848 -0.018584728
-0.62740105 0.037870467 0.0020332336
-0.62051409 -0.22810757 0.069258213
-0.63457406 0.085875452 -0.010148048
-0.63646704 0.15833545 -0.028460979
-0.63766408 0.20416248 -0.040042877
-0.63030106 -0.077711582 0.031198978
-0.63331807 0.037786484 0.0020070076
-0.64241207 0.15826249 -0.02849102
-0.63825405 0.00041747093 0.011404991
-0.63071704 -0.28570151 0.083720207
-0.63509709 -0.11940157 0.041687012
-0.64957505 0.20402348 -0.040104866
-0.65036505 0.23376548 -0.047622681
-0.63656306 -0.28581548 0.083701134
-0.65553308 0.20395344 -0.040134907
-0.64911509 -0.035621524 0.020418167
-0.64394706 -0.22854257 0.069179058
-0.65599006 0.00015044212 0.01132822
-0.65275204 -0.1197015 0.041622162
-0.66423005 0.085470438 -0.010282993
-0.65410805 -0.28616357 0.083648205
-0.66884309 0.03727144 0.0018510818
-0.66153508 -0.22887754 0.069122314
-0.67810607 0.15781146 -0.028664112
-0.6715681 -0.078390479 0.031038284
-0.66440707 -0.33707654 0.096424103
-0.66581005 -0.28640056 0.083614349
-0.68203706 0.085219443 -0.010363102
-0.67865205 -0.036093533 0.020298958
-0.68617105 0.23335445 -0.047805786
-0.68069404 0.037094474 0.0018010139
-0.67025006 -0.33720052 0.09640789
-0.67166406 -0.28651953 0.083598137
-0.67630708 -0.12011254 0.041537285
-0.68891805 0.11866045 -0.018862724
-0.69214207 0.23328447 -0.047834873
-0.67751706 -0.28664052 0.083580971
-0.68809104 -0.12032354 0.041496277
-0.70192707 0.15749949 -0.028777122
-0.69638604 -0.036385536 0.020231247
-0.69741207 -0.00049751997 0.011158943
-0.70230007 -0.03648454 0.020207882
-0.69508505 -0.28700757 0.083533287
-0.69987905 -0.12053657 0.041454315
-0.71173906 0.084788442 -0.010491848
-0.71289206 -0.079106569 0.030887127
-0.70532107 -0.33796751 0.096319199
-0.71001804 -0.17736459 0.055724144
-0.72711909 0.20307046 -0.040487766
-0.71880007 -0.079212546 0.030865192
-0.7200501 -0.036785543 0.020143032
-0.72110808 -0.00088250637 0.01106596
-0.73397607 0.23277646 -0.048043728
-0.71702105 -0.33823049 0.096292019
-0.73062104 -0.0794245 0.030825138
-0.72287405 -0.33836353 0.096279144
-0.72768009 -0.17771256 0.055670261
-0.74366009 0.15692949 -0.028966904
-0.74504304 0.20283747 -0.04057169
-0.73781109 -0.03709352 0.020078182
-0.73889405 -0.0011795163 0.010999203
-0.73356909 -0.17783058 0.055653095
-0.75102007 0.20275849 -0.040599823
-0.74595809 0.036071479 0.0015349388
-0.73612106 -0.28789651 0.083427906
-0.75559407 0.15676147 -0.029020786
-0.75699806 0.20267946 -0.04062891
-0.75791007 0.23247445 -0.048160076
-0.74374604 -0.23054457 0.068881989
-0.75932509 0.084065437 -0.010693073
-0.76156306 0.15667647 -0.029047966
-0.75427407 -0.079859495 0.030744076
-0.74629205 -0.3389045 0.096228123
-0.76528007 0.083972454 -0.010716915
-0.77587408 0.23224247 -0.048245907
-0.76856107 -0.0016875267 0.0108881
-0.76972908 0.03567946 0.0014419556
-0.76480705 -0.12176752 0.04124403
-0.77824908 0.11736149 -0.019252777
-0.77202904 -0.080194592 0.030685902
-0.77336609 -0.037728548 0.019952297
-0.78186405 0.23216444 -0.048275948
-0.77567405 0.035579443 0.0014190674
-0.78315008 0.083688438 -0.010788918
-0.77794909 -0.080307484 0.030667305
-0.78043604 -0.0018955469 0.010846138
-0.78162104 0.035479486 0.0013980865
-0.77134109 -0.2886945 0.08334589
-0.79018104 0.11717749 -0.019302845
-0.78387105 -0.080420494 0.030649185
-0.78637505 -0.002001524 0.010824203
-0.78253907 -0.12211955 0.041189194
-0.79740709 0.15615547 -0.029203892
-0.79352009 0.035276473 0.0013532639
-0.78845406 -0.12223852 0.041172028
-0.80212009 0.11699146 -0.019351959
-0.79572004 -0.080650568 0.030611038
-0.79947108 0.035173476 0.0013313293
-0.80809104 0.11689746 -0.019375801
-0.81086409 0.20193946 -0.040874004
-0.81183606 0.2317645 -0.048413754
-0.80542308 0.035070479 0.0013103485
-0.79319108 -0.34003258 0.096135139
-0.81406307 0.11680347 -0.019401073
-0.80757207 -0.080883503 0.030574322
-0.80434108 -0.17930758 0.055457115
-0.81733209 0.034862459 0.0012660027
-0.80660909 -0.28952456 0.083272934
-0.80851108 -0.23197448 0.068724155
-0.81024808 -0.17943656 0.055443287
-0.82731408 0.15570444 -0.029329777
-0.82983708 0.23151845 -0.048496723
-0.82204407 -0.0026475191 0.01070118
-0.8232891 0.034757495 0.0012440681
-0.83086306 0.082903445 -0.010974884
-0.82799208 -0.0027575493 0.010681152
-0.82030308 -0.23224556 0.068696976
-0.83683306 0.082802474 -0.010996819
-0.84184307 0.23135149 -0.048549652
-0.82254505 -0.34076953 0.096085072
-0.82620108 -0.23238254 0.068684101
-0.84527409 0.15542644 -0.029403687
-0.83722907 -0.081478477 0.030486107
-0.84316605 -0.081600547 0.030469894
-0.84712905 0.034329474 0.0011620522
-0.83800209 -0.23265958 0.068660259
-0.85475308 0.082495451 -0.011061668
-0.85725605 0.15523845 -0.029453754
-0.84571308 -0.18022454 0.055356026
-0.85504109 -0.081845522 0.030436039
-0.85776007 -0.0033185482 0.010583878
-0.85905606 0.03411144 0.0011200905
-0.86246306 -0.039431512 0.019667149
-0.85370505 -0.29068351 0.083187103
-0.87386608 0.11582249 -0.019632816
-0.87685305 0.20097345 -0.041160107
-0.87790108 0.23083746 -0.048710823
-0.85960007 -0.29083252 0.083176136
-0.86162108 -0.23322356 0.068612099
-0.86346608 -0.18063152 0.055315018
-0.87985307 0.11572146 -0.019655704
-0.87436706 -0.039670527 0.019629955
-0.87696004 0.033779442 0.0010609627
-0.86369908 -0.34184051 0.096024036
-0.88723308 0.15475744 -0.029573917
-0.88032109 -0.039791524 0.019613266
-0.88993007 0.23066145 -0.048762798
-0.86958307 -0.3419975 0.096016884
-0.89487904 0.20069849 -0.041235924
-0.89594704 0.23057348 -0.048788071
-0.88919705 -0.12438452 0.040904999
-0.89819205 -0.04015851 0.019563198
-0.90415108 -0.040282547 0.019545078
-0.89900708 -0.18146551 0.055240154
-0.90107709 -0.1246525 0.040877342
-0.91457808 0.081430495 -0.011273861
-0.91581309 0.11509949 -0.019786835
-0.91724807 0.15426147 -0.029688835
-0.91893709 0.20032346 -0.041333675
-0.90089309 -0.29190159 0.083114147
-0.90493608 -0.18160748 0.055229187
-0.92056906 0.081320465 -0.011294842
-0.91450405 -0.083117485 0.030280113
-0.91607404 -0.040532529 0.019514084
-0.91296208 -0.12492251 0.040850163
-0.92656308 0.081209481 -0.011314869
-0.9292661 0.15405947 -0.029733658
-0.93097609 0.20013344 -0.04138279
-0.92204005 -0.040658534 0.019496918
-0.91679907 -0.18189359 0.055206299
-0.92935109 -0.0047395229 0.010368347
-0.93855107 0.08098644 -0.01135397
-0.93532705 -0.0048625469 0.010351181
