# .PCD v0.7 - Point Cloud Data file format
VERSION 0.7
FIELDS x y z
SIZE 4 4 4
TYPE F F F
COUNT 1 1 1
WIDTH 1
HEIGHT 1024
VIEWPOINT 0 0 0 1 0 0 0
POINTS 1024
DATA ascii
0.98636341 -0.016793966 0.12491798
0.98004144 -0.01621896 0.12805605
0.95672745 -0.015882969 0.12710571
0.99656743 -0.018654943 -0.15637302
0.95095146 -0.015854955 0.12649679
0.99084741 -0.018928945 -0.15918112
0.98201144 0.074417055 -0.13956118
0.94736445 0.078863025 -0.10833931
0.93751144 0.15818405 -0.079898357
0.94494241 -0.021121979 -0.1814723
0.92436343 0.15930903 -0.071664333
0.94685346 0.18845904 -0.2424922
0.93918341 -0.021394968 -0.18423605
0.89322442 -0.01560998 0.12041378
0.91322941 0.11809003 -0.078653336
0.91244042 0.15938205 -0.072579384
0.88997746 -0.018398941 0.10037565
0.90717041 0.11821401 -0.078389168
0.90679544 0.15913606 -0.075488091
0.90745544 0.20615101 -0.080605984
0.87617946 -0.059348941 0.11650562
0.87604046 0.021000028 0.1175909
0.89573145 0.15842801 -0.083178043
0.89277041 0.079856038 -0.10742903
0.87055844 0.014365017 0.068392754
0.88301641 0.11864203 -0.077861309
0.86614645 -0.068069994 0.056616783
0.87341845 -0.032569945 -0.0013513565
0.88720644 0.23410201 -0.11126518
0.85885745 0.058964014 0.11472797
0.86598343 0.0065330267 0.010573864
0.85527742 0.056635022 0.096521854
0.8636654 0.002564013 -0.018717289
0.86318243 -0.041211963 -0.06333828
0.87563545 0.27413803 -0.16476822
0.86132944 -0.0014389753 -0.048250198
0.85059345 0.049190044 0.039186001
0.86090243 0.20536506 -0.093868256
0.83267444 -0.16416091 0.089594841
0.85276145 -0.050012946 -0.12642527
0.84203446 -0.089043915 -0.087244034
0.8175714 -0.21352094 0.117908
0.8257274 -0.17059702 0.049513817
0.82686645 0.16765505 -0.0099239349
0.82222342 -0.17384499 0.029301643
0.83153945 -0.12708801 -0.049405098
0.8073104 0.18100506 0.10591888
0.82004744 0.087638021 -0.053452969
0.82995844 0.23204303 -0.13846016
0.82001841 0.037545025 -0.053205013
0.81646144 -0.12266392 -0.022696018
0.8110674 0.04104805 -0.027565002
0.80324143 0.093104064 -0.011312008
0.8039754 0.12692004 -0.017701149
0.79547942 0.17555106 0.056287766
0.79873741 -0.11448199 0.027914047
0.79513645 0.13005602 0.0076570511
0.79257041 0.010415018 0.030173779
0.78264344 -0.32554001 0.11731005
0.7838394 0.013975024 0.055165768
0.78008044 -0.16334397 0.088414669
0.78128743 -0.10643095 0.077743053
0.77847743 0.17511803 0.050525665
0.77582741 0.22424805 0.074149609
0.77353442 -0.060776949 0.094588757
0.77442342 -0.018359959 0.08666563
0.77290541 0.25696903 0.10019684
0.76833445 0.10600603 0.088768005
0.76902342 0.13931704 0.08257103
0.76536041 -0.32551593 0.11549282
0.79104841 0.27458102 -0.16997194
0.76076043 0.059124053 0.1043787
0.76010042 -0.15937692 0.11034966
0.76027644 -0.10124499 0.10876083
0.75523841 0.14175105 0.101511
0.75535542 0.18105203 0.10043669
0.7554934 0.22714406 0.099177837
0.76617044 0.29118502 0.0016889572
0.75417542 -0.21342391 0.11121893
0.75433642 -0.15937299 0.10974264
0.74958342 0.18105406 0.09982872
0.74887246 -0.058612943 0.10638094
0.74900043 -0.01531899 0.10519695
0.74910945 0.021223009 0.10419893
0.7482354 -0.2728489 0.11223698
0.74369442 0.14175606 0.10029364
0.74310446 -0.058610976 0.10577106
0.74323142 -0.01531595 0.10458899
0.75511444 0.29059702 -0.0056920052
0.73733741 -0.058609962 0.10516405
0.73768145 0.059133053 0.10194588
0.73671144 -0.27284402 0.111022
0.73688543 -0.21341592 0.10939693
0.7321524 0.14175802 0.099077702
0.73248643 0.25698304 0.095926762
0.74403745 0.29000801 -0.013060093
0.73095042 -0.27284294 0.11041498
0.73112243 -0.21341497 0.10878897
0.72638142 0.14175802 0.098468781
0.72592944 -0.015313983 0.1027627
0.72503841 -0.32549399 0.11124182
0.72518945 -0.27284294 0.10980701
0.7205134 0.10788804 0.098786831
0.72093844 0.25698304 0.094710827
0.71975142 -0.159365 0.10609579
0.71427143 -0.058610976 0.10273266
0.71383345 -0.21341699 0.10696602
0.71415043 -0.10123402 0.10389805
0.70930541 0.22714704 0.094308853
0.70320141 0.10788304 0.096961021
0.70353246 0.22714502 0.093699932
0.7027384 -0.058615983 0.10151672
0.70285845 -0.015320957 0.10033274
0.69752342 0.14174902 0.09542799
0.69697142 -0.058618963 0.10090876
0.69142145 0.021213055 0.098116875
0.69078141 -0.21343201 0.10453701
0.68543744 -0.058628976 0.099692822
0.69949245 0.28764904 -0.042376041
0.68565345 0.021209061 0.097508907
0.68532145 -0.10125297 0.10085869
0.68011743 0.10786706 0.094528675
0.67967045 -0.058634937 0.099085808
0.68051642 0.25696605 0.090456963
0.67895442 -0.32552701 0.10638571
0.67940044 -0.15939301 0.10184288
0.67434645 0.10786104 0.093920708
0.67390442 -0.05864197 0.09847784
0.6747424 0.25696206 0.089848995
0.67319441 -0.32553595 0.10577869
0.68269342 0.28676403 -0.053305149
0.66280341 0.10784805 0.092703819
0.66299444 0.18102103 0.090699673
0.66236842 -0.058656991 0.097261906
0.66196442 -0.213471 0.1014986
0.65712041 0.14171201 0.091167927
0.65671343 -0.015368938 0.095468998
0.64567643 0.18099904 0.088874817
0.64517742 -0.015388966 0.094253063
0.66021246 0.28558207 -0.067821026
0.64438945 -0.32559294 0.10274363
0.64452344 -0.27293795 0.10130501
0.63980246 0.14168704 0.089344025
0.64001745 0.22708601 0.087005615
0.63890946 -0.21351796 0.099069595
0.63394642 0.10780501 0.089663029
0.64893645 0.28499103 -0.075056076
0.63286644 -0.32562202 0.10153198
0.62817442 0.10779405 0.089055061
0.62846845 0.22706902 0.085790634
0.64329141 0.28469503 -0.078667164
0.62796044 0.021123052 0.091426849
0.62751442 -0.15948898 0.096374989
0.62765843 -0.10135096 0.094782829
0.62240344 0.10778302 0.088446617
0.62248546 0.14165604 0.087518692
0.62228346 0.059022009 0.089781761
0.6217494 -0.159504 0.095767975
0.62189144 -0.10136491 0.094175816
0.61633241 -0.015449941 0.091212749
0.63198245 0.28410304 -0.085876942
0.6164214 0.021097064 0.090212822
0.61651343 0.059009016 0.089173794
0.61570942 -0.27301496 0.098268986
0.61612445 -0.10137993 0.093567848
0.60516542 0.14162004 0.085693836
0.60525942 0.18092704 0.084616661
0.60536742 0.22702801 0.083361626
0.60543841 0.25686705 0.082547665
0.60418141 -0.27305192 0.097055912
0.6045894 -0.101412 0.092352867
0.59948444 0.18091404 0.08400774
0.5988214 -0.10142893 0.0917449
0.59371042 0.18090105 0.083398819
0.59291846 -0.15959102 0.092730999
0.58803946 0.22699106 0.081537724
0.58810842 0.25683105 0.080721855
0.58756644 0.021021008 0.087172985
0.58715045 -0.15961093 0.092123032
0.58199245 0.10768604 0.084188938
0.58112544 -0.27313799 0.09462595
0.58126146 -0.21369594 0.092996597
0.58151644 -0.10148591 0.089921951
0.57648742 0.22696406 0.080320835
0.57060945 0.18084306 0.080966949
0.57071143 0.22694904 0.079712868
0.57007444 -0.058890939 0.087538719
0.57017142 -0.015584946 0.086350918
0.57077742 0.25679106 0.078896999
0.56430542 -0.058912992 0.086928844
0.56500041 0.25677705 0.078287601
0.56456441 0.058866024 0.083701611
0.56408244 -0.15969902 0.089692593
0.5590564 0.18081003 0.079748631
0.57508641 0.28114206 -0.12168217
0.55870742 0.020928025 0.084132671
0.55328041 0.18079305 0.079140663
0.55293542 0.020907044 0.083524704
0.55254543 -0.15974694 0.088479042
0.5636394 0.28054905 -0.12879419
0.54164445 0.14144105 0.079001904
0.5418244 0.22686803 0.076669693
0.5408954 -0.21387202 0.088747025
0.53586745 0.14142102 0.078392982
0.53561544 0.020840049 0.081699848
0.53523844 -0.15982693 0.086657047
0.5300914 0.14140105 0.077785015
0.52976739 -0.015740991 0.082095623
0.52912742 -0.32605892 0.090607643
0.52923542 -0.27338499 0.089162827
0.52935839 -0.21392995 0.087530613
0.52424544 0.10749501 0.07810688
0.52336144 -0.32609195 0.090000629
0.51846939 0.10747206 0.077497959
0.51759642 -0.32612699 0.089393616
0.51283944 0.18065703 0.074882984
0.51293039 0.22677404 0.073626041
0.51236141 -0.059135973 0.081459999
0.51216143 -0.15994495 0.084225655
0.50691539 0.10742503 0.076282024
0.50720739 0.25660402 0.072199821
0.50674444 0.020715058 0.078660011
0.50606239 -0.32619792 0.088180065
0.50628239 -0.21405691 0.085101604
0.50113839 0.10740101 0.075672626
0.50136942 0.22673303 0.072408676
0.50081444 -0.059193969 0.080245018
0.50142741 0.25658405 0.0715909
0.5002954 -0.326235 0.087574005
0.49504143 -0.05922395 0.079637051
0.49484742 -0.16004199 0.08240366
0.49495944 -0.10187393 0.080806732
0.48964742 0.14124101 0.073525906
0.48980844 0.22668904 0.071190834
0.48986542 0.25654203 0.070373058
0.48876143 -0.32631296 0.086359024
0.48918644 -0.10190696 0.080198765
0.48386842 0.14121503 0.072916031
0.48349342 -0.059286952 0.078420639
0.48357442 -0.015962958 0.077232838
0.48408344 0.25652003 0.069762707
0.48309243 -0.27366692 0.084305763
0.48320344 -0.21419793 0.082674026
0.47802544 0.10729605 0.07323885
0.49446842 0.27698606 -0.17110395
0.47722444 -0.32639402 0.08514595
0.47224644 0.10726905 0.072629929
0.47230843 0.14116305 0.07170105
0.47145543 -0.32643598 0.084538937
0.47175843 -0.16018301 0.079972744
0.47186443 -0.10200793 0.078375816
0.46668142 0.22659606 0.068754673
0.48286042 0.27639204 -0.17809534
0.46637943 0.058448017 0.073361874
0.46068743 0.10721105 0.07141161
0.45490643 0.10718203 0.070804596
0.45503342 0.18041402 0.068802834
0.45461443 -0.059456944 0.075380802
0.47122842 0.27579701 -0.18507004
0.45423844 -0.27387291 0.081268787
0.44925144 0.18038702 0.068193913
0.44933143 0.22652006 0.066928864
0.44897643 0.020414054 0.072577953
0.44837642 -0.32661396 0.082108974
0.44866344 -0.16033691 0.077542782
0.44876444 -0.10215396 0.075945854
0.44340244 0.14102101 0.068655968
0.44306144 -0.05952996 0.074164867
0.44313443 -0.016195953 0.072974682
0.44359842 0.25635403 0.065500736
0.44319743 0.02038002 0.071971893
0.44288942 -0.16037792 0.076934814
0.44298843 -0.10219294 0.075336933
0.43735644 -0.016231954 0.072365761
0.43683442 -0.32670802 0.080895901
0.43692344 -0.27400702 0.0794487
0.43124944 -0.21456701 0.077205658
0.43133944 -0.16046196 0.075719833
0.42599842 0.10702503 0.067760944
0.42624143 0.25627506 0.063673019
0.42591843 0.058220029 0.069102764
0.42547342 -0.21461195 0.076598644
0.42033243 0.18024004 0.065149784
0.41454843 0.18020904 0.064540863
0.41462144 0.22635305 0.063273907
0.40864944 0.10692304 0.065934658
0.40870142 0.14083105 0.065004826
0.40857244 0.058112025 0.067276955
0.40260744 -0.059809983 0.069907665
0.40219644 -0.32701498 0.077252865
0.40227744 -0.27430195 0.075801849
0.40236944 -0.21480197 0.074167728
0.39718944 0.18011302 0.062712669
0.39682642 -0.059852958 0.069298744
0.41272944 0.27282006 -0.21967411
0.39694744 0.020082057 0.067102909
0.39642242 -0.32706994 0.076645851
0.39650244 -0.27435392 0.075195789
0.38526443 -0.059941947 0.068082809
0.38503742 -0.21495396 0.07234478
0.38511643 -0.16083091 0.070857048
0.37982744 0.18001103 0.06088686
0.39507043 0.27192605 -0.22996902
0.37403744 0.17997605 0.060276031
0.37386444 0.057878017 0.063623905
0.37347844 -0.21505994 0.071128845
0.36819342 0.14058304 0.060747623
0.36831242 0.22610104 0.058399677
0.36785543 -0.10276598 0.067431927
0.36219043 -0.016766965 0.06445694
0.37735844 0.27103204 -0.24022198
0.36207244 -0.10281593 0.066823959
0.35666943 0.17986804 0.058448792
0.37144342 0.27073401 -0.24362993
0.35645443 0.019785047 0.062841892
0.35605744 -0.274746 0.070943832
0.35082442 0.14046603 0.05892086
0.35093743 0.22599703 0.056571007
0.34483144 -0.01690799 0.062630653
0.34487844 0.01969403 0.06162405
0.34464344 -0.16119796 0.0666008
0.33904344 -0.016956985 0.062021732
0.35366243 0.26983905 -0.25382805
0.33871543 -0.27492696 0.06911993
0.33350143 0.17971504 0.056010723
0.33293343 -0.27499002 0.068511963
0.32182544 0.10632801 0.056800842
0.32196942 0.22581303 0.053521633
0.32162544 -0.060481966 0.061388969
0.32143945 -0.21557802 0.065657616
0.32150444 -0.16142601 0.064167023
0.31607342 0.14021802 0.055263042
0.31620842 0.25566602 0.052090645
0.32987744 0.26864606 -0.26736116
0.31593144 0.019454062 0.058578014
0.31597644 0.057434022 0.057532787
0.31558442 -0.27518302 0.066688061
0.31571844 -0.16148502 0.063557625
0.31027943 0.14017403 0.054653645
0.31009844 -0.017209947 0.058977604
0.30421042 -0.10335594 0.06073761
0.29865044 0.10614502 0.054365635
0.29878244 0.22565705 0.051081657
0.31197843 0.26775002 -0.2774601
0.29855442 0.019301057 0.056749821
0.29859644 0.057287037 0.055704594
0.29285544 0.10609806 0.053757668
0.29301742 0.25551403 0.049649715
0.30001843 0.26715302 -0.2841692
0.28660044 -0.32828897 0.06510067
0.28126344 0.10600203 0.052538872
0.28081441 -0.328363 0.064492702
0.27546641 0.10595202 0.051928997
0.27550042 0.13990003 0.050995827
0.27558741 0.22549105 0.048640728
0.27529842 -0.060933948 0.056515694
0.27541742 0.057083011 0.053267002
0.26978543 0.22544903 0.048031807
0.26954544 -0.017595947 0.054711819
0.26929143 -0.27573794 0.061822891
0.26940343 -0.16198891 0.058689594
0.26382244 0.056977034 0.052046776
0.26345143 -0.32858998 0.0626688
0.26355943 -0.21623796 0.05957365
0.25798842 0.018921018 0.052484035
0.25781843 -0.16212291 0.057471752
0.25227043 0.10574901 0.049489975
0.25237942 0.22531706 0.046199799
0.25215742 -0.017771959 0.052885056
0.25219041 0.018864036 0.051874638
0.25187343 -0.32874697 0.061452866
0.25192142 -0.27596098 0.059996605
0.24646743 0.10569704 0.048879623
0.24649844 0.13965505 0.047945023
0.24657443 0.22527206 0.045589924
0.25797942 0.26506203 -0.30750418
0.24639043 0.01880604 0.051263809
0.24618143 -0.21645397 0.057746887
0.24069643 0.13960403 0.047333717
0.24052243 -0.061303973 0.052861691
0.25195143 0.26476306 -0.31081915
0.24033643 -0.276115 0.05878067
0.23486443 0.10559005 0.047660828
0.23489343 0.13955206 0.046723843
0.23499043 0.25509703 0.043545723
0.23479143 0.018688023 0.050045013
0.23482344 0.056699038 0.048997879
0.22328544 0.13944805 0.045503616
0.21735743 -0.018143952 0.049225807
0.21164744 0.10536903 0.045217991
0.21158244 0.018444061 0.047605038
0.21132343 -0.32932502 0.057192802
0.21136244 -0.27651495 0.055737972
0.21144743 -0.16269296 0.052599907
0.20592743 0.22494304 0.041312695
0.20594943 0.25486904 0.040489674
0.21566643 0.26296902 -0.33060122
0.20008543 0.17865503 0.041975975
0.20013843 0.25482202 0.039878845
0.19411343 -0.061840951 0.047983646
0.20352542 0.26237005 -0.33715725
0.19393243 -0.32958692 0.055366993
0.18820743 -0.217228 0.051656723
0.18250343 -0.061982989 0.046762943
0.18244043 -0.16307801 0.049551964
0.18247743 -0.10474998 0.047941685
0.17687044 0.22469103 0.038257599
0.17656843 -0.27702695 0.052083015
0.17660443 -0.21739393 0.050437927
0.17102943 0.17838407 0.038919926
0.17105643 0.22463906 0.037645817
0.17089143 -0.062126935 0.045542717
0.17918043 0.26117402 -0.35020638
0.17093743 0.017989039 0.043333054
0.17095943 0.056030035 0.04228878
0.16517442 0.10489601 0.040331841
0.16502543 -0.16331798 0.047722816
0.15936144 0.10483402 0.039721012
0.15940043 0.17827106 0.037696838
0.15927343 -0.062275946 0.044322014
0.15915944 -0.27729398 0.050254822
0.15919043 -0.21764892 0.04860878
0.15358542 0.17821401 0.03708601
0.15360843 0.22447902 0.035810947
0.15352343 0.055834055 0.040457726
0.15332843 -0.33023292 0.051103592
0.14765343 -0.062426984 0.043100834
0.14780542 0.25437301 0.03437376
0.14193243 0.13864505 0.036948681
0.14184043 -0.062503994 0.042490005
0.14186043 -0.019039989 0.04129076
0.14198543 0.25432003 0.033761024
0.13610142 0.10457903 0.037275791
0.13613242 0.17803901 0.035250664
0.13604742 -0.019114971 0.040679932
0.13591243 -0.33052391 0.049275875
0.13596143 -0.21800095 0.046169758
0.13033342 0.22425902 0.033362865
0.13034542 0.25421405 0.032536983
0.12449443 0.17792004 0.034028053
0.12436242 -0.16390902 0.043450832
0.12438542 -0.10553795 0.0418396
0.11869042 0.22414601 0.032137871
0.11860242 -0.019340992 0.038847923
0.12407643 0.25847906 -0.37927723
0.11857142 -0.10562092 0.041229725
0.11282642 0.10431504 0.034828663
0.11283743 0.13832903 0.033891678
0.11279643 0.017280042 0.037222862
0.11267942 -0.33092695 0.046837807
0.11269742 -0.27805096 0.045376778
0.11275543 -0.10570496 0.040617943
0.11176942 0.25788003 -0.38568115
0.10690442 -0.21846193 0.043119907
0.10693942 -0.10578996 0.040009022
0.10121842 0.22397101 0.030302048
0.10114842 -0.01957494 0.037013054
0.10110642 -0.16426593 0.041009903
0.10112342 -0.10587496 0.039395809
0.095361426 0.10410905 0.03299284
0.095392421 0.22391206 0.029689789
0.09532842 -0.019653976 0.036401749
0.095245421 -0.33123893 0.045008659
0.089537427 0.10404003 0.032382011
0.089555427 0.17754704 0.030354023
0.089507423 -0.019733965 0.03579092
0.089516424 0.016976058 0.034778595
0.083737426 0.22379202 0.02846384
0.083684422 -0.019814968 0.035178661
0.083743423 0.25376606 0.027637005
0.083666421 -0.10613698 0.037563801
0.077914424 0.25370806 0.027023792
0.077869423 0.016821027 0.033557892
0.077876426 0.054910064 0.03250885
0.072031423 -0.063484013 0.035157681
0.066231422 0.10375404 0.029932976
0.066214427 -0.02006197 0.033343792
0.066219427 0.016662061 0.032334805
0.066185422 -0.219145 0.038846016
0.066201426 -0.10640591 0.035729885
0.060405426 0.13772106 0.028380871
0.060416423 0.22354603 0.026012897
0.060386427 -0.020144939 0.03273201
0.060419425 0.25353003 0.025183678
0.054583423 0.22348303 0.025398731
0.054560423 -0.020229936 0.032119751
0.048746422 0.17708504 0.026063919
0.048713423 -0.27918893 0.038663864
0.042911425 0.13750803 0.02654171
0.042917423 0.25334704 0.023344994
0.042888425 -0.33222693 0.039516926
0.037073426 -0.064015925 0.031487942
0.037074424 -0.020487964 0.030283928
0.037066426 -0.33234197 0.038904667
0.037068427 -0.27940792 0.03744173
0.031241424 0.13736206 0.025315762
0.031241424 -0.020574987 0.029670715
0.031241424 0.25398505 -0.42680502
0.031241424 -0.33245796 0.038294792
0.031241424 -0.10696596 0.032059669
0.025406424 0.13728905 0.024703979
0.025410425 -0.020662963 0.029058933
0.025009423 0.25368506 -0.42993116
0.019569425 0.13721406 0.024089813
0.019565426 0.22309303 0.021718025
0.019579425 -0.064292967 0.029649734
0.019573424 0.054120064 0.02638483
0.019586425 -0.21997792 0.033956051
0.019584425 -0.16561991 0.03245306
0.013731424 0.13713902 0.023476601
0.013725424 0.22302604 0.021104813
0.013765424 -0.33281094 0.03646183
0.013761425 -0.27985698 0.034996986
0.0078944247 0.10299605 0.023804665
0.0079104248 -0.06448096 0.02842474
0.0079144239 -0.10735494 0.02960968
0.0020554252 0.10291606 0.023190975
0.0020464249 0.17652303 0.021158695
2.3424625e-05 0.25248605 -0.44238329
0.0020614248 0.053870022 0.02454567
0.0021074247 -0.33305091 0.035239697
0.0020804238 -0.107454 0.028998852
-0.0037955772 0.17645001 0.020544052
-0.0037605744 -0.064673007 0.027199745
-0.0037675742 -0.021114945 0.025996685
-0.0062355753 0.25218701 -0.44548416
-0.0037295762 -0.280204 0.033162594
-0.0095715765 -0.22052795 0.030896664
-0.015469575 0.10267401 0.021349907
-0.015475577 0.13675505 0.020407677
-0.015492575 0.22268301 0.018034935
-0.015445577 -0.021300972 0.024773598
-0.015452577 0.015469015 0.023758888
-0.015417574 -0.16625196 0.028779984
-0.021330575 0.17622703 0.01870203
-0.021287577 -0.021394968 0.024160862
-0.021346575 0.25263602 0.016588688
-0.021255577 -0.16636091 0.028166771
-0.021268575 -0.10785991 0.026548862
-0.027167575 0.13659704 0.019179821
-0.027129574 -0.021489978 0.023548603
-0.027053574 -0.33366996 0.03218174
-0.03300558 0.10242605 0.019508839
-0.032960579 -0.065164983 0.024133682
-0.03298258 0.015196025 0.021919727
-0.032889575 -0.33379596 0.031570911
-0.032903574 -0.28080195 0.030103683
-0.032919578 -0.220985 0.028449059
-0.032949574 -0.10806698 0.025323868
-0.038862579 0.13643706 0.017951012
-0.038726576 -0.333924 0.030958652
-0.038741574 -0.28092402 0.029491901
-0.038758576 -0.22110099 0.027835846
-0.038791575 -0.108172 0.024709702
-0.044565581 -0.33405191 0.030347824
-0.044600576 -0.22121793 0.027222633
-0.044636577 -0.10827798 0.024096966
-0.050576575 0.17584401 0.015628815
-0.050602578 0.25229102 0.013514996
-0.056511581 0.24978805 -0.47008801
-0.050522581 0.014916062 0.020077705
-0.050535575 0.053083062 0.019022942
-0.050422579 -0.2811709 0.028266907
-0.050442576 -0.22133595 0.026609898
-0.056402579 0.10208601 0.017051697
-0.056357577 -0.021974981 0.020482063
-0.062819578 0.24948806 -0.47313929
-0.056371577 0.014821053 0.019464016
-0.05630558 -0.16702801 0.024491787
-0.062150575 -0.16714293 0.023876667
-0.06807258 0.014629066 0.01823473
-0.067975581 -0.22169596 0.02477169
-0.068021581 -0.10870999 0.021642685
-0.074016578 0.22195506 0.011883736
-0.073910579 -0.022275984 0.018640041
-0.073926575 0.01453203 0.017621994
-0.073797576 -0.28167802 0.025815964
-0.073847577 -0.16737396 0.022651672
-0.073872574 -0.10882002 0.021029949
-0.079835579 0.13585502 0.013648033
-0.085693575 0.13577002 0.013032913
-0.085595578 -0.066099942 0.018612862
-0.085749574 0.25186002 0.0098218918
-0.09444458 0.24798906 -0.48831034
-0.085652575 0.05252701 0.01533699
-0.08552058 -0.22206396 0.022932053
-0.085546575 -0.16760892 0.021423817
-0.091572575 0.17528301 0.011322975
-0.091449574 -0.066206992 0.017997742
-0.091610581 0.25178605 0.0092067719
-0.091490574 0.014236033 0.015778065
-0.091370575 -0.22218901 0.02231884
-0.091398574 -0.16772801 0.02080965
-0.097459577 0.22164804 0.0094218254
-0.097369574 0.052336037 0.014105797
-0.097223572 -0.22231394 0.021705627
-0.09725257 -0.16784698 0.020197868
-0.10325658 0.10137504 0.012129784
-0.10332357 0.22157001 0.0088047981
-0.10320758 0.014036059 0.014546871
-0.10918858 0.22149104 0.0081887245
-0.10904657 -0.022896945 0.01495266
-0.10920558 0.25156206 0.0073566437
-0.10906758 0.013934016 0.013932705
-0.10908958 0.052142024 0.012876034
-0.10899658 -0.10949701 0.017345905
-0.11488058 -0.06664592 0.01554203
-0.11492858 0.013832033 0.013318062
-0.11481858 -0.16821092 0.018354893
-0.12094057 0.25141001 0.0061249733
-0.12079158 0.013730049 0.012702942
-0.12081558 0.051946044 0.011645794
-0.12060558 -0.282736 0.02091074
-0.12064258 -0.22282392 0.01925087
-0.12671357 0.10100406 0.0096697807
-0.13894457 0.24588901 -0.50931931
-0.12653758 -0.16845793 0.017125607
-0.13263057 0.17469203 0.0070099831
-0.13266256 0.22117102 0.0057239532
-0.15170556 0.24529004 -0.51526928
-0.13818057 -0.28314894 0.019068718
-0.13830157 -0.11008292 0.014271736
-0.14419757 -0.067211926 0.012470722
-0.14408457 -0.22334999 0.016792774
-0.15021756 0.13478702 0.0062580109
-0.16449057 0.24469006 -0.52119923
-0.15012658 0.013205051 0.009624958
-0.14999057 -0.16896194 0.014667034
-0.16791257 0.22067404 0.0020208359
-0.16767557 -0.067678988 0.010008812
-0.16771157 -0.023991942 0.0087976456
-0.16749758 -0.28385597 0.015997887
-0.17364857 0.05102706 0.0061006546
-0.17341657 -0.22402591 0.013720989
-0.17967556 0.22050405 0.00078582764
-0.17946157 -0.02421999 0.0075650215
-0.17970157 0.25061601 -4.8160553e-05
-0.19654156 0.24319106 -0.5359211
-0.18540557 0.050815046 0.0048680305
-0.21583557 0.24229103 -0.54468393
-0.19679958 -0.33774501 0.014397621
-0.19685057 -0.28458601 0.012924671
-0.20272657 -0.2847349 0.012308598
-0.20283757 -0.17014593 0.0091290474
-0.20901757 0.13382703 8.4877014e-05
-0.20860156 -0.28488499 0.011693954
-0.21487057 0.099519014 0.000415802
-0.21469957 -0.068651974 0.0050778389
-0.21474357 -0.024922967 0.0038657188
-0.21482056 0.050274014 0.0017809868
-0.21454057 -0.225012 0.0094118118
-0.22070658 0.050163031 0.0011639595
-0.22030258 -0.33837301 0.011937618
-0.22042057 -0.22515696 0.0087957382
-0.22655457 0.011755049 0.0016078949
-0.22636056 -0.17069596 0.0066637993
-0.23262057 0.17313606 -0.0034871101
-0.23270458 0.24985504 -0.0056142807
-0.23843256 0.099097013 -0.0020561218
-0.23833558 0.011521041 0.00037288666
-0.23800457 -0.28564996 0.0086140633
-0.24436557 0.13322103 -0.0036230087
-0.24441156 0.17294204 -0.0047249794
-0.24413556 -0.069285929 0.0019927025
-0.24427056 0.049714029 -0.0013093948
-0.24382856 -0.33901697 0.009475708
-0.24408656 -0.11236495 0.0031847954
-0.25036258 0.21943504 -0.0066361427
-0.25012058 0.011284053 -0.00086307526
-0.24971357 -0.33917993 0.0088610649
-0.24977556 -0.28596193 0.007381916
-0.24990857 -0.17125899 0.0041966438
-0.25597358 -0.025776982 -0.00045824051
-0.25580058 -0.17140192 0.0035796165
-0.26220256 0.24941301 -0.0087122917
-0.26196057 0.049371064 -0.003162384
-0.26162657 -0.22619396 0.0044808388
-0.26791957 0.098556042 -0.005147934
-0.26806858 0.21915501 -0.0084943771
-0.26810658 0.24932301 -0.00933218
-0.26737857 -0.33967692 0.0070128441
-0.26751858 -0.22634596 0.0038628578
-0.27401158 0.24923205 -0.0099511147
-0.27371156 0.010801017 -0.0033383369
-0.27333656 -0.28659898 0.0049157143
-0.27981958 0.17234403 -0.0084409714
-0.27987957 0.21896505 -0.0097341537
-0.27991858 0.24914104 -0.010571957
-0.28572857 0.17224205 -0.0090622902
-0.28527758 -0.172131 0.00049066544
-0.28535458 -0.11332399 -0.0011372566
-0.29169858 0.21877301 -0.010976315
-0.29110456 -0.22696298 0.001393795
-0.29721656 -0.070476949 -0.0035700798
-0.29700458 -0.22711891 0.00077581406
-0.29715857 -0.11360592 -0.0023732185
-0.30335557 0.097884059 -0.0088663101
-0.30352157 0.21857905 -0.012216091
-0.30318257 -0.026798964 -0.0054063797
-0.30290556 -0.22727698 0.00015687943
-0.30306256 -0.11374801 -0.0029921532
-0.34567058 0.23629802 -0.60176039
-0.31510958 0.048301041 -0.0087361336
-0.31462958 -0.28775102 0.00059461594
-0.32114458 0.13182902 -0.011679173
-0.32091358 -0.027194977 -0.0072641373
-0.32078657 -0.11417991 -0.0048489571
-0.32701057 0.097423017 -0.011347294
-0.32676157 -0.071165979 -0.0066652298
-0.32688156 0.0096720457 -0.0089101791
-0.33304057 0.17140502 -0.014025211
-0.33311057 0.21808404 -0.015322208
-0.33267558 -0.071307003 -0.0072860718
-0.33315557 0.24829704 -0.016160965
-0.33261058 -0.11447102 -0.0060873032
-0.33903456 0.21798301 -0.015944004
-0.33859158 -0.071447909 -0.0079050064
-0.37188658 0.23510003 -0.61288738
-0.33877456 0.047807038 -0.011217117
-0.34469357 0.047682047 -0.011837959
-0.34408858 -0.34193498 -0.001013279
-0.35093156 0.24800605 -0.018027306
-0.35000056 -0.34211594 -0.0016322136
-0.35008457 -0.28877598 -0.0031151772
-0.35017958 -0.22856897 -0.0047903061
-0.35673657 0.17097205 -0.016510963
-0.35609558 -0.22873491 -0.0054092407
-0.35618356 -0.17396802 -0.0069332123
-0.36274058 0.21757406 -0.01843214
-0.36226958 -0.072020948 -0.010385036
-0.39818257 0.23390204 -0.62391615
-0.36240056 0.0088860393 -0.012634277
-0.36852956 0.13091904 -0.016649246
-0.40477058 0.23360306 -0.62665796
-0.36839157 0.047174037 -0.014322281
-0.36774758 -0.34266394 -0.0034871101
-0.37440258 0.096468031 -0.016317368
-0.37445956 0.13080204 -0.017271042
-0.37411958 -0.072311938 -0.011627197
-0.37366658 -0.34284896 -0.0041069984
-0.38045958 0.17053002 -0.019000053
-0.38053858 0.21726102 -0.020298958
-0.37958658 -0.34303492 -0.0047249794
-0.37977958 -0.22940797 -0.0078883171
-0.37997258 -0.11567193 -0.011047363
-0.38632557 0.13056701 -0.018514156
-0.42456156 0.23270506 -0.63484716
-0.39840657 0.24720407 -0.0230093
-0.40328658 -0.34378892 -0.0072031021
-0.41001657 0.095724046 -0.020051003
-0.41015258 0.16996205 -0.022114277
-0.40952256 -0.17543 -0.012513161
-0.41609558 0.16984701 -0.02273798
-0.41564658 -0.073355973 -0.015974998
-0.41579658 0.0076570511 -0.018229008
-0.41514656 -0.34417194 -0.0084424019
-0.41545758 -0.17559701 -0.013133049
-0.42166957 -0.02956897 -0.017820358
-0.42118058 -0.290932 -0.010550022
-0.42129356 -0.23061997 -0.01223135
-0.42798957 0.16961503 -0.02398634
-0.42761156 -0.029715955 -0.018442154
-0.47092158 0.23061103 -0.65373421
-0.42733458 -0.17593294 -0.01437521
-0.43408656 0.24658006 -0.026754379
-0.43362656 0.0072340369 -0.020097256
-0.43338758 -0.11708802 -0.016638279
-0.43974456 0.095085025 -0.023167133
-0.43988958 0.16938001 -0.025234222
-0.43941557 -0.073970973 -0.018463135
-0.44599557 0.24636704 -0.028003216
-0.44559956 0.045443058 -0.022414207
-0.45179757 0.16914201 -0.026482105
-0.49752355 0.22941506 -0.66438913
-0.45077157 -0.34534591 -0.012166977
-0.45122558 -0.11757499 -0.018504143
-0.45767358 0.12910002 -0.025996208
-0.45750356 0.045167029 -0.023660183
-0.46330458 -0.030611992 -0.022179127
-0.46289358 -0.23187894 -0.016581059
-0.46300557 -0.17696398 -0.018106937
-0.46312556 -0.11790401 -0.019750118
-0.46951854 0.094429016 -0.026288033
-0.46958959 0.12884605 -0.027245045
-0.47466958 -0.29264194 -0.016143322
-0.47479659 -0.23224694 -0.01782608
-0.48144156 0.094162047 -0.027537346
-0.48176259 0.24571604 -0.031754971
-0.48772955 0.24560606 -0.032382011
-0.49344558 0.12833107 -0.029745102
-0.4935326 0.16829205 -0.03085804
-0.49960655 0.21504301 -0.032790184
-0.50538558 0.12807006 -0.030997276
-0.50557858 0.21492606 -0.033416271
-0.50493455 -0.075728953 -0.02532196
-0.50503159 -0.031692982 -0.026549339
-0.50519955 0.044030011 -0.02865839
-0.51135856 0.12793803 -0.031623363
-0.51144755 0.16791803 -0.032737255
-0.51090157 -0.075893939 -0.025947094
-0.51117057 0.043884039 -0.029283047
-0.51041359 -0.29382795 -0.019880295
-0.51080459 -0.11925393 -0.024740219
-0.51752955 0.21469003 -0.034670353
-0.51759857 0.24504507 -0.035514355
-0.51663858 -0.178572 -0.023717403
-0.52340055 0.16766602 -0.033990383
-0.52260756 -0.17875499 -0.024341106
-0.52818757 -0.34801799 -0.020254135
-0.52871656 -0.11977392 -0.026614189
-0.53518856 0.092927039 -0.03316927
-0.53415555 -0.34823102 -0.020878315
-0.53428155 -0.29463691 -0.022372246
-0.54116958 0.092786014 -0.03379631
-0.54609859 -0.34865898 -0.022125244
-0.55331957 0.16702402 -0.037126064
-0.55248255 -0.17968398 -0.027465343
-0.55930859 0.16689402 -0.037754059
-0.55871356 -0.077241004 -0.030950069
-0.55882055 -0.033139944 -0.032179356
-0.56511557 0.092216015 -0.036303043
-0.56520158 0.12672305 -0.037266254
-0.56469858 -0.077413023 -0.031576157
-0.57110757 0.09207201 -0.036931038
-0.57029259 -0.23532802 -0.027805328
-0.57042956 -0.18025202 -0.029340267
-0.57057756 -0.12101895 -0.030992031
-0.57710057 0.091927052 -0.037559986
-0.57748258 0.24388206 -0.041795254
-0.57687855 0.0036050081 -0.035098076
-0.57627857 -0.23552901 -0.028430939
-0.57656556 -0.12119991 -0.031619072
-0.58318555 0.12630606 -0.039150238
-0.5832876 0.16636604 -0.040267944
-0.58266759 -0.077934921 -0.033457279
-0.58211356 -0.296305 -0.027369976
-0.58255756 -0.12138194 -0.032245159
-0.58918357 0.12616503 -0.039779186
-0.5882566 -0.23593301 -0.029683113
-0.59409058 -0.29673201 -0.028620243
-0.59424758 -0.23613602 -0.0303092
-0.59454358 -0.12174898 -0.033498287
-0.6012916 0.16596401 -0.042154312
-0.60710257 0.091192007 -0.040702343
-0.60729855 0.16582906 -0.042784214
-0.60677058 -0.034479976 -0.037196159
-0.60697055 0.041460037 -0.039315224
-0.61319959 0.12559801 -0.042294025
-0.61343157 0.21271801 -0.044724941
-0.61920857 0.12545401 -0.042924404
-0.61854255 -0.12249297 -0.036008358
-0.62512654 0.090743065 -0.042589188
-0.62521958 0.12531006 -0.043553352
-0.62466556 -0.079181015 -0.03785038
-0.62478554 -0.034995973 -0.039081097
-0.62454754 -0.12268096 -0.036635399
-0.63123256 0.12516505 -0.044184208
-0.63079458 -0.035168946 -0.039710999
-0.63155454 0.24278605 -0.047466278
-0.63024157 -0.23737794 -0.034069061
-0.63680756 -0.035342991 -0.040338993
-0.63593358 -0.352009 -0.031503201
-0.63608158 -0.29825896 -0.033004284
-0.64326757 0.12487304 -0.045443058
-0.64269757 -0.079726994 -0.039735317
-0.64208859 -0.29848093 -0.033631325
-0.64225757 -0.23779994 -0.035324097
-0.64241058 -0.18260902 -0.036865234
-0.64928657 0.12472606 -0.046075344
-0.64794558 -0.35247296 -0.032756329
-0.65521055 0.089981019 -0.045739174
-0.65530854 0.12457806 -0.0467062
-0.65485358 -0.035870969 -0.042228222
-0.65460455 -0.12363499 -0.039778233
-0.66098255 0.0012850165 -0.043900013
-0.66109258 0.040014029 -0.044981003
-0.66062456 -0.12382799 -0.040407181
-0.66647255 -0.18342394 -0.039378166
-0.67279357 -0.080654919 -0.042881012
-0.67373157 0.24190104 -0.051886082
-0.67314357 0.039684057 -0.046242237
-0.67233258 -0.23886997 -0.038465023
-0.67976558 0.24177206 -0.052520275
-0.67917156 0.039518058 -0.046873093
-0.68497759 -0.036765993 -0.045378208
-0.68508756 0.00059401989 -0.046422005
-0.69148958 0.12367803 -0.050495148
-0.69160956 0.16386801 -0.051617146
-0.69184059 0.24151301 -0.053786278
-0.6900636 -0.35413295 -0.03715229
-0.70368856 0.16357702 -0.052883148
-0.70307857 -0.037312984 -0.047272205
-0.70996857 0.24112105 -0.055685997
-0.70923054 -0.00010794401 -0.048947334
-0.70814556 -0.35485893 -0.039036274
-0.70831054 -0.30099195 -0.040544987
-0.7156536 0.12306404 -0.053026199
-0.71527356 -0.00028598309 -0.049580097
-0.71539259 0.038507044 -0.050662041
-0.71470356 -0.18509799 -0.044417381
-0.71488655 -0.12560791 -0.046078205
-0.72170055 0.12290901 -0.053658009
-0.72106254 -0.082182944 -0.047929287
-0.72206759 0.24085605 -0.056954384
-0.72143757 0.038336039 -0.05129528
-0.72802359 0.21017802 -0.056735039
-0.72710657 -0.082377017 -0.048560143
-0.72724557 -0.038053989 -0.049798012
-0.72696954 -0.12601298 -0.047340393
-0.73329157 -0.038240969 -0.050430298
-0.7322886 -0.35584396 -0.041555405
-0.73974359 0.087752044 -0.054590225
-0.73934156 -0.038428962 -0.051063061
-0.73946059 -0.0010039806 -0.052108288
-0.74619156 0.20975804 -0.058638096
-0.74525255 -0.082966983 -0.050457001
-0.74474359 -0.24154001 -0.046025276
-0.75209957 0.16239005 -0.057953358
-0.75283855 0.23975003 -0.064339161
-0.75156957 -0.0013689399 -0.053376198
-0.75791657 0.087256014 -0.056492329
-0.75750458 -0.038997948 -0.052962303
-0.75646859 -0.35684592 -0.044077396
-0.76356357 -0.039188981 -0.05359602
-0.76525259 0.23923302 -0.067973137
-0.76269656 -0.30313796 -0.046216011
-0.7697506 -0.0019199848 -0.055277348
-0.77622658 0.12148303 -0.05936718
-0.7748096 -0.303626 -0.047480106
-0.77539557 -0.12766999 -0.052400112
-0.78107357 -0.24292797 -0.049816132
-0.78866559 0.20875406 -0.06308794
-0.78767359 -0.084371984 -0.054890156
-0.78674656 -0.35812193 -0.047233105
-0.78713655 -0.24316198 -0.050449371
-0.79458159 0.16131705 -0.062402248
-0.7935946 -0.12830597 -0.054302216
-0.80082357 0.20846206 -0.064362049
-0.80023158 0.036043048 -0.059539318
-0.80690557 0.20831501 -0.064999104
-0.80494356 -0.35890192 -0.049132347
-0.8125636 0.08573103 -0.062211037
-0.81120157 -0.305116 -0.051275253
-0.81876957 0.12033606 -0.063820362
-0.8189106 0.16069001 -0.064949036
-0.81907755 0.20801902 -0.066274166
-0.82130158 0.23691303 -0.084005356
-0.81833458 -0.0034259558 -0.060357094
-0.81727558 -0.30536801 -0.051908016
-0.82499957 0.16053104 -0.065587044
-0.82455659 0.035312057 -0.062084198
-0.83109158 0.16037202 -0.066225052
-0.83050656 -0.0038109422 -0.061629295
-0.83691555 0.085035026 -0.064759254
-0.83703959 0.11983305 -0.065732002
-0.84005058 0.23614103 -0.089233398
-0.83673555 0.034942031 -0.063358307
-0.83593059 -0.18954498 -0.057072163
-0.84313458 0.11966503 -0.06637001
-0.84630656 0.23588401 -0.090960979
-0.84282756 0.034756064 -0.063992977
-0.84140056 -0.36048895 -0.052930355
-0.85457855 -0.086664975 -0.061880112
-0.85883057 0.23537004 -0.094400406
-0.85377258 -0.30690199 -0.055713177
-0.86130655 0.084327042 -0.067310333
-0.86143458 0.11915404 -0.068284988
-0.86158359 0.15956706 -0.069417953
-0.86008859 -0.24605697 -0.058060169
-0.86768955 0.15940404 -0.070055962
-0.87351656 0.083969057 -0.068588257
-0.87397557 0.20665705 -0.072023392
-0.87794858 -0.36211497 -0.056738377
-0.88448656 -0.24705297 -0.060603142
-0.89185256 0.083426058 -0.070506096
-0.89035857 -0.308474 -0.059527397
-0.89059156 -0.24730498 -0.06124115
-0.89825857 0.15857804 -0.073256016
-0.89748257 -0.043603957 -0.06759119
-0.8964656 -0.30873996 -0.060163021
-0.89714354 -0.13206202 -0.065113068
-0.90389454 0.032852054 -0.070379257
-0.90281057 -0.24781102 -0.062515259
-0.91050559 0.15824401 -0.074538231
-0.91069055 0.20572102 -0.075867176
-0.90892559 -0.24806601 -0.063152313
-0.91647357 0.11758602 -0.074044228
-0.92260158 0.11740804 -0.074685097
-0.93426859 0.23229504 -0.1144681
-0.9282406 -0.0070009828 -0.071845055
-0.92703855 -0.31008393 -0.063350201
-0.93486655 0.11705005 -0.075969219
-0.9350276 0.15756601 -0.077104092
-0.93404257 -0.089509904 -0.070178032
-0.93437058 -0.0072069764 -0.07248497
-0.93340558 -0.24909502 -0.065705299
-0.94017458 -0.089734972 -0.070816994
-0.93953359 -0.24935502 -0.066344261
-0.93975759 -0.19362396 -0.06790638
-0.93999857 -0.13368398 -0.069587231
-0.94700158 0.081758022 -0.076274395
-0.94730657 0.15722406 -0.078389168
-0.94679856 0.031473041 -0.074864388
-0.94566256 -0.24961501 -0.066983223
-0.95314258 0.081569016 -0.076916218
-0.95328456 0.11650801 -0.077895164
-0.95364255 0.20460105 -0.080365181
-0.95952559 0.23127204 -0.12094212
-0.95293754 0.031274021 -0.075505257
-0.96584857 0.23101705 -0.12254524
-0.95908058 0.031073034 -0.076148033
-0.95767856 -0.31145495 -0.066542149
-0.95840257 -0.13439292 -0.071506977
-0.96574455 0.15670401 -0.080317974
-0.96429855 -0.19462401 -0.070466042
-0.97209257 0.20411205 -0.082296371
-0.97087055 -0.090872943 -0.074023247
-0.97824758 0.20394701 -0.082941055
-0.97752362 0.03046602 -0.078075409
-0.97609562 -0.31229001 -0.068459988
-0.9840346 0.11559105 -0.081110954
-0.98367661 0.030262053 -0.078717232
-0.99019259 0.11540604 -0.081755161
-0.99036354 0.15600306 -0.082894325
