# .PCD v0.7 - Point Cloud Data file format
VERSION 0.7
FIELDS x y z
SIZE 4 4 4
TYPE F F F
COUNT 1 1 1
WIDTH 1
HEIGHT 1024
VIEWPOINT 0 0 0 1 0 0 0
POINTS 1024
DATA ascii
0.71247512 0.49658054 -0.29876089
0.6781491 0.49873954 -0.26593685
0.69462711 0.27644455 -0.4970541
0.68872714 0.31427455 -0.43688107
0.68057811 0.36652654 -0.35376692
0.68621016 0.27835655 -0.47615099
0.65804613 0.58033854 -0.24976397
0.67784411 0.28025651 -0.45537519
0.67211711 0.31783253 -0.39589882
0.65859413 0.49947754 -0.25546312
0.67896116 0.21950251 -0.53362417
0.65608913 0.37133354 -0.29389381
0.65263313 0.49937952 -0.25767279
0.67055112 0.22159153 -0.51251698
0.6448701 0.58082855 -0.24084091
0.66125613 0.28402156 -0.414186
0.63948911 0.49996352 -0.24911594
0.63947314 0.32481855 -0.31536913
0.63202316 0.37605256 -0.23506403
0.64561713 0.22778052 -0.44994211
0.62621415 0.54657149 -0.23878002
0.63673812 0.28958255 -0.35331011
0.62003314 0.54661953 -0.23845196
0.6217671 0.62760752 -0.25749874
0.63709211 0.17586452 -0.49595404
0.61385411 0.5466665 -0.23812199
0.61666411 0.62713754 -0.26929617
0.62600213 0.14124352 -0.5147438
0.61305612 0.23585552 -0.36823511
0.60232812 0.54625857 -0.24683714
0.60285115 0.58043957 -0.25275993
0.61777514 0.14355356 -0.49376488
0.59778714 0.62737352 -0.26529598
0.6013391 0.6589855 -0.30590296
0.57131714 0.55786049 -0.030912876
0.58413213 0.33664453 -0.17886496
0.59261113 0.62691653 -0.27676773
0.58606511 0.62711751 -0.27248001
0.58844411 0.65923554 -0.30023575
0.57991415 0.62712753 -0.27275419
0.55680114 0.5557965 -0.071043968
0.56569314 0.30566752 -0.17694712
0.57397914 0.62702954 -0.27561808
0.5450291 0.47226852 -0.0015268326
0.57695812 0.096991539 -0.46205473
0.55039614 0.30912554 -0.13897991
0.54593015 0.34479254 -0.0846591
0.56580615 0.65834254 -0.32640791
0.54323912 0.55297053 -0.12539816
0.54281211 0.31083852 -0.12015915
0.53841811 0.34639353 -0.06613493
0.56014615 0.65810752 -0.33327103
0.5322631 0.43849754 0.0095391273
0.56733215 0.049658537 -0.49992085
0.53527111 0.31254256 -0.10144091
0.55039012 0.62654054 -0.28935385
0.52644312 0.43844154 0.008272171
0.52753812 0.47211152 -0.0053348541
0.53487313 0.25520355 -0.17209816
0.52445215 0.55752349 -0.041148186
0.55035812 0.65690649 -0.36667681
0.5210731 0.63557154 -0.073997974
0.51720411 0.51395553 -0.024833202
0.54338515 0.057309508 -0.43769884
0.5304141 0.16803455 -0.27103376
0.52035415 0.58611953 -0.14176798
0.51135314 0.51390654 -0.026107788
0.53549713 0.05982852 -0.41720295
0.50314713 0.43821254 0.0032119751
0.53993315 0.70184851 -0.47485495
0.50419611 0.47189754 -0.010411739
0.53279114 0.017239511 -0.46437597
0.51105613 0.5843755 -0.17864895
0.49476612 0.35518652 0.035511017
0.49964714 0.51380849 -0.02865696
0.49741811 0.2644515 -0.078160763
0.49088812 0.32255656 0.0086922646
0.5204761 0.73971254 -0.38481998
0.49999714 0.17653853 -0.19350719
0.49589914 0.21351755 -0.13836098
0.48363313 0.32419151 0.026691914
0.48566014 0.43803653 -0.00058698654
0.51293916 0.74015856 -0.36766911
0.50927311 0.025120556 -0.4028101
0.49250013 0.17863351 -0.17440081
0.47736213 0.35497952 0.031741142
0.50544113 0.74060249 -0.35062075
0.48240414 0.66621351 -0.11899805
0.5019111 0.70455253 -0.38783789
0.49798012 0.74104351 -0.33366108
0.49382013 0.030295551 -0.36235905
0.47763112 0.18278551 -0.13650894
0.47257411 0.58994752 -0.065967083
0.46816012 0.43785653 -0.0043859482
0.47035712 0.51355755 -0.035036087
0.48153913 0.077037513 -0.27702999
0.46574512 0.55707753 -0.053957939
0.46329114 0.47151053 -0.019306183
0.47711113 0.79975855 -0.21449709
0.45382613 0.27519554 0.031145096
0.45330614 0.32543153 0.038568974
0.45413512 0.35469854 0.026713848
0.45564014 0.18892056 -0.080475807
0.45195612 0.22519153 -0.027122974
0.48276913 -0.078175485 -0.4733572
0.45490512 0.58982152 -0.069825172
0.45834312 0.71271652 -0.11961412
0.46264812 0.80033755 -0.18196201
0.45907214 0.084192514 -0.218678
0.44038814 0.27760053 0.05538702
0.47502512 -0.075258493 -0.45268297
0.46989211 -0.023952484 -0.37739086
0.44365814 0.39598054 0.007417202
0.44678012 0.13612854 -0.12684298
0.43460011 0.27751851 0.054138184
0.44887212 0.80076855 -0.15792894
0.44851813 0.045448542 -0.24379301
0.43401113 0.19495052 -0.025371075
0.45967013 -0.069476485 -0.41169214
0.44143113 0.74609554 -0.13708782
0.44721013 -0.015836477 -0.31736898
0.42429113 0.32505256 0.03230381
0.42727712 0.43742552 -0.013256073
0.43870613 0.7107085 -0.18762398
0.42929012 0.51319152 -0.043974876
0.43376014 0.050378501 -0.20517397
0.41978914 0.19891155 0.010858059
0.42456114 0.55674851 -0.062936783
0.42542312 0.58960557 -0.076262951
0.42245913 0.09583652 -0.12360191
0.41952112 0.58956152 -0.077548981
0.41267312 0.32489753 0.029796124
0.43409714 0.65944552 -0.30605078
0.42523712 0.74536455 -0.16716099
0.41525912 0.098124504 -0.10490894
0.40572113 0.20282751 0.046692848
0.41278014 0.55665255 -0.065505981
0.41361913 0.58951753 -0.078838825
0.40809911 0.10039854 -0.086321831
0.39878812 0.23482853 0.063769817
0.40283212 0.39550155 -0.0014238358
0.40097913 0.10265952 -0.067835808
0.39228812 0.20585454 0.074251175
0.41669711 -0.15804046 -0.42763281
0.41155612 -0.098739445 -0.34235001
0.38722214 0.23464656 0.061284065
0.41007513 0.65906852 -0.31778812
0.39217514 0.43704152 -0.020867825
0.38685414 0.10714251 -0.031169891
0.40415913 -0.095826447 -0.32244396
0.38360414 0.32450151 0.023523808
0.39108813 0.63476354 -0.10243607
0.40404713 0.65897954 -0.32056379
0.39616612 0.74488652 -0.18791485
0.38713214 0.47074652 -0.035847187
0.37634912 0.069526553 -0.054984093
0.39432913 -0.14874047 -0.3668251
0.38144612 0.0076485276 -0.14339209
0.37362513 0.3951475 -0.0077419281
0.37539214 0.47062352 -0.038394928
0.36504412 0.27649951 0.039161205
0.38594413 0.65871054 -0.32889986
0.38153914 0.70889652 -0.25132275
0.37839514 0.74470955 -0.19596195
0.39173314 -0.20465142 -0.43086004
0.36737213 0.63460457 -0.10761786
0.36460012 0.51258653 -0.058043957
0.37234512 -0.13960844 -0.30707312
0.35342813 0.27632254 0.036664009
0.36025214 0.015202522 -0.087341785
0.35515213 0.35342455 0.0053310394
0.36143914 0.63456452 -0.10891485
0.36652613 0.74459052 -0.20133591
0.35776913 0.47043654 -0.042219162
0.37691912 -0.19817048 -0.39018488
0.34507313 0.16059452 0.08241415
0.34173414 0.081047535 0.035540104
0.33930212 0.16048956 0.081180096
0.35789713 -0.13361245 -0.26781082
0.35355312 -0.075921476 -0.18628502
0.34180713 0.2761445 0.034163952
0.34528112 0.43650854 -0.031025887
0.35464212 0.74447054 -0.20671892
0.34692514 0.51241457 -0.061885834
0.34648612 -0.073145449 -0.167274
0.33940813 0.022624552 -0.032227993
0.34196112 0.55604953 -0.080929756
0.33763814 0.3531875 0.0015540123
0.34363112 0.63444257 -0.11280584
0.33852312 0.39470953 -0.01532793
0.35501713 -0.1885975 -0.33006382
0.32814813 0.08556354 0.071061134
0.32696214 0.12250751 0.094071865
0.32775414 0.16027755 0.078711033
0.34361112 -0.12768751 -0.22898912
0.33017814 0.27596354 0.031664848
0.33604714 0.55599654 -0.082219124
0.33673713 0.58892053 -0.095609188
0.33118013 0.32376051 0.012227058
0.33179513 0.35310656 0.00029325485
0.33835813 0.66624552 -0.12705517
0.34560612 0.70846152 -0.26771498
0.34779814 -0.18544441 -0.31024885
0.32570013 0.027501523 0.0040149689
0.33240512 0.66620952 -0.12835693
0.33678514 0.74429053 -0.21480894
0.31477913 0.089854538 0.10480881
0.32551613 -0.064913452 -0.11086988
0.32010812 0.35294551 -0.0022277832
0.33082512 0.74422956 -0.21750975
0.32247913 0.47005254 -0.049871922
0.33348614 -0.17919546 -0.27097082
0.31130812 0.20447755 0.056890965
0.32248214 -0.11893052 -0.17158413
0.31272513 0.27568853 0.027915955
0.31540012 -0.01533848 -0.026769161
0.31743112 0.51212251 -0.068292141
0.30326712 0.089618504 0.102355
0.30464011 0.15984756 0.073771954
0.30551013 0.20437551 0.055651188
0.31302413 0.58872753 -0.10077715
0.30783814 0.32341951 0.0072011948
0.30841213 0.35278153 -0.0047478676
0.31004012 0.43609253 -0.038654804
0.29750913 0.089500546 0.10112906
0.30857712 0.66605949 -0.13356876
0.31754312 -0.2495715 -0.32368517
0.29445812 0.23311853 0.041381836
0.29749414 0.39417952 -0.02419281
0.29828113 0.43595052 -0.041200161
0.30952713 0.70801854 -0.28418398
0.29891813 0.46979052 -0.05497694
0.30534112 -0.16691941 -0.19373894
0.29133013 -0.051511467 -0.018943787
0.28864712 0.23301852 0.040136814
0.30096114 0.7439245 -0.23104382
0.29380414 0.51188254 -0.073421955
0.30815113 -0.31878752 -0.38936377
0.29840311 -0.1638965 -0.17470503
0.28460512 -0.048877478 -0.00086212158
0.27938214 0.04262954 0.1163969
0.28868714 0.55556953 -0.092525959
0.28446913 0.32307154 0.0021729469
0.29011112 0.63406456 -0.12449598
0.28575614 0.39402455 -0.0267272
0.28651413 0.43580753 -0.043745995
0.30101013 -0.31524652 -0.36924076
0.27777013 0.2751255 0.020411015
0.28334412 0.58848053 -0.10724497
0.28898612 0.74380052 -0.23647404
0.28122914 0.46958953 -0.058809757
0.28937212 -0.23642844 -0.24531889
0.27120113 0.23271555 0.036399841
0.28685012 -0.30822843 -0.32933378
0.26412714 0.15907151 0.065124989
0.26538312 0.23261255 0.035154819
0.26201314 0.0046005249 0.11555386
0.27223814 0.6339345 -0.12839794
0.26813614 0.39378852 -0.030529976
0.27014914 0.51163757 -0.078557014
0.27983114 -0.3047505 -0.3095541
0.27103212 -0.15197748 -0.099621773
0.26116213 -0.093568504 -0.0050401688
0.25806212 -0.038492441 0.070487976
0.25577614 0.0061025023 0.12619781
0.27329612 0.7075665 -0.30073118
0.27099413 0.74361354 -0.24463081
0.27760914 -0.38584048 -0.40581894
0.25138414 0.088528514 0.091320038
0.25003213 0.0059675574 0.12497997
0.26590914 -0.29785746 -0.27033091
0.26182812 -0.22359544 -0.16871595
0.24613112 0.12088752 0.07684803
0.24745214 0.20332152 0.043236256
0.25434914 0.63380253 -0.13230276
0.25486013 0.66571254 -0.14531612
0.26351213 -0.37839442 -0.36552
0.25089514 -0.14321941 -0.04439497
0.23852512 -0.03085649 0.12299299
0.24715212 0.55518055 -0.10155678
0.24461812 0.39346856 -0.035603046
0.24527314 0.43529454 -0.052661896
0.24960414 0.71167552 -0.16538382
0.24425614 -0.14033443 -0.026190758
0.23406014 0.088153541 0.087639809
0.23582011 0.20310354 0.040750027
0.23485813 -0.082714498 0.066368103
0.24171612 0.58812451 -0.11631107
0.24360812 0.7116425 -0.16669798
0.24694312 0.74336255 -0.25553989
0.24957713 -0.37103945 -0.32568979
0.23526913 0.55506653 -0.10414076
0.24266914 -0.36739451 -0.30594683
0.23853514 -0.28431743 -0.193223
0.22460312 0.23188251 0.026431084
0.22932312 0.55500954 -0.10543299
0.22757113 0.43506852 -0.056487083
0.23489213 0.74323553 -0.26100874
0.22455311 -0.13177747 0.027832031
0.21554011 0.005140543 0.11768579
0.22005811 0.32207352 -0.011672974
0.22047713 0.35149956 -0.023684025
0.22107112 0.39314151 -0.040678978
0.22560912 0.71154356 -0.17064095
0.23252413 -0.43555647 -0.3686552
0.21352512 0.27404553 0.0066361427
0.20978612 0.0050005317 0.11646986
0.21960613 0.71150953 -0.17195511
0.21507013 -0.20185047 -0.038722992
0.20514911 0.087515533 0.081504822
0.21678412 0.74304354 -0.26922512
0.19978911 0.11990654 0.066995144
0.19827011 0.0047175288 0.11403704
0.20245311 0.32179254 -0.015452862
0.20759311 0.71144253 -0.17458677
0.19877213 -0.12059349 0.098501205
0.19206613 -0.03005445 0.126966
0.19297311 0.040644526 0.098089218
0.19999611 0.58775556 -0.12539196
0.19658113 0.32169753 -0.01671505
0.19803113 0.43468553 -0.062865734
0.20158413 0.7114085 -0.1759038
0.19557011 -0.19279748 0.015470028
0.19241312 -0.11783844 0.11592817
0.19010913 0.27363753 0.0016212463
0.19557312 0.71137452 -0.17721987
0.18608713 -0.11509746 0.13326502
0.18238312 0.11952955 0.063299179
0.18284214 0.15743351 0.047809124
0.18425012 0.27353454 0.00036811829
0.18861413 0.63329953 -0.14664602
0.18569511 0.39263952 -0.048302174
0.18996811 0.74500751 -0.19229317
0.18877211 -0.33900446 -0.15196705
0.17702311 0.15731156 0.046572208
0.17433113 -0.071372449 0.14003611
0.17481211 -0.030501485 0.12333202
0.17895511 0.32140952 -0.020496845
0.18394211 0.74497855 -0.19361496
0.17638311 -0.18390042 0.068778038
0.17120013 0.15718955 0.045332909
0.16858912 -0.071528494 0.13882923
0.16905513 -0.03065145 0.1221199
0.17204213 0.23090553 0.015199184
0.17252612 0.27332753 -0.0021409988
0.17791212 0.74494952 -0.19493675
0.16408211 0.039949536 0.091979027
0.16798112 0.3923825 -0.052117825
0.16844413 0.43429253 -0.069252968
0.16928813 0.51053751 -0.1004281
0.17179012 -0.40176147 -0.19289398
0.16629612 -0.24867648 0.010160923
0.16376013 -0.17805141 0.10384607
0.15754011 -0.03095448 0.11969519
0.16207314 0.39229554 -0.053390026
0.16252211 0.43421254 -0.070530891
0.16584912 0.74489051 -0.19758415
0.16288513 0.46816954 -0.084420204
0.15750012 -0.17515248 0.12123394
0.15333313 0.11888754 0.057134151
0.15135613 -0.07200247 0.13521004
0.15448913 0.23057055 0.011453152
0.15251312 0.039666533 0.089537144
0.15094212 -0.11207741 0.15160227
0.14834213 0.20140052 0.022089958
0.15100813 0.46802053 -0.086986065
0.15143111 0.51033354 -0.10429716
0.14169914 0.11862552 0.054666042
0.14589912 0.55417657 -0.12355375
0.14621812 0.58726156 -0.13709307
0.14506713 0.46794453 -0.088270187
0.14107513 -0.23626643 0.08112812
0.13557711 0.085918546 0.066762924
0.13691711 0.23022956 0.007704258
0.14065713 0.63291752 -0.15710211
0.14095512 0.6649245 -0.17020082
0.13912413 0.46786854 -0.089553833
0.13322911 -0.16695946 0.17025709
0.13373411 -0.11257547 0.14799881
0.13039812 0.15631855 0.036661148
0.12935111 0.039092541 0.084645271
0.13395011 0.55405253 -0.12614775
0.13465413 0.63286853 -0.15841103
0.13287613 0.43380752 -0.076927185
0.13565311 0.74474156 -0.20420599
0.12866613 -0.23016745 0.11603594
0.13881913 -0.58526343 -0.34926319
0.12423611 0.11822951 0.050962925
0.12519413 0.22999954 0.0052018166
0.12759611 0.51005757 -0.10945797
0.12924612 -0.47304553 -0.18822289
0.12251013 -0.22714347 0.13335323
0.11814112 0.085504532 0.063075066
0.11932812 0.22988451 0.0039520264
0.12226412 0.58703452 -0.14230108
0.12031513 0.34992552 -0.045204163
0.12328313 0.71095252 -0.19304514
0.12163112 0.50998753 -0.1107502
0.12401312 0.79977852 -0.22941208
0.11140112 -0.032195449 0.10999489
0.11506412 0.43355954 -0.080767155
0.11751112 0.74465054 -0.20818281
0.11533212 0.46756154 -0.094693184
0.11566512 0.5099175 -0.112041
0.11029313 -0.22114545 0.16771126
0.11076412 -0.11325246 0.14319324
0.11908413 -0.5726375 -0.2901001
0.10615812 0.038507521 0.079752922
0.11086012 0.66470456 -0.17677116
0.11187313 0.79973555 -0.2320838
0.10607812 -0.29560751 0.084091187
0.10460512 0.63262057 -0.16495895
0.10580012 0.79971451 -0.23341799
0.098520122 -0.21833545 0.18370581
0.094867125 0.084944546 0.058156013
0.093789123 -0.073631465 0.1231389
0.098052122 0.55367452 -0.13393688
0.096949123 0.39131653 -0.067401886
0.097399123 -0.45412642 -0.094563961
0.10121812 -0.63202649 -0.32488012
0.088286124 -0.032833457 0.10514212
0.092777118 0.66457057 -0.18071795
0.093292125 0.74452752 -0.21349287
0.082254119 -0.073966444 0.12072515
0.082503125 -0.032994449 0.10392809
0.084098123 0.2291795 -0.003554821
0.08508312 0.39113355 -0.069952011
0.081372119 -0.21890551 0.18014383
0.081678122 -0.16857451 0.15951014
0.07757812 0.11714453 0.041083813
0.077796124 0.15515655 0.025497913
0.076718122 -0.033156455 0.10271406
0.080077119 0.55348152 -0.13783598
0.080266118 0.58662754 -0.15142775
0.079387121 0.43305454 -0.088456154
0.079825118 0.50948954 -0.1197958
0.080592118 -0.54805344 -0.17475891
0.071942121 0.15502352 0.024257183
0.074081123 0.55341649 -0.13913679
0.073617123 0.46701053 -0.10369873
0.074300118 -0.5440405 -0.15591002
0.065893121 0.11686653 0.038611889
0.06645412 0.22881955 -0.0073108673
0.068637118 0.66438854 -0.185987
0.067266122 0.39085555 -0.07378006
0.066407122 -0.43574947 -0.0034637451
0.064207122 -0.21948248 0.17658281
0.064460121 -0.16912752 0.15592718
0.060570121 0.22869855 -0.008564949
0.060992122 0.31938452 -0.045771122
0.062813118 0.71058249 -0.20627499
0.062970124 0.74437052 -0.22013092
0.058961123 -0.33928043 0.13326502
0.058226123 -0.2747125 0.19797707
0.058717124 -0.16931349 0.15473413
0.054202124 0.11658651 0.036139011
0.056078121 0.55321956 -0.14304113
0.056417122 0.63221157 -0.175457
0.055560119 0.43270954 -0.093586922
0.055706121 0.46676952 -0.10756397
0.056564122 -0.60218149 -0.18941784
0.055627123 -0.53213853 -0.09998703
0.048794121 0.22845453 -0.011068821
0.047897123 0.00078654289 0.08237505
0.049900122 0.50912356 -0.12626982
0.048208125 -0.42497343 0.050017834
0.041963123 -0.034145474 0.095428944
0.042903122 0.22833151 -0.012322903
0.04322812 0.31906456 -0.049571037
0.043635122 0.43253452 -0.096153736
0.036542121 0.083496511 0.045843124
0.03677012 0.15421754 0.016803265
0.037146121 0.2707895 -0.031062126
0.038414121 0.66415656 -0.19257975
0.037667122 0.43244654 -0.097438812
0.038564123 0.71042955 -0.21157312
0.037777122 0.46652454 -0.11143208
0.030243121 -0.075511456 0.10984993
0.032045122 0.55295354 -0.14825106
0.032140121 0.58614653 -0.16188192
0.032364123 0.66410953 -0.19390011
0.029530123 -0.32424444 0.21199799
0.031808123 -0.58567244 -0.11436701
0.02514312 0.19880354 -0.0041079521
0.024735123 0.036373556 0.062611103
0.025921121 0.50882453 -0.13145399
0.023952123 -0.27594846 0.19089794
0.024090122 -0.22085947 0.16827106
0.01900512 0.083049536 0.042145252
0.01875212 -0.03481847 0.090569019
0.01975612 0.43218052 -0.10129404
0.019830123 0.46627554 -0.11530209
0.018507123 -0.40741545 0.13726187
0.018351123 -0.22106045 0.16708326
0.020241123 -0.66983551 -0.19390774
0.018460121 -0.17064053 0.14636803
0.012943121 -0.034989476 0.089353085
0.013577122 0.31852055 -0.055911064
0.013630122 0.3481155 -0.068071842
0.013705121 0.38999754 -0.085281849
0.012423122 -0.32489651 0.20847988
0.014096122 -0.66549248 -0.1749711
0.013591122 -0.57353848 -0.059154987
0.0070741214 -0.076219499 0.10501194
0.0071831215 -0.00035446882 0.073832989
0.007235121 0.035898507 0.058934212
0.0076401215 0.31841052 -0.057178974
0.0081361216 0.6639185 -0.19917774
0.0077431221 0.38989955 -0.086561203
0.0068421215 -0.40052742 0.1715169
0.0067871213 -0.27657849 0.18735886
0.0014481209 0.08259654 0.038444996
0.0015251208 0.15339053 0.009344101
0.0013591219 -0.00052046776 0.072613239
0.0020741206 0.66387057 -0.2004981
0.0011751223 -0.17122144 0.14278316
0.0012341216 -0.11663848 0.12034512
0.0016091205 -0.56556648 -0.022851944
-0.0043838788 0.11514854 0.023765087
-0.0043248786 0.19814754 -0.010362148
-0.0042728782 0.26996255 -0.039887905
-0.0047008786 -0.39371842 0.20540714
-0.0046998784 -0.3255555 0.20496082
-0.010197878 0.26984251 -0.041151047
-0.010154879 0.38960451 -0.090401173
-0.010139879 0.43172854 -0.10772514
-0.016127879 -0.07693845 0.100173
-0.016127879 0.34758651 -0.074440002
-0.016127879 0.63157052 -0.19124174
-0.016127879 0.46576953 -0.12305212
-0.021989878 0.081982553 0.033510208
-0.022001877 0.11470455 0.020050049
-0.021932878 -0.077120483 0.098964214
-0.02204188 0.22694552 -0.026125908
-0.022170879 0.58558452 -0.17366982
-0.022115879 0.43154553 -0.11029911
-0.021820879 -0.38930351 0.2273922
-0.022074878 -0.63997048 -0.06356287
-0.027739879 -0.077302456 0.097754002
-0.027988879 0.26947951 -0.044939041
-0.027820878 0.034929514 0.05157423
-0.028074879 0.38930553 -0.094244957
-0.027710877 -0.11757749 0.114326
-0.027794879 -0.54602748 0.066205025
-0.033845879 0.19747752 -0.016618729
-0.03418088 0.50805449 -0.14443874
-0.033212878 -0.3897745 0.2250638
-0.033280879 -0.32667452 0.19909716
-0.034417879 -0.79920942 -0.23504591
-0.039638877 0.11425453 0.016330242
-0.039693877 0.15239656 0.00062894821
-0.039799877 0.22655553 -0.029896736
-0.040315878 0.58539253 -0.17760515
-0.039973877 0.34715551 -0.079539776
-0.040094879 0.43126652 -0.11416388
-0.040204879 0.50797552 -0.14574003
-0.038913876 -0.39001149 0.22389984
-0.039074879 -0.27830046 0.177917
-0.03934288 -0.53836447 0.10116911
-0.045462877 0.081358552 0.028572083
-0.045799881 0.2691105 -0.048728943
-0.046152879 0.46533754 -0.12951803
-0.046228878 0.50789553 -0.14703989
-0.046446878 -0.7898255 -0.19687891
-0.045006879 -0.17280847 0.133214
-0.051648878 0.22629255 -0.032412052
-0.052351877 0.55198354 -0.16653013
-0.051845878 0.31728351 -0.069880962
-0.050318878 -0.39048952 0.22157192
-0.05090588 -0.11834449 0.10950708
-0.057293877 0.11379951 0.012609005
-0.056914877 -0.037091494 0.074757099
-0.057880878 0.34682655 -0.083368778
-0.058285877 0.50773656 -0.14964294
-0.056183878 -0.32758647 0.19440222
-0.05834388 -0.78055149 -0.15914011
-0.057535879 -0.67319852 -0.027001858
-0.063293874 0.15181553 -0.0043549538
-0.063768879 0.31705153 -0.072424889
-0.064316884 0.50765657 -0.15094614
-0.062053878 -0.27918345 0.17319393
-0.06235788 -0.17341751 0.1296258
-0.068970874 0.080724537 0.023630142
-0.069346875 0.19665456 -0.02413702
-0.068588883 -0.037452459 0.072321892
-0.069440879 0.22589451 -0.036184788
-0.069579877 0.2686125 -0.053788185
-0.070352882 0.50757551 -0.15224791
-0.070113882 -0.77138442 -0.12181091
-0.069086879 -0.66477352 0.0089168549
-0.067225873 -0.45877045 0.24591589
-0.074971877 0.11333752 0.0088858604
-0.076112881 0.43069953 -0.12190199
-0.07315588 -0.39145547 0.21691704
-0.077218875 -0.88562745 -0.24868774
-0.073756874 -0.22438449 0.14806604
-0.074203879 -0.60329646 0.096859932
-0.074135877 -0.11912352 0.10468721
-0.072912879 -0.45902544 0.24476194
-0.080867879 0.11318254 0.0076470375
-0.081790879 0.34638155 -0.088478088
-0.082427882 0.50741351 -0.15485382
-0.079119876 -0.32851452 0.18970823
-0.086930878 0.15122455 -0.009344101
-0.086264879 -0.0030964613 0.054278851
-0.087954879 0.38828152 -0.10707617
-0.086183876 -0.65231544 0.062067032
-0.092668876 0.11287051 0.0051631927
-0.092847876 0.15107554 -0.01059103
-0.091961876 -0.038183451 0.067449093
-0.093759879 0.34615654 -0.091034889
-0.09030588 -0.39219147 0.21342421
-0.091824882 -0.64820844 0.079598904
-0.098991878 0.19595253 -0.030409813
-0.099354878 0.26797754 -0.060115814
-0.096594878 -0.58758444 0.16571999
-0.10447787 0.11255652 0.0026779175
-0.10468388 0.15077454 -0.013087749
-0.10573788 0.34593052 -0.093590736
-0.10596488 0.38796651 -0.11093187
-0.10114688 -0.50426847 0.25712204
-0.11103388 0.22494656 -0.04500103
-0.10783788 -0.32969648 0.18383884
-0.10872888 -0.17508048 0.12004519
-0.10683088 -0.50453752 0.2559762
-0.11629588 0.11223853 0.00019311905
-0.11652988 0.15047151 -0.015584946
-0.11698488 0.22480851 -0.046261787
-0.11724688 0.26759052 -0.06391573
-0.11580688 0.032397509 0.03314209
-0.11754288 0.31598651 -0.083889008
-0.11845088 0.46426252 -0.14507818
-0.11388688 -0.2812255 0.16256285
-0.11308788 -0.57602853 0.21641922
-0.12199688 0.079256535 0.012497902
-0.12001688 -0.22613245 0.13854599
-0.12069988 -0.12072152 0.095037937
-0.12838587 0.15016651 -0.018083096
-0.12680689 -0.080527484 0.077155113
-0.12708887 -0.039302468 0.060135841
-0.12918788 0.26732951 -0.066452026
-0.12466288 -0.39369053 0.20643616
-0.12419988 -0.46136552 0.23437405
-0.13346589 0.031871557 0.029448986
-0.13657987 0.46398553 -0.14896774
-0.13505188 -0.83752352 -0.061459064
-0.13120387 -0.28192252 0.15901709
-0.13196787 -0.17593247 0.11525297
-0.12959188 -0.50562245 0.25138426
-0.13881588 -0.039681494 0.057696819
-0.14081389 0.22425252 -0.051304817
-0.14172888 0.34523755 -0.10127211
-0.14236787 0.42962253 -0.13612413
-0.13739887 -0.22680348 0.13497496
-0.13528687 -0.50589651 0.25023603
-0.14468387 -0.039872468 0.056476116
-0.14677787 0.22411156 -0.052567959
-0.14524987 0.031517506 0.026987076
-0.14773789 0.34512055 -0.10255384
-0.14276087 -0.28239244 0.15665293
-0.14133489 -0.46216446 0.23090982
-0.15212587 0.14954853 -0.023082733
-0.15021089 -0.081319511 0.072301865
-0.15274289 0.22397053 -0.0538311
-0.15114588 0.031339526 0.025755882
-0.14664587 -0.60838145 0.24988699
-0.14942089 -0.17658049 0.11165714
-0.15642488 -0.040255487 0.05403614
-0.15871087 0.22382855 -0.055095196
-0.15908188 0.26666856 -0.072795868
-0.15704289 0.031160533 0.024523258
-0.15975887 0.34488553 -0.1051178
-0.16012287 0.38699555 -0.12251997
-0.15450788 -0.70588142 0.1455512
-0.15432489 -0.28286546 0.15428782
-0.15524289 -0.17679745 0.11045885
-0.15276787 -0.46270245 0.22860193
-0.16336787 0.078077555 0.003827095
-0.16550389 0.31500554 -0.094099998
-0.15727788 -0.60067648 0.28288794
-0.15848789 -0.46297342 0.22744608
-0.16928688 0.077906549 0.0025858879
-0.16959488 0.11077952 -0.011003017
-0.17037788 0.1942085 -0.045493126
-0.17065287 0.22354352 -0.057619095
-0.17178887 0.34464854 -0.10768414
-0.16543987 -0.33213252 0.17209101
-0.17101389 -0.9105925 -0.073496819
-0.16526988 -0.69755846 0.17960787
-0.16326088 -0.56441051 0.26811218
-0.17780986 0.34452856 -0.10896587
-0.17061087 -0.69343048 0.19650793
-0.17168987 -0.28358346 0.15074015
-0.16859686 -0.60095447 0.28196096
-0.16895089 -0.56470042 0.26697302
-0.18185389 0.14876151 -0.029338837
-0.18231088 0.19390953 -0.048009872
-0.17951888 -0.082327425 0.06622982
-0.17915389 -0.80097944 0.081142902
-0.17566288 -0.46379143 0.22398186
-0.18780687 0.14860255 -0.030591011
-0.18903589 0.26599354 -0.079147816
-0.18751687 -0.89612442 -0.019143105
-0.18438789 -0.17789942 0.10446119
-0.18093088 -0.50812942 0.24105215
-0.19334689 0.1101135 -0.015985966
-0.19503388 0.26585752 -0.080420017
-0.18907389 -0.28430945 0.14719105
-0.20157987 0.31424952 -0.10177183
-0.19549587 -0.22909647 0.12306118
-0.19606388 -0.17834646 0.10206223
-0.20523787 0.10977656 -0.01847887
-0.20348489 -0.04182148 0.04426527
-0.20011187 -0.33364147 0.16504002
-0.20670587 -0.97156447 -0.071034908
-0.20067587 -0.28479749 0.14482403
-0.19700387 -0.60245842 0.27629423
-0.19808489 -0.50898451 0.23760891
-0.19859388 -0.46489745 0.21936226
-0.21304488 0.26544452 -0.084236145
-0.21214089 -0.96656746 -0.052846909
-0.20714188 -0.22956651 0.12067699
-0.20269188 -0.60276347 0.27516127
-0.20774689 -0.17879647 0.099660873
-0.20840189 -0.12385947 0.076920033
-0.21964887 0.31386453 -0.10561419
-0.21168587 -0.33415252 0.16268826
-0.21296889 -0.22980243 0.11948395
-0.20882788 -0.56676942 0.25899696
-0.22064787 -0.08377248 0.057720184
-0.22506288 0.26516652 -0.086781979
-0.21667388 -0.3978675 0.18778992
-0.21453387 -0.56706947 0.2578578
-0.22861987 0.07615751 -0.0098261833
-0.22954789 0.14746952 -0.039362907
-0.22707388 -0.04262346 0.039372921
-0.22244588 -0.39813751 0.18662405
-0.21892488 -0.66862446 0.29865694
-0.22463089 -0.23027748 0.11709785
-0.22600788 -0.12450951 0.073289871
-0.24252188 0.22178555 -0.07280302
-0.23177689 -0.7575435 0.2510891
-0.24069887 -0.84963447 0.15584087
-0.24213988 -0.2309975 0.11352015
-0.23738089 -0.56828147 0.25330019
-0.24285689 -0.18016845 0.092453957
-0.25010186 -0.084829509 0.051637173
-0.25070089 -0.043436468 0.034479141
-0.25120887 -0.0083474517 0.019934177
-0.24555087 -0.39922744 0.1819582
-0.25653288 -1.1087224 -0.13251495
-0.24871889 -0.18040043 0.091252804
-0.26010987 0.19190955 -0.064405918
-0.26118389 0.26431954 -0.094427109
-0.25133288 -0.39950246 0.18079281
-0.25227588 -0.33597142 0.1544528
-0.25866488 -1.0255325 -0.024053097
-0.25300187 -0.28704447 0.13416815
-0.25382587 -0.23148149 0.1111331
-0.26433787 0.075075507 -0.01728487
-0.26542288 0.14647454 -0.046894073
-0.25398788 -0.60555547 0.26495695
-0.25454089 -0.56920248 0.24988127
-0.26044589 -0.18086642 0.088849068
-0.25541189 -0.51190847 0.22612286
-0.27211586 0.19159251 -0.066933155
-0.26780188 -0.085472524 0.047984123
-0.25760788 -0.74013752 0.31950998
-0.26628587 -0.82734245 0.23993587
-0.26437587 -0.67122549 0.28966904
-0.27305987 -0.12628049 0.063604832
-0.28276986 0.10752255 -0.034711838
-0.28339586 0.14596856 -0.050662994
-0.27961588 -0.085905492 0.045547962
-0.27448586 -0.40061349 0.17612505
-0.27722687 -0.23246044 0.1063571
-0.27895388 -0.12650543 0.062393188
-0.27337688 -0.46861345 0.20433903
-0.28621688 -0.044681489 0.027130127
-0.29063788 0.22056752 -0.082951069
-0.28027987 -0.40089351 0.17495918
-0.28308287 -0.23270851 0.10516214
-0.27684689 -0.60682744 0.26041889
-0.27745387 -0.57044643 0.24532318
-0.27914587 -0.46890646 0.20318413
-0.28715986 -0.33756942 0.14738989
-0.28133288 -0.81425744 0.28936005
-0.28256786 -0.60714847 0.25928497
-0.28318688 -0.57076043 0.24418306
-0.29735386 -0.086561501 0.041891098
-0.30269286 0.22025752 -0.085485935
-0.29568887 -0.18228644 0.081633091
-0.29664686 -0.12718648 0.058756828
-0.28992188 -0.51371652 0.21923018
-0.30671287 0.10680652 -0.039717197
-0.30463487 -0.010159492 0.0088539124
-0.29767787 -0.40174049 0.17145586
-0.29124087 -0.80565041 0.32189322
-0.29967886 -0.28910547 0.12468624
-0.30157286 -0.18252546 0.080430031
-0.29646888 -0.4697935 0.19971514
-0.30348188 -0.40202552 0.17028904
-0.29623187 -0.8018375 0.336339
-0.31511688 -0.087224424 0.03823185
-0.31653488 -0.010570467 0.0063900948
-0.31721288 0.026062548 -0.0088291168
-0.30188987 -0.80219942 0.33523607
-0.30298686 -0.74291247 0.31060791
-0.31137186 -0.28963143 0.12231398
-0.31334487 -0.18300849 0.078022003
-0.30802786 -0.4703905 0.197402
-0.32318088 0.025863528 -0.010066986
-0.31023687 -0.87676042 0.27497482
-0.30866888 -0.74326545 0.30949593
-0.30997786 -0.67390651 0.2806778
-0.31923488 -0.18325049 0.076817989
-0.32090786 -0.40288442 0.16678619
-0.32213289 -0.33920342 0.14032221
-0.32007086 -0.96634144 0.184865
-0.32414687 -0.23446447 0.096796036
-0.31764188 -0.57266945 0.23734188
-0.31874686 -0.51525444 0.21348286
-0.33670187 0.10589653 -0.045979023
-0.32672286 -0.40317351 0.16561794
-0.32004288 -0.74397451 0.30727005
-0.34204686 0.072644532 -0.033484936
-0.33966586 -0.046600461 0.016089916
-0.33253986 -0.40346342 0.16445017
-0.32488388 -0.86341947 0.32383823
-0.32914788 -0.57331544 0.23506212
-0.34871587 0.10552752 -0.048485756
-0.34949887 0.14406353 -0.064507008
-0.34707886 0.025059521 -0.015027046
-0.33484688 -0.9521485 0.23507595
-0.33142486 -0.74468845 0.30504513
-0.34065187 -0.29096049 0.11638117
-0.35071087 -0.088573515 0.030909061
-0.34417987 -0.40404648 0.16211319
-0.34549886 -0.34031349 0.13560724
-0.33972287 -0.94746941 0.25163794
-0.33481687 -0.85625952 0.35018396
-0.34651586 -0.2912305 0.11519289
-0.34185088 -0.51650542 0.20888281
-0.36004388 0.072067559 -0.037230968
-0.36604786 0.071873546 -0.038479805
-0.34613186 -0.85702449 0.3479948
-0.35825187 -0.29177052 0.11281919
-0.35341987 -0.51713747 0.20658302
-0.36854488 -0.089258492 0.027244091
-0.36305186 -0.34115642 0.13207006
-0.36412287 -0.29204243 0.11163092
-0.35920689 -0.51745552 0.20543289
-0.37541687 -0.047915459 0.0087189674
-0.37701187 0.024038553 -0.021231174
-0.36499587 -0.51777452 0.20428324
-0.38044688 -0.089719474 0.024797916
-0.38217887 -0.012886465 -0.007185936
-0.38300687 0.02383256 -0.022472858
-0.36429086 -0.80627447 0.323102
-0.36563087 -0.74686342 0.29836798
-0.36949188 -0.57561249 0.22707701
-0.37178788 -0.47375149 0.18467283
-0.38816386 -0.013102472 -0.0084218979
-0.38062686 -0.34200841 0.12853003
-0.37134188 -0.74722952 0.29725599
-0.38175288 -0.2928645 0.10806799
-0.37760088 -0.47406453 0.18351603
-0.39332888 -0.048584461 0.0050282478
-0.37566987 -0.80703348 0.3208971
-0.37705386 -0.74759847 0.2961421
-0.38238186 -0.51873845 0.20083189
-0.39832088 -0.090417445 0.021131039
-0.39930487 -0.048808455 0.0037989616
-0.40013987 -0.013534486 -0.010895729
-0.40100887 0.023208559 -0.026198864
-0.38595688 -0.61313051 0.2388649
-0.38682088 -0.57661444 0.22365522
-0.38580787 -0.85974449 0.34033298
-0.38705587 -0.80779749 0.31868982
-0.38848487 -0.74833852 0.29391909
-0.39940587 -0.29369444 0.10450125
-0.39260188 -0.57695144 0.22251415
-0.40529588 -0.29397351 0.10331297
-0.40665787 -0.23811442 0.080037117
-0.39978987 -0.51971251 0.19738007
-0.40087187 -0.47532445 0.17888403
-0.40326786 -0.61416548 0.23546124
-0.41383988 -0.18725151 0.057526112
-0.41520986 -0.13191849 0.034463882
-0.40559888 -0.5200395 0.19622898
-0.42504886 0.022366524 -0.03117609
-0.41584787 -0.34374052 0.12144804
-0.40284988 -0.86093146 0.33704901
-0.40565187 -0.74945945 0.29057884
-0.40904287 -0.61451346 0.23432493
-0.42922786 -0.049942493 -0.0023579597
-0.43106586 0.02215451 -0.032419205
-0.42009786 -0.40793747 0.14691114
-0.40986088 -0.80934149 0.31427813
-0.41137886 -0.74983543 0.28946686
-0.41315386 -0.68023044 0.26044607
-0.42571288 -0.18776745 0.055109978
-0.43521988 -0.050171494 -0.0035891533
-0.43613386 -0.014851451 -0.018320084
-0.42595586 -0.40824443 0.14574099
-0.41422287 -0.86172944 0.3348608
-0.41556886 -0.80973047 0.3131752
-0.44121686 -0.050401449 -0.0048217773
-0.43349588 -0.34462053 0.1179018
-0.42466888 -0.68095845 0.25819588
-0.43768087 -0.40886146 0.14340019
-0.44218189 -0.23973542 0.072842121
-0.43314388 -0.57934052 0.21452284
-0.44501886 -0.13315648 0.028375149
-0.43467888 -0.52169245 0.19047308
-0.45416987 -0.015520453 -0.022037983
-0.43130288 -0.86293751 0.33157587
-0.44660288 -0.29595143 0.094985008
-0.44811186 -0.24000949 0.071640968
-0.43894586 -0.57968646 0.21338081
-0.44005388 -0.75173551 0.28390312
-0.45251387 -0.29623848 0.093794823
-0.44374987 -0.61662441 0.22751188
-0.46406987 -0.093040526 0.0076570511
-0.46139988 -0.18933851 0.047858238
-0.47006586 -0.093283474 0.0064320564
-0.46296188 -0.34610647 0.11199427
-0.45350087 -0.68280143 0.25257206
-0.45559388 -0.81249446 0.30545425
-0.47331986 -0.18986946 0.045439243
-0.47928289 -0.19013542 0.044229031
-0.48088288 -0.13466948 0.021059036
-0.46966186 -0.52371353 0.1835618
-0.46705186 -0.81329745 0.30324697
-0.46879387 -0.75366944 0.278337
-0.47278586 -0.8137005 0.30214405
-0.48970187 -0.24195045 0.063233852
-0.50609088 -0.094762504 -0.00093507767
-0.49841186 -0.34792548 0.10489511
-0.50160986 -0.24251348 0.06083107
-0.49303886 -0.52508348 0.17895222
-0.49397686 -0.68543452 0.24469805
-0.49598986 -0.61987442 0.21728611
-0.49888986 -0.52542943 0.17779922
-0.5181219 -0.095261514 -0.0033898354
-0.50825888 -0.41265351 0.12934017
-0.51299286 -0.81655949 0.2944231
-0.52232188 -0.52682346 0.17318726
-0.52375787 -0.48223644 0.15453005
-0.52296984 -0.68735343 0.23907089
-0.52647489 -0.75763649 0.26720285
-0.54152989 -0.30065948 0.075911999
-0.53214985 -0.58538753 0.19509983
-0.53225785 -0.75804049 0.26608896
-0.53458685 -0.68813044 0.23681784
-0.54935789 -0.24480551 0.051206112
-0.54141289 -0.48326451 0.1510458
-0.53804284 -0.75844651 0.26497602
-0.5403989 -0.68852049 0.23569298
-0.55344689 -0.30126542 0.073523045
-0.5457989 -0.52823752 0.16857195
-0.55553585 -0.41526848 0.1199522
-0.54383087 -0.75885242 0.26386309
-0.54621387 -0.68891245 0.23456812
-0.55429387 -0.62360245 0.20591688
-0.55909187 -0.48430341 0.14756107
-0.55541688 -0.75967044 0.26163387
-0.56142086 -0.58723241 0.18938112
-0.57509387 -0.1945315 0.024830818
-0.57331288 -0.41626745 0.11642885
-0.56728286 -0.58760542 0.18823624
-0.56701285 -0.76049346 0.25940704
-0.57314885 -0.5879795 0.18709183
-0.5851779 -0.41693848 0.114079
-0.58926988 -0.30310947 0.066352844
-0.5811649 -0.69128948 0.22780991
-0.59525186 -0.30342048 0.06515789
-0.59729487 -0.24715942 0.041563988
-0.58861887 -0.48605841 0.141747
-0.59705687 -0.41761452 0.11172819
-0.60330087 -0.24745852 0.040358067
-0.60538489 -0.35360652 0.083558083
-0.59605289 -0.76257545 0.2538352
-0.61532086 -0.2480585 0.037946224
-0.60114187 -0.6266765 0.19681215
-0.60186887 -0.76299542 0.25272226
-0.60451984 -0.69290048 0.22330379
-0.60701084 -0.62706548 0.19567394
-0.60840285 -0.59024948 0.1802249
-0.61228985 -0.48748249 0.13709402
-0.62084788 -0.41897947 0.10702515
-0.61288387 -0.62745649 0.19453621
-0.62680286 -0.4193235 0.10584784
-0.6162169 -0.69371349 0.22104883
-0.61875784 -0.62784952 0.19339705
-0.63276088 -0.41966945 0.104671
-0.63720286 -0.3056255 0.056778908
-0.63196486 -0.59178847 0.17564201
-0.63424987 -0.53370649 0.15124607
-0.63640088 -0.62903446 0.18997908
-0.6422869 -0.62943143 0.18883991
-0.64376485 -0.59256452 0.17334986
-0.65923387 -0.3565765 0.072861195
-0.66523188 -0.35691148 0.071671009
-0.66726089 -0.30723149 0.050788879
-0.66388088 -0.53558952 0.14546299
-0.67455488 -0.42211741 0.096427917
-0.66739887 -0.59413344 0.16876411
-0.68652284 -0.42282647 0.094070911
-0.69251186 -0.42318243 0.092893124
-0.68075389 -0.69828242 0.20864487
-0.69850487 -0.42354041 0.091712952
-0.68663985 -0.69870549 0.20751715
-0.68948787 -0.63265747 0.17971992
-0.6955269 -0.49261552 0.12078381
-0.70746589 -0.49336749 0.11845112
-0.72075289 -0.59773546 0.15843821
-0.72501689 -0.63513142 0.17287493
-0.74128485 -0.54062742 0.13040495
-0.74454689 -0.59936947 0.15384293
-0.78538686 -0.49837345 0.10326481
-0.78630787 -0.60227841 0.14579821
-0.79044586 -0.63978845 0.16031027
-0.81024289 -0.60396951 0.14119625
