# .PCD v0.7 - Point Cloud Data file format
VERSION 0.7
FIELDS x y z
SIZE 4 4 4
TYPE F F F
COUNT 1 1 1
WIDTH 1
HEIGHT 1024
VIEWPOINT 0 0 0 1 0 0 0
POINTS 1024
DATA ascii
0.76708812 0.37079978 -0.30686378
0.75935215 0.37192982 -0.29305983
0.7454161 0.37312078 -0.27912998
0.74089313 0.42098778 -0.23680067
0.74063313 0.50163782 -0.23437405
0.75395215 0.2310648 -0.41824675
0.72790712 0.29569179 -0.28980398
0.72230411 0.42118078 -0.23604679
0.72177315 0.45744482 -0.23095274
0.72997111 0.23590779 -0.36992979
0.71790415 0.54675579 -0.25316477
0.72007912 0.29713482 -0.27420664
0.71658212 0.42091578 -0.24037075
0.71458316 0.45814681 -0.22102165
0.70838612 0.4582178 -0.22058773
0.70856011 0.5025568 -0.22229099
0.72912413 0.1445778 -0.48530769
0.70292711 0.42193383 -0.22740984
0.7130751 0.1482448 -0.45242882
0.69851613 0.24224979 -0.30656576
0.67576516 0.3891508 -0.078632832
0.69025916 0.50257385 -0.22384501
0.68882412 0.58058381 -0.2715106
0.66829312 0.39033782 -0.063990593
0.66629314 0.3070358 -0.16707182
0.68143111 0.15546578 -0.38761091
0.6534301 0.34428978 -0.096807957
0.66299915 0.54666281 -0.26037359
0.6524111 0.2515288 -0.21371698
0.66039014 0.57943481 -0.29812479
0.63858414 0.34686178 -0.067442894
0.63732213 0.25456083 -0.18333483
0.62106115 0.47277081 -0.0080428123
0.65838015 0.052411795 -0.47899103
0.63739014 0.20212483 -0.2505517
0.64309412 0.57881379 -0.3126359
0.63293213 0.54633677 -0.26931477
0.60620612 0.39761782 0.02435112
0.6093871 0.47267282 -0.010601997
0.64269716 0.056486785 -0.44623184
0.63558912 0.10836482 -0.36736584
0.62745112 0.16775781 -0.27707386
0.6071341 0.55800784 -0.051651955
0.64049011 0.6560688 -0.42175484
0.60213912 0.43901682 0.0037713051
0.60130912 0.55793881 -0.053477764
0.59959412 0.31927681 -0.034261703
0.60676712 0.50954682 -0.1146307
0.60733515 0.20862883 -0.18944502
0.59234715 0.32060379 -0.019834995
0.63022113 0.62111783 -0.44842291
0.58128411 0.35615182 0.038493156
0.61766613 0.019367814 -0.44976473
0.57548714 0.35608882 0.037227154
0.58187616 0.51432979 -0.036534786
0.58514714 0.21342379 -0.1443367
0.56969011 0.3560248 0.035963058
0.57133812 0.39726681 0.016734123
0.57299614 0.43874681 -0.0026049614
0.59647614 0.7091648 -0.27648497
0.5845741 0.74551582 -0.20906401
0.56849414 0.47231981 -0.019560814
0.55808812 0.35589582 0.033432961
0.55671012 0.27071983 -0.021075726
0.57139313 0.55041683 -0.19777966
0.5511561 0.32669479 0.045763016
0.55549312 0.4385798 -0.0064315796
0.5746091 0.71042383 -0.23647594
0.54806513 0.39702582 0.011654377
0.5673781 0.71083879 -0.22324705
0.53957111 0.32655579 0.043241978
0.54067814 0.35569882 0.029641151
0.56430715 0.03388983 -0.33746862
0.54604113 0.18623179 -0.11044979
0.57213116 -0.03137517 -0.43472099
0.55433714 0.58395684 -0.21355581
0.53642112 0.3969028 0.0091142654
0.52835715 0.2763868 0.035974026
0.55373812 0.5459708 -0.28295565
0.53166515 0.18948579 -0.081035614
0.54544115 0.58194077 -0.25607681
0.52629614 0.43829381 -0.012812614
0.52753311 0.47194982 -0.028527737
0.52907515 0.5138998 -0.048117638
0.54196113 0.039958835 -0.29045486
0.54942715 -0.024771214 -0.38639784
0.53229511 0.66580081 -0.16626167
0.51894414 0.39671481 0.0053009987
0.51741815 0.19270784 -0.05189085
0.51581812 0.4718408 -0.03109169
0.52232212 0.087659836 -0.19492388
0.50309312 0.27866381 0.057856083
0.50581712 0.3552928 0.022052288
0.51144814 0.51375079 -0.051980972
0.49930114 0.23192084 0.030107975
0.52703613 -0.018265188 -0.33874559
0.52692115 0.57809681 -0.33722401
0.50557011 0.51370084 -0.053269863
0.49628013 0.19748384 -0.0086526871
0.49823314 0.4716748 -0.034936905
0.52317011 -0.11493319 -0.45564461
0.48573712 0.27842879 0.054094315
0.48836914 0.35508484 0.018258095
0.50116313 0.71301782 -0.15597105
0.49236912 0.4716188 -0.036221027
0.49817514 0.051830828 -0.19835997
0.48156014 0.32583779 0.030634403
0.50395316 0.62860882 -0.27798605
0.48792812 0.51354778 -0.057134628
0.47415712 0.27826881 0.051584244
0.50296515 -0.060333192 -0.35029888
0.48350412 0.55709684 -0.07881403
0.48384014 0.055711806 -0.1682148
0.47227412 0.39619583 -0.0048680305
0.47365114 0.43775681 -0.024308681
0.47234514 0.10054278 -0.090659618
0.46120113 0.23614281 0.06870842
0.46779412 0.4376958 -0.025586605
0.47597012 -0.0034592152 -0.23010969
0.46579212 0.55695581 -0.082699776
0.47699213 0.66305482 -0.2448988
0.44964412 0.23596883 0.066212177
0.45988512 0.55690885 -0.083996773
0.45250013 0.3254618 0.024327278
0.45475012 0.39599478 -0.0086836815
0.45139512 0.10593182 -0.046969891
0.47715712 -0.1578812 -0.42978573
0.46654812 -0.049232185 -0.27213287
0.45501012 0.58975381 -0.10069084
0.46525213 0.66279078 -0.252882
0.46978813 -0.15539521 -0.41366196
0.44305813 0.39585882 -0.011229992
0.43141612 0.2069788 0.075917244
0.45684212 -0.093725145 -0.31201982
0.44215214 0.55676484 -0.08788681
0.43594214 0.3544358 0.0068640709
0.42651212 0.23561579 0.061217308
0.44509214 -0.042703211 -0.22609377
0.43623814 0.5567168 -0.089182854
0.43136212 0.39572078 -0.013774872
0.44308713 0.71196079 -0.19509268
0.44246912 -0.089140236 -0.28090858
0.43346313 0.0088338256 -0.13972282
0.42675313 0.4372538 -0.034537792
0.42088914 0.072714806 -0.035895824
0.41965812 0.39558178 -0.016319752
0.44600514 -0.20479017 -0.43509483
0.40831214 0.20660579 0.070936203
0.41036913 0.27735782 0.037780285
0.40356913 0.11820978 0.052740097
0.40126514 0.16231483 0.090410233
0.41481614 0.6349538 -0.13113976
0.42397913 0.66185379 -0.28095675
0.41131514 0.51285279 -0.073904991
0.43143713 -0.19962317 -0.40289783
0.40996614 -0.032031178 -0.15074158
0.40757614 0.58939683 -0.11110783
0.40009612 0.3247568 0.012966156
0.40209213 0.39536983 -0.020140648
0.41382813 0.71142179 -0.21481085
0.40541112 0.51279682 -0.075194836
0.39369813 0.080038786 0.021233082
0.40072113 0.55641985 -0.096969604
0.39507914 0.35390681 -0.0020046234
0.38027912 0.083648801 0.049422264
0.37718713 0.12440783 0.10304832
0.37820113 0.16190779 0.085455418
0.38339013 0.35375184 -0.0045399666
0.39401013 0.74636984 -0.18871593
0.37864712 0.3950808 -0.025236607
0.36567512 0.12419182 0.10058022
0.38392812 -0.1265052 -0.22590399
0.36967814 0.2767458 0.028988361
0.37560713 -0.021614194 -0.077067852
0.38852313 -0.18442816 -0.30808687
0.36507612 0.028545797 0.0056142807
0.37310714 0.63467383 -0.14031458
0.36691412 0.39493483 -0.027784824
0.38780114 -0.26297814 -0.40732574
0.35623714 0.20573282 0.059729099
0.35803813 0.2765668 0.026476383
0.35924911 0.3241818 0.0041222572
0.36795413 0.66655582 -0.15661478
0.34759212 0.091672838 0.11199713
0.34839812 0.12386179 0.096879005
0.35889313 -0.062552214 -0.10009766
0.36197513 0.66651881 -0.1579318
0.35706413 0.4702338 -0.065762997
0.34263512 0.12375081 0.095646381
0.35212713 -0.060406208 -0.085467815
0.34865913 -0.013459206 -0.019303799
0.35033014 0.43638581 -0.051181793
0.36078012 0.71043479 -0.25057888
0.34538913 -0.058269203 -0.070897579
0.34813312 0.58892781 -0.12415266
0.34171814 0.32392883 0.00032901764
0.34343013 0.3946358 -0.032884598
0.35485414 0.71032381 -0.25457668
0.35945314 -0.25225216 -0.34381485
0.33110413 0.12352681 0.093179226
0.33373612 0.23411983 0.041220188
0.33854714 0.43624681 -0.053747654
0.32458314 0.091207802 0.10707998
0.32725114 0.20522881 0.053499222
0.33594012 -0.11042219 -0.12103796
0.33803913 0.6663698 -0.16320276
0.33443013 0.5121038 -0.090708733
0.31956813 0.12330079 0.09071207
0.32920414 -0.10816914 -0.10632467
0.32307813 0.27601779 0.01893425
0.32217214 -0.0054571629 0.03745842
0.32951012 0.55579579 -0.11256695
0.33026811 0.58878183 -0.12807178
0.32580012 0.39440781 -0.036711693
0.32675812 0.43610582 -0.056310654
0.33704314 0.70998883 -0.26659203
0.33455414 0.74576879 -0.21571302
0.34374914 -0.32061523 -0.40370274
0.33852813 -0.24434716 -0.29694986
0.31306812 0.090970814 0.10462141
0.31873113 -0.049825191 -0.013272762
0.31245613 0.043654799 0.11736631
0.32430813 0.58873284 -0.1293788
0.32533813 0.63433981 -0.15081787
0.32605913 0.6662938 -0.16584063
0.31991813 0.39433181 -0.037987709
0.33109212 0.70987678 -0.27060461
0.32162312 0.46984282 -0.073486805
0.33161312 -0.24173719 -0.28146601
0.31047714 0.23372483 0.036216259
0.31141114 0.27583081 0.01641798
0.30154812 0.090732813 0.10216331
0.30557513 0.27573681 0.01515913
0.30260214 0.00044578314 0.07938242
0.31238613 0.58863378 -0.13199282
0.29903913 -0.043597162 0.029282093
0.30226812 0.39409882 -0.041817665
0.31582314 -0.30941123 -0.34032202
0.29002112 0.090491831 0.099706173
0.29148412 0.16029882 0.066864014
0.28905413 0.044332802 0.12142229
0.29638112 0.39401978 -0.043093681
0.28963813 0.35244781 -0.0248456
0.29290912 0.5116778 -0.099773884
0.28078514 0.2043938 0.043524265
0.29008114 0.66606283 -0.17376089
0.29101112 0.71219581 -0.19547462
0.28697112 0.51161581 -0.10107088
0.29077914 -0.22634715 -0.1900568
0.27335313 0.12237078 0.080838203
0.28019914 0.4693698 -0.082509041
0.28103113 0.51155376 -0.10236692
0.27957413 -0.14602917 -0.067602634
0.26694614 0.090001822 0.094787121
0.26829514 0.1598478 0.061903
0.26970914 0.2330128 0.02745533
0.27657413 0.58832979 -0.13984203
0.27144513 0.32287478 -0.014854908
0.27201214 0.35219079 -0.028657913
0.27745712 0.63399076 -0.16133976
0.27509013 0.51149082 -0.10366297
0.27740714 -0.22131616 -0.16013479
0.26178113 0.12213284 0.078368187
0.26691613 0.3936218 -0.049480915
0.25700814 -0.084077179 0.051306248
0.25405613 -0.02940017 0.12645626
0.25804412 0.23280483 0.024950981
0.26605913 0.66590381 -0.17904758
0.26179114 0.43530482 -0.070430756
0.26691312 0.7120648 -0.20079088
0.26241812 0.46916181 -0.086379051
0.26319912 0.51136482 -0.10625601
0.25088513 0.1595028 0.058180332
0.25947013 0.63385582 -0.16529179
0.25648811 0.4690918 -0.087669849
0.26145613 -0.28765625 -0.21700382
0.24384212 0.089500785 0.089869022
0.25347114 0.63381082 -0.16660881
0.23862013 0.12164783 0.073429108
0.23605312 -0.026871204 0.14342499
0.24053612 0.23248881 0.021193027
0.24126413 0.27466679 0.0013151169
0.24610913 0.55501485 -0.13081074
0.24331413 0.39329582 -0.05459404
0.24940512 0.74573582 -0.22069693
0.24816513 -0.28234917 -0.18687105
0.23420712 0.20352381 0.033542156
0.23158613 -0.075622201 0.10677528
0.23469412 0.23238182 0.019940376
0.23540613 0.27456683 5.4359436e-05
0.22649613 0.089118838 0.086179256
0.22702713 0.12140179 0.070959091
0.22764713 0.1590358 0.053215027
0.22573513 0.04288882 0.10797501
0.23033413 0.3222298 -0.023725033
0.23081712 0.35157484 -0.03756094
0.24253313 -0.43560225 -0.37306881
0.23151213 -0.20408314 -0.057474613
0.22071113 0.088990808 0.084949017
0.22183312 0.15891683 0.05197525
0.22254613 0.20330083 0.031047344
0.22300912 0.23216778 0.017433167
0.22368713 0.27436483 -0.0024657249
0.22492513 0.35148579 -0.038833618
0.22996913 0.66565979 -0.18698692
0.22559214 0.3930468 -0.058431625
0.22844313 -0.27448422 -0.14217091
0.21492413 0.088861823 0.083719254
0.21968213 0.39296281 -0.059711933
0.22086613 0.46866381 -0.095417023
0.22903213 -0.4295252 -0.34158182
0.21195912 0.2741608 -0.004986763
0.20842913 0.04248178 0.10430622
0.21268713 0.32194579 -0.027528763
0.21792313 0.66557682 -0.18963575
0.21376812 0.39287883 -0.060991764
0.21440513 0.4346928 -0.08071661
0.21862713 0.71179581 -0.21143961
0.21914212 0.74559283 -0.22738361
0.21492113 0.4685908 -0.096708775
0.21556513 0.51084578 -0.116642
0.21543813 -0.26930219 -0.1126976
0.20438012 0.15855879 0.048249245
0.20609313 0.27405781 -0.0062470436
0.20265713 0.042343795 0.10308313
0.21025313 0.55466181 -0.1386466
0.21142213 0.63348681 -0.17583895
0.21189713 0.66553479 -0.19096279
0.19855914 0.15843779 0.047007084
0.19587213 -0.027893186 0.1349411
0.20427112 0.5546028 -0.13995504
0.20474812 0.58769381 -0.15557098
0.20133713 0.35112178 -0.043924809
0.20540813 0.63343978 -0.17715979
0.20363814 0.5107128 -0.11924076
0.19957013 -0.19212121 0.013934135
0.19273613 0.15831679 0.045766354
0.18955913 -0.068513215 0.15283203
0.19875114 0.5876388 -0.15688276
0.20238914 -0.41754919 -0.27946377
0.19940613 -0.34310216 -0.17897177
0.19326313 -0.18976218 0.028030396
0.18382613 -0.0686692 0.15162706
0.18848313 0.27374679 -0.010028839
0.19443913 0.71165782 -0.21677303
0.19112913 0.4682968 -0.10188103
0.18698312 -0.18741423 0.04206419
0.18205112 0.23139983 0.0086550713
0.18323913 0.32146382 -0.033871651
0.18362613 0.3508448 -0.047746658
0.18573213 0.5105108 -0.12314081
0.18072712 -0.18507725 0.056042194
0.17792213 -0.11045223 0.15645933
0.17436112 0.087938786 0.075103283
0.17525513 0.15794879 0.042039394
0.17771913 0.35075182 -0.049020767
0.18276313 0.74541682 -0.23541594
0.17709213 -0.25405318 -0.025835991
0.17181014 0.35065782 -0.050294876
0.17669313 0.74538779 -0.23675489
0.17621413 -0.40580422 -0.21846676
0.17362814 -0.33216816 -0.11970663
0.16314213 0.12000579 0.057363987
0.16412413 0.20215183 0.018553257
0.16087814 -0.069299221 0.14680433
0.16497613 0.27332383 -0.015075684
0.16177313 0.0055578351 0.11143732
0.17021613 0.71151578 -0.22211266
0.17062113 0.74535781 -0.23809385
0.15827113 0.20203382 0.017301083
0.15513512 -0.069458187 0.14559841
0.15909313 0.27321678 -0.016337872
0.16233812 0.55417579 -0.14911079
0.15964513 0.32106882 -0.03895092
0.16415413 0.7114808 -0.22344875
0.16454513 0.74532783 -0.23943281
0.15597212 -0.17583817 0.11134195
0.15467712 -0.10912424 0.1643424
0.15114114 0.087397814 0.070178032
0.14984313 -0.029105186 0.12524319
0.15670913 0.5872488 -0.16608191
0.15500014 0.4338938 -0.093595982
0.15206812 -0.24412423 0.030819416
0.14984813 -0.1735552 0.12501812
0.14732413 0.27300179 -0.018861771
0.14445013 0.0051118135 0.10778236
0.14783813 0.32086879 -0.041491985
0.15153113 0.66510582 -0.20423079
0.14860013 0.3919248 -0.075083733
0.14941412 0.46776882 -0.11094093
0.14986813 0.5100978 -0.13095093
0.13952012 0.087123811 0.067715168
0.14024313 0.15719783 0.034581184
0.14143713 0.27289379 -0.020125866
0.14193113 0.32076782 -0.042762756
0.14515214 0.63295579 -0.19037867
0.14266413 0.3918348 -0.076367855
0.14344713 0.46769282 -0.11223364
0.14698513 -0.4896192 -0.27437401
0.13971514 -0.23923022 0.058778286
0.13767713 -0.16902119 0.15219927
0.13554813 0.27278483 -0.021386623
0.13833313 0.55392581 -0.1543498
0.13866113 0.58707678 -0.17002773
0.13602214 0.32066679 -0.044033051
0.13672613 0.39174581 -0.07764864
0.13780212 -0.38860923 -0.12900496
0.13162912 -0.16677016 0.16570234
0.12897913 0.2014358 0.011047363
0.12965512 0.27267581 -0.022650719
0.13232513 0.55386281 -0.15566063
0.12957112 -0.31352717 -0.018476009
0.12746413 -0.23438019 0.086502075
0.12236812 0.1190778 0.048703194
0.12419712 0.32046384 -0.046576023
0.12446412 0.34989178 -0.060498714
0.12732613 0.66492784 -0.20954895
0.12591714 0.50981677 -0.1361618
0.12028512 -0.11013216 0.15714598
0.11686312 0.15668583 0.029606342
0.11786712 0.2724548 -0.025177956
0.11554212 0.004352808 0.10169029
0.11585312 0.04020381 0.08472538
0.11992512 0.50974482 -0.13746786
0.11005113 0.040055811 0.083502293
0.11521212 0.66483784 -0.21220875
0.11295312 0.39138281 -0.082782745
0.11358012 0.4673028 -0.11871576
0.10928012 -0.22719115 0.12763834
0.10836212 -0.16429824 0.18022013
0.10424512 0.0399068 0.082276344
0.10915012 0.66479278 -0.21353769
0.10264112 -0.1644792 0.17902899
0.099853121 0.22978479 -0.0089249611
0.10308813 0.66474783 -0.21486759
0.096919119 -0.16466016 0.17783928
0.10459412 -0.57621521 -0.31072378
0.094601125 0.31994581 -0.052934647
0.095635124 0.46706381 -0.12260866
0.094225124 -0.36916119 -0.027585983
0.092839122 -0.29803222 0.065867424
0.087129124 0.085855782 0.056622982
0.088359125 0.27189583 -0.031497955
0.089147121 0.39101279 -0.087920666
0.089425124 0.43296981 -0.10779476
0.089650124 0.4669838 -0.12390661
0.080787122 0.0034208298 0.094377041
0.084198125 0.55334681 -0.16615772
0.082932122 0.3491978 -0.069439888
0.083191119 0.3909198 -0.089205742
0.083925121 0.50931084 -0.14529467
0.08365012 -0.45927721 -0.1243186
0.082012124 -0.36372215 0.00082397461
0.080799125 -0.29296213 0.093500137
0.07947012 -0.21542615 0.19505119
0.075870119 0.15576583 0.020893097
0.078171119 0.55328083 -0.16747284
0.078363121 0.58648777 -0.18320704
0.077474125 0.43279681 -0.11038065
0.074815124 -0.2904442 0.10723209
0.069628119 0.085421801 0.052923203
0.069379121 0.038999796 0.074923992
0.072322123 0.58642781 -0.18452692
0.071679123 0.4667418 -0.12780285
0.071308121 -0.45338124 -0.095096588
0.064716123 0.27143782 -0.036558628
0.063561119 0.038845837 0.073699951
0.064954124 0.31941581 -0.059301853
0.062924124 -0.28544515 0.13451433
0.067608126 -0.62856215 -0.31274605
0.057953123 0.085129797 0.050457001
0.059882123 0.50901484 -0.1505208
0.056583125 -0.21572024 0.19309616
0.051460125 -0.072456181 0.12388134
0.052993126 -0.44464225 -0.051749706
0.051295124 -0.11223322 0.14274597
0.054191127 -0.55028719 -0.18902683
0.046267126 0.084833801 0.047989368
0.046388127 0.11727381 0.03260231
0.046529125 0.15509081 0.014664173
0.045960125 0.002461791 0.087059021
0.047249127 0.34858578 -0.077112675
0.040149126 0.0022988319 0.085839272
0.042082127 0.5861218 -0.19112873
0.041295126 0.34848183 -0.078392029
0.040910125 -0.4388842 -0.023160934
0.039433125 -0.27558321 0.18839216
0.034992125 0.22844082 -0.022761822
0.034336127 0.0021358132 0.084618092
0.035254125 0.31887382 -0.065672874
0.035460126 0.39015681 -0.099497795
0.035582125 0.4321788 -0.11943579
0.034907125 -0.4360252 -0.0089616776
0.033846125 -0.16671115 0.16473627
0.028334126 -0.073156178 0.11905336
0.029485125 0.39005983 -0.10078382
0.029674124 0.4661628 -0.13690281
0.028299127 -0.33986217 0.12569618
0.023751127 0.50855982 -0.15837002
0.022248127 -0.21690923 0.18599796
0.023959126 -0.60508722 -0.20604992
0.023562126 -0.53458017 -0.11513901
0.017018126 0.084084809 0.041818142
0.016941126 0.037592828 0.06388998
0.017651126 0.46599382 -0.13950586
0.017722126 0.50848377 -0.15967989
0.017048126 -0.42752916 0.033276081
0.011745125 0.55253577 -0.18194294
0.011145126 -0.42472321 0.047234058
0.010788126 -0.21731323 0.18363237
0.010917125 -0.11351222 0.13434124
0.011494126 -0.52840215 -0.08604002
0.0054601249 0.2702598 -0.0492239
0.0056221257 0.4658238 -0.14211082
0.0056571257 0.5083288 -0.16229773
0.0052671251 -0.42193013 0.061131954
0.0058661257 -0.68938214 -0.28212976
0.005499125 -0.52533513 -0.071584702
-0.00052587455 0.15397882 0.0046901703
-0.00047787465 0.2701388 -0.05049181
-0.0005888748 0.0011427999 0.077295303
-0.00057387492 0.037110806 0.060208321
-0.00036087492 0.55239677 -0.1845727
-0.00041087484 0.4316338 -0.12721205
-0.0003788746 0.50825083 -0.16360998
-0.00058687478 -0.41915017 0.074971199
-0.00067987479 -0.21771914 0.18126631
-0.0006368747 -0.11388415 0.13193798
-0.00039387494 -0.59202522 -0.14656687
-0.0064188745 0.083472788 0.036876202
-0.0064188745 0.11596179 0.021438122
-0.0064188745 -0.074229181 0.11180639
-0.0064188745 0.2700178 -0.051760674
-0.0064188745 0.3180958 -0.074604988
-0.0064188745 0.38946682 -0.10851669
-0.0064188745 0.4315418 -0.12850904
-0.0064188745 -0.21792418 0.18008232
-0.0064188745 -0.16806823 0.156394
-0.012248875 0.00080680847 0.07485342
-0.012440875 0.4655658 -0.14601994
-0.012121875 -0.3219772 0.21957541
-0.012519875 -0.67892224 -0.23645401
-0.012200875 -0.11426014 0.12953615
-0.018148875 0.083163798 0.034405231
-0.018080875 0.00063681602 0.073633194
-0.018110875 0.036623836 0.056526184
-0.018595874 -0.67547017 -0.22136784
-0.018233875 -0.51320916 -0.014387608
-0.023820873 -0.074776173 0.10818195
-0.024196874 0.22716182 -0.035365582
-0.023914874 0.00046682358 0.072410107
-0.024309874 0.31775481 -0.078435898
-0.024450874 0.43126282 -0.13240099
-0.024546875 0.50793582 -0.16885281
-0.029889874 0.082850814 0.031934261
-0.029627874 -0.074960172 0.10697317
-0.030258873 -0.57604223 -0.073664665
-0.036061876 0.2268998 -0.037889004
-0.035023876 -0.27343518 0.20007324
-0.035240874 -0.16906422 0.15043211
-0.041718874 0.11505979 0.013988018
-0.042400874 0.3888588 -0.11625862
-0.040900875 -0.40004617 0.17022419
-0.046940874 -0.11540717 0.12232733
-0.053005874 -0.034958184 0.082751274
-0.053874873 0.22650182 -0.041676044
-0.054552875 0.4307898 -0.13889503
-0.052208874 -0.39469916 0.19692516
-0.059541874 0.15253478 -0.0077958107
-0.058840875 -0.035139203 0.081532955
-0.059103873 0.03546083 0.047929287
-0.060156874 0.31705981 -0.086106777
-0.060709875 0.4648608 -0.1564579
-0.057829875 -0.39204317 0.21019602
-0.057766873 -0.32227618 0.21820211
-0.060998876 -0.71169513 -0.19324684
-0.060404874 -0.65175623 -0.11759758
-0.058336873 -0.1698752 0.14566326
-0.058538873 -0.1157952 0.11992407
-0.065455876 0.15238678 -0.0090470314
-0.065761879 0.22623378 -0.044202805
-0.065938875 0.26877683 -0.064455986
-0.064818874 -0.00074517727 0.063856125
-0.066261873 0.34653682 -0.10147476
-0.063426875 -0.38940018 0.22340918
-0.071902879 0.26864982 -0.065725803
-0.07067088 -0.00092017651 0.062633991
-0.070835881 0.035122812 0.045471191
-0.072258875 0.3464238 -0.10276079
-0.072798878 0.4646818 -0.15906668
-0.069419876 -0.27476424 0.19302607
-0.072841875 -0.70473617 -0.16354179
-0.076937877 0.081574798 0.022037983
-0.077869877 0.2685228 -0.066998959
-0.076704875 0.034952819 0.044243336
-0.075158879 -0.27498919 0.19185209
-0.077943876 -0.64183325 -0.074095726
-0.082829878 0.081412792 0.020800114
-0.083610877 0.2258268 -0.047992706
-0.08030688 -0.38546222 0.2431941
-0.08615388 -0.8078832 -0.27214193
-0.081467874 -0.17069918 0.14089298
-0.088722877 0.08124882 0.019562244
-0.089811876 0.26826578 -0.069542885
-0.090264879 0.34608382 -0.10661793
-0.092100881 -0.80415517 -0.25692701
-0.087569878 -0.11678118 0.11391115
-0.08813788 -0.54518324 0.067471027
-0.096231878 -0.69101423 -0.10490561
-0.09338288 -0.11698014 0.11271
-0.093794875 -0.54217619 0.081254005
-0.10051588 0.080920815 0.017086029
-0.10147788 0.22541583 -0.051785946
-0.10208188 0.31622678 -0.095069885
-0.097407877 -0.38620216 0.23972797
-0.098837875 -0.17132717 0.13731337
-0.10664688 0.11334479 0.00031137466
-0.10743888 0.22527778 -0.053050995
-0.10829088 0.34573978 -0.11047792
-0.10888588 0.42991382 -0.150599
-0.10777888 -0.68425018 -0.075973034
-0.10503988 -0.53620213 0.1086483
-0.10380888 -0.46969324 0.19159126
-0.11408388 0.31598479 -0.097632885
-0.11493587 0.4298138 -0.15189981
-0.10964688 -0.27635616 0.18480396
-0.11042988 -0.17174917 0.13492823
-0.11083588 -0.11758417 0.10910225
-0.10933088 -0.46689719 0.20486927
-0.11822488 0.080423832 0.013370037
-0.11848288 0.11302382 -0.0021777153
-0.12065288 0.38748783 -0.13307381
-0.11452888 -0.38695019 0.23626232
-0.11619488 -0.5302822 0.13581419
-0.12315388 -0.037175179 0.068146229
-0.12533587 0.22485983 -0.056846619
-0.12569088 0.26748383 -0.077178955
-0.12023988 -0.38720125 0.23510742
-0.12030688 -0.46134323 0.23125219
-0.13032687 0.11270082 -0.0046677589
-0.13105087 0.19555682 -0.04419899
-0.12739587 -0.22242719 0.15521908
-0.12783387 -0.17239016 0.13134718
-0.12725787 -0.52441615 0.16275215
-0.12576188 -0.45858425 0.24436426
-0.13660187 0.1505658 -0.024060726
-0.13701287 0.19541079 -0.045459747
-0.13727987 0.2245788 -0.059378624
-0.13364087 -0.17260522 0.13015509
-0.14218087 0.1123758 -0.0071597099
-0.14297487 0.19526279 -0.046720982
-0.14325488 0.22443682 -0.060644627
-0.13674887 -0.45458621 0.26343918
-0.14778487 0.079580784 0.007171154
-0.14893988 0.1951158 -0.047981739
-0.14660987 -0.037939191 0.063274384
-0.14923187 0.22429478 -0.061911583
-0.15043887 0.3449198 -0.11949682
-0.15085886 0.38694179 -0.13954878
-0.14421187 -0.27775723 0.17775536
-0.14525887 -0.17303818 0.12776518
-0.15490787 0.19496679 -0.049242973
-0.15205388 -0.079002202 0.081570148
-0.15565687 0.26681679 -0.083549976
-0.14882886 -0.38847321 0.22933102
-0.15147588 -0.6004042 0.10805416
-0.15962487 0.079238832 0.004691124
-0.16039087 0.14993882 -0.029072762
-0.16087787 0.19481879 -0.050504684
-0.16119388 0.2240088 -0.064445019
-0.16165687 0.26668179 -0.084825039
-0.15911888 0.032495797 0.027015209
-0.15634388 -0.22355622 0.14929533
-0.15453187 -0.50998324 0.22912312
-0.16376688 -0.079405248 0.079147339
-0.16766088 0.26654679 -0.086100578
-0.16502386 0.032314837 0.025783062
-0.16028187 -0.38898915 0.22701931
-0.17059587 -0.87573224 -0.21064997
-0.16270487 -0.17369324 0.12418413
-0.16601087 -0.38924915 0.22586536
-0.16529088 -0.50430018 0.25529242
-0.17249687 -0.32707816 0.19487619
-0.17307886 -0.27895015 0.17187929
-0.17063788 -0.50147718 0.26829624
-0.18229787 -0.0044031739 0.039373398
-0.17954387 -0.22447616 0.14455318
-0.18054888 -0.64179021 0.10616016
-0.18866587 0.031583786 0.020852089
-0.18945287 -0.74342817 -0.0082478523
-0.18598887 -0.63862818 0.11976099
-0.18412086 -0.58210224 0.18880701
-0.19520687 0.078197837 -0.0027546883
-0.19894788 -0.85684615 -0.13669205
-0.19496687 -0.74000424 0.0058159828
-0.19255286 -0.12049824 0.092246056
-0.18747987 -0.50035518 0.27386332
-0.20273887 0.19375879 -0.059343815
-0.20454687 -0.85312325 -0.12209558
-0.19696787 -0.2251752 0.14099836
-0.19317387 -0.50063914 0.27272701
-0.20754987 0.11053979 -0.020877838
-0.20809087 0.14865583 -0.039109707
-0.20872886 0.19360578 -0.060609818
-0.20914388 0.22284281 -0.074594021
-0.20975088 0.26558381 -0.095037937
-0.20592786 -0.73320621 0.03376627
-0.20349286 -0.17525321 0.11582232
-0.21302886 0.077667832 -0.0064806938
-0.21472088 0.19345081 -0.061874866
-0.21577387 0.2654438 -0.096316814
-0.21012287 -0.12114424 0.088631153
-0.21720487 -0.040302217 0.048639297
-0.22515386 -0.94565624 -0.20429993
-0.21680087 -0.72646815 0.061483383
-0.22601987 0.1481638 -0.04287672
-0.22310287 -0.040504217 0.047418118
-0.22782788 0.26516283 -0.098872662
-0.23075287 -0.94171613 -0.18942595
-0.22835287 -0.081678212 0.065811157
-0.22441988 -0.32936519 0.18437529
-0.22685286 -0.17616421 0.11103916
-0.22236587 -0.45870417 0.24628639
-0.23423888 -0.081890166 0.064598083
-0.23490687 -0.040910184 0.044977188
-0.23547387 -0.0061461926 0.028333187
-0.24188188 -0.93389219 -0.15986967
-0.23358487 -0.12201613 0.083810329
-0.24278587 0.076770782 -0.012696743
-0.24081387 -0.041114211 0.043756962
-0.24592887 0.26473683 -0.10270977
-0.23828387 -0.71317917 0.11621523
-0.23397388 -0.61080915 0.23963404
-0.23945788 -0.12223619 0.082602978
-0.23382187 -0.45927113 0.243999
-0.25073189 0.19251281 -0.069465637
-0.24601987 -0.082315147 0.062170029
-0.24793987 0.029707789 0.0085144043
-0.25291887 -0.9261412 -0.13056898
-0.24360088 -0.70989519 0.12975597
-0.24259786 -0.28190917 0.1577692
-0.23880787 -0.50295419 0.26364231
-0.25674188 0.1923548 -0.07073164
-0.24353386 -0.55950218 0.28945541
-0.25120789 -0.12267917 0.080191135
-0.26066786 0.076224804 -0.016428947
-0.25780886 -0.082744181 0.059743404
-0.25928286 -0.81682914 0.020475388
-0.25101987 -0.46013016 0.24056911
-0.26723787 0.10880178 -0.033373833
-0.26794088 0.14699483 -0.051678658
-0.26446187 -0.041939199 0.038869381
-0.25798887 -0.39353925 0.20737314
-0.25914186 -0.33093315 0.17736912
-0.27354988 -1.0069301 -0.19770384
-0.26930088 -0.91465324 -0.087096691
-0.25942287 -0.70013124 0.17003727
-0.26103988 -0.2278102 0.12794733
-0.27322188 0.1086238 -0.034626961
-0.26885286 -0.12334925 0.076570988
-0.26249889 -0.4607082 0.23828125
-0.28080988 0.19171482 -0.075800896
-0.27166587 -0.2831822 0.15188599
-0.28594688 0.14648378 -0.055455685
-0.28683388 0.19155383 -0.077068806
-0.28362587 0.028547823 0.0011000633
-0.28996587 -0.9948402 -0.15340281
-0.27202287 -0.5610432 0.28382826
-0.27313086 -0.5047372 0.25682735
-0.27398586 -0.46129018 0.23599434
-0.28732687 -0.083830178 0.053670406
-0.28330886 -0.28369814 0.14953232
-0.29796487 0.14614081 -0.057974815
-0.29323986 -0.084049165 0.052454948
-0.29479688 -0.0081532001 0.016046047
-0.29554287 0.02815479 -0.0013728142
-0.28913587 -0.28395718 0.14835501
-0.29129586 -0.1787402 0.097881317
-0.28548488 -0.46187717 0.233706
-0.30492088 0.19106579 -0.080873013
-0.29915288 -0.084269226 0.051239967
-0.30001387 -0.043199182 0.031533241
-0.29051286 -0.68099517 0.249125
-0.29496387 -0.28421813 0.14717817
-0.28839687 -0.5976972 0.29758835
-0.29831088 -0.12448317 0.070535183
-0.30506888 -0.084491193 0.050024033
-0.31445986 0.074547827 -0.027639866
-0.31687587 -0.9750672 -0.080844879
-0.30071387 -0.67473024 0.27505827
-0.30662787 -0.28474122 0.14482307
-0.30057088 -0.56261224 0.2782011
-0.30274788 -0.46276516 0.23027515
-0.31690887 -0.084935248 0.04759407
-0.31940487 0.027360797 -0.006321907
-0.32775187 -1.0727031 -0.18666887
-0.32219088 -0.97116822 -0.066519737
-0.31725988 -0.88113314 0.04002142
-0.30754086 -0.50655919 0.25001431
-0.32805288 0.14527082 -0.064275742
-0.32376587 -0.044055164 0.026638031
-0.31578788 -0.39635414 0.19581127
-0.33312887 -1.0685413 -0.1718998
-0.33319587 0.10681283 -0.047152042
-0.33407888 0.14509481 -0.065536976
-0.33135286 0.026959836 -0.0087985992
-0.32657388 -0.18019122 0.090695381
-0.32783288 -0.12563819 0.064495087
-0.33733088 0.026757836 -0.010037899
-0.32998687 -0.28580016 0.14011335
-0.33127886 -0.23080915 0.1136961
-0.34522188 0.10644281 -0.049660683
-0.34062186 -0.085835159 0.042728424
-0.34912089 -1.0561752 -0.12799072
-0.33802086 -0.86667615 0.094981194
-0.34840986 -0.01002419 0.0049672127
-0.33897588 -0.39751023 0.19118404
-0.35351488 -0.045142174 0.020514011
-0.35528088 0.026148796 -0.013752937
-0.33817187 -0.66455919 0.31824827
-0.34889686 -0.2315802 0.11013126
-0.33975488 -0.60063523 0.28752232
-0.36035186 -0.010448217 0.0025033951
-0.35880288 -0.94437224 0.032066345
-0.34386286 -0.66490322 0.31714201
-0.35639286 -0.39838713 0.18771315
-0.35241187 -0.75555915 0.26243114
-0.34955588 -0.66524917 0.31603527
-0.37032288 -0.086977184 0.036641121
-0.37230486 -0.010875165 3.8146973e-05
-0.37534288 -1.0359471 -0.056054592
-0.35525188 -0.66559619 0.31492805
-0.35691786 -0.60163516 0.28416729
-0.36784986 -0.18192214 0.082304955
-0.38049886 0.072423816 -0.041368961
-0.38136986 0.1053158 -0.057192802
-0.37925187 0.025325835 -0.018712044
-0.36855087 -0.84547824 0.17572498
-0.36235988 -0.74905223 0.28822803
-0.36095086 -0.66594523 0.31382322
-0.37242287 -0.23262018 0.10537434
-0.38222286 -0.087440193 0.03420639
-0.38333088 -0.046249211 0.014385223
-0.37926587 -0.92944413 0.087105274
-0.37682888 -0.28796417 0.13068628
-0.37085587 -0.51000518 0.23752022
-0.38817686 -0.087673247 0.032986164
-0.39125288 0.024909794 -0.021193981
-0.38420087 -0.23314625 0.10299397
-0.37508288 -0.56682724 0.26357412
-0.38707387 -0.12801319 0.052399158
-0.39947888 0.10474384 -0.060959816
-0.37806088 -0.66699713 0.31050396
-0.38856488 -0.2885142 0.12832928
-0.40459388 0.071629822 -0.046370983
-0.40009087 -0.08814019 0.030550003
-0.40326488 0.024490833 -0.023675919
-0.39306986 -0.33727819 0.15049219
-0.38817587 -0.51096922 0.23411131
-0.40605387 -0.088376224 0.029330254
-0.40927687 0.024279833 -0.024916649
-0.38948086 -0.66770524 0.30829
-0.39321586 -0.73617715 0.33999205
-0.40618986 -0.28934819 0.12479019
-0.40925786 -0.18369824 0.073908329
-0.42269588 0.071026802 -0.050123692
-0.40327287 -0.82146114 0.26743507
-0.41369486 -0.23447722 0.097043991
-0.40279686 -0.60435623 0.27521896
-0.43224186 -0.013057172 -0.012303829
-0.43334788 0.023429811 -0.029886723
-0.41028386 -0.73729318 0.33671141
-0.43590486 -0.089564145 0.023231983
-0.43142387 -0.23528725 0.09347105
-0.44188288 -0.089804232 0.022012234
-0.44316986 -0.048523188 0.0021100044
-0.43410486 -0.33931416 0.14230108
-0.42269787 -0.80806917 0.31868601
-0.42379987 -0.66985816 0.30165529
-0.44916886 -0.048755169 0.00088119507
-0.45142987 0.022784829 -0.033615589
-0.43390086 -0.88976318 0.23383236
-0.42737287 -0.73842019 0.3334322
-0.44325688 -0.2358312 0.091089249
-0.43155488 -0.60609621 0.26962709
-0.43307388 -0.7387982 0.33234024
-0.43525887 -0.67058617 0.29944229
-0.44027787 -0.5139212 0.22388411
-0.46350086 0.022350788 -0.036103725
-0.44358686 -0.88275617 0.25980997
-0.45330888 -0.29161316 0.11535025
-0.44307688 -0.60680014 0.2673912
-0.44749987 -0.47054714 0.20166397
-0.46953988 0.022133827 -0.03734684
-0.44448587 -0.73955816 0.33015442
-0.44673088 -0.67131919 0.29723024
-0.46102786 -0.23665518 0.087515354
-0.45332387 -0.47087318 0.20052004
-0.47102186 -0.29247814 0.11180735
-0.46350288 -0.51526219 0.21933842
-0.48381388 -0.09150821 0.013462067
-0.48522687 -0.050162196 -0.0064988136
-0.45962986 -0.79901522 0.35502338
-0.48242986 -0.13198918 0.033006191
-0.46931687 -0.51560014 0.21820116
-0.48116288 -0.34170216 0.13293219
-0.46970287 -0.67280024 0.2928071
-0.48476088 -0.23776716 0.082745075
-0.48651388 -0.18711323 0.05828619
-0.47664687 -0.47218722 0.19593811
-0.48248386 -0.47251815 0.19479322
-0.50182587 -0.092250168 0.0097951889
-0.49664387 -0.23832816 0.080360413
-0.48348388 -0.60930318 0.25956106
-0.50258887 -0.23861021 0.07916832
-0.50475991 -0.3429212 0.12824535
-0.50853884 -0.23889416 0.077973366
-0.49842286 -0.51730818 0.21251726
-0.52138788 -0.051599205 -0.013887882
-0.51245588 -0.29453319 0.10353613
-0.52742386 -0.051841199 -0.015118599
-0.49952587 -0.80182713 0.34745598
-0.52044487 -0.23946315 0.075588226
-0.50797188 -0.57477218 0.23768711
-0.52010685 -0.40703422 0.15528107
-0.51756686 -0.47452921 0.18791819
-0.51959586 -0.5754922 0.23543596
-0.53429586 -0.18929118 0.048655987
-0.53619385 -0.29572922 0.098804951
-0.54239786 -0.13458723 0.02085495
-0.54998988 -0.094269216 3.3378601e-06
-0.54626888 -0.18984514 0.046247005
-0.54616088 -0.34509319 0.12003517
-0.54807985 -0.29633313 0.096439362
-0.55026186 -0.2409032 0.069616318
-0.53704888 -0.57658118 0.232059
-0.5544259 -0.13511723 0.01842308
-0.54101288 -0.47589225 0.1833334
-0.53887689 -0.67736322 0.27953529
-0.55402684 -0.29663616 0.095257282
-0.56044388 -0.13538414 0.017206192
-0.54465985 -0.67775124 0.27842903
-0.55997884 -0.29694015 0.094073296
-0.54870087 -0.5773142 0.22980642
-0.5509879 -0.52045721 0.20228004
-0.57414389 -0.095298231 -0.0048975945
-0.55306387 -0.61373323 0.24613619
-0.55684185 -0.52081221 0.20114326
-0.57416886 -0.24207217 0.064836025
-0.57625687 -0.19124514 0.040219307
-0.56269884 -0.52116925 0.2000041
-0.56450289 -0.47727424 0.17874718
-0.57581985 -0.34667617 0.11416817
-0.56855887 -0.52152723 0.19886732
-0.58614087 -0.24266213 0.06244421
-0.57070684 -0.74826723 0.3061204
-0.57361287 -0.67971319 0.27289915
-0.58977687 -0.29847819 0.088152409
-0.59212989 -0.2429592 0.061248302
-0.57634586 -0.61524922 0.24165916
-0.59662288 -0.13700122 0.0098981857
-0.58215189 -0.47832221 0.17530441
-0.59093887 -0.41099817 0.14135504
-0.59574485 -0.2987892 0.086968422
-0.58224589 -0.74909014 0.303936
-0.58800387 -0.61601514 0.23942137
-0.60632086 -0.19266921 0.03418541
-0.60870588 -0.13754719 0.007461071
-0.61011785 -0.24385518 0.057658195
-0.59541488 -0.58029324 0.2207942
-0.59790385 -0.52333421 0.19317627
-0.60126787 -0.58067018 0.21966839
-0.61464286 -0.41235417 0.13670921
-0.61746889 -0.34893614 0.10594606
-0.62212586 -0.24445719 0.055263042
-0.61554587 -0.5244332 0.18976021
-0.63414484 -0.24506217 0.05286932
-0.63839489 -0.41372818 0.13206005
-0.62590688 -0.68332618 0.26294422
-0.64617884 -0.24567217 0.050473213
-0.64853889 -0.19470114 0.025728226
-0.64730787 -0.35058218 0.10006714
-0.6364429 -0.58296317 0.21290731
-0.64060885 -0.6195212 0.22934628
-0.64231586 -0.58334917 0.21177816
-0.66062886 -0.19529122 0.023309231
-0.65926486 -0.35124713 0.097716331
-0.66159689 -0.30227119 0.073924065
-0.66524887 -0.35158223 0.096539021
-0.65407085 -0.58412617 0.20952415
-0.65893286 -0.48298222 0.16038227
-0.66485989 -0.48334914 0.15923405
-0.66089886 -0.68579215 0.25630522
-0.68321586 -0.35259217 0.093008995
-0.68563688 -0.30356914 0.069175243
-0.67672288 -0.48408622 0.15693521
-0.6804629 -0.52855223 0.1772294
-0.6976769 -0.30422419 0.066799164
-0.68350989 -0.58608824 0.20388603
-0.68428689 -0.68746322 0.25188017
-0.70652789 -0.24878019 0.038479328
-0.69230485 -0.5293172 0.17494822
-0.7004869 -0.48557323 0.15233898
-0.70643586 -0.48594815 0.15118837
-0.72782886 -0.30587822 0.060856342
-0.71893686 -0.58848423 0.19711733
-0.72790587 -0.53163916 0.16810513
-0.73669285 -0.58969921 0.19373131
-0.74219489 -0.48822123 0.14428806
-0.74261689 -0.59010714 0.19260216
-0.75789386 -0.42086321 0.10878038
-0.74854487 -0.5905152 0.19147396
-0.7541399 -0.48898822 0.14198542
-0.76362085 -0.53400522 0.16125917
-0.77592885 -0.42197222 0.10528231
-0.77208185 -0.49014825 0.13853216
-0.80204886 -0.49210423 0.13277435
-0.80805188 -0.49249917 0.13162136
-0.82416689 -0.42498118 0.095942974
-0.82939684 -0.53845721 0.14869308
-0.8381179 -0.49449116 0.12585831
-0.85341489 -0.5401122 0.14411926
-0.87146485 -0.54136723 0.14068699
-0.88035184 -0.4973312 0.11778021
