# .PCD v0.7 - Point Cloud Data file format
VERSION 0.7
FIELDS x y z
SIZE 4 4 4
TYPE F F F
COUNT 1 1 1
WIDTH 1
HEIGHT 1024
VIEWPOINT 0 0 0 1 0 0 0
POINTS 1024
DATA ascii
0.6324743 0.10851216 0.34614229
0.63932329 0.12081915 0.18003416
0.64375734 0.15440315 0.13889027
0.6490283 0.19432813 0.089972019
0.64272934 0.19494814 0.095126152
0.64614832 0.22108513 0.063131332
0.62522131 0.050844133 0.25894928
0.6398263 0.22168314 0.068330288
0.62504834 0.15634614 0.15407944
0.63016433 0.19618118 0.10540628
0.63845032 0.26069915 0.026576042
0.61764234 0.19740915 0.11565542
0.59648132 -0.019393861 0.26635313
0.61464834 0.22405714 0.089039326
0.5962193 0.052553177 0.26891327
0.6131193 0.26294816 0.047566414
0.59056532 0.016286135 0.26959801
0.58177429 0.10362715 0.30146122
0.60681432 0.26350713 0.052790165
0.57887334 0.053567171 0.27487135
0.56383133 0.14443314 0.37055397
0.58964729 0.22640812 0.10961008
0.59423733 0.26462013 0.063216209
0.57310134 0.053903162 0.27685404
0.55803931 0.14486814 0.3736372
0.57563031 0.16145915 0.19422817
0.56758434 -0.01756382 0.27628517
0.56746131 0.017692149 0.27753735
0.56181931 -0.017199874 0.27826738
0.5621053 -0.10015786 0.27532339
0.57545632 0.26627916 0.078786373
0.58053434 0.30982316 0.026051998
0.55023134 0.10171318 0.28295422
0.55727232 0.16335016 0.20914936
0.56183231 0.20285618 0.1613574
0.5503003 -0.01647687 0.28222513
0.55018133 0.018736124 0.28347635
0.53880531 0.14167315 0.34496737
0.54443133 0.019082129 0.28545141
0.56795734 0.31085515 0.036571026
0.53880233 -0.015756845 0.28617811
0.55677235 0.26792616 0.09428215
0.56168634 0.31136817 0.041815281
0.53267729 0.10307616 0.29227638
0.53319633 -0.057101846 0.28667307
0.53351635 -0.15428686 0.2832284
0.52323431 0.14060813 0.33458424
0.5329423 0.16584915 0.22893333
0.52745533 -0.056727827 0.28864622
0.54917532 0.31239116 0.052276134
0.51803529 0.14025116 0.33111429
0.52147335 0.020458162 0.29334021
0.52135634 0.056888163 0.2946291
0.52909434 0.32640618 0.20959234
0.51283133 0.13989317 0.32764101
0.52789932 0.23218215 0.16045523
0.51562935 0.057216167 0.296597
0.52193135 0.32796818 0.22667503
0.51612133 -0.097024858 0.29113436
0.5076223 0.13953418 0.32416105
0.51902133 0.20700818 0.19643927
0.50877935 0.16832316 0.24859142
0.51567835 0.23331916 0.17051411
0.50430334 0.021480143 0.2992382
0.49718833 0.13881314 0.31719017
0.50958133 0.23388618 0.17554235
0.5061003 0.35592514 0.21533298
0.49928629 -0.20391989 0.29321623
0.50004333 0.35639513 0.22042513
0.4935683 -0.20349383 0.29518223
0.49323732 -0.09548384 0.29900408
0.4869203 0.10554618 0.30806017
0.47887433 0.18599617 0.4019084
0.48991531 0.24400812 0.27312803
0.49132431 0.33084816 0.2566843
0.48785532 -0.20306885 0.29714918
0.48144531 0.13780516 0.30738115
0.4817003 -0.053774834 0.30437613
0.48157531 -0.012218833 0.30584431
0.48147035 0.022829175 0.30708218
0.48531932 0.33133715 0.26172304
0.48182333 -0.094719827 0.30292797
0.47565234 0.13823116 0.31046724
0.46970534 0.18374717 0.3812871
0.4827283 0.21051013 0.22620106
0.47602135 0.24748713 0.30607414
0.48565233 0.39483714 0.19138241
0.47902733 -0.26473379 0.27027702
0.47628635 -0.15021479 0.30291414
0.4701823 -0.01152283 0.30975819
0.46918035 0.29037613 0.32182503
0.47008032 0.023498178 0.31099606
0.47334331 0.33230716 0.27172613
0.47379631 -0.26538181 0.26627636
0.47074133 -0.20180285 0.30303717
0.47058833 -0.14981389 0.30487442
0.46415132 0.10675615 0.31587839
0.45933831 0.18306613 0.37442398
0.4705323 0.21190214 0.23826027
0.46461433 -0.05268383 0.31024837
0.46401531 0.24875814 0.31753731
0.46428633 0.060120165 0.31422997
0.46737033 0.33279115 0.27672625
0.46489531 -0.14941382 0.30683327
0.4647333 -0.093581855 0.30880308
0.45847034 0.10705715 0.31782913
0.45414633 0.18272418 0.37098503
0.46140635 0.33327514 0.28172922
0.46392131 0.35919017 0.25081444
0.45935434 -0.20096385 0.30695438
0.45292634 0.060756147 0.31813335
0.44768131 -0.092452824 0.31466627
0.44145232 0.10795313 0.32367134
0.44189331 -0.051242828 0.31805611
0.44046631 0.25085413 0.33619404
0.44755131 -0.26865089 0.24616909
0.44216233 -0.14782584 0.31465101
0.42920133 0.25129318 0.33961725
0.43174332 0.33567214 0.30657005
0.43459931 0.36094517 0.2694602
0.43096232 -0.19888783 0.31672239
0.43067133 -0.091333866 0.3205142
0.42660031 0.21900916 0.30152321
0.42489833 -0.050172865 0.32389832
0.41882133 0.10913718 0.33144236
0.41924232 -0.049818873 0.32584333
0.42224631 0.36239916 0.28589439
0.41317433 0.10943115 0.33338022
0.41309032 0.14169216 0.33451605
0.41348231 -0.0080988407 0.32924318
0.41339031 0.026788175 0.33047009
0.41329631 0.062954128 0.33174419
0.41054332 0.21836913 0.294312
0.40794232 -0.049111843 0.32972717
0.40783632 -0.0077618361 0.33118105
0.40704033 0.25170714 0.34201241
0.40765232 0.063264132 0.33368111
0.41586733 -0.27264082 0.22181702
0.40181133 0.14225316 0.33838701
0.40195933 0.17925113 0.33634996
0.40229931 -0.048760831 0.33166504
0.39995632 0.29491317 0.36395121
0.41087332 0.43759215 0.21349812
0.40267733 -0.19683981 0.32645035
0.40254533 -0.14508784 0.3282752
0.39628834 0.17957217 0.33876944
0.39647931 0.33850718 0.33610106
0.39865533 0.36420518 0.30574608
0.40525731 -0.27398682 0.21364403
0.39054832 0.14281118 0.34225321
0.39102331 -0.048059821 0.33554125
0.39092031 -0.0067558289 0.33699322
0.39062932 0.25173616 0.34110737
0.39083433 0.028079152 0.33821821
0.39584231 0.40126216 0.26748323
0.39894333 0.43837714 0.2236824
0.39139232 -0.19602883 0.33033228
0.39126334 -0.14431584 0.33215332
0.38520533 0.028400183 0.34015226
0.38993731 0.40168217 0.27249098
0.38562933 -0.14393079 0.33409119
0.37976632 -0.047363818 0.33941031
0.37966633 -0.0060898662 0.34086037
0.37783733 0.29538715 0.36734438
0.37986434 -0.088030875 0.33798027
0.37376434 0.11146516 0.34691
0.36948532 0.23097116 0.4096694
0.37396133 0.029038131 0.34401321
0.37522534 0.36599416 0.32547617
0.37815633 0.40251815 0.2824831
0.36428532 0.23064417 0.40625238
0.36842632 -0.0054278374 0.34472132
0.36834434 0.029356182 0.34594297
0.36761731 0.34050518 0.35673809
0.37227833 0.40293616 0.28747606
0.36861932 -0.08730787 0.34184408
0.36246532 0.14419216 0.35189199
0.36281332 -0.0050978661 0.34665012
0.36273232 0.029672146 0.3478713
0.36264831 0.065717161 0.34913731
0.35686132 0.14446616 0.35381508
0.35729933 -0.045981824 0.3471303
0.35821733 0.25114614 0.33312416
0.35649833 0.34080017 0.35934401
0.35385033 0.24939615 0.3157053
0.35143933 0.066322148 0.35298538
0.34566331 0.14501113 0.35765934
0.34817234 0.24970216 0.3183322
0.34679332 0.29296613 0.33995104
0.34592032 0.030618131 0.35364532
0.34652331 0.36772013 0.34418917
0.34829232 -0.19792783 0.31645441
0.33421731 0.26350814 0.45264101
0.34001133 0.34099913 0.3605423
0.34632733 0.44122016 0.26015139
0.34058133 -0.08551985 0.35148001
0.33440334 0.18276918 0.36279917
0.33298531 0.22866517 0.38566208
0.32864434 0.26385015 0.45563698
0.33556134 0.29343414 0.3441391
0.33553833 0.36780417 0.34449911
0.33751333 0.40506014 0.31266642
0.33029431 0.29312915 0.3406291
0.31901932 0.26197416 0.43667936
0.32453734 0.36791414 0.34514523
0.32953632 0.44144115 0.26222515
0.32380831 -0.084458828 0.35724306
0.31382033 0.26165813 0.43328333
0.31798133 0.032175124 0.36323929
0.31932533 0.33935213 0.34061527
0.33031431 -0.28364587 0.155653
0.31209633 0.18379116 0.37045527
0.31201431 0.22732717 0.3718462
0.31452832 0.29209816 0.3289032
0.31240633 0.032484174 0.36515522
0.31233233 0.068411171 0.36641312
0.31492433 0.36603516 0.32213736
0.33254433 -0.36071479 0.021127224
0.30666932 0.11485916 0.36994219
0.30690533 -0.00185287 0.36585522
0.30340931 0.26102614 0.42647934
0.30900732 0.33841413 0.32939005
0.31137133 -0.20239484 0.28839922
0.30706933 -0.083405852 0.3629961
0.30110431 0.11513716 0.37185097
0.30096734 0.18429816 0.3742733
0.30449232 0.29055613 0.3121953
0.30119634 0.069000125 0.37023735
0.30573133 0.40347916 0.29036713
0.29554233 0.11541414 0.37376118
0.29540733 0.18455017 0.37617922
0.29539433 0.22791415 0.37640715
0.29570332 0.033405125 0.37089109
0.29967931 0.36423218 0.29975843
0.30143431 0.40179515 0.26838207
0.31599131 -0.36302984 0.0080003738
0.30867732 -0.28648186 0.13882637
0.29603833 -0.13792384 0.36488914
0.28977934 0.22826916 0.37942219
0.29021034 -0.00089687109 0.37158823
0.29329532 0.29093415 0.31552029
0.29356033 0.33684218 0.310709
0.29410931 0.36434114 0.30074024
0.31046131 -0.36380482 0.0036101341
0.28443232 0.11596614 0.37757397
0.28252432 0.25974917 0.41281843
0.28901732 0.36370814 0.29291725
0.29221532 0.39916116 0.23388004
0.30492431 -0.36458385 -0.00078868866
0.29782131 -0.28791285 0.13037014
0.28491232 -0.13719285 0.36871338
0.27910131 -0.00026482344 0.3754034
0.27896932 0.070168138 0.37786818
0.28399733 0.33448517 0.2835021
0.28436333 0.36236513 0.27664137
0.29238331 -0.2886318 0.1261301
0.27328032 0.14848214 0.38249922
0.27205032 0.25910616 0.40596199
0.27348933 0.034621179 0.3785181
0.28251132 0.39706916 0.206357
0.27370131 -0.081328869 0.37446117
0.26808032 -0.040611863 0.37778044
0.26800632 0.00036412477 0.37921333
0.26680431 0.25878215 0.40252638
0.27667832 0.39744616 0.21092415
0.28073931 0.46548817 0.13212442
0.26220232 0.14900517 0.38630009
0.26213732 0.18604916 0.38759518
0.26253733 -0.040284872 0.37968397
0.27083531 0.39785415 0.21589231
0.27302933 0.43528515 0.17257643
0.27602834 -0.29080081 0.11336708
0.25686833 0.03552413 0.38422537
0.26287633 0.36135918 0.2635293
0.26715434 0.43566415 0.17760229
0.26891232 0.46619916 0.14229536
0.25706932 -0.080303848 0.38017607
0.25119632 0.11760116 0.3889823
0.25100431 0.22992218 0.39290142
0.25127432 0.071610153 0.3873744
0.24566934 0.11787117 0.3908782
0.24593231 -0.039307833 0.38538837
0.25336033 0.39907214 0.23074627
0.25961533 -0.2929908 0.10053539
0.24675032 -0.13692784 0.36836815
0.24600032 -0.079624832 0.38398027
0.23996231 0.23038316 0.39668941
0.24033833 0.0019211769 0.38871527
0.24555233 0.36265516 0.27814817
0.23462933 0.11840814 0.39466715
0.23451832 0.18727714 0.39706898
0.23444831 0.25854117 0.39858198
0.24374932 0.43716916 0.19762039
0.24537233 0.46761215 0.16254902
0.25478134 -0.37169981 -0.040740013
0.24864033 -0.29446185 0.091944218
0.23621333 -0.13815284 0.36045027
0.23494831 -0.078950822 0.38777733
0.22900632 0.18752116 0.39896011
0.22893733 0.23084116 0.40047026
0.22613531 0.30528718 0.462183
0.22924432 0.037011147 0.39370823
0.23597333 0.40028116 0.24552822
0.22360432 0.11894214 0.39845133
0.22343034 0.23106915 0.40235901
0.22091731 0.30498618 0.45880222
0.22699434 0.33816212 0.32234097
0.23019633 0.40068117 0.25043726
0.23763931 -0.29594088 0.083323002
0.22391132 -0.078279853 0.39156914
0.21809632 0.11920816 0.40033913
0.21804833 0.15106612 0.40145206
0.21569231 0.30468416 0.4554143
0.21816632 0.073313177 0.39873934
0.22442731 0.40108114 0.25533915
0.23794231 -0.37411487 -0.054201603
0.22583932 -0.21296585 0.22301102
0.22035933 -0.14000285 0.34852123
0.21271533 0.037893176 0.39938307
0.21266231 0.073594153 0.40062809
0.21560231 0.33905113 0.33191538
0.21866933 0.40148017 0.2602334
0.22660932 -0.2974298 0.074669361
0.21506232 -0.14062381 0.34453106
0.20704833 0.15157318 0.40522528
0.20699432 0.18848914 0.40651131
0.20693132 0.23174918 0.40801811
0.20689031 0.25972915 0.40899134
0.20522931 0.30407715 0.44862938
0.21115732 0.36521816 0.30718422
0.22108433 -0.29817784 0.070331097
0.21503332 -0.21432388 0.21471119
0.20975932 -0.14124584 0.34053516
0.20159933 0.12000114 0.40600014
0.20143932 0.23197412 0.40990114
0.20139933 0.25994515 0.41087437
0.20166531 0.074153125 0.40440321
0.22104132 -0.37655282 -0.067736626
0.21555331 -0.2989279 0.065986156
0.20962033 -0.21500587 0.21055126
0.20445031 -0.14187086 0.33653307
0.20188132 -0.076949835 0.39913607
0.19606233 0.15207815 0.40899324
0.19601032 0.18896818 0.41027927
0.19595033 0.23219913 0.41178322
0.19858333 0.34037817 0.34622097
0.20144832 0.40267015 0.27487421
0.20454931 0.47005016 0.19767904
0.21539131 -0.37737083 -0.072266579
0.19913334 -0.14249682 0.33252335
0.19057533 0.15232915 0.41087627
0.19042733 0.26037514 0.41463518
0.19073033 0.039058149 0.4069314
0.19068134 0.074709177 0.40817308
0.19572732 0.40306515 0.27973843
0.19875532 0.47039515 0.20266819
0.20046332 0.50837815 0.15919542
0.20446831 -0.30043483 0.05727005
0.19877332 -0.21637583 0.20220613
0.18513432 0.12078714 0.41164923
0.18504232 0.18944514 0.41403913
0.18519634 0.07498616 0.41005421
0.19001532 0.40345916 0.28459406
0.19463933 0.50869316 0.16424227
0.17961234 0.15282917 0.41463614
0.17985833 -0.035483837 0.40808105
0.17980534 0.00526613 0.40950012
0.17947134 0.26080215 0.41839314
0.18882334 0.50900817 0.16928816
0.17403433 0.23309118 0.41929913
0.17432532 0.0055651665 0.41138124
0.17370933 0.30223715 0.42816544
0.17428133 0.039922178 0.41257715
0.17709133 0.36774313 0.33595705
0.16889733 -0.034859836 0.41184521
0.17144334 0.36816013 0.34072828
0.17700234 -0.21913981 0.18543339
0.16323334 0.12182516 0.41916418
0.16319534 0.15357417 0.42026806
0.16342333 -0.034548819 0.41372633
0.16337433 0.00616014 0.41514111
0.16872734 0.44195914 0.26185417
0.16710433 -0.14629281 0.30832338
0.15454033 0.35551018 0.5158391
0.16159034 0.40541315 0.30877113
0.15800032 -0.074336827 0.41421127
0.15248632 -0.033929825 0.41748238
0.15243933 0.0067521334 0.4188962
0.15215033 0.30225515 0.427598
0.15239933 0.041062176 0.42008829
0.14922133 0.35553014 0.51587725
0.15455833 0.36940616 0.3549962
0.15988734 0.51056814 0.19437218
0.14668933 0.26206917 0.42963219
0.14693734 0.041345179 0.42196321
0.15274033 0.47312316 0.24229431
0.15512234 -0.22193682 0.16854334
0.14139134 0.12285018 0.4266572
0.14126933 0.23440915 0.43053198
0.14151734 0.0073401332 0.42264509
0.14123833 0.26227713 0.43150139
0.14119434 0.30279714 0.43290615
0.14464232 0.40657416 0.32319021
0.14595732 0.44340214 0.28135729
0.14703032 0.47346017 0.24721241
0.15850833 -0.38568485 -0.11801291
0.13590634 0.15480113 0.42963028
0.13582134 0.23462713 0.43240118
0.13574934 0.30299217 0.43477297
0.13367432 0.35440516 0.50266218
0.14263633 0.51149511 0.20933342
0.13620234 -0.073332846 0.41992712
0.13049233 0.12335813 0.43039799
0.13042134 0.19178617 0.43277121
0.13034832 0.26269317 0.43523312
0.13030633 0.30318618 0.43663931
0.13053933 0.077710152 0.42881203
0.13131133 0.34558618 0.40280199
0.13216832 0.37105316 0.37392139
0.13462734 0.44411814 0.2910614
0.14300534 -0.30888581 0.0087761879
0.13864234 -0.22405684 0.155797
0.13484034 -0.15015686 0.28387499
0.12504834 0.12361115 0.43226528
0.12501633 0.15528715 0.43336535
0.12516332 0.0082151294 0.42826033
0.12490834 0.26290017 0.43709898
0.12486833 0.30338013 0.43850327
0.12509334 0.07797718 0.43068123
0.12995532 0.47446716 0.26191902
0.14129934 -0.38822889 -0.13190365
0.13313434 -0.2247678 0.15153408
0.11949833 0.23527515 0.43799734
0.11947133 0.26310718 0.43896103
0.11965033 0.078245163 0.43254805
0.12022033 0.34643918 0.41213512
0.13554633 -0.38908184 -0.13655186
0.12033232 -0.075104833 0.40812826
0.11410534 0.19247514 0.43836832
0.11421133 0.078511178 0.43441534
0.11546633 0.37227714 0.38804197
0.11657532 0.40849116 0.34707642
0.10870733 0.15601015 0.43895817
0.10863433 0.23570412 0.44172096
0.10887732 -0.031491876 0.43245697
0.10884032 0.0090831518 0.43386412
0.11098833 0.40887114 0.35183239
0.11307033 0.47518614 0.2723403
0.10330533 0.12461513 0.43972301
0.10440534 -0.07689184 0.39627218
0.097878329 0.12486416 0.44158506
0.097783335 0.23613113 0.4454422
0.097726323 0.30434012 0.4478054
0.10227933 0.40188214 0.26150513
0.10273334 0.44075015 0.24291515
0.096269332 0.36338615 0.28158236
0.096705325 0.40201715 0.26310921
0.11111433 -0.50174081 -0.3483429
0.10667434 -0.39338684 -0.1599226
0.08701133 0.15696317 0.44639921
0.086982332 0.19361013 0.44766712
0.091134332 0.40215117 0.26471519
0.10087732 -0.39425588 -0.16462278
0.091447331 -0.1554178 0.2508831
0.081620328 0.12560713 0.44716311
0.081515335 0.26453418 0.45197201
0.081681333 0.044676125 0.44436121
0.081654333 0.080092132 0.44558716
0.087993331 0.50833511 0.15504837
0.095071323 -0.39512789 -0.16933203
0.083077334 -0.079299867 0.38036919
0.076106332 0.26473618 0.45382643
0.076240323 0.080353141 0.44744539
0.079614334 0.36381817 0.28636312
0.081587322 0.46993616 0.19219017
0.089259334 -0.39600182 -0.17404985
0.070749328 0.19428217 0.45323515
0.070877329 0.011077166 0.44689512
0.07085333 0.045219183 0.4480772
0.074450336 0.40250316 0.26889801
0.077286325 0.50670719 0.12758827
0.077670328 -0.23199582 0.10847521
0.069175333 0.40148515 0.25567007
0.060062326 0.011639178 0.45060921
0.062016331 0.25352818 0.34399843
0.060040332 0.045760155 0.45178699
0.071771331 -0.39864087 -0.1882596
0.061643332 -0.081735849 0.36435843
0.054683328 0.23683816 0.45115328
0.054684326 -0.028524876 0.45106316
0.054660328 0.011919141 0.4524622
0.054618329 0.081388175 0.45486307
0.057221331 0.33715814 0.30572605
0.058560327 0.39943516 0.22904921
0.061058328 0.50423515 0.085944176
0.069248326 -0.50858188 -0.38328266
0.056268327 -0.082349837 0.36033821
0.051037326 0.25386715 0.34712315
0.053118326 -0.16012383 0.2216363
0.043765329 0.19539016 0.46248627
0.043846332 0.046564162 0.45734596
0.046521328 0.33552414 0.28706741
0.047854327 0.39736617 0.20220518
0.054212332 -0.40130281 -0.20254993
0.049669333 -0.23569083 0.086657047
0.040072329 0.25420415 0.35024738
0.040364332 0.29321617 0.33052111
0.03845533 0.046830177 0.45919418
0.038437329 0.082157135 0.46041536
0.042468332 0.39632514 0.1887002
0.051179327 -0.51155889 -0.39840603
0.046278328 -0.32251179 -0.068111897
0.044047326 -0.23643589 0.082269192
0.042105332 -0.16148579 0.21321297
0.034141332 0.18649715 0.3841691
0.033068329 0.047096133 0.46104431
0.042467326 -0.40309179 -0.21212101
0.036587328 -0.16217089 0.20899105
0.034699328 -0.08482182 0.34418917
0.027647331 0.12803513 0.46567726
0.028694332 0.18668115 0.3857131
0.030504331 0.33204216 0.24745798
0.029291332 -0.085444868 0.34013414
0.022703327 -0.031337857 0.43183041
0.022316329 0.01357913 0.46356297
0.017618328 0.15219814 0.40540218
0.017806329 0.18704712 0.38880014
0.018489331 0.25202018 0.3286171
0.016924329 0.04788816 0.46658421
0.016910329 0.083170176 0.46780014
0.020696327 0.39211214 0.13411331
0.021764331 0.45993316 0.039986134
0.02696833 -0.51557183 -0.41871166
0.011521332 0.12874913 0.47120714
0.012016326 -0.032503843 0.42393208
0.011562333 0.014126182 0.46725416
0.013679333 0.28698617 0.26514339
0.014284328 0.32851315 0.20735025
0.0067733303 0.15257913 0.4084692
0.0088913292 -0.16562188 0.18776798
0.0075853281 -0.087952852 0.3238492
0.0044843294 -0.24171782 0.051334381
-0.0045436695 0.014940143 0.47278214
-0.0045536719 0.048933148 0.4739542
-0.0018556714 0.35083216 0.130445
-0.0014486723 0.38782114 0.078600407
-0.0022386722 -0.16701686 0.17922497
-0.0070436709 0.38673615 0.064575195
-0.0063716695 0.45521614 -0.031591892
-0.0034906715 -0.52065682 -0.44432259
-0.0048416704 -0.41035485 -0.25078297
-0.014419671 0.18132615 0.33823729
-0.012981672 0.34851617 0.1027813
-0.012072671 0.45425916 -0.046092987
-0.010792669 -0.41127586 -0.25565767
-0.019538671 0.21776813 0.27179098
-0.020210672 -0.036042869 0.4000783
-0.02062567 0.049708128 0.4794693
-0.016750671 -0.4121989 -0.26054287
-0.019703671 -0.091130853 0.30333138
-0.02397467 0.38345218 0.022152424
-0.03068467 0.17690414 0.29928637
-0.03049567 0.21494615 0.24532318
-0.03100867 -0.037235856 0.39207029
-0.031321671 0.016280174 0.48197222
-0.029851671 0.34500313 0.060841084
-0.029190671 -0.33341181 -0.1285758
-0.036666669 0.016525149 0.48366404
-0.035915673 0.23853517 0.19644928
-0.035620671 0.31763315 0.083980083
-0.035523668 0.34382117 0.046741962
-0.035242669 0.41926417 -0.060487747
-0.03505167 -0.33426785 -0.13328886
-0.03580267 -0.17125189 0.15341425
-0.04154367 0.21209913 0.21864128
-0.041832671 -0.03843683 0.38403797
-0.04138967 0.27410012 0.13026905
-0.041956671 0.046332181 0.45491409
-0.041189671 -0.2478919 0.01548624
-0.047224671 0.11300713 0.3447504
-0.047071669 0.23576516 0.16935539
-0.047024671 0.27277917 0.11646938
-0.046939671 0.34144115 0.018365383
-0.046892669 0.37900215 -0.035264969
-0.046503671 -0.5279088 -0.48061562
-0.052686669 0.17091417 0.24660301
-0.052686669 0.014627159 0.47040939
-0.052686669 0.042893171 0.42996311
-0.052686669 0.31390518 0.04180336
-0.052686669 -0.4177978 -0.29005384
-0.052686669 -0.24945784 0.0064401627
-0.058203671 0.13718116 0.27955627
-0.058122672 -0.040249825 0.37193632
-0.05832367 0.23296815 0.14202929
-0.058207672 -0.095656872 0.27430439
-0.063430667 0.011068165 0.44560099
-0.064078674 0.26877916 0.074716091
-0.063502669 0.039424181 0.4048171
-0.063576669 0.069227159 0.36192322
-0.063737668 -0.096310854 0.2701292
-0.069203675 0.10652518 0.29283619
-0.068943672 0.037678182 0.39216614
-0.070360668 0.41294315 -0.14920902
-0.070393667 -0.33945882 -0.16175699
-0.069988668 -0.25182486 -0.007188797
-0.069636673 -0.1755619 0.1273222
-0.075058669 0.16481614 0.19304419
-0.074408673 0.035924137 0.3794632
-0.075919673 0.33539516 -0.053634644
-0.076314673 -0.34033382 -0.1665349
-0.075303674 -0.17628789 0.12294531
-0.080955669 0.20192713 0.12347412
-0.079713672 0.0056701303 0.40801239
-0.081352666 0.26472318 0.032427311
-0.080083668 0.06411314 0.32328606
-0.081565671 -0.25341487 -0.016318798
-0.085928671 0.10158718 0.25333929
-0.086139672 0.12922513 0.21316719
-0.08541467 -0.043307841 0.35162735
-0.086874671 0.22586614 0.072705269
-0.085402668 0.032393157 0.35390806
-0.087979674 0.37100714 -0.13820791
-0.088177666 -0.34208989 -0.17611599
-0.085928671 -0.098946869 0.25335217
-0.091796666 0.12761217 0.19972515
-0.092086673 0.16017014 0.15228701
-0.092992671 0.26198816 0.0039343834
-0.093613669 0.33169818 -0.097601891
-0.094121672 -0.34297287 -0.18091965
-0.09719567 0.098258138 0.22673607
-0.098207667 0.19746816 0.08182621
-0.096195668 0.0002001524 0.36996603
-0.098988667 -0.25581682 -0.030077934
-0.10187668 -0.04516387 0.33935738
-0.10173667 -0.001639843 0.3571744
-0.10523267 0.30240816 -0.088007927
-0.10873067 -0.53854382 -0.53337288
-0.10603867 -0.3447448 -0.19055796
-0.10374867 -0.17994881 0.10094118
-0.10265067 -0.10094386 0.24069118
-0.11051467 -0.66691279 -0.76044989
-0.10983367 0.19446015 0.053759098
-0.11064567 0.25783718 -0.039272785
-0.10766667 0.025237143 0.30216742
-0.11064567 -0.25742984 -0.039292812
-0.11757367 0.32668614 -0.15713263
-0.12044767 0.11943614 0.13165998
-0.12156067 0.19142514 0.025457382
-0.11840167 -0.047036827 0.32702303
-0.12195767 0.21712416 -0.012454987
-0.12254267 0.25503713 -0.068388939
-0.12758067 -0.54179788 -0.54941082
-0.12549368 -0.42930484 -0.35013199
-0.12996967 -0.6705718 -0.77753162
-0.12625268 0.11777818 0.11787319
-0.12746267 0.18989617 0.011211395
-0.13161966 -0.43028283 -0.35520458
-0.12664667 -0.18291688 0.083196163
-0.12505266 -0.10363483 0.22370338
-0.13338968 0.18836117 -0.0030927658
-0.12945767 -0.048293829 0.31876326
-0.14019668 -0.54398489 -0.56016064
-0.13775468 -0.4312638 -0.36028481
-0.13857767 0.14746314 0.041041374
-0.13934267 0.18681914 -0.017457962
-0.13499567 -0.048924863 0.31462336
-0.13984567 0.21266013 -0.05587101
-0.14058767 0.25078815 -0.11253881
-0.14196467 0.32157815 -0.21772575
-0.14271867 0.36033016 -0.27532196
-0.13814166 -0.18441379 0.074273109
-0.13629767 -0.10499185 0.21516418
-0.14450167 0.14584118 0.026868343
-0.14813067 0.32028514 -0.23304367
-0.15284967 -0.5461849 -0.57095385
-0.15045166 0.14421213 0.012634277
-0.15132767 0.18371212 -0.046376705
-0.15170467 -0.26315379 -0.071823597
-0.15498467 0.081153154 0.090332031
-0.15642968 0.14257514 -0.0016655922
-0.15183866 -0.052565873 0.29058409
-0.15797168 0.20813316 -0.0998559
-0.16554266 -0.5483979 -0.58179283
-0.15322566 -0.10704184 0.20229721
-0.16089967 0.079399168 0.076374054
-0.16341868 0.18057513 -0.075551987
-0.15756467 -0.054544866 0.27747822
-0.15913868 0.0086601377 0.1825943
-0.15990168 0.039323151 0.13655138
-0.16679966 0.31637013 -0.27941275
-0.16856468 -0.43621385 -0.38585091
-0.16613467 -0.3537699 -0.23931265
-0.16123167 -0.18743384 0.056327343
-0.17572767 -0.67924488 -0.81782961
-0.16758467 0.10595918 0.01971817
-0.16950367 0.17899615 -0.090233803
-0.16421068 -0.02242887 0.21299744
-0.16578567 0.037492156 0.12279224
-0.17307867 0.31505316 -0.29500771
-0.17219266 -0.35468686 -0.24423981
-0.16454867 -0.10841882 0.19368124
-0.18230566 -0.68049979 -0.82363462
-0.17359167 0.10423917 0.0054550171
-0.17451566 0.13761914 -0.044923782
-0.17561567 0.17740917 -0.10497904
-0.18465468 -0.55174387 -0.59813786
-0.17825866 -0.35560679 -0.24917889
-0.17535266 -0.26647782 -0.090610981
-0.17022167 -0.10910988 0.18936205
-0.17962766 0.10251117 -0.0088729858
-0.17588466 -0.026320875 0.18606901
-0.19104668 -0.55286586 -0.60360861
-0.18716267 -0.43921983 -0.40131474
-0.18670768 0.13427615 -0.074083805
-0.18175668 -0.028279841 0.17252302
-0.18990067 0.23915815 -0.23315763
-0.18722868 -0.26815486 -0.1000576
-0.20210567 -0.68428683 -0.84113264
-0.19760567 0.28212017 -0.31613588
-0.20121568 0.19731915 -0.20474482
-0.19558868 0.02820617 0.053108215
-0.20398968 0.28071517 -0.33189678
-0.19913766 -0.26984179 -0.10954189
-0.19299468 -0.1118958 0.17200232
-0.20303467 0.066891134 -0.023030758
-0.20658967 0.16936213 -0.17969465
-0.20885468 0.23468018 -0.27951765
-0.20162666 0.02632314 0.038993359
-0.21136466 0.30701017 -0.39008379
-0.20510566 -0.27068889 -0.11429691
-0.21019667 0.093748152 -0.081439972
-0.21286967 0.16772914 -0.19483995
-0.20425668 -0.070702851 0.17063904
-0.20550266 -0.036205828 0.11775923
-0.22315168 -0.55852985 -0.63113785
-0.21485367 -0.36118686 -0.27901697
-0.21108368 -0.27153885 -0.11906195
-0.22016966 0.19257116 -0.25071669
-0.23088866 -0.4463408 -0.43776703
-0.22306266 -0.27324581 -0.12861872
-0.22769868 0.059558153 -0.0812006
-0.22886467 0.088391125 -0.12574482
-0.23023766 0.12232214 -0.17816687
-0.22217768 -0.07691586 0.12963915
-0.23635566 0.27358317 -0.41179371
-0.24253568 -0.5619688 -0.64779377
-0.23826867 0.16112214 -0.25606966
-0.23090667 -0.014526844 0.015974045
-0.23221868 0.016775131 -0.032509804
-0.23507968 -0.27496386 -0.13821459
-0.22739568 -0.11613584 0.14572334
-0.25537768 -0.69456184 -0.88835859
-0.24755567 0.22552413 -0.374156
-0.23315766 -0.1168499 0.14131403
-0.26662466 -0.78671181 -1.0568156
-0.24931666 0.11707616 -0.22377396
-0.25114068 0.15776914 -0.28710794
-0.26201367 -0.56544185 -0.66456175
-0.25414968 0.081127167 -0.1857419
-0.25573367 0.11531013 -0.23911285
-0.25886267 0.18286616 -0.34454679
-0.25089666 0.010938168 -0.076156616
-0.26852667 -0.56660581 -0.67017365
-0.26241168 -0.4515208 -0.46412563
-0.25796467 -0.36782384 -0.31428003
-0.24899867 -0.19908381 -0.012180805
-0.28037366 -0.78953886 -1.0693126
-0.26054168 0.079290152 -0.20090675
-0.25256568 -0.087463856 0.06013298
-0.25717866 0.0089741349 -0.090833664
-0.26948267 0.26627314 -0.49355793
-0.26416066 -0.36878383 -0.31935787
-0.25491667 -0.19987881 -0.016819
-0.26696467 0.077443182 -0.21614599
-0.25705168 -0.12353086 0.099286079
-0.29417068 -0.79238486 -1.0818696
-0.28903067 -0.7011168 -0.91830492
-0.27516067 0.10996413 -0.28552294
-0.27724466 0.15096414 -0.35003996
-0.26490766 -0.091751873 0.031911373
-0.26669168 -0.056672871 -0.023297787
-0.27861467 0.17790616 -0.3924346
-0.27133968 -0.28017688 -0.16722488
-0.27741468 -0.28105485 -0.17209387
-0.30801368 -0.79524684 -1.09448
-0.29047766 0.14751214 -0.38193798
-0.27925268 -0.060881853 -0.05224371
-0.29408568 0.21449518 -0.48790884
-0.28087768 -0.03071785 -0.099970818
-0.27868068 -0.20308185 -0.035453796
-0.28362367 -0.098258853 -0.010878563
-0.28464466 -0.20388889 -0.040136814
-0.32190669 -0.79812884 -1.1071529
-0.31615669 -0.70643485 -0.94250298
-0.30148366 0.10271013 -0.34842157
-0.30383569 0.14402515 -0.41413498
-0.30696267 -0.45890784 -0.50149679
-0.32886967 -0.79957688 -1.1135087
-0.30813968 0.10087413 -0.36432362
-0.31056067 0.14226818 -0.43034363
-0.29830667 -0.067269862 -0.09614563
-0.31336668 -0.45997488 -0.50687695
-0.30780569 -0.37558281 -0.35519886
-0.29423267 -0.13691282 0.014942169
-0.31096768 0.034738183 -0.27750301
-0.32137069 0.20801812 -0.55459785
-0.30792966 -0.28548479 -0.19658089
-0.31940067 0.062347174 -0.34050274
-0.30896267 -0.10707879 -0.06880188
-0.31114969 -0.071579874 -0.12573481
-0.32827267 0.20637816 -0.57146692
-0.32036167 -0.37755287 -0.36553383
-0.34983167 -0.80394685 -1.132669
-0.34346467 -0.71181989 -0.96692085
-0.32422167 0.030779183 -0.30873585
-0.33520967 0.20473015 -0.58841896
-0.32156968 -0.011189818 -0.24124098
-0.33264369 -0.4631989 -0.52309704
-0.32180369 -0.11155081 -0.098147869
-0.32411069 -0.075930834 -0.15558863
-0.34217867 0.20307314 -0.60544872
-0.33956867 0.056531131 -0.38832474
-0.32826567 -0.11380386 -0.11291599
-0.34918067 0.20140916 -0.62256098
-0.33266369 -0.047534823 -0.22007275
-0.34554467 -0.46536481 -0.53396559
-0.35621667 0.19973516 -0.63975286
-0.35201168 -0.46645284 -0.53941774
-0.35109466 0.022748172 -0.37203598
-0.35317168 0.052606165 -0.42057657
-0.35561767 0.087766171 -0.4777379
-0.34377068 -0.082535863 -0.20087099
-0.34590667 -0.051841855 -0.25077772
-0.34815466 -0.019531846 -0.30331373
-0.35192966 -0.38252783 -0.39155769
-0.33886868 -0.15300882 -0.086285591
-0.35789067 0.020714164 -0.38804674
-0.36748669 0.15553516 -0.60783482
-0.35104567 -0.29179788 -0.2312746
-0.34535769 -0.15535188 -0.10099792
-0.38478267 -0.7200259 -1.0039659
-0.36471868 0.018671155 -0.40412998
-0.35440966 -0.12292087 -0.17265272
-0.37455368 0.15375316 -0.62495565
-0.35926867 -0.056189835 -0.28175688
-0.36162966 -0.023763835 -0.33477497
-0.38090068 -0.58696282 -0.76747274
-0.36462569 -0.38453889 -0.40204096
-0.35724369 -0.29270983 -0.2362709
-0.37644666 0.082008183 -0.52748299
-0.38450369 -0.47194183 -0.56685162
-0.36500269 -0.16244781 -0.14553404
-0.38539767 0.01248014 -0.45283699
-0.39050066 0.078120172 -0.56104469
-0.37954667 -0.062792838 -0.32875872
-0.38208169 -0.030189872 -0.38251257
-0.40106368 -0.59066784 -0.78502274
-0.37161168 -0.16483688 -0.16051579
-0.39235568 0.010396183 -0.46922493
-0.38103068 -0.13221383 -0.23346281
-0.40316567 0.14653218 -0.6942749
-0.38896167 -0.032353818 -0.39857197
-0.40780666 -0.59191084 -0.7908988
-0.39757568 -0.47416079 -0.57790756
-0.37517068 -0.21628082 -0.11146259
-0.39934567 0.0083021522 -0.48568583
-0.40179867 0.038556159 -0.5358429
-0.40468767 0.07419318 -0.59491968
-0.39070067 -0.098324835 -0.30892467
-0.39322069 -0.067248821 -0.3604517
-0.39654568 -0.38961983 -0.42844391
-0.39452368 -0.1369288 -0.26427889
-0.40010568 -0.069492817 -0.37640667
-0.40296069 -0.39064586 -0.43375778
-0.40131769 -0.1393038 -0.27979469
-0.39436868 -0.22157788 -0.14262295
-0.39834467 -0.17450488 -0.22109985
-0.42226869 -0.39374089 -0.44976664
-0.44076267 0.064197183 -0.68104267
-0.42516169 -0.10993779 -0.38824368
-0.44850868 -0.59944785 -0.8264308
-0.44808269 0.062167168 -0.69851685
-0.42880467 -0.14891779 -0.34255886
-0.45460069 0.13353217 -0.81886196
-0.43803969 -0.047799826 -0.51307774
-0.44366667 -0.4820348 -0.61697865
-0.42606169 -0.3029319 -0.29190397
-0.46872169 -0.73691082 -1.0796027
-0.44922468 -0.0066598654 -0.60313177
-0.45945567 0.10326213 -0.78903294
-0.46217167 -0.60199285 -0.83838463
-0.47579867 -0.73834789 -1.0860028
-0.45957866 -0.054587841 -0.56332397
-0.46358669 -0.48546183 -0.63390779
-0.44631767 -0.19188082 -0.32978678
-0.45680869 -0.15872383 -0.40648794
-0.46116766 -0.40001583 -0.48209
-0.45138669 -0.30673182 -0.31244469
-0.44860467 -0.24211681 -0.26420259
-0.46031067 -0.1969558 -0.36147976
-0.49277067 0.049764156 -0.80517292
-0.49721268 0.093337178 -0.8799386
-0.47100967 -0.16369987 -0.43889999
-0.48143068 -0.06148082 -0.61429071
-0.49653268 -0.6084218 -0.86849594
-0.51258069 0.089293182 -0.91693592
-0.49262968 -0.099707842 -0.59072685
-0.51036066 -0.61102188 -0.88063669
-0.48154968 -0.2046628 -0.40957785
-0.50359869 -0.068478823 -0.66599083
-0.51729268 -0.61232781 -0.88672686
-0.50372964 -0.4924109 -0.66809702
-0.49388069 -0.4053328 -0.50934172
-0.52810764 0.085206151 -0.95431089
-0.50738168 -0.10453582 -0.6248889
-0.52423966 -0.6136378 -0.89283466
-0.52694666 0.0022801757 -0.8323226
-0.51125169 -0.13901281 -0.58628798
-0.51481068 -0.10696685 -0.64208794
-0.49610168 -0.31349385 -0.34880495
-0.50308967 -0.21248579 -0.4583497
-0.54379064 0.081075132 -0.9920578
-0.52227664 -0.10941184 -0.65937281
-0.52609664 -0.075586855 -0.71844959
-0.53816569 -0.6162709 -0.90508461
-0.54661667 0.034793139 -0.93365097
-0.52977866 -0.11186886 -0.6767416
-0.53072166 -0.49711585 -0.69114161
-0.52024966 -0.4096458 -0.53135681
-0.51761967 -0.21776581 -0.49124289
-0.55013865 -0.0044608712 -0.88724279
-0.5544647 0.032609165 -0.95237303
-0.53660464 -0.18671882 -0.58855677
-0.54892868 -0.082804859 -0.77167988
-0.54428965 -0.4994899 -0.70274067
-0.52188468 -0.31742179 -0.36982203
-0.55661368 -0.085235834 -0.7895937
-0.55108964 -0.50068188 -0.70855999
-0.55156964 -0.19197881 -0.62269068
-0.55790168 -0.5018779 -0.71439075
-0.54679668 -0.41400981 -0.55355978
-0.54112965 -0.27725685 -0.47149563
-0.54710066 -0.22848785 -0.557971
-0.5862627 0.023753166 -1.0282197
-0.56380969 -0.1568079 -0.70713472
-0.5721007 -0.090136826 -0.82569265
-0.58024567 -0.62426782 -0.94218063
-0.5647257 -0.50307786 -0.72023487
-0.5601387 -0.4162128 -0.56473589
-0.55758667 -0.33023679 -0.44143677
-0.58689368 -0.16463387 -0.76019669
-0.57352567 -0.4184289 -0.57595778
-0.57075965 -0.28853583 -0.53784275
-0.60951567 -0.054921865 -0.9802928
-0.59466368 -0.16726983 -0.77805567
-0.59898669 -0.13456583 -0.83692598
-0.6035437 -0.10009587 -0.8989768
-0.57825667 -0.2913909 -0.55462694
-0.61757666 -0.057355821 -0.99925184
-0.59735167 -0.20808482 -0.72709084
-0.58578867 -0.29425991 -0.57148981
-0.63005066 -0.027724862 -1.076417
-0.61950666 -0.10515487 -0.93617392
-0.60592771 -0.51035488 -0.75558281
-0.60008168 -0.24778283 -0.67783976
-0.64201367 -0.064737856 -1.0567169
-0.65185767 0.0054571629 -1.1846466
-0.62075567 -0.21632791 -0.78044558
-0.62613767 -0.17795181 -0.85038471
-0.6502437 -0.06722486 -1.0760679
-0.63410467 -0.18065786 -0.86869192
-0.63880169 -0.1476469 -0.92904282
-0.6233477 -0.25626683 -0.73046684
-0.6631847 -0.037386835 -1.1548276
-0.64211369 -0.18337882 -0.88709497
-0.63363868 -0.5152818 -0.77941275
-0.63118166 -0.25912583 -0.74818468
-0.64451265 -0.22470081 -0.83459663
-0.65501267 -0.15297687 -0.96654367
-0.6405977 -0.51652384 -0.78540468
-0.62754166 -0.42742884 -0.621346
-0.63176268 -0.31179082 -0.67438984
-0.63905168 -0.26199782 -0.76598358
-0.65250969 -0.22752082 -0.85282469
-0.66579467 -0.6407218 -1.0179377
-0.6475687 -0.51776779 -0.79140902
-0.63955671 -0.31476486 -0.69182873
-0.66637969 -0.19162583 -0.94284487
-0.67455065 -0.19440484 -0.96161556
-0.6802367 -0.64352489 -1.0307717
-0.66154867 -0.52026987 -0.80345774
-0.64799267 -0.43086088 -0.63857174
-0.64831966 -0.36620688 -0.64254999
-0.66855866 -0.52152681 -0.80950689
-0.70906866 -0.085021853 -1.2143607
-0.67111969 -0.3268168 -0.76243877
-0.69311166 -0.2418499 -0.94534683
-0.66855365 -0.43432486 -0.65591574
-0.6871137 -0.27955186 -0.87465382
-0.70766068 -0.20566988 -1.0376649
-0.68966269 -0.52531981 -0.82772589
-0.68713665 -0.33293784 -0.7982688
-0.70346069 -0.2855289 -0.9116087
-0.7037487 -0.38823283 -0.76533604
-0.71146768 -0.34224188 -0.85268688
-0.74146068 -0.2171818 -1.115284
-0.70341569 -0.44088686 -0.68900204
-0.71965867 -0.34537482 -0.87100458
-0.75002068 -0.22009885 -1.1349387
-0.72509468 -0.53172183 -0.85837603
-0.72789168 -0.34852588 -0.88941479
-0.73629868 -0.4011848 -0.83741093
-0.74448669 -0.3548789 -0.92652082
-0.74651265 -0.53561187 -0.87693787
-0.7528457 -0.35807979 -0.94520998
-0.76200271 -0.30695689 -1.0439148
-0.77525568 -0.54085386 -0.90188789
-0.81198967 -0.4313488 -1.0049467
-0.81149065 -0.5474999 -0.93340588
-0.81049371 -0.48530686 -0.92351294
-0.82608169 -0.55018783 -0.94611979
-0.82760268 -0.49241686 -0.96096563
-0.83622169 -0.49599981 -0.97983074
-0.84807068 -0.55425084 -0.96529961
