# .PCD v0.7 - Point Cloud Data file format
VERSION 0.7
FIELDS x y z
SIZE 4 4 4
TYPE F F F
COUNT 1 1 1
WIDTH 1
HEIGHT 1024
VIEWPOINT 0 0 0 1 0 0 0
POINTS 1024
DATA ascii
0.30703884 0.43336135 -0.00025129318
0.30090582 0.11772633 0.0056667328
0.30086285 0.068582296 0.0065846443
0.30132782 0.59621334 -0.0032801628
0.30135685 0.62907028 -0.0038952827
0.30114684 0.39099032 0.00055646896
0.30128983 0.55241233 -0.0024633408
0.29990885 -1.0125766 0.026800632
0.30056784 -0.26620871 0.012844563
0.30029383 -0.57655472 0.018647671
0.29494983 -0.0064296722 0.008005619
0.29498184 0.030409336 0.0073156357
0.29547185 0.59622836 -0.0032644272
0.29556584 0.70577234 -0.0053114891
0.29536682 0.47580832 -0.0010113716
0.29417884 -0.89714164 0.024661541
0.29423085 -0.83740264 0.023544788
0.29487485 -0.093060672 0.0096254349
0.28920883 0.11779732 0.0056996346
0.28923783 0.15193033 0.0050616264
0.28931084 0.23797232 0.0034537315
0.28906685 -0.050038636 0.0088386536
0.28937384 0.31175631 0.0020728111
0.28970784 0.70578331 -0.0052952766
0.28947684 0.43342835 -0.00020217896
0.28957784 0.55244732 -0.0024294853
0.28877884 -0.38866264 0.015170574
0.28839785 -0.83732671 0.023561478
0.28852284 -0.69061571 0.02081871
0.28893384 -0.20615572 0.011758804
0.28897983 -0.15163964 0.010737419
0.28336084 0.1178323 0.0057177544
0.28346083 0.2380023 0.0034704208
0.28362384 0.43345034 -0.00018453598
0.28372285 0.55246437 -0.0024104118
0.28268784 -0.69054669 0.020835876
0.28304183 -0.26605266 0.012896538
0.28274885 -0.6171487 0.019462585
0.28278282 -0.57635874 0.018699646
0.28313684 -0.15159363 0.010755539
0.27751184 0.11786735 0.0057358742
0.27753985 0.15199631 0.0050978661
0.27767083 0.3118093 0.0021076202
0.27796683 0.67430633 -0.0046701431
0.28893885 0.8330313 -0.25597143
0.27709883 -0.38855165 0.015206814
0.27724785 -0.20605963 0.011793613
0.27699783 -0.51237673 0.017521858
0.27703783 -0.46340066 0.016605854
0.27204785 0.59628832 -0.0031924248
0.27207485 0.62913835 -0.0038075447
0.27211085 0.67431831 -0.0046525002
0.27213582 0.70581329 -0.005241394
0.27201283 0.55249631 -0.0023732185
0.27090085 -0.83710665 0.023611546
0.27101883 -0.6904127 0.020870686
0.27135783 -0.26595372 0.012931824
0.27140585 -0.20601267 0.01181078
0.27149683 -0.0928877 0.0096945763
0.27116084 -0.51231772 0.017538548
0.27119985 -0.46334368 0.016623497
0.26593685 0.26814032 0.0029616356
0.26578084 0.06880331 0.0066895485
0.26621982 0.62915134 -0.0037894249
0.26609984 0.47590631 -0.00092315674
0.27613285 0.83331132 -0.24030828
0.27707183 0.86850035 -0.26272154
0.26524284 -0.61695868 0.019513607
0.26536384 -0.46328765 0.016640663
0.25997284 0.11796629 0.0057897568
0.25993484 0.068837345 0.0067076683
0.26042384 0.70583332 -0.0052051544
0.26024783 0.47592533 -0.00090551376
0.26999983 0.83334631 -0.23854113
0.25914383 -0.96182269 0.025981426
0.25929183 -0.76907271 0.022376537
0.25935283 -0.69028467 0.020904541
0.25981084 -0.092805684 0.0097308159
0.25952685 -0.4632327 0.016658783
0.25418085 0.19171435 0.0044288635
0.25405985 0.030670345 0.007440567
0.25408885 0.068871319 0.0067257881
0.25448483 0.59632933 -0.0031385422
0.25430885 0.36110431 0.0012617111
0.25445184 0.55254328 -0.0023193359
0.25327682 -1.0119367 0.026937485
0.25336385 -0.89662069 0.02478075
0.25345984 -0.76900667 0.022394657
0.25388283 -0.20587772 0.011864662
0.25357383 -0.61683863 0.019547462
0.25360483 -0.57605666 0.01878643
0.25392383 -0.15137464 0.010845661
0.25368983 -0.46317869 0.016675472
0.24828084 0.1180293 0.0058255196
0.24833484 0.19174331 0.0044465065
0.24836884 0.23817134 0.0035786629
0.24815784 -0.04976064 0.0089626312
0.24839084 0.26821935 0.0030164719
0.24848185 0.3911953 0.00071573257
0.25830683 0.77778131 -0.24935913
0.25744283 0.86894035 -0.2273674
0.24774085 -0.61677963 0.019566536
0.24777086 -0.57599968 0.018803596
0.24812587 -0.092726648 0.0097665787
0.24785386 -0.46312565 0.016693592
0.24243586 0.11806035 0.0058436394
0.24280386 0.62920034 -0.0037155151
0.24261086 0.3611483 0.0012974739
0.24263285 0.39121532 0.00073575974
0.24283586 0.67437136 -0.0045614243
0.24274884 0.55257332 -0.0022821426
0.24207287 -0.38824171 0.015311718
0.24174984 -0.83676571 0.02369976
0.24220385 -0.20579165 0.011899471
0.24224286 -0.15129262 0.010879517
0.24228485 -0.09268862 0.0097846985
0.23650484 -0.0060536861 0.008181572
0.23655786 0.068968296 0.0067796707
0.23732685 0.75082433 -0.013724327
0.24491484 0.83375531 -0.21583843
0.23623686 -0.38819367 0.015329838
0.23587985 -0.89641768 0.024833679
0.23596986 -0.76881868 0.022446632
0.23636486 -0.20575064 0.011916637
0.23614986 -0.51198572 0.017643452
0.23066285 -0.0060196519 0.0082006454
0.23107585 0.59638131 -0.0030641556
0.23096485 0.43362933 -2.0503998e-05
0.23976685 0.77803332 -0.24007416
0.23912184 0.83364534 -0.22246838
0.23009385 -0.8366397 0.023733616
0.23013985 -0.76875871 0.022462845
0.23052585 -0.20570964 0.011934757
0.23027286 -0.57583565 0.018856525
0.23056385 -0.15121466 0.01091671
0.23031585 -0.5119347 0.017661572
0.22508585 0.39127433 0.00078964233
0.22527586 0.67440033 -0.0045051575
0.22514285 0.47602832 -0.00079536438
0.23371086 0.77803636 -0.24017239
0.23261885 0.83387029 -0.20966148
0.22414686 -1.0115857 0.027022839
0.22418085 -0.96140772 0.026085854
0.22426385 -0.83657867 0.023750782
0.22430985 -0.76869971 0.022481441
0.22472285 -0.15117663 0.01093483
0.21905985 0.11817634 0.0059146881
0.21944386 0.7058953 -0.0050754547
0.21872985 -0.38805562 0.015381813
0.21835585 -0.96134371 0.026100636
0.21843685 -0.83651763 0.023768425
0.21864885 -0.51183563 0.017696857
0.21323985 0.15231931 0.0052957535
0.21329385 0.23832035 0.0036878586
0.21313885 -0.0059236884 0.0082535744
0.21316186 0.030896306 0.0075654984
0.21352185 0.59641731 -0.003010273
0.21354285 0.62925637 -0.0036244392
0.21293986 -0.31860572 0.014101505
0.21260986 -0.8364597 0.023785591
0.21265285 -0.76858562 0.022516727
0.21297385 -0.26551265 0.01310873
0.21277586 -0.57568163 0.018907547
0.21308385 -0.092508733 0.0098748207
0.20737585 0.11823034 0.0059518814
0.20739685 0.15234435 0.0053114891
0.20729885 -0.005892694 0.0082726479
0.20749585 0.31208831 0.0023264885
0.20752585 0.36126834 0.0014066696
0.20754485 0.3913303 0.00084352493
0.20757085 0.4336983 5.1498413e-05
0.21420085 0.86929435 -0.19980335
0.20710485 -0.31856567 0.014118671
0.20667486 -1.0113926 0.027075768
0.20674585 -0.89610869 0.024918556
0.20678285 -0.83640271 0.023802757
0.20713785 -0.26547366 0.01312542
0.20701486 -0.46278673 0.016815662
0.20147885 0.030954301 0.0076007843
0.20184085 0.62927634 -0.0035872459
0.20169686 0.39134735 0.00086164474
0.20186785 0.67443728 -0.0044322014
0.20172285 0.43371433 6.9618225e-05
0.20122585 -0.38792771 0.015433788
0.20084985 -1.0113328 0.027091503
0.20111285 -0.57558566 0.018943787
0.20140485 -0.092442691 0.0099096298
0.20115185 -0.51169568 0.017748833
0.19580485 0.31212735 0.0023627281
0.19563885 0.030983329 0.0076198578
0.19566186 0.069171309 0.0069065094
0.19601785 0.67444533 -0.0044131279
0.19587585 0.4337303 8.8691711e-05
0.19590086 0.47610533 -0.00070333481
0.19863385 0.74863529 -0.087666512
0.20246986 0.7788313 -0.20973349
0.20238486 0.86921132 -0.20702457
0.19539285 -0.3878867 0.015452862
0.19543386 -0.31848663 0.014154434
0.19509485 -0.89599472 0.024952412
0.19521585 -0.68966573 0.021096706
0.18984985 0.11830634 0.0060067177
0.19012286 0.5964613 -0.0029363632
0.19014086 0.6292963 -0.0035505295
0.19007285 0.51029932 -0.0013241768
0.18959986 -0.31844968 0.0141716
0.18926986 -0.89593965 0.024970531
0.18934286 -0.76837367 0.022585869
0.18938786 -0.68961662 0.021112442
0.18962985 -0.26536268 0.013179779
0.18404986 0.19201732 0.0046448708
0.18391585 -0.04939872 0.0091586113
0.18415985 0.3913973 0.00091648102
0.18431686 0.67446136 -0.0043764114
0.18418385 0.43376034 0.0001244545
0.18420686 0.47613332 -0.0006685257
0.18338186 -1.0111578 0.027143478
0.18385886 -0.15093571 0.011058807
0.17816785 0.11835432 0.0060415268
0.17820786 0.19203931 0.0046634674
0.17823285 0.23844934 0.0037956238
0.17810085 -0.0057497025 0.0083627701
0.17824885 0.26848531 0.0032334328
0.17827286 0.31218332 0.0024166107
0.17812085 0.031063318 0.0076737404
0.17833786 0.43377531 0.00014257431
0.18085486 0.74866432 -0.087224483
0.18401885 0.83411533 -0.19705153
0.18428186 0.8692283 -0.20618916
0.17765385 -0.83613771 0.023889542
0.17769085 -0.76827472 0.022621632
0.17799385 -0.20538372 0.012094498
0.17232685 0.11837733 0.0060596466
0.17234385 0.15248531 0.0054216385
0.17236485 0.19206035 0.0046806335
0.17242785 0.31220132 0.0024347305
0.17492785 0.74867433 -0.087075233
0.17267385 0.78398836 -0.0063862801
0.17209785 -0.31834167 0.014226437
0.17218585 -0.15087372 0.01109457
0.17199785 -0.51148266 0.017837524
0.16642386 -0.0056976676 0.0083985329
0.16656286 0.26852232 0.0032696724
0.16644286 0.031113327 0.0077095032
0.16646186 0.069295347 0.0069956779
0.16668485 0.51034832 -0.0012512207
0.16670685 0.55273628 -0.0020442009
0.16611485 -0.61608571 0.01981163
0.16637985 -0.092263639 0.010015488
0.16619286 -0.46249968 0.016940594
0.16068286 0.19210035 0.0047178268
0.16060385 0.031137347 0.0077285767
0.16088085 0.59651029 -0.0028452873
0.16089685 0.62934136 -0.0034594536
0.16080186 0.43381631 0.00019741058
0.16307886 0.74869233 -0.086778164
0.16119985 0.78377831 -0.015000343
0.16083886 0.51036036 -0.0012354851
0.16039886 -0.38766271 0.015560627
0.16015086 -0.89568669 0.025058746
0.16036285 -0.46246368 0.016956806
0.15484285 0.1921193 0.0047354698
0.15493685 0.39147234 0.0010075569
0.16042686 0.91149932 -0.21585512
0.15456785 -0.38762969 0.015576839
0.15427285 -1.0108957 0.027231693
0.15435585 -0.83594972 0.02396059
0.15462585 -0.26516467 0.013285637
0.15445985 -0.61600572 0.01984787
0.15453285 -0.46242768 0.01697588
0.14898285 0.15256733 0.0054945946
0.14902185 0.23854232 0.0038866997
0.14892785 0.031182349 0.0077638626
0.14894485 0.069362342 0.0070495605
0.14914685 0.51038229 -0.0011973381
0.15440485 0.91149735 -0.21636438
0.14847386 -0.96068865 0.026311874
0.14850385 -0.89559466 0.025093555
0.14859785 -0.68931073 0.02123642
0.14316085 0.19215631 0.0047717094
0.14319485 0.26859033 0.0033426285
0.14308985 0.031204343 0.0077815056
0.14324886 0.39150029 0.0010447502
0.14330186 0.51039231 -0.0011792183
0.14293586 -0.31818169 0.014315605
0.14268185 -0.89555162 0.025112629
0.14282285 -0.57517165 0.019120693
0.14287286 -0.46235973 0.017011642
0.13732186 0.1921733 0.0047907829
0.13735385 0.26860631 0.003361702
0.13749285 0.59654534 -0.0027713776
0.13753985 0.70599133 -0.0048184395
0.13938585 0.74872833 -0.086173534
0.14205685 0.86926931 -0.20389223
0.13710485 -0.31815273 0.014332771
0.13715285 -0.20517963 0.01222086
0.13699585 -0.57513767 0.019139767
0.13717586 -0.15070969 0.011201859
0.13702285 -0.5112657 0.017943859
0.13138385 -0.049171627 0.0093226433
0.13158086 0.4338783 0.00028848648
0.13159785 0.47624132 -0.00050354004
0.13616586 0.83391535 -0.20982027
0.13124585 -0.38750464 0.015648842
0.13106285 -0.83578366 0.024030685
0.12562785 0.15263933 0.0055656433
0.12568985 0.31232435 0.0025806427
0.12581486 0.62938631 -0.0033493042
0.12578486 0.55280232 -0.0019164085
0.13010186 0.86922234 -0.20803452
0.12517186 -1.0106716 0.027319431
0.12519185 -0.96051663 0.026381493
0.12524085 -0.83574468 0.024049759
0.12534285 -0.57507068 0.019174576
0.12550884 -0.15066165 0.011236668
0.11977484 0.11855531 0.0062217712
0.11978785 0.15265632 0.0055856705
0.11980284 0.1922223 0.0048456192
0.11974285 0.031284332 0.007853508
0.11995485 0.59656835 -0.0027165413
0.11986584 0.36149931 0.0016794205
0.11987784 0.39154834 0.0011177063
0.11989384 0.4339003 0.00032567978
0.11993784 0.55281031 -0.0018982887
0.11958485 -0.38744873 0.015684605
0.11961084 -0.31807071 0.014387608
0.11951485 -0.57503968 0.019192696
0.11953885 -0.51117164 0.017998695
0.11400684 0.31235033 0.0026168823
0.11390684 0.031303346 0.0078716278
0.11410985 0.59657532 -0.0026984215
0.11412085 0.6293993 -0.0033111572
0.11402484 0.36151034 0.0016965866
0.11378085 -0.31804568 0.014405727
0.11354985 -0.96043962 0.026417732
0.11379985 -0.26497573 0.013412476
0.11367384 -0.61576265 0.019972801
0.11386185 -0.092048705 0.010178566
0.10811184 0.15268731 0.0056195259
0.10814185 0.2386483 0.0040135384
0.10815185 0.26867634 0.0034527779
0.10816684 0.31236231 0.0026345253
0.10807084 0.031320333 0.0078907013
0.10808384 0.069494307 0.0071768761
0.10829084 0.67454731 -0.004137516
0.10822284 0.47628033 -0.00042915344
0.11026385 0.78136331 -0.11174917
0.11222085 0.83377331 -0.21853733
0.10792685 -0.38739663 0.015719414
0.10777385 -0.8356387 0.024102688
0.10796884 -0.26495272 0.013430595
0.10800885 -0.15059668 0.011291504
0.10790184 -0.46218163 0.017119884
0.10227484 0.15270233 0.0056395531
0.10228784 0.19226635 0.0049004555
0.10230284 0.2386623 0.0040326118
0.10231285 0.26868933 0.0034704208
0.10241985 0.59658831 -0.0026602745
0.10238084 0.47628933 -0.00041246414
0.10386085 0.74877834 -0.08524847
0.10239185 0.51045632 -0.0010504723
0.10631584 0.83364832 -0.2258563
0.10622185 0.86907631 -0.22048426
0.10191184 -0.96036869 0.026451588
0.10195184 -0.83560568 0.024120808
0.10207385 -0.46215564 0.01713562
0.096373841 -0.049054682 0.0094294548
0.096485846 0.31238532 0.0026717186
0.096583843 0.6294173 -0.0032572746
0.096607842 0.70602632 -0.0046901703
0.096546844 0.51046431 -0.0010323524
0.096268848 -0.38734764 0.015756607
0.096306846 -0.26490873 0.013465881
0.096324846 -0.20501965 0.012345791
0.096197844 -0.6156767 0.02002573
0.096341848 -0.15055662 0.011329651
0.096359842 -0.09199065 0.010232449
0.090610847 0.19229233 0.0049357414
0.090681843 0.43394732 0.00041675568
0.090693846 0.47630534 -0.00037527084
0.090460844 -0.31795472 0.014476776
0.090308845 -0.83554465 0.024154663
0.090475842 -0.2648887 0.013484478
0.090417847 -0.46210665 0.017172813
0.084752843 0.11864531 0.0063314438
0.084793843 0.26872331 0.0035247803
0.084827848 0.39160931 0.0012264252
0.084839843 0.43395633 0.00043582916
0.088383846 0.83343631 -0.23839426
0.088387847 0.86885732 -0.2387104
0.084611848 -0.38730365 0.015792847
0.084693842 -0.091956675 0.010269642
0.078872845 -0.049006641 0.0094857216
0.078955844 0.26873434 0.0035414696
0.078903846 0.069569349 0.0072674751
0.078979842 0.36157233 0.001806736
0.079018846 0.51048529 -0.00097751617
0.082318842 0.83345634 -0.23735237
0.082701847 0.91121233 -0.26476049
0.078705847 -0.68892771 0.021449566
0.078815848 -0.26485068 0.013521671
0.078734845 -0.57485169 0.019317627
0.078861848 -0.091940701 0.010287762
0.073080845 0.11866933 0.0063686371
0.073049843 -0.0053876638 0.0086865425
0.073058844 0.03141135 0.0079994202
0.073068842 0.06958133 0.0072855949
0.073197842 0.59661734 -0.0025691986
0.073139846 0.36158031 0.0018258095
0.073146842 0.3916263 0.0012636185
0.073186845 0.55286634 -0.0017514229
0.076236844 0.83350331 -0.23472118
0.072831847 -0.89513773 0.025324821
0.072910845 -0.57482964 0.019335747
0.073014848 -0.15048772 0.011401653
0.072925843 -0.51097065 0.018141747
0.072937846 -0.46204263 0.017226696
0.067259848 0.19233733 0.0050086975
0.067369848 0.67457932 -0.0040092468
0.067376845 0.70604533 -0.0045981407
0.067314848 0.43397832 0.00049066544
0.067155845 -0.26481563 0.013557434
0.067074843 -0.61555666 0.020115852
0.067084841 -0.57480866 0.019353867
0.061414845 0.15278834 0.0057678223
0.061432846 0.2387383 0.0041584969
0.061388843 0.031436324 0.0080366135
0.061508842 0.59662628 -0.0025334358
0.061524846 0.67458236 -0.0039901733
0.063750848 0.77914834 -0.20013714
0.061178848 -0.96016365 0.026577473
0.061204843 -0.83541471 0.024245739
0.061349846 -0.15045768 0.011437416
0.061362848 -0.091896713 0.010342598
0.061273843 -0.51093167 0.018177509
0.061283842 -0.46200472 0.017262459
0.055600844 0.26877034 0.0036158562
0.055609845 0.3124513 0.002799511
0.055648848 0.51050931 -0.00090456009
0.055384845 -0.83539265 0.024263859
0.055530846 -0.091884673 0.010360718
0.055448845 -0.51091367 0.018195629
0.055457845 -0.46198672 0.017280579
0.049706846 -0.048941672 0.0095758438
0.049785845 0.39165431 0.0013365746
0.049814843 0.55288637 -0.0016784668
0.049657844 -0.31783265 0.014603615
0.049631841 -0.46197063 0.017298698
0.043900844 0.11872131 0.006459713
0.043906845 0.15281534 0.0058217049
0.043873847 -0.048930705 0.0095934868
0.043925844 0.26878631 0.003651619
0.043886844 0.031468332 0.0080904961
0.043984845 0.62945735 -0.0030913353
0.043964844 0.51051933 -0.00086736679
0.043971844 0.5528903 -0.0016593933
0.044018846 0.83744633 -0.0069761276
0.043787844 -0.57473665 0.019426823
0.043798845 -0.51088172 0.018232822
0.043806843 -0.46195573 0.017316818
0.038086846 0.26879233 0.0036706924
0.038134843 0.59664232 -0.0024595261
0.038099844 0.36162233 0.001935482
0.038150843 0.70605934 -0.0045051575
0.038110845 0.4340083 0.00058174133
0.038121846 0.51052332 -0.00084924698
0.038127843 0.55289435 -0.0016403198
0.037924845 -0.83533567 0.024317741
0.032229844 0.11873734 0.0064964294
0.032270845 0.43401331 0.00060081482
0.032275844 0.47636533 -0.0001912117
0.033839844 0.77854836 -0.22418022
0.032459844 0.83710933 -0.026553154
0.032163844 -0.38715667 0.015956879
0.032186843 -0.20485371 0.012546539
0.032138843 -0.57470673 0.019461632
0.026398845 0.15283734 0.0058765411
0.026375845 -0.04890269 0.0096497536
0.026388846 0.069660306 0.0074324608
0.026448846 0.59664834 -0.0024223328
0.026430845 0.4340173 0.00061845779
0.026336845 -0.38714463 0.015974522
0.026285846 -0.83530468 0.024353504
0.026310846 -0.61543971 0.020243645
0.020571847 0.23878831 0.0042877197
0.020574845 0.26881033 0.0037255287
0.020609844 0.62946832 -0.0030183792
0.020590845 0.43402231 0.00063753128
0.021765843 0.77855831 -0.22383738
0.020516846 -0.31777364 0.014694691
0.020466845 -0.83529073 0.024372578
0.020527843 -0.20483464 0.012583733
0.020502843 -0.46190566 0.017389774
0.014713845 -0.0052886605 0.0088706017
0.014738846 0.31249231 0.0029277802
0.014716846 0.031507313 0.0081825256
0.014719847 0.0696733 0.0074687004
0.014764846 0.6294713 -0.0029993057
0.014771846 0.70606732 -0.0044312477
0.014755846 0.51053834 -0.00077438354
0.014687846 -0.3177647 0.014714718
0.014645846 -0.83527774 0.024390697
0.014650845 -0.76744872 0.023122787
0.014663846 -0.61541671 0.020278454
0.0088808453 -0.0052827001 0.0088887215
0.0088988459 0.26881933 0.0037636757
0.0088858465 0.069678307 0.0074877739
0.0091998456 0.74888533 -0.082668304
0.008914846 0.51054132 -0.00075626373
0.0089168465 0.55291033 -0.0015492439
0.0088148462 -1.0101476 0.02767849
0.0088188453 -0.9600057 0.026740551
0.008840845 -0.61540669 0.020297527
0.0030458448 -0.048876703 0.0097227097
0.0030478453 -0.0052776933 0.008907795
0.0030638454 0.31249934 0.0029644966
0.0030498458 0.031517327 0.0082187653
0.0030828463 0.7060703 -0.0043954849
0.0030018454 -0.95999569 0.026758671
0.003007845 -0.83525771 0.02442646
0.003019846 -0.57465369 0.019553661
0.0030238451 -0.51080269 0.018359661
-0.0027781539 0.19241834 0.0052285194
-0.0027751541 0.26882631 0.0037994385
-0.0027641542 0.59666032 -0.0023293495
-0.002771154 0.39169329 0.0015034676
-0.0023791539 0.77857834 -0.22314215
-0.0026101544 0.8359983 -0.091008186
-0.0027541546 0.91276735 -0.0082321167
-0.0027911542 -0.2048077 0.012657642
-0.0027871542 -0.091799676 0.010544777
-0.0028011538 -0.51079565 0.018377781
-0.0027991543 -0.46187264 0.017464638
-0.0086151548 0.11877334 0.0066246986
-0.0086131543 0.19242132 0.0052475929
-0.0086171543 -0.048867643 0.0097584724
-0.0086121541 0.26882833 0.003818512
-0.0086161541 0.031525314 0.0082554817
-0.0086061545 0.62947732 -0.002925396
-0.0085371546 0.74890232 -0.082165241
-0.0085991547 0.94838035 -0.011036396
-0.0086321542 -0.95997864 0.026796818
-0.0086241541 -0.46186763 0.017481804
-0.014451155 -0.048864663 0.0097765923
-0.014451155 0.26883131 0.0038366318
-0.014451155 0.06969434 0.0075616837
-0.014451155 0.67461032 -0.0037503242
-0.014451155 0.70607334 -0.0043392181
-0.014451155 0.74890733 -0.081996441
-0.014451155 -1.0101137 0.027751446
-0.014451155 -0.89490372 0.025596619
-0.014451155 -0.68869573 0.021740437
-0.014451155 -0.61537963 0.020370483
-0.014451155 -0.57463664 0.019608498
-0.014451155 -0.51078564 0.018414497
-0.020286154 0.1528703 0.0060248375
-0.020284154 0.031530321 0.008292675
-0.020295154 0.70607334 -0.0043201447
-0.020277154 -0.3870917 0.01611948
-0.020267155 -0.95996863 0.026832581
-0.020273155 -0.61537665 0.02038765
-0.020281155 -0.15034467 0.011693478
-0.020275153 -0.51078171 0.018433571
-0.026120154 0.15287131 0.0060424805
-0.026123155 0.23881233 0.0044345856
-0.026115153 -0.0052616596 0.0090007782
-0.026136154 0.62948036 -0.0028691292
-0.026274154 0.74891734 -0.081658363
-0.026105154 -0.31773072 0.014841557
-0.026086155 -0.89489669 0.025633812
-0.026088154 -0.83522862 0.024519444
-0.026090154 -0.76740164 0.023249626
-0.026109155 -0.20479566 0.012729645
-0.026095156 -0.61537367 0.020407677
-0.026100155 -0.46185774 0.01753664
-0.031954154 0.1187793 0.0066976547
-0.031955153 0.15287131 0.0060606003
-0.031957153 0.19242734 0.005320549
-0.031946152 -0.048859656 0.009832859
-0.031977154 0.59666431 -0.0022382736
-0.031966154 0.36165833 0.0021567345
-0.031981155 0.67461228 -0.003695488
-0.031907156 -0.83522767 0.02453661
-0.031935155 -0.2646727 0.013868809
-0.037779156 -0.048859656 0.009850502
-0.037782155 -0.0052616596 0.0090355873
-0.037806153 0.36165833 0.002175808
-0.037810154 0.43404031 0.00082159042
-0.037818152 0.55291831 -0.0014014244
-0.037765153 -0.2646727 0.013886452
-0.037749153 -0.51077873 0.018488884
-0.043634154 0.23881334 0.0044908524
-0.043614153 -0.0052616596 0.0090546608
-0.043620154 0.06969732 0.0076527596
-0.043656155 0.51055032 -0.00058937073
-0.043659154 0.55291831 -0.0013823509
-0.043583155 -0.38708872 0.01619482
-0.043602154 -0.15034264 0.011766434
-0.043573156 -0.51077873 0.018507481
-0.049450155 0.031531334 0.0083847046
-0.049508154 0.62947929 -0.0027971268
-0.049513154 0.67461133 -0.0036392212
-0.049489155 0.43403929 0.00085878372
-0.049348157 -1.0101087 0.027861595
-0.049359154 -0.89489871 0.025707722
-0.049372155 -0.76740366 0.023323536
-0.049387157 -0.6153757 0.020480633
-0.049432155 -0.15034467 0.011785507
-0.055297155 0.15286833 0.0061335564
-0.055283155 0.031529307 0.0084028244
-0.055209156 -0.61537868 0.02050066
-0.055269156 -0.091791689 0.010710716
-0.061127156 0.11877334 0.006790638
-0.061143156 0.23880833 0.0045466423
-0.061111156 -0.005268693 0.0091094971
-0.061204154 0.70607233 -0.0041923523
-0.061221156 0.83745432 -0.0066423416
-0.060986154 -0.95997769 0.026961803
-0.060995154 -0.89490765 0.025745869
-0.061045155 -0.51078862 0.01856184
-0.066981152 0.23880529 0.0045657158
-0.067038156 0.62947631 -0.0027403831
-0.067045152 0.6746093 -0.0035843849
-0.067049153 0.70607132 -0.0041723251
-0.067649156 0.74894732 -0.080451488
-0.066899151 -0.31774265 0.014971733
-0.066805154 -0.95998472 0.026979446
-0.066855155 -0.61538965 0.020536423
-0.066878155 -0.46187168 0.017666817
-0.072798155 0.11876732 0.0068278313
-0.072817154 0.23880231 0.0045838356
-0.072876155 0.59665835 -0.0021085739
-0.072888151 0.67460734 -0.0035653114
-0.072894156 0.7060703 -0.004155159
-0.073558152 0.74895132 -0.080278397
-0.072862156 0.51054335 -0.00049829483
-0.072642155 -0.83525473 0.024666786
-0.072735153 -0.2646907 0.013997555
-0.072685152 -0.57465166 0.01979351
-0.072763152 -0.09180373 0.010764599
-0.078638159 0.15285534 0.0062098503
-0.078654155 0.23879832 0.0046005249
-0.078667156 0.31249732 0.0032248497
-0.078617156 0.031514347 0.0084776878
-0.078676157 0.36164629 0.0023036003
-0.078732155 0.67460632 -0.0035471916
-0.078689158 0.43402934 0.00095176697
-0.078710154 0.55291033 -0.0012712479
-0.078439154 -0.96000272 0.02701664
-0.078501157 -0.61540467 0.020572662
-0.078519158 -0.51080865 0.018618584
-0.084474154 0.15285033 0.0062265396
-0.084481157 0.19240731 0.005487442
-0.084490158 0.23879433 0.0046205521
-0.084434152 -0.048886716 0.009999752
-0.084496155 0.26881635 0.0040597916
-0.084505156 0.31249332 0.0032424927
-0.084520154 0.39168531 0.0017614365
-0.084544152 0.51053834 -0.00046157837
-0.084280156 -0.83527464 0.024703503
-0.084353156 -0.46189362 0.017722607
-0.090285152 0.031502306 0.0085148811
-0.090405159 0.59665233 -0.0020532608
-0.090361156 0.39168131 0.0017786026
-0.096155152 0.19239634 0.0055246353
-0.096118152 0.031495333 0.0085334778
-0.096200153 0.39167732 0.0017986298
-0.096220158 0.47637033 0.00021457672
-0.096064158 -0.20484167 0.012952805
-0.095970154 -0.61543673 0.020629883
-0.10197315 0.11873829 0.0069208145
-0.10199115 0.19238931 0.0055427551
-0.10209016 0.59664631 -0.0020155907
-0.10203215 0.36162931 0.0023794174
-0.10204016 0.39167231 0.0018177032
-0.10207915 0.55289936 -0.0011973381
-0.10184915 -0.38715369 0.016379833
-0.10169715 -1.0102007 0.028029442
-0.10170916 -0.96005768 0.027091503
-0.10192116 -0.091838658 0.010857582
-0.10183115 -0.46192569 0.017777443
-0.10780816 0.11873132 0.0069394112
-0.10781716 0.1528253 0.0063004494
-0.10783915 0.23877132 0.0046935081
-0.10784715 0.2687943 0.0041337013
-0.10779516 0.069647312 0.0078577995
-0.10793316 0.59664333 -0.0019974709
-0.10794116 0.62946129 -0.0026111603
-0.10792115 0.55289531 -0.0011782646
-0.10751315 -1.0102177 0.028048515
-0.10754316 -0.89500171 0.025893688
-0.11366315 0.1923753 0.0055804253
-0.11359616 -0.048927724 0.010092735
-0.11371016 0.36161834 0.002415657
-0.11371916 0.3916623 0.0018544197
-0.11567716 0.78090835 -0.13015223
-0.11375216 0.51052034 -0.00036811829
-0.11334416 -0.96009272 0.02712965
-0.11336216 -0.89501971 0.025911808
-0.11355315 -0.20487267 0.013008595
-0.11343916 -0.61547869 0.020685673
-0.11356816 -0.15041667 0.011989594
-0.11950116 0.19236732 0.0055985451
-0.11962015 0.5966363 -0.0019612312
-0.11956015 0.39165634 0.0018715858
-0.11965215 0.70605433 -0.0040063858
-0.11958516 0.47635233 0.00028848648
-0.11933116 -0.38719267 0.016435623
-0.11914816 -1.0102577 0.028085709
-0.11919916 -0.83536762 0.024815559
-0.11926416 -0.61549467 0.020704746
-0.11927616 -0.57474869 0.019943714
-0.11941815 -0.091869652 0.010914803
-0.12527715 -0.0053476691 0.009314537
-0.12537515 0.31245232 0.0033726692
-0.12546316 0.59663236 -0.0019412041
-0.12541315 0.43399334 0.0010986328
-0.12673615 0.74897933 -0.078673363
-0.12496515 -1.0102797 0.028104782
-0.12501915 -0.83538765 0.024834633
-0.12508716 -0.61551267 0.020722866
-0.12510015 -0.57476562 0.01996088
-0.12523215 -0.15044063 0.01202774
-0.12513515 -0.46198267 0.017852783
-0.13109615 -0.048961699 0.010147572
-0.13112216 0.031439304 0.0086455345
-0.13130715 0.59662735 -0.0019235611
-0.13131715 0.62944734 -0.0025362968
-0.13126715 0.47634134 0.00032663345
-0.13297915 0.78172135 -0.097714424
-0.13100815 -0.31785864 0.015176773
-0.13078216 -1.0103037 0.028122425
-0.13104515 -0.20491165 0.013064861
-0.13091116 -0.61553162 0.020741463
-0.13092415 -0.57478362 0.019980431
-0.13096115 -0.46199971 0.017871857
-0.13698615 0.11868435 0.0070328712
-0.13702714 0.23873132 0.0047874451
-0.13703816 0.26875532 0.0042266846
-0.13717715 0.67458034 -0.0033612251
-0.13709415 0.43398035 0.0011367798
-0.13710915 0.47633532 0.00034475327
-0.13659915 -1.0103288 0.028141499
-0.13685516 -0.26481169 0.014202595
-0.13673516 -0.61555165 0.020760536
-0.14299515 0.59661829 -0.0018863678
-0.14291115 0.36158234 0.002509594
-0.14303415 0.70604229 -0.0039315224
-0.14445914 0.7489863 -0.078128338
-0.14442314 0.78225732 -0.076263428
-0.14248115 -0.83545667 0.024891853
-0.14253415 -0.68889767 0.022150517
-0.14867215 0.15275735 0.0064315796
-0.14859715 -0.049002707 0.010204792
-0.14864115 0.06957233 0.0079874992
-0.14886814 0.67457235 -0.0033245087
-0.14877814 0.43396634 0.0011734962
-0.14830115 -0.8354817 0.024909496
-0.14853814 -0.20495862 0.013120651
-0.14838415 -0.61559564 0.020798683
-0.14839914 -0.57484573 0.020037651
-0.14858015 -0.091936648 0.011008739
-0.15443015 -0.049017727 0.010223866
-0.15471315 0.6745683 -0.0033063889
-0.15414815 -0.76767069 0.023661613
-0.15441315 -0.091952622 0.011026859
-0.15426815 -0.46207863 0.017947674
-0.16036215 0.19229531 0.0057296753
-0.16038115 0.2386893 0.0048627853
-0.16029614 0.031373322 0.0087385178
-0.16055915 0.67456329 -0.0032873154
-0.16020015 -0.20499462 0.013158798
-0.16024615 -0.091968715 0.011044502
-0.16009514 -0.46210164 0.017965794
-0.16637115 0.59659636 -0.0018115044
-0.16638514 0.62941831 -0.0024251938
-0.16627115 0.36154634 0.0025835037
-0.16641815 0.70602733 -0.0038571358
-0.16573815 -0.89524466 0.026082516
-0.16603115 -0.20501369 0.013177872
-0.16592215 -0.46212465 0.017984867
-0.17200714 0.11860633 0.0071458817
-0.17198515 0.069515347 0.0080637932
-0.17214614 0.4339323 0.0012488365
-0.17178415 -0.38736564 0.016604424
-0.17150915 -1.0105107 0.028256416
-0.17161615 -0.76775569 0.02371788
-0.17165115 -0.68902773 0.022245884
-0.17170115 -0.57494467 0.020111561
-0.17191415 -0.092004716 0.011082649
-0.17175114 -0.46214968 0.018003464
-0.17784315 0.11859131 0.007162571
-0.17787714 0.19225532 0.0057854652
-0.17806214 0.59658337 -0.0017743111
-0.17738014 -0.8953107 0.026120663
-0.17772014 -0.15059072 0.012195587
-0.17774715 -0.092023671 0.011101723
-0.18369715 0.15267634 0.0065436363
-0.18371515 0.19224131 0.0058045387
-0.18362215 -0.0054956675 0.0095014572
-0.18365715 0.069482327 0.008099556
-0.18381014 0.39156234 0.0020775795
-0.18580715 0.74899733 -0.076830387
-0.18386614 0.51044232 -0.00014448166
-0.18349914 -0.26496965 0.014353752
-0.18953514 0.15266031 0.0065636635
-0.18957715 0.23862433 0.0049548149
-0.18959115 0.26865333 0.0043935776
-0.18947515 0.031289339 0.0088324547
-0.18949415 0.069464326 0.0081186295
-0.18963715 0.36150235 0.0026574135
-0.18965115 0.39155132 0.0020976067
-0.18980515 0.70600832 -0.003783226
-0.18967214 0.43390232 0.0013036728
-0.18896514 -1.0106206 0.02831459
-0.18902114 -0.89538163 0.02615881
-0.18933015 -0.26499373 0.014372826
-0.18941514 -0.092063725 0.011138439
-0.19539414 0.19221032 0.005841732
-0.19527215 -0.049144685 0.010355473
-0.19529414 -0.0055336952 0.0095386505
-0.19545515 0.31232733 0.0035967827
-0.19561514 0.62938732 -0.0023322105
-0.19551715 0.43389231 0.0013227463
-0.19557714 0.55280435 -0.00089931488
-0.19519314 -0.20512372 0.013269424
-0.19506314 -0.46225768 0.018079758
-0.20125815 0.23859429 0.004992485
-0.20110714 -0.04916662 0.010373592
-0.20113015 -0.0055546761 0.0095586777
-0.20144415 0.59655535 -0.0017004013
-0.20352715 0.74900031 -0.076265335
-0.20154215 0.78401834 -0.0051965714
-0.20073214 -0.76792473 0.023813725
-0.20709714 0.23857933 0.0050125122
-0.20711415 0.2686103 0.004450798
-0.20713715 0.31230032 0.0036344528
-0.20734915 0.70599329 -0.0037274361
-0.20679815 -0.31814569 0.015421867
-0.20659815 -0.68922466 0.022359848
-0.20682615 -0.26507062 0.014429569
-0.20663714 -0.61588567 0.020989418
-0.20691915 -0.092129648 0.01119566
-0.21313615 0.59653932 -0.0016622543
-0.21315515 0.62936628 -0.0022754669
-0.21318015 0.67451429 -0.003121376
-0.21533915 0.74900132 -0.07588625
-0.21311215 0.55277836 -0.00084447861
-0.21234214 -0.83585268 0.025119781
-0.21254915 -0.46235067 0.018136501
-0.21872915 0.15257233 0.0066566467
-0.21875215 0.19214231 0.0059175491
-0.21863915 -0.0056197047 0.0096144676
-0.21882015 0.31227034 0.0036716461
-0.21900214 0.62935936 -0.0022573471
-0.21886615 0.39149034 0.0021896362
-0.21893415 0.51038533 -3.3378601e-05
-0.21809314 -0.96067673 0.027471542
-0.21849115 -0.26512772 0.014467716
-0.21852514 -0.20522672 0.013347626
-0.21855615 -0.15075463 0.012328625
-0.22447714 -0.0056426525 0.0096335411
-0.22485015 0.62935132 -0.0022392273
-0.22487715 0.67450035 -0.0030832291
-0.22473514 0.4338333 0.0014176369
-0.22429414 -0.31823462 0.015478611
-0.22388715 -1.0108836 0.028428555
-0.22395414 -0.89562863 0.026274681
-0.22402915 -0.76808363 0.023889542
-0.22418015 -0.5113607 0.019089699
-0.23041014 0.15253335 0.0066947937
-0.23046215 0.23851132 0.0050878525
-0.23031415 -0.0056666732 0.0096526146
-0.23050615 0.31223935 0.0037097931
-0.23033714 0.031143308 0.0089635849
-0.23053615 0.36140835 0.0027885437
-0.23055415 0.39146233 0.0022277832
-0.23008415 -0.38765472 0.016794682
-0.22985415 -0.76812571 0.023908615
-0.23015815 -0.26518768 0.014505863
-0.22994615 -0.61603469 0.021065712
-0.22997014 -0.57527369 0.020303726
-0.23630315 0.23849231 0.0051054955
-0.23615214 -0.0056916475 0.0096726418
-0.23652515 0.59650332 -0.0015873909
-0.23637915 0.36139232 0.0028076172
-0.23659314 0.70596331 -0.0036344528
-0.23642415 0.4338063 0.0014538765
-0.23591515 -0.3876887 0.016814709
-0.23560014 -0.89572269 0.026312828
-0.23567915 -0.76817065 0.023928642
-0.24214515 0.2384733 0.0051245689
-0.24216415 0.26850933 0.0045647621
-0.24237315 0.59649432 -0.0015692711
-0.24357015 0.75015432 -0.036740303
-0.24234515 0.5527283 -0.00075054169
-0.24138115 -0.96087068 0.027549744
-0.24142314 -0.89577073 0.026332855
-0.24146114 -0.83607572 0.025215626
-0.24182415 -0.26525062 0.01454258
-0.24166815 -0.51147264 0.019147873
-0.24169914 -0.46252769 0.018232822
-0.24793215 0.15246934 0.0067505836
-0.24782915 -0.0057426691 0.0097098351
-0.24785315 0.031069338 0.0090208054
-0.24822214 0.5964843 -0.0015492439
-0.24829414 0.70594931 -0.0035963058
-0.24728715 -0.83612472 0.025235653
-0.24769914 -0.20537573 0.01344347
-0.24753115 -0.46256667 0.018250465
-0.25383115 0.23843431 0.0051627159
-0.25371817 0.069229305 0.0083265305
-0.25407016 0.59647429 -0.0015325546
-0.25409216 0.62930834 -0.0021452904
-0.25414416 0.70594233 -0.003578186
-0.25399014 0.47613633 0.0007185936
-0.25404117 0.55270636 -0.00071334839
-0.25311217 -0.83617467 0.025254726
-0.25321016 -0.68955773 0.022513866
-0.25357017 -0.15092772 0.012442589
-0.25967416 0.23841333 0.0051827431
-0.25953114 0.031017303 0.0090584755
-0.25991917 0.59646434 -0.0015125275
-0.25994214 0.62929833 -0.0021262169
-0.26005414 0.75108832 -0.0052022934
-0.25893715 -0.83622569 0.025274754
-0.25903717 -0.6896047 0.022532463
-0.25908816 -0.61624867 0.021161556
-0.25944716 -0.092372715 0.011365414
-0.26537117 0.030990303 0.0090765953
-0.26576817 0.59645331 -0.0014944077
-0.26467517 -0.96108764 0.027627468
-0.26486516 -0.68965262 0.02255249
-0.26494515 -0.57552665 0.020418644
-0.26524317 -0.15099162 0.012481689
-0.27132717 0.19195533 0.0060868263
-0.27138215 0.26841033 0.0046567917
-0.27144817 0.3612923 0.0029215813
-0.27147016 0.3913523 0.0023584366
-0.27167317 0.67443931 -0.0029354095
-0.27150017 0.43371832 0.0015664101
-0.27155516 0.51027632 0.00013446808
-0.27096015 -0.31851572 0.015631676
-0.27077517 -0.57557362 0.020437717
-0.27705318 0.030933321 0.009115696
-0.27734917 0.43370235 0.0015854836
-0.27738017 0.47607931 0.00079345703
-0.27743617 0.55265832 -0.00063848495
-0.27679616 -0.3185547 0.015651703
-0.27632415 -0.96120471 0.027665615
-0.28295916 0.11821032 0.0075025558
-0.28307217 0.26836735 0.0046944618
-0.28310516 0.31207234 0.0038785934
-0.28331816 0.59642029 -0.0014381409
-0.28334317 0.62925935 -0.0020523071
-0.28316417 0.39131629 0.0023965836
-0.28337717 0.67442131 -0.0028963089
-0.28340015 0.70590532 -0.0034852028
-0.28257915 -0.38800162 0.016967773
-0.28211117 -1.0114396 0.028624535
-0.28229317 -0.76857072 0.024083614
-0.28267115 -0.26550263 0.014677525
-0.28252316 -0.46282071 0.018366814
-0.28882816 0.15229934 0.0068836212
-0.28885818 0.19188333 0.0061426163
-0.28889418 0.23830235 0.0052757263
-0.28870615 -0.0059466958 0.0098438263
-0.28876415 0.069066346 0.0084395409
-0.28919417 0.62924832 -0.0020332336
-0.28901115 0.39129829 0.002415657
-0.28910217 0.51023328 0.00019168854
-0.28913516 0.55263233 -0.00060129166
-0.28841317 -0.38804466 0.016986847
-0.28802317 -0.89621264 0.026488781
-0.28812116 -0.7686277 0.024102688
-0.28855315 -0.20562166 0.013575554
-0.28859517 -0.15113074 0.012556553
-0.28864017 -0.092534721 0.011460781
-0.29464418 0.1181553 0.0075407028
-0.29470217 0.19185734 0.0061626434
-0.29457617 0.030843318 0.0091738701
-0.29424816 -0.38808972 0.017007828
-0.29395017 -0.76868469 0.024122715
-0.29401118 -0.68991369 0.022649765
-0.29415116 -0.51187164 0.019320488
-0.30054817 0.19183135 0.0061817169
-0.30035517 -0.049643695 0.010697842
-0.30045018 0.069006324 0.0084786415
-0.29962617 -0.96145564 0.02774477
-0.29993415 -0.5758217 0.020534515
-0.30619615 -0.049678624 0.010715485
-0.30678716 0.67438328 -0.0028204918
-0.30545217 -0.96152264 0.027764797
-0.30560917 -0.7688027 0.024160862
-0.30602017 -0.26566666 0.014752865
-0.30616117 -0.092641652 0.011518478
-0.31220615 0.15218931 0.0069608688
-0.31227717 0.23820335 0.0053524971
-0.31240416 0.39122033 0.0024924278
-0.31253916 0.55257732 -0.0005235672
-0.31175616 -0.38822967 0.017064571
-0.31181318 -0.31881267 0.015766621
-0.31123617 -1.0117736 0.028722763
-0.31133217 -0.89646667 0.026566505
-0.31143916 -0.76886362 0.024180412
-0.31802216 0.11803734 0.0076184273
-0.31808415 0.19175035 0.0062417984
-0.31822816 0.36113232 0.0030755997
-0.31839016 0.55256236 -0.00050115585
-0.31706217 -1.0118446 0.02874279
-0.31733516 -0.69014472 0.022727489
-0.31769615 -0.26575464 0.014791489
-0.31774718 -0.20582372 0.013671875
-0.31748715 -0.5120787 0.019398689
-0.32397017 0.23815131 0.0053954124
-0.32372117 -0.0497877 0.01077652
-0.32348818 -0.31890565 0.015806675
-0.32304016 -0.83688062 0.025489807
-0.32309917 -0.7689907 0.024220467
-0.32358617 -0.20586568 0.013694763
-0.32881916 -0.89667267 0.026625633
-0.32887217 -0.83694869 0.025509834
-0.32906616 -0.61688262 0.021395683
-0.32910216 -0.57609969 0.020633698
