# .PCD v0.7 - Point Cloud Data file format
VERSION 0.7
FIELDS x y z
SIZE 4 4 4
TYPE F F F
COUNT 1 1 1
WIDTH 1
HEIGHT 1024
VIEWPOINT 0 0 0 1 0 0 0
POINTS 1024
DATA ascii
0.55573308 -0.83119917 -0.83595657
0.52999711 -0.73973823 -0.75112247
0.52288908 -0.73777914 -0.74266863
0.51579708 -0.73582721 -0.73423576
0.51265806 -0.81871915 -0.78433037
0.50574607 -0.66979218 -0.68162155
0.49432606 -0.57161725 -0.60696554
0.50554007 -0.81666219 -0.77580261
0.49873406 -0.66793919 -0.67333174
0.48739904 -0.5698992 -0.59884977
0.47416905 -0.27667022 -0.39700651
0.48048806 -0.56818724 -0.59075356
0.47366005 -0.41466415 -0.48517656
0.47039405 -0.34121716 -0.43466663
0.44890705 -0.15247118 -0.29161358
0.45693606 -0.33839822 -0.41923141
0.45409906 -0.27268624 -0.37412739
0.43415505 0.040874779 -0.15241766
0.44017404 -0.10059416 -0.24943161
0.43837106 -0.058204174 -0.22036362
0.45334405 -0.41016018 -0.46171474
0.45023105 -0.33699524 -0.41154242
0.47251806 -0.86087418 -0.77078867
0.43577006 -0.15013421 -0.2768116
0.43364805 -0.099490166 -0.2421155
0.46318805 -0.80445516 -0.72508478
0.45700705 -0.65694416 -0.62402534
0.44617206 -0.55970514 -0.55056334
0.43686706 -0.33420217 -0.39621878
0.45010906 -0.65513217 -0.61587858
0.41336605 0.081711829 -0.10513067
0.41158804 0.12547684 -0.075202465
0.40819806 0.20890683 -0.018149376
0.43935505 -0.55802417 -0.54258156
0.42754906 -0.26743019 -0.3438735
0.40322706 0.1770708 -0.033582687
0.43255606 -0.5563482 -0.53462267
0.42908704 -0.4696002 -0.47536039
0.43636104 -0.65152323 -0.59964132
0.40065804 0.083472788 -0.091134548
0.39694506 0.17784083 -0.026727676
0.40966904 -0.14550114 -0.24741268
0.39566407 0.21037382 -0.0045223236
0.40432304 -0.0096402168 -0.1546855
0.43741307 -0.85047221 -0.72856569
0.43528605 -0.79644418 -0.69168949
0.43199706 -0.71287119 -0.63465071
0.41900405 -0.55301321 -0.51876163
0.41031706 -0.32866621 -0.36578465
0.43044207 -0.8484112 -0.72018576
0.42512107 -0.71099722 -0.62648535
0.38944706 0.047361791 -0.10299253
0.39670506 -0.14320421 -0.23281145
0.37485906 0.43037382 0.15793133
0.38169906 0.08609581 -0.07025671
0.39024505 -0.14206219 -0.22553873
0.36747605 0.46583381 0.18819427
0.36586407 0.50885284 0.21747446
0.42022607 -0.94252515 -0.77032757
0.39984405 -0.39834821 -0.39996576
0.41453207 -0.79050016 -0.66686058
0.39469805 -0.26094913 -0.30645132
0.37540704 0.086964786 -0.063327789
0.37075505 0.21328384 0.022563457
0.36711806 0.31204879 0.089718342
0.36433405 0.38765782 0.14112949
0.39561707 -0.46185815 -0.43650341
0.39056104 -0.32455719 -0.34314442
0.38817206 -0.25966418 -0.29902077
0.40227306 -0.64259815 -0.55939865
0.36456105 0.21400583 0.029296398
0.35985005 0.34415382 0.11770964
0.35386005 0.50964785 0.23013258
0.40626606 -0.93817914 -0.75340271
0.38662106 -0.39544022 -0.38470936
0.38166004 -0.25838315 -0.29160547
0.36132106 0.13205683 -0.020089626
0.35219204 0.38871282 0.15409946
0.34940204 0.46716282 0.20734262
0.39097705 -0.70171118 -0.58595371
0.38874805 -0.63906717 -0.54343653
0.36454406 -0.13752425 -0.19660568
0.34190306 0.5104388 0.2427454
0.37571704 -0.45726919 -0.41340733
0.36628106 -0.18722725 -0.23030663
0.35815504 -0.1363982 -0.18941355
0.35644206 -0.086483181 -0.15559959
0.38544706 -0.9317112 -0.72817039
0.38026604 -0.78071713 -0.62588453
0.37742805 -0.69803619 -0.56987572
0.34269005 0.13448483 0.00033044815
0.34099907 0.18467081 0.034296513
0.33407205 0.39028484 0.17345238
0.36035106 -0.38967621 -0.3544116
0.37346005 -0.77877915 -0.6177516
0.35575604 -0.25329816 -0.26211357
0.33793405 0.092126787 -0.022076607
0.33484906 0.18541878 0.041002274
0.33378604 0.2175858 0.062752247
0.36667106 -0.77684724 -0.60963678
0.36188304 -0.63206816 -0.51174355
0.32871005 0.1861648 0.04769659
0.33610505 -0.041715205 -0.1062417
0.32238406 0.5493508 0.17939663
0.32064706 0.43467581 0.2155714
0.34497607 -0.31511319 -0.29092932
0.36162305 -0.82815123 -0.63749743
0.35722306 -0.69256616 -0.54590654
0.31656805 0.54950285 0.18198538
0.31233305 0.51226079 0.27179766
0.32054305 0.057290792 -0.02685833
0.31647405 0.18764979 0.06103754
0.32486504 -0.081199169 -0.12023878
0.31242207 0.3174898 0.14858341
0.31008604 0.39235878 0.19906664
0.30873606 0.43561682 0.22823334
0.33208206 -0.31245124 -0.27616453
0.34805104 -0.82417524 -0.62120342
0.34639505 -0.77108514 -0.58540678
0.31190205 0.13848579 0.034070492
0.30640805 0.31808579 0.15505648
0.32784104 -0.38256717 -0.31693459
0.32565606 -0.31112623 -0.26880836
0.33715805 -0.68714714 -0.52211142
0.33526206 -0.62515521 -0.48035145
0.30429006 0.18912679 0.074322224
0.29583904 0.47108382 0.26408243
0.29515904 0.51275778 0.27932835
0.32138306 -0.38115823 -0.30949163
0.33050007 -0.68535221 -0.51421833
0.30093506 0.097200811 0.018638611
0.29441506 0.31927282 0.16795826
0.31493706 -0.37975323 -0.30206251
0.32625806 -0.76537621 -0.56135464
0.28756005 0.55025983 0.19490623
0.28505805 0.43748382 0.25340223
0.28373405 0.51308781 0.28434229
0.30850706 -0.37835324 -0.29465342
0.31957707 -0.76348519 -0.55337334
0.31722805 -0.68177724 -0.49848557
0.29501304 -0.12531924 -0.11837435
0.28520906 0.22320682 0.11553955
0.31710204 -0.91058421 -0.64540768
0.30209106 -0.37695718 -0.28726149
0.31439504 -0.81433916 -0.58081245
0.28007007 0.19205481 0.10072136
0.28877306 -0.12422919 -0.11135769
0.27599305 0.55056083 0.20006037
0.27652106 0.32104081 0.18720865
0.27232906 0.5134148 0.2893486
0.31324807 -1.0136611 -0.7077527
0.31035507 -0.90850723 -0.63724041
0.30771005 -0.81239021 -0.57279253
0.27652705 0.10053378 0.045488358
0.27297005 0.57924485 0.13406134
0.30103806 -0.81044722 -0.56479073
0.29962304 -0.75784516 -0.52955055
0.26803404 0.19350684 0.11383724
0.26599306 0.27113581 0.16579342
0.26184106 0.4716658 0.27147532
0.29086506 -0.67469323 -0.46724558
0.26203606 0.19422883 0.12037325
0.25622106 0.47169679 0.27172852
0.27819806 -0.43493521 -0.30033541
0.27138704 -0.16980219 -0.1230464
0.25605005 0.19494981 0.12689543
0.26271605 -0.070858181 -0.050680637
0.26063004 0.012331784 0.0048966408
0.25291705 0.55115581 0.21035147
0.25548506 0.57965881 0.14195156
0.25097105 0.3974438 0.26217461
0.24957608 0.5140658 0.29934645
0.27022004 -0.37003624 -0.25055075
0.25322706 0.066907823 0.047463417
0.27684805 -0.89821815 -0.59671068
0.27451107 -0.80273521 -0.53297949
0.26061004 -0.23475718 -0.15388155
0.25896508 -0.16753614 -0.10901356
0.24528907 0.14708781 0.10702944
0.24411307 0.19638479 0.13990164
0.25044307 -0.068826199 -0.036950588
0.24385206 0.57993281 0.14720249
0.24031807 0.35534978 0.2459054
0.25756705 -0.36729717 -0.23598146
0.25588506 -0.29680717 -0.18897438
0.26791504 -0.80082119 -0.52507257
0.25277206 -0.16640818 -0.10202074
0.26327905 -0.60657024 -0.39553738
0.24029507 0.10546279 0.085333347
0.24546407 -0.11668718 -0.06266737
0.24432707 -0.067815185 -0.030107498
0.24337608 -0.02694422 -0.0028796196
0.23446907 0.35589284 0.25217628
0.26355106 -0.8941462 -0.58063364
0.25126207 -0.36593413 -0.22872353
0.26133606 -0.79891324 -0.51718569
0.22718906 0.44101679 0.30079365
0.22813606 0.4718478 0.27299356
0.25477105 -0.79701221 -0.50931835
0.25359008 -0.74488616 -0.47462273
0.24194707 -0.23114622 -0.1326685
0.22831807 0.10708684 0.098500252
0.22460207 0.27556282 0.21053839
0.22280607 0.35697478 0.26467848
0.22185807 0.3999328 0.29324436
0.22252107 0.4718768 0.27324629
0.24008507 -0.42627919 -0.25618935
0.25260907 -0.99399614 -0.63372755
0.23714407 -0.29298222 -0.16754675
0.23575307 -0.22995019 -0.12562943
0.22038607 0.19923079 0.16574955
0.22064707 0.58047783 0.15768433
0.21764807 0.3268258 0.25052261
0.21699007 0.35751379 0.27091026
0.21606907 0.40042681 0.29942131
0.21558806 0.5150308 0.31429434
0.23377907 -0.42485118 -0.24888945
0.23884207 -0.66077924 -0.4056406
0.21288207 0.27681082 0.22320461
0.21485907 0.58061278 0.16029739
0.21029307 0.40091881 0.30558538
0.21042007 0.44110981 0.30154657
0.21129307 0.4719348 0.2737565
0.23408107 -0.73941624 -0.45135832
0.21393406 -0.062800169 0.0038805008
0.23057507 -0.88407719 -0.54077959
0.21724807 -0.22638118 -0.10460377
0.21589807 -0.15970922 -0.060388565
0.22475207 -0.59669018 -0.35018778
0.20271906 0.20134282 0.18499136
0.20627406 0.020538807 0.065194607
0.19924507 0.4411698 0.30205059
0.21234007 -0.28793418 -0.13919353
0.22216608 -0.78758919 -0.47025776
0.21110708 -0.22519815 -0.097626686
0.20979707 -0.15860415 -0.05350256
0.19778506 0.15317482 0.15902948
0.20279007 -0.10929716 -0.01472044
0.20186608 -0.060815215 0.017373562
0.19539207 0.27867079 0.24210453
0.19384807 0.35965383 0.29571247
0.19365807 0.4411988 0.30230141
0.19445807 0.47201881 0.27451944
0.19190007 0.15392679 0.16546965
0.19584908 -0.059826195 0.02409935
0.18865407 0.32965881 0.28169346
0.20399506 -0.50079322 -0.26754475
0.20130508 -0.35516918 -0.1712327
0.20001706 -0.28543222 -0.12511158
0.20922507 -0.78385913 -0.45475864
0.18378907 0.27990282 0.25464153
0.18912306 -0.018385172 0.057540417
0.18598907 0.58128482 0.17334461
0.18289007 0.33021981 0.28789043
0.18234406 0.36071479 0.30803967
0.20791507 -1.0693942 -0.63693953
0.20185407 -0.73040915 -0.41294765
0.19157107 -0.15530825 -0.032933712
0.19934706 -0.59020221 -0.32029963
0.17932607 0.2041328 0.21046448
0.17878607 0.23539579 0.23110247
0.17762907 0.47209981 0.27528667
0.19974408 -0.97696924 -0.56926966
0.18894906 -0.35251725 -0.15702057
0.18666707 -0.22050214 -0.069868565
0.17223407 0.2811268 0.26712465
0.17651007 0.025006831 0.098195553
0.17276508 0.55319679 0.24615765
0.17688908 0.62152278 0.083228588
0.17568907 0.69860983 0.13064528
0.17053807 0.51629484 0.33414459
0.18521407 -0.49629819 -0.24564266
0.19320408 -0.9748702 -0.56129742
0.18279107 -0.35119724 -0.14993954
0.18163107 -0.28170717 -0.10410452
0.18773307 -0.6471982 -0.34517336
0.16770007 0.20551682 0.2231226
0.16707407 0.55333984 0.24870443
0.16326807 0.48066381 0.40443659
0.18140607 -0.64552319 -0.33769274
0.16670308 -0.10308021 0.025805473
0.16072308 0.28234482 0.27956057
0.16468807 0.026776791 0.11130047
0.16298106 0.58181584 0.18375063
0.16015106 0.4413698 0.30382061
0.16364308 0.69937181 0.15563726
0.17275807 -0.49332213 -0.23112154
0.18155907 -1.0605352 -0.60456467
0.15684506 0.15838981 0.20382357
0.15612108 0.20689183 0.23572731
0.15879607 0.027657807 0.11782932
0.15571107 0.55362481 0.25379133
0.15379608 0.40356481 0.33816767
0.16439307 -0.34726024 -0.12878466
0.17074507 -0.77280617 -0.40870237
0.16243108 -0.21586025 -0.042351723
0.15104307 0.1591258 0.21016836
0.15034907 0.20757681 0.24201059
0.15408507 -0.052986205 0.070772648
0.15149906 0.5820958 0.18927765
0.15200007 0.6997028 0.16632557
0.14354406 0.28415781 0.29811525
0.14704807 0.029411793 0.13085032
0.14269507 0.40362182 0.33866835
0.14340907 0.4414508 0.3045826
0.16194807 -1.0539622 -0.58048868
0.15931407 -0.8624562 -0.45474577
0.15124206 -0.27557015 -0.069398403
0.15623906 -0.63887417 -0.30794144
0.15541607 -0.57903218 -0.26865053
0.14049907 0.69987381 0.17176437
0.14242306 0.72943681 0.07588625
0.14800707 -0.48742521 -0.20227766
0.14692608 -0.40529823 -0.14840174
0.15543906 -1.0517842 -0.57250071
0.14438607 -0.21241415 -0.021869659
0.14352007 -0.14665616 0.021267414
0.13423006 0.11975282 0.20188522
0.13697007 -0.097981215 0.059179306
0.13586307 -0.010044217 0.11681461
0.14082007 -0.40393221 -0.14134455
0.14537106 -0.76554716 -0.37835073
0.14472906 -0.71453416 -0.34491539
0.13839607 -0.21127224 -0.015071392
0.14373507 -0.63557816 -0.29316759
0.12795207 0.1620518 0.23542547
0.12737307 0.2102958 0.26701641
0.12646407 0.2859568 0.31656027
0.12550506 0.36593181 0.36893034
0.12787406 0.62807381 0.23963451
0.12461706 -0.048183203 0.10368824
0.12416006 -0.0082191825 0.12983561
0.12022606 0.3362968 0.35522747
0.11647306 0.16350281 0.2479763
0.11927506 -0.094957173 0.079035282
0.12346506 -0.48159623 -0.17368746
0.13041307 -1.1225822 -0.59266663
0.12955207 -1.0431392 -0.54073763
0.12858807 -0.95422721 -0.48262167
0.12748906 -0.85286415 -0.41636562
0.12593406 -0.70933723 -0.32255077
0.11117706 0.12283081 0.22719955
0.11291206 -0.046280205 0.11676025
0.10994206 0.2431848 0.30579853
0.10948506 0.28773981 0.33489466
0.11044006 0.55475181 0.27406931
0.10897606 0.33738178 0.36731339
0.11077606 0.6286298 0.25269032
0.11652506 -0.39850819 -0.11326456
0.12393006 -1.1203341 -0.58465958
0.12220506 -0.95219815 -0.47485542
0.12116706 -0.85096323 -0.40874243
0.11589307 -0.33692825 -0.073049545
0.11455806 -0.20673621 0.011973381
0.10629506 0.035474837 0.17599964
0.10202106 0.52414882 0.46411228
0.11746206 -1.1180923 -0.57667065
0.11485806 -0.84906816 -0.40113974
0.11347206 -0.70589924 -0.30772543
0.099343061 0.16566283 0.26670647
0.10125506 -0.044389188 0.12977552
0.10052006 0.036330819 0.18239546
0.10140106 0.73055184 0.11933327
0.096963063 0.48291281 0.43717146
0.096716061 0.52360082 0.45488024
0.10519606 -0.47726917 -0.15241241
0.11028806 -1.0367252 -0.51711655
0.10726106 -0.70418715 -0.30033875
0.094242059 0.58401978 0.22808456
0.093830064 0.62892783 0.2596035
0.094697066 0.70054781 0.19333839
0.095630065 0.73062384 0.12209225
0.098437063 -0.39448214 -0.092367649
0.10314106 -0.94614518 -0.45166779
0.087597065 0.21498382 0.31029367
0.08964406 -0.042509198 0.14273643
0.088112064 0.6594798 0.26808167
0.088993065 0.70063078 0.19603443
0.089862064 0.73069477 0.12484026
0.091401063 -0.26355922 -0.0011043549
0.082880065 0.090856791 0.2352953
0.082312062 0.16780579 0.28532362
0.08420606 -0.088985205 0.11837339
0.080099061 0.56576282 0.48040152
0.08104106 0.3400678 0.39731741
0.082478061 0.6595788 0.27069426
0.086440064 -0.39181614 -0.078508377
0.084554061 -0.13611817 0.087731361
0.076333061 0.21630579 0.32254553
0.077244066 0.58438778 0.23549223
0.075531065 0.3402288 0.39908123
0.076132059 0.4039388 0.34170532
0.07834506 0.73083681 0.13034058
0.075248063 0.48219681 0.4260726
0.075336061 0.5213908 0.41766548
0.079165064 -0.20003021 0.052111626
0.071493067 0.09243679 0.24783754
0.072611064 -0.087017179 0.13137531
0.069534063 0.56424981 0.45188761
0.071588062 0.58450681 0.23789644
0.070038065 0.3402558 0.39933157
0.071299061 0.62928581 0.26795864
0.069808066 0.4820168 0.42329359
0.07499706 -0.47014225 -0.11726332
0.079069063 -1.1081941 -0.54142857
0.076716065 -0.74602818 -0.29630852
0.065816067 0.09322381 0.25409031
0.064939067 0.24823481 0.35459948
0.066109061 0.041418791 0.22049952
0.064005062 0.41324982 0.46159935
0.068538062 -0.38784814 -0.057837486
0.068193063 -0.3268342 -0.018276691
0.070271067 -0.69402218 -0.25636053
0.067463063 -0.19782019 0.065377235
0.069830067 -0.6162132 -0.20590878
0.059967067 0.1296308 0.28340721
0.059759066 0.17063379 0.30997038
0.059516065 0.21827579 0.34083462
0.061060067 -0.085060179 0.14432669
0.060820065 -0.037854195 0.17490768
0.059136067 0.29300278 0.3892436
0.058790065 0.5632658 0.43331146
0.060151067 0.62895882 0.26001453
0.058913067 0.48165479 0.41772652
0.064871065 -0.83410823 -0.34092474
0.061299067 -0.13198614 0.11392736
0.054494064 0.094790816 0.26655865
0.053395066 0.56277084 0.42398453
0.054471064 0.62936783 0.26980257
0.054874066 0.70112783 0.21217823
0.056663066 -0.38522124 -0.044127464
0.060431067 -1.1199162 -0.5838747
0.055806067 -0.19562316 0.078589439
0.048851065 0.095570803 0.27277231
0.048240066 0.25009978 0.37270164
0.049055066 0.043930829 0.23937845
0.049018066 0.58488083 0.24543524
0.047703065 0.4131828 0.46060658
0.050745066 -0.38391316 -0.037296772
0.054171067 -1.1238592 -0.59813643
0.052509066 -0.83042419 -0.32604265
0.052148066 -0.73908818 -0.26697779
0.051412065 -0.55284917 -0.14654255
0.043529067 0.0042678118 0.21948051
0.042705067 0.36668378 0.37690735
0.043540064 0.7012918 0.21753359
0.042678066 0.51928484 0.38218546
0.045111068 -0.4631182 -0.082495689
0.044838067 -0.38260925 -0.030479431
0.046880066 -0.93793523 -0.42036057
0.037246063 0.22087681 0.36504936
0.037965067 -0.034177184 0.20040655
0.040235065 -0.8289212 -0.31999874
0.038771067 -0.32064319 0.01548624
0.038229067 -0.1279012 0.13990545
0.039582066 -0.6083442 -0.17023134
0.031904064 0.13333482 0.31419659
0.031812064 0.17412579 0.34050465
0.031706065 0.22152281 0.37107325
0.032191064 0.0060117841 0.23207951
0.032100067 0.046420813 0.25814152
0.031652067 0.5607748 0.38639355
0.031361066 0.3744778 0.46972466
0.032223064 0.7014538 0.22287846
0.032469064 0.73139882 0.15226221
0.031592064 0.4807418 0.40376949
0.033241063 -0.46033621 -0.068692684
0.034564067 -0.94497025 -0.44768143
0.034164064 -0.83217621 -0.33324957
0.033857066 -0.73393524 -0.24514961
0.033744063 -0.68403614 -0.21296835
0.033439066 -0.54836214 -0.12546444
0.026324064 0.1340698 0.32031727
0.026757065 0.7314688 0.15498924
0.026113067 0.4805578 0.40097141
0.026185066 0.51878279 0.37372637
0.027087066 -0.31819117 0.028889656
0.027799066 -0.73339617 -0.24287367
0.027702063 -0.68238819 -0.20579147
0.026871067 -0.19018424 0.11137438
0.026763067 -0.12587619 0.15281343
0.020755064 0.13480282 0.32642555
0.020995066 -0.078298211 0.18922949
0.020626064 0.59238982 0.40060329
0.020860065 0.62923181 0.26637459
0.020592066 0.44977382 0.4199934
0.021421064 -0.45757115 -0.054950714
0.022333065 -1.0527872 -0.57769346
0.022154065 -0.95206618 -0.47521877
0.021263065 -0.31697118 0.035570621
0.021187065 -0.24959719 0.078945637
0.021047065 -0.12486815 0.1592474
0.021520065 -0.54539323 -0.11148977
0.015217065 0.10020679 0.30979824
0.015197065 0.1355328 0.33252239
0.015245065 0.048890829 0.27678967
0.015255066 0.65940881 0.26569843
0.015484065 -0.3761462 0.0033884048
0.015450065 -0.31575322 0.042236328
0.015672065 -0.68383825 -0.21214247
0.0096470648 0.10097182 0.31592846
0.0096470648 0.29792583 0.44044828
0.0096470648 0.37433481 0.46798849
0.0096470648 0.6286788 0.25306654
0.0096470648 0.6597048 0.27369547
0.0096470648 -0.68678117 -0.22500038
0.0096470648 -0.18695819 0.13088322
0.0039910651 -0.075440168 0.20827723
0.0042150649 0.3741048 0.46524954
0.0036780653 -0.60394621 -0.15024471
-0.0016019354 -0.027842164 0.24453163
-0.0015769349 0.62891078 0.25866842
-0.0012679351 0.41126582 0.43579149
-0.002076935 -0.45208824 -0.027639389
-0.002750935 -0.8520112 -0.41386557
-0.0024659345 -0.6927042 -0.25085735
-0.0071709352 0.65940583 0.26563549
-0.0068029342 0.44877982 0.40605545
-0.0072339354 0.70201778 0.24154949
-0.009292935 -0.97008216 -0.54503632
-0.0076869344 -0.31092024 0.068762302
-0.012203935 0.41083381 0.43025351
-0.012857935 0.70206279 0.24306154
-0.012470935 0.51759577 0.35390425
-0.013015934 -0.11887717 0.19757843
-0.017690934 0.22725582 0.42476034
-0.018174935 0.053768814 0.31375647
-0.017479934 0.34680283 0.47313643
-0.018487934 0.70202982 0.24199629
-0.017892934 0.47906882 0.37850666
-0.018011935 0.51742482 0.35106564
-0.019186936 -0.30852318 0.081944466
-0.018831935 -0.18164217 0.16312933
-0.023126934 0.22788382 0.4306674
-0.023970935 -0.02427721 0.26946545
-0.023840934 0.014586806 0.29431057
-0.023706935 0.054573834 0.31987333
-0.023683935 0.58869982 0.32438135
-0.024049934 0.65899181 0.2544713
-0.023414932 0.47888082 0.3756876
-0.023558933 0.5172528 0.34822035
-0.025158934 -0.36869717 0.042616367
-0.024494935 -0.18058717 0.1695385
-0.024280936 -0.11690319 0.21025133
-0.026151933 -0.5529362 -0.14698839
-0.028893933 0.1413058 0.38086462
-0.028735936 0.18163979 0.40662766
-0.028435934 0.25860083 0.45578241
-0.028933935 0.63371885 0.37430143
-0.028807934 0.4479748 0.39486551
-0.028942935 0.4786928 0.37286758
-0.031032935 -0.37097418 0.030686378
-0.029896934 -0.11592019 0.21656847
-0.034513935 0.10701782 0.36451721
-0.034177933 0.18231183 0.41256666
-0.033969935 0.22913581 0.44244862
-0.035296936 -0.068866193 0.25227547
-0.034917936 0.016272783 0.30660725
-0.034928933 0.58776081 0.30503464
-0.035396934 0.70190579 0.23795557
-0.038285933 0.77784783 -0.17574739
-0.037559934 -0.46099222 -0.071836472
-0.036455933 -0.30774117 0.086333275
-0.038260933 -0.5583142 -0.1722827
-0.039267935 0.34582281 0.46218634
-0.041424934 0.73228782 0.18759441
-0.041415934 -0.17744124 0.18869448
-0.045450933 0.10850781 0.37654543
-0.045363933 0.4473668 0.38644743
-0.050689936 0.14414483 0.40475225
-0.050443932 0.1843158 0.43032122
-0.051889934 0.5865308 0.27974749
-0.050372936 0.3717708 0.43772745
-0.052403934 0.65794182 0.22623825
-0.052354936 0.70170182 0.23134136
-0.060908932 -0.99975324 -0.65973234
-0.059743937 -0.88275623 -0.53845453
-0.054086935 -0.31423414 0.050872326
-0.053362932 -0.24143124 0.12633848
-0.058124933 -0.71999514 -0.36973763
-0.056112934 0.14484984 0.4106946
-0.05541693 0.26076382 0.47714567
-0.057135936 0.6311568 0.31297445
-0.060723934 -0.3825022 -0.029639721
-0.059212934 -0.24345922 0.11470127
-0.065050937 -0.78047919 -0.44277859
-0.063469939 -0.63509119 -0.29185152
-0.062753938 -0.56920815 -0.22345734
-0.061526936 0.14555281 0.41662741
-0.06135093 0.37129682 0.43219662
-0.066728935 -0.38483715 -0.041841507
-0.065084934 -0.2454952 0.10301828
-0.070754938 -0.72620618 -0.39673233
-0.069714941 -0.63799715 -0.30502939
-0.068197936 -0.017264187 0.31875134
-0.066613935 0.34458381 0.44845057
-0.068042941 0.66182083 0.33150625
-0.06717594 0.4086408 0.40242624
-0.067508936 0.44654781 0.37519121
-0.073884934 -0.47607923 -0.14664268
-0.072753936 -0.38718116 -0.054088593
-0.079191938 -0.89327919 -0.58099937
-0.071909934 -0.32080817 0.015012264
-0.070977941 -0.24753916 0.091295242
-0.077105939 -0.72933221 -0.41031075
-0.075138941 -0.57472515 -0.24934435
-0.072322935 0.14695281 0.42845535
-0.071990937 0.1869638 0.45383263
-0.073712938 -0.016768217 0.32228136
-0.07421694 0.62993383 0.28379726
-0.073709935 0.51568878 0.32252455
-0.076890938 -0.24959219 0.079529285
-0.07599894 -0.18428624 0.14762068
-0.081365936 -0.57750118 -0.26236248
-0.077351935 0.18762082 0.45968246
-0.076940939 0.2340728 0.48912048
-0.078458935 0.062504828 0.38040447
-0.084218934 0.72672582 -0.032122612
-0.081870936 -0.1862092 0.13605356
-0.088585936 -0.64678621 -0.34486437
-0.083077937 0.14834583 0.44024229
-0.085153937 -0.019938171 0.3003335
-0.082215935 0.26290482 0.49840927
-0.083876938 0.063285828 0.38639545
-0.092349939 -0.4837662 -0.18468761
-0.086692937 -0.11913621 0.19660234
-0.088786937 0.11438984 0.42420864
-0.087585941 0.23529083 0.50067759
-0.090905935 -0.021533191 0.28929853
-0.088092938 0.30053079 0.46841145
-0.090937935 0.66017681 0.28729534
-0.089733936 0.44572181 0.36389732
-0.090082936 0.47658581 0.34168148
-0.090519935 0.51515985 0.3139143
-0.10548194 -0.90753114 -0.63854074
-0.10128994 -0.65271115 -0.37168646
-0.09337794 0.18958282 0.47717333
-0.092891939 0.23589778 0.50644922
-0.095220938 0.06056881 0.36600924
-0.096975937 0.58555782 0.26021242
-0.10049294 0.69615483 0.048089504
-0.10477794 -0.48894715 -0.21030045
-0.10923394 -0.74516714 -0.47901535
-0.099613935 -0.19202816 0.10109758
-0.10092994 0.059127808 0.35520363
-0.10263894 0.58541179 0.25728941
-0.10175094 0.51480484 0.30816364
-0.10937393 -0.40145516 -0.12854958
-0.10677994 -0.25998318 0.020039558
-0.11680693 -0.80688119 -0.5543685
-0.10556994 -0.1939832 0.089359283
-0.10429694 -0.12454617 0.16229057
-0.10827894 -0.02635622 0.25596333
-0.10824393 0.6590808 0.2578783
-0.10595394 0.40707281 0.38281345
-0.10645594 0.44509581 0.35540438
-0.11330294 0.7270658 -0.018188477
-0.11729694 -0.49417114 -0.23610878
-0.11555593 -0.40386915 -0.14112568
-0.11425694 -0.33646917 -0.07022953
-0.12339094 -0.81024718 -0.56857252
-0.12225994 -0.75159919 -0.50688362
-0.11154794 -0.19594717 0.077578545
-0.12052693 -0.66169417 -0.41231632
-0.10971994 0.1891278 0.4734664
-0.11512494 -0.078058183 0.19201231
-0.11002794 0.29944479 0.4574585
-0.11326994 0.013651788 0.28861952
-0.11062494 0.34256983 0.42635727
-0.11773094 0.69639182 0.056254387
-0.12176394 -0.40629423 -0.15374947
-0.12881394 -0.75483716 -0.52090454
-0.11613894 -0.12819016 0.1392045
-0.11703394 0.10874683 0.37949038
-0.11625194 0.14566684 0.41843843
-0.11535694 0.18792683 0.46302223
-0.11922193 0.55453277 0.27046442
-0.11614894 0.34231478 0.42358541
-0.11987194 0.65834284 0.23810959
-0.12490494 0.72720081 -0.012628555
-0.11863894 0.51426882 0.29951525
-0.12799293 -0.4087292 -0.16642237
-0.13347793 -0.66774917 -0.43967772
-0.12005793 0.23495483 0.49812746
-0.12044994 0.26089078 0.4794054
-0.12102494 0.2988978 0.45196962
-0.12534793 0.58482385 0.24556732
-0.12167694 0.34205979 0.42081165
-0.13424493 -0.41117418 -0.17914343
-0.13108593 -0.26845324 -0.028356552
-0.13849093 -0.60303521 -0.38184738
-0.12852293 0.10602582 0.35792351
-0.13170393 0.62691081 0.21212864
-0.12822594 0.4061648 0.37155247
-0.13894993 -0.34562719 -0.11996174
-0.13721792 -0.27059221 -0.040569782
-0.13405792 -0.13371122 0.10426331
-0.13885793 -0.085017204 0.14609337
-0.13141793 0.2603088 0.47395563
-0.14227094 0.72740179 -0.004304409
-0.13557293 0.5137288 0.2908473
-0.15934093 -0.93681824 -0.7565155
-0.15145493 -0.60884523 -0.40897942
-0.13809793 0.1830768 0.42087746
-0.14191793 0.5538848 0.2587924
-0.14243694 0.58437979 0.23674726
-0.14334492 0.65685081 0.19820261
-0.14174293 0.70270884 0.2662015
-0.16345292 -0.83076823 -0.65503645
-0.15968293 -0.68002021 -0.49505949
-0.14760393 0.55372179 0.25586843
-0.14384493 0.34103179 0.40969324
-0.17308293 -0.94430923 -0.78663349
-0.15575093 -0.27706516 -0.077486515
-0.16867393 -0.77456915 -0.6062336
-0.15217292 -0.13930118 0.068930626
-0.16452093 -0.61470819 -0.43633366
-0.15073693 0.13787079 0.35408068
-0.15551493 -0.039505184 0.16528749
-0.14988694 0.36742079 0.38762665
-0.15127893 0.44340479 0.33264637
-0.15396893 0.70149779 0.22636127
-0.15959793 0.72760081 0.0040044785
-0.16834094 -0.5155232 -0.3413806
-0.17999493 -0.94808018 -0.80178738
-0.16197392 -0.27924025 -0.089884758
-0.15413894 0.29724079 0.43544531
-0.15495893 0.34051478 0.40412045
-0.15546393 0.36717379 0.38482141
-0.16037592 0.6262638 0.19726038
-0.16103993 0.65586382 0.17187929
-0.15618193 0.40501681 0.35742664
-0.15987493 0.7011928 0.21639347
-0.15822893 0.5130018 0.27925348
-0.17225793 -0.42606616 -0.2565136
-0.18384694 -0.84123719 -0.69907331
-0.16633794 -0.21398723 -0.030443668
-0.16435893 -0.14306617 0.045156479
-0.17960793 -0.68936622 -0.53718472
-0.16115293 0.17814982 0.3781395
-0.15892993 0.2588408 0.46029139
-0.16529793 0.58378077 0.22495127
-0.16612794 0.62613285 0.19427824
-0.16253793 0.4429768 0.32693243
-0.17112693 0.72773278 0.009534359
-0.16314693 0.4740198 0.30444956
-0.18431292 -0.62359822 -0.47777557
-0.17510593 -0.09567219 0.07593441
-0.16880393 0.47381881 0.30156755
-0.19758293 -0.84829724 -0.72874451
-0.19302493 -0.69566715 -0.56555653
-0.17412794 0.13256979 0.3104105
-0.17126493 0.22538483 0.40979338
-0.17964293 -0.046242177 0.11894751
-0.17028692 0.25711882 0.44377232
-0.17527694 0.51245284 0.27053022
-0.19159293 -0.43365824 -0.2958827
-0.20262793 -0.7914232 -0.67896652
-0.19977193 -0.69883919 -0.5798316
-0.18437193 -0.0052831769 0.15300226
-0.17782493 0.3661778 0.37357426
-0.18341292 0.62573981 0.18531752
-0.17946494 0.44233081 0.31834126
-0.18368293 0.69996083 0.17620325
-0.18096992 0.51226878 0.26761723
-0.19127592 -0.22222614 -0.079637527
-0.18718693 0.092086792 0.24774647
-0.18594593 0.12988782 0.28834343
-0.18756594 0.55256879 0.23532438
-0.18984693 0.65542078 0.16069221
-0.18805593 0.73301679 0.21929836
-0.21839494 -0.85900819 -0.77371264
-0.19756892 -0.22430718 -0.09205246
-0.18873294 0.22189879 0.37766552
-0.19971193 -0.10292321 0.028289318
-0.18743894 0.29555881 0.41883945
-0.19652192 -0.0085301995 0.12981749
-0.19148692 0.47301081 0.29001522
-0.20619594 -0.29473114 -0.17801857
-0.22017993 -0.70844114 -0.62300634
-0.21782193 -0.63868117 -0.54797268
-0.19465193 0.3654238 0.36511564
-0.20144993 0.65518481 0.15465641
-0.21022493 -0.22849619 -0.11702871
-0.22703692 -0.71166921 -0.63751554
-0.20047793 0.21955079 0.3560586
-0.21214993 -0.1065942 0.0041995049
-0.21029693 -0.054819167 0.060056686
-0.20718393 0.032174826 0.15390968
-0.20477593 0.55206883 0.22648048
-0.19962592 0.33841878 0.38173056
-0.20286094 0.4726038 0.28422546
-0.21658793 -0.23060417 -0.12958956
-0.21123794 0.086352825 0.20255566
-0.21128292 0.5825668 0.20123243
-0.20683593 0.40291482 0.33184052
-0.21265192 0.73152578 0.16102266
-0.22835393 -0.37893224 -0.30017233
-0.24654894 -0.87352121 -0.8345685
-0.24429093 -0.81216013 -0.76826859
-0.21109094 0.24934882 0.36910152
-0.21941593 0.029056787 0.13072062
-0.21152693 0.36466479 0.35663223
-0.21249193 0.4026778 0.32898521
-0.21425793 0.47219482 0.27842331
-0.21524693 0.51115477 0.25008631
-0.23758493 -0.45176017 -0.38957739
-0.23492593 -0.38139021 -0.31342936
-0.25366095 -0.87719214 -0.8499465
-0.22664893 -0.1623702 -0.076423645
-0.24777593 -0.7214452 -0.68141079
-0.24511392 -0.65099323 -0.60517168
-0.22283593 0.58225882 0.19527531
-0.21716192 0.36441082 0.35380125
-0.21915093 0.44080481 0.29821062
-0.25474495 -0.72473419 -0.69616365
-0.23522593 -0.061811209 0.012147427
-0.23173393 0.025912821 0.10736322
-0.22779994 0.55139685 0.21464968
-0.22861993 0.5821048 0.19229221
-0.22208592 0.33735478 0.37047958
-0.22484194 0.44058481 0.29532433
-0.23088993 0.73073578 0.13039255
-0.25095594 -0.45703518 -0.41682959
-0.26797193 -0.88458419 -0.88089657
-0.24228294 -0.23912621 -0.18031168
-0.23938593 -0.16632819 -0.10129642
-0.23020293 0.2135998 0.30136442
-0.22888292 0.24595279 0.3365345
-0.23792793 0.024331808 0.095620632
-0.27517295 -0.88830519 -0.89647055
-0.24139892 0.62440777 0.15526438
-0.24223693 0.65434879 0.13344526
-0.23516493 0.4017258 0.31753922
-0.23624092 0.44014281 0.28954458
-0.26841694 -0.55762923 -0.54802752
-0.25641695 -0.1196872 -0.081564426
-0.24512793 0.55088782 0.2057476
-0.24600892 0.58163977 0.18332624
-0.26816195 -0.39383519 -0.38049078
-0.26479894 -0.31534123 -0.29490232
-0.28699693 -0.83347714 -0.85986757
-0.26283494 -0.12158918 -0.094004631
-0.25860596 -0.02517122 0.011289597
-0.24541892 0.36312979 0.33960438
-0.25394395 0.65410781 0.12735844
-0.25548095 0.72966981 0.089090347
-0.26836994 -0.24779522 -0.23182678
-0.26514894 -0.17434716 -0.15161848
-0.29002094 -0.74140322 -0.77086878
-0.26038495 0.074600816 0.11017561
-0.25548795 0.50983381 0.22951031
-0.28163794 -0.39889014 -0.40768957
-0.27331495 -0.072519183 -0.061080456
-0.25895795 0.24020082 0.28147268
-0.26567295 0.6538648 0.1212616
-0.26125896 0.50964284 0.22656059
-0.30433494 -0.74817824 -0.80119562
-0.26657495 0.20629883 0.23442364
-0.27768093 -0.030299187 -0.025144577
-0.26831093 0.5502038 0.19383955
-0.26243994 0.3623538 0.33105659
-0.27060893 0.62372881 0.14013052
-0.27154696 0.65374279 0.1182065
-0.27517894 0.15363979 0.16662264
-0.26934296 0.40027982 0.3002944
-0.27881193 0.69705784 0.083404541
-0.27157095 0.47011781 0.24925756
-0.32340893 -0.85170114 -0.93801737
-0.28358594 0.10762882 0.10592651
-0.27725995 0.2366938 0.24795723
-0.27494895 0.2838518 0.29985332
-0.31720096 -0.57826316 -0.64887571
-0.30891195 -0.40913522 -0.46275568
-0.30501094 -0.32953417 -0.3751564
-0.30154595 -0.25884318 -0.29736376
-0.32603195 -0.75846124 -0.84717751
-0.28987694 0.10618782 0.094165325
-0.28340393 0.23551583 0.23670626
-0.28077793 0.3997938 0.29452753
-0.29064596 0.69685578 0.077222347
-0.28309995 0.46969682 0.24339247
-0.32428294 -0.58126414 -0.66352272
-0.29819393 0.06552881 0.039077282
-0.30844694 -0.13513124 -0.18242645
-0.28956994 0.23433179 0.22541237
-0.28715095 0.28167683 0.27767563
-0.29262996 0.58038181 0.15929365
-0.28447595 0.33403283 0.33547068
-0.28520995 0.36131078 0.31962538
-0.28650495 0.39954981 0.29164028
-0.28781193 0.43812582 0.26340628
-0.29765296 0.72865683 0.050777435
-0.28887394 0.46948481 0.24045753
-0.31499594 -0.26332915 -0.32394171
-0.30457896 0.063994825 0.027068615
-0.29848593 0.58022285 0.15627623
-0.29055095 0.33304083 0.32452154
-0.33344695 -0.4896872 -0.58507347
-0.30649495 0.14686978 0.10849142
-0.30196995 0.23195082 0.20270157
-0.30691195 0.65300584 0.099821568
-0.29933494 0.43767181 0.25756931
-0.32855394 -0.26785624 -0.35073566
-0.31741494 0.060907781 0.0029234886
-0.32544994 -0.087225199 -0.16136074
-0.30910194 0.54898882 0.17289257
-0.31174695 0.62276483 0.11882162
-0.30763695 0.50810081 0.20286036
-0.32386893 0.059353828 -0.0092206001
-0.33506194 -0.14305425 -0.23404455
-0.30806994 0.36025679 0.30815268
-0.31202593 0.4686338 0.22868347
-0.36013496 -0.59647822 -0.73768663
-0.34617895 -0.3441062 -0.45736456
-0.34221494 -0.27242219 -0.37773943
-0.33805194 -0.19712114 -0.29410076
-0.33034894 0.057793796 -0.021411419
-0.32261693 0.19500881 0.13123846
-0.31379995 0.35999179 0.30527735
-0.31782994 0.46841982 0.22573233
-0.31928995 0.50771081 0.19690752
-0.33457196 0.095937788 0.010602474
-0.32895693 0.1937288 0.11956167
-0.34852496 -0.14706719 -0.26016045
-0.34541294 -0.092871189 -0.19977379
-0.32428795 0.2750448 0.2101655
-0.34282896 -0.047870219 -0.14963341
-0.32667294 0.54846281 0.16387224
-0.32784393 0.57942283 0.14114857
-0.33060893 0.65250778 0.087504387
-0.36012194 -0.34905016 -0.48521376
-0.33838895 0.1399588 0.049271584
-0.33538595 0.62220579 0.1065774
-0.33654696 0.65238279 0.084418297
-0.32675093 0.39782381 0.27135038
-0.37620893 -0.50668418 -0.67236042
-0.35847795 -0.20352316 -0.33404255
-0.34992996 0.053074837 -0.058253765
-0.33367693 0.32598382 0.24678135
-0.33252296 0.39757481 0.26844168
-0.33527094 0.4677738 0.21686649
-0.33681095 0.5071218 0.18795729
-0.37417594 -0.35403919 -0.51329041
-0.36986595 -0.28167522 -0.43240833
-0.35408294 0.091452837 -0.025889397
-0.35131195 0.1371538 0.025272369
-0.34429595 0.54793179 0.15482664
-0.34552994 0.57893777 0.13203669
-0.33992594 0.32495981 0.23551464
-0.34844396 0.6521318 0.07823658
-0.33829996 0.3973248 0.26552963
-0.34266293 0.50692481 0.18496943
-0.37684694 -0.28401423 -0.44621468
-0.37238896 -0.10051221 -0.25169659
-0.35247394 0.22222978 0.11017466
-0.36672595 -0.0087242126 -0.14877844
-0.34692895 0.4673408 0.21094131
-0.38834396 -0.35907221 -0.54160166
-0.38263994 -0.15725422 -0.3263545
-0.37634194 -0.056940198 -0.21370268
-0.36036596 0.65187883 0.072040558
-0.35146895 0.43560082 0.23116732
-0.39546993 -0.36160624 -0.5558424
-0.37087893 0.1329028 -0.011070728
-0.36749193 0.18593478 0.048578262
-0.38954294 -0.15931821 -0.33975267
-0.36197394 0.54739678 0.14575624
-0.39289594 -0.10633016 -0.29117441
-0.40505296 -0.29347622 -0.50200272
-0.40005794 -0.21658218 -0.41537857
-0.40342996 -0.16347325 -0.36670637
-0.37828493 0.21724778 0.062873363
-0.37512794 0.57812083 0.11679268
-0.36937293 0.35218179 0.21512461
-0.38295594 0.62107277 0.081949234
-0.38562796 0.54667783 0.13362026
-0.38701195 0.5777908 0.11067247
-0.38379896 0.50552982 0.16396761
-0.42061695 -0.11420822 -0.34455347
-0.39789593 0.2134558 0.026926517
-0.39074296 0.31661081 0.1438756
-0.39490893 0.62078583 0.075762272
-0.41682994 0.036902785 -0.18417978
-0.42435795 -0.069971204 -0.30553865
-0.39489895 0.34821683 0.16932631
-0.39169994 0.39362681 0.22089052
-0.42074093 0.076083779 -0.15060043
-0.42794093 -0.024541199 -0.2650466
-0.39820996 0.4337208 0.20751524
-0.43051994 0.033584833 -0.20995951
-0.42414695 0.12129784 -0.11004162
-0.41772893 0.20961583 -0.0094304085
-0.41414595 0.25892079 0.046735287
-0.40938094 0.54595184 0.1214366
-0.40780294 0.34620881 0.14617157
-0.40743694 0.50472182 0.15190268
-0.43437895 0.072930813 -0.17612457
-0.42693093 0.1738708 -0.060953617
-0.41682494 0.5769608 0.095323563
-0.42736495 0.25653982 0.022684574
-0.42326695 0.31125182 0.085210323
-0.42079994 0.34418482 0.12284565
-0.41737095 0.3899588 0.17515755
-0.41929194 0.50431579 0.14585543
-0.42725796 0.54540277 0.11226845
-0.42879295 0.57662582 0.089161396
-0.42172194 0.4327668 0.1956234
-0.42522895 0.50411177 0.1428256
-0.45139393 0.11534584 -0.16067934
-0.42761695 0.4325268 0.19264221
-0.45827094 0.11384183 -0.17346334
-0.45806995 0.20179081 -0.083400726
-0.44972295 0.30688381 0.037479401
-0.46769395 0.16556883 -0.13610077
-0.46085194 0.25049978 -0.038253784
-0.44903895 0.50328982 0.13067961
-0.46310094 0.30467182 0.013340473
-0.45292094 0.46334782 0.1571126
-0.47657794 0.30244184 -0.010980606
-0.46985894 0.38243783 0.081632614
-0.46601295 0.42821181 0.13462543
-0.48591796 0.42560482 0.099407673
-0.49600992 0.4605968 0.11860228
