# .PCD v0.7 - Point Cloud Data file format
VERSION 0.7
FIELDS x y z
SIZE 4 4 4
TYPE F F F
COUNT 1 1 1
WIDTH 1
HEIGHT 1024
VIEWPOINT 0 0 0 1 0 0 0
POINTS 1024
DATA ascii
0.89178622 0.23722667 -0.079986572
0.85652417 0.35338771 0.14309931
0.86706322 0.23784572 -0.077095509
0.84476918 0.37977868 0.096940517
0.86435622 0.20397568 -0.10363674
0.82897818 0.30743772 0.1744523
0.83946717 0.37942368 0.092004299
0.8478592 0.23886967 -0.069444656
0.82915318 0.41763467 0.031994343
0.80731118 0.23270267 0.16023636
0.83539718 0.2392897 -0.066863537
0.80795223 0.30584466 0.15505457
0.82480019 0.0057637095 0.01882267
0.81591421 0.097964704 0.042402267
0.82178718 -0.035242319 -0.0054244995
0.79882121 0.26498169 0.18161154
0.80238819 0.18009871 0.1044035
0.79740018 0.30504268 0.14532137
0.80219018 0.37690967 0.05718565
0.79470521 0.17631072 0.069937706
0.79683721 0.37654668 0.052191257
0.81233919 0.48848069 -0.076860428
0.79500121 0.095207691 0.017624378
0.80688518 0.48818371 -0.082033634
0.7733472 0.30576271 0.15000725
0.78232622 0.34814769 0.074141502
0.78468817 -0.033334315 0.0035204887
0.79595917 0.48758671 -0.092420578
0.77668619 0.13064468 0.020737648
0.77320719 0.2215057 0.050573349
0.76927322 0.21970171 0.033112526
0.78500217 0.4869867 -0.10282946
0.75760621 0.25015068 0.030784607
0.75711918 0.0090876818 0.035058498
0.75856519 0.37443471 0.022375584
0.75735718 0.21423167 -0.019787312
0.75388318 -0.031770289 0.010940552
0.73815322 0.10596967 0.097844601
0.75873619 0.4529987 -0.085657597
0.76836622 0.5269317 -0.17151356
0.73208719 0.10623169 0.099277496
0.72951818 0.14336967 0.12235737
0.71842122 0.31322169 0.22208166
0.72771019 0.17893767 0.08546257
0.73991221 0.24467367 -0.025064468
0.74774718 0.45235071 -0.096033573
0.72355223 0.37868571 0.06942749
0.74224222 0.45202568 -0.10123158
0.72317719 -0.030233324 0.018325329
0.7240482 0.24844772 0.010305405
0.75573021 0.60180968 -0.28132343
0.74611217 0.5258137 -0.19278955
0.72033119 -0.079010248 -0.010680676
0.69399422 0.3145867 0.23374128
0.74595821 0.56875068 -0.24851561
0.70819718 0.011431694 0.046760559
0.70279217 0.38120168 0.097337246
0.70802718 -0.078370333 -0.0077075958
0.73469722 0.5682407 -0.25935173
0.72934121 0.52496767 -0.20881653
0.68974119 0.10803968 0.10927248
0.70188022 -0.078052282 -0.0062236786
0.6928252 0.25587171 0.079929352
0.73309618 0.60087371 -0.30322075
0.7089712 0.45422968 -0.0736866
0.69256818 -0.028720319 0.025674343
0.68991619 0.012295723 0.05112648
0.68388122 0.29738271 0.052069664
0.6811232 0.054777682 0.078756332
0.68499422 0.41961771 0.041294575
0.71603918 0.60016465 -0.31971836
0.66850418 0.3008247 0.08661747
0.65960622 0.10930669 0.11637259
0.65729719 0.14629871 0.13930845
0.66296017 0.055587709 0.083063602
0.7007302 0.56669474 -0.29203129
0.67386723 0.45791969 -0.025245667
0.65328819 0.30422968 0.12080669
0.69318718 0.59921271 -0.34181738
0.65997022 0.45937771 -0.0060653687
0.67747718 0.52681869 -0.18302155
0.6337322 0.2390247 0.20053768
0.68065017 0.56754673 -0.27796364
0.67035419 0.52745867 -0.17295647
0.63077921 0.18978769 0.17127562
0.62780219 0.23923171 0.2019105
0.6437912 -0.026352286 0.037360668
0.64965922 -0.12381232 -0.023024559
0.62187523 0.23943871 0.2032795
0.66622317 0.5687167 -0.25729132
0.61549222 0.36690468 0.26957035
0.63029617 0.42579371 0.11582851
0.63928318 0.46154571 0.022491455
0.61595023 0.23964471 0.20464945
0.61594319 0.31257671 0.20472765
0.62921822 0.015110672 0.065587521
0.6235472 0.42655468 0.12502956
0.64911222 0.5293687 -0.14293337
0.61757022 0.1110447 0.12625742
0.62316918 0.015387714 0.067025661
0.6518842 0.5698787 -0.2367444
0.64207518 0.53000069 -0.13298559
0.60227519 0.2717647 0.2270174
0.5966602 0.36859369 0.28697348
0.64500022 0.6016537 -0.29572964
0.61198223 0.46440369 0.060190678
0.61906117 0.49382868 -0.016116619
0.6190142 -0.12220526 -0.015611649
0.59509617 0.19110972 0.17957449
0.59228921 0.24046171 0.21011734
0.60265219 0.058229685 0.097338676
0.60520619 0.4651117 0.069550514
0.59362817 0.1120187 0.13188028
0.61413819 0.53250766 -0.09348774
0.58048117 0.24086571 0.21284246
0.5754472 0.3965627 0.26869869
0.58347023 0.43106371 0.17967463
0.59853423 0.49583969 0.012531281
0.57730317 0.19176072 0.18370771
0.57283419 0.27272969 0.23378754
0.57137918 0.19197571 0.18508244
0.5858162 -0.072207332 0.021709442
0.60238618 0.57388169 -0.16580057
0.57830518 0.46792069 0.10670948
0.58495218 0.49716869 0.03149128
0.58846217 -0.12062526 -0.0082325935
0.57974321 -0.071910262 0.023166656
0.57490319 0.017564714 0.07848835
0.57263422 0.059516668 0.10442638
0.5953992 0.57444668 -0.1557827
0.5716272 0.46861771 0.11593628
0.57367522 -0.071614265 0.024620533
0.55276322 0.31897771 0.2660737
0.58843517 0.57500869 -0.14579964
0.55362618 0.19261771 0.18920231
0.58813918 0.6058647 -0.21337652
0.54307222 0.40044671 0.31230736
0.57370818 -0.18638229 -0.045039654
0.55186522 0.1136927 0.14167166
0.54993618 0.15047669 0.16440248
0.5615502 -0.071024299 0.027526379
0.57457018 0.57612669 -0.1259203
0.55802417 0.4997997 0.069086552
0.53337818 0.24245572 0.22370338
0.54694122 -0.021804333 0.060467243
0.5448522 0.018894672 0.085608482
0.5607872 0.57723665 -0.1061554
0.5310992 0.43693769 0.25112343
0.54091918 -0.021528304 0.061901569
0.5602262 0.60792673 -0.17293835
0.5210042 0.37069172 0.30413342
0.56912017 0.65047872 -0.28112173
0.54922318 -0.18506527 -0.039099693
0.5458402 -0.11845827 0.0020384789
0.52163619 0.24284667 0.22640848
0.53490019 -0.021253288 0.063333511
0.52005017 0.27442372 0.24590635
0.51776022 0.32002068 0.27406025
0.53285718 0.019420683 0.088447571
0.53075522 0.061282694 0.11429548
0.54708719 0.5783397 -0.086508751
0.55330122 0.60843766 -0.16290236
0.55504918 0.6513837 -0.2604394
0.50835621 0.27479368 0.24858761
0.53346819 0.57943469 -0.066973686
0.5084852 0.15203267 0.17405462
0.50643218 0.19429767 0.20013762
0.50251418 0.27497667 0.24992752
0.50078321 0.43873572 0.27192354
0.5025782 0.15225172 0.17542744
0.49819022 0.24361968 0.23180342
0.5051012 0.50495768 0.14300871
0.5186972 -0.18344533 -0.031702518
0.49841422 0.11578572 0.15417147
0.48867917 0.32087266 0.28068733
0.50566322 0.54219568 0.059970379
0.50944722 -0.11664236 0.01078558
0.4864862 0.2440027 0.23449469
0.4850072 0.27552468 0.25393629
0.48049021 0.37178367 0.31331253
0.48063919 0.24419272 0.23583841
0.47706819 0.32120967 0.28333235
0.49734318 -0.11604631 0.013691425
0.47479621 0.24438268 0.23718166
0.48908919 -0.067573309 0.044844627
0.49864119 0.61246169 -0.083684444
0.50646919 0.65450269 -0.18902254
0.48028019 0.50642574 0.16338158
0.46537021 0.39887768 0.28736258
0.47208819 0.47486371 0.19586849
0.48826021 -0.18185329 -0.024342537
0.47706121 -0.067013264 0.047710419
0.4748942 -0.018556297 0.077576637
0.4617112 0.27624571 0.25926971
0.49277818 0.65537965 -0.16889143
0.47284919 0.54507369 0.10576963
0.4671202 0.022247672 0.10397339
0.47610819 -0.1812253 -0.021406651
0.4535912 0.19613171 0.21235228
0.46116519 0.022498667 0.10537863
0.45934519 0.0642097 0.13107538
0.44955119 0.15418971 0.18774462
0.44397318 0.3973437 0.26750469
0.44716918 0.43516672 0.22180939
0.45638019 0.54420769 0.0900774
0.4452312 0.11781371 0.16657448
0.4365322 0.32236969 0.29255247
0.44926319 0.022998691 0.10818148
0.45431921 0.5851627 0.034964561
0.44497019 0.47318769 0.17035437
0.44758821 0.50453866 0.13244629
0.4332312 0.39657068 0.25753736
0.4363552 0.4344427 0.21170855
0.44536319 0.54362667 0.079582691
0.45184821 -0.17998135 -0.015554428
0.43344721 0.11825472 0.16931868
0.44576418 0.61601865 -0.013707638
0.43763921 0.58437169 0.018959522
0.4224562 0.39579469 0.24754238
0.44228619 -0.24170625 -0.051008701
0.4397372 -0.17936635 -0.012637615
0.42020321 0.1552397 0.19454861
0.41526619 0.27765572 0.26988363
0.43882421 0.65882874 -0.089543343
0.44361919 0.6884957 -0.1626997
0.42007521 0.43334967 0.19650269
0.42563519 0.50326669 0.11168337
0.43368819 -0.17906034 -0.011180401
0.43101719 -0.11284029 0.029572487
0.4211742 -0.016210318 0.090287685
0.42647919 0.58384168 0.0082535744
0.42012718 0.50294566 0.1064744
0.42322919 0.54245669 0.058501244
0.4301202 -0.24105835 -0.04805851
0.4099192 0.1191287 0.17479134
0.4068352 0.19771272 0.22313452
0.40190521 0.32334167 0.30042267
0.4233242 0.61504471 -0.035355568
0.43017319 0.6892637 -0.14272451
0.41461021 0.50262469 0.10125637
0.4189992 -0.11227131 0.03244257
0.39789921 0.2781747 0.27384758
0.41769421 0.61479974 -0.040786743
0.39678121 0.1560657 0.19996929
0.40332419 -0.015445292 0.094501495
0.40967521 0.58304167 -0.0078663826
0.4069972 -0.11170626 0.035306454
0.39230621 0.11977571 0.17888546
0.3909342 0.15626967 0.20132256
0.3893542 0.1982947 0.22716045
0.3847492 0.32363766 0.30244064
0.39566419 0.47011968 0.12398958
0.40582719 -0.23977625 -0.042177677
0.37937221 0.32319772 0.29752064
0.3984322 0.58250469 -0.018649578
0.38057819 0.12020272 0.18160868
0.38403019 0.025685668 0.12351847
0.3869082 0.50100869 0.075068474
0.39142919 -0.17694926 -0.0010204315
0.38901621 -0.11086631 0.03959465
0.38130519 -0.062668324 0.070466518
0.3685922 0.32231671 0.28765631
0.3781192 0.025924683 0.12490559
0.38715521 0.58196568 -0.029464722
0.3763192 0.43039668 0.15565348
0.38418218 0.54038072 0.021325588
0.37534821 -0.062405348 0.07187748
0.37364021 -0.014189303 0.10150051
0.38150421 0.58169472 -0.034882545
0.36530119 0.42964971 0.1453743
0.3701902 0.50002968 0.059269428
0.35446921 0.19943768 0.23518324
0.3517192 0.27952969 0.28437233
0.3604022 0.02663672 0.12905931
0.37749919 0.68812668 -0.17673063
0.3666372 0.61256766 -0.09002161
0.3696152 0.65673369 -0.14414644
0.3454712 0.12146568 0.18975067
0.35881519 0.58060569 -0.05663538
0.3609212 0.61231673 -0.095531464
0.34438819 0.36342567 0.20974064
0.34871221 0.42852169 0.12989855
0.3427152 0.027339697 0.13320351
0.3389062 0.3630057 0.20468855
0.34316719 0.42814368 0.1247263
0.3503902 0.53857368 -0.01083231
0.3287012 0.28019369 0.28961563
0.33062321 0.3191967 0.2529335
0.33761421 0.42776567 0.11954737
0.34472919 0.5382697 -0.016219616
0.32795718 0.1220867 0.19380665
0.3239412 0.24907768 0.2717247
0.32962719 0.06925571 0.16139126
0.3279182 0.3621617 0.19456053
0.33652821 0.49804971 0.027466297
0.34147319 -0.30539131 -0.068480492
0.33524421 -0.10840333 0.052386284
0.3250542 0.028034687 0.13733435
0.34073418 0.65563166 -0.17220354
0.31629619 0.12249666 0.19650745
0.3124212 0.24941969 0.27435446
0.31189919 0.2797907 0.28482151
0.31917319 0.028265715 0.1387105
0.31854919 0.38823271 0.15125227
0.32090321 0.4266237 0.10396433
0.32329118 0.46556771 0.055995464
0.30812418 0.20092171 0.24582148
0.31594521 -0.059828281 0.085923672
0.3064582 0.27931368 0.27988338
0.30875421 0.31739068 0.23294544
0.31531718 0.4262417 0.09875536
0.32121119 -0.23543632 -0.021766663
0.30464619 0.1229037 0.19920158
0.31002021 -0.059576273 0.087320328
0.3162922 0.53673971 -0.043268681
0.29882619 0.12310672 0.20054626
0.29777521 0.15944272 0.22282028
0.30410019 -0.059325337 0.088715553
0.29555121 0.27835572 0.26998854
0.31302419 0.5783937 -0.10052156
0.30187818 0.3870067 0.13582039
0.30411819 0.4254747 0.088316441
0.30639121 0.4644967 0.040129662
0.3111662 -0.30378127 -0.061137676
0.3091732 -0.23483527 -0.018871307
0.30548021 -0.10707033 0.059448242
0.2909312 -0.010795295 0.12093639
0.29912919 0.53581166 -0.05959034
0.29906619 -0.30314529 -0.058207512
0.29542619 -0.17233026 0.021953583
0.27925119 0.20182669 0.25243664
0.2872602 0.4243167 0.072606564
0.28941619 0.46341768 0.024196625
0.2933912 0.53550172 -0.065047741
0.2930212 -0.30283034 -0.056745529
0.2757102 0.31464869 0.20276165
0.27808821 0.029850721 0.14830446
0.27698219 0.071202695 0.17363453
0.29164919 0.60925567 -0.16228962
0.27953619 0.38535768 0.11514568
0.2886292 -0.36427629 -0.093117714
0.26814619 0.27594167 0.24513769
0.27017519 0.31418872 0.19770861
0.27223119 0.030074716 0.14967155
0.28093821 -0.30220127 -0.053826332
0.27913418 -0.2333523 -0.01166153
0.26863819 -0.057837248 0.097069263
0.2663762 0.030296683 0.15103531
0.27831319 0.57670671 -0.13377237
0.27032518 0.4231497 0.056825638
0.27490219 -0.3018893 -0.052369595
0.25948721 0.07183671 0.17769432
0.27413219 0.6084767 -0.1791625
0.27034819 0.53425169 -0.086954594
0.2655862 -0.17094326 0.029063702
0.2503072 0.24845368 0.26250267
0.2628372 -0.30126929 -0.04945755
0.26114619 -0.23247635 -0.0073494911
0.24882919 0.030957699 0.15512371
0.26240718 0.60795367 -0.19045544
0.25331318 0.42197472 0.040979385
0.2568022 0.4933157 -0.04779768
0.25829321 -0.36263525 -0.085747719
0.25367019 -0.17039633 0.031899452
0.2444742 0.35570669 0.11773062
0.2457732 0.38285571 0.083918571
0.25104219 0.49297169 -0.05323267
0.2491692 -0.23189831 -0.0044827461
0.23319919 0.20323968 0.26296949
0.24476421 -0.30034733 -0.045100689
0.2283912 0.16169769 0.23876667
0.23130819 0.031611681 0.15920067
0.24012819 -0.36166728 -0.081343651
0.2273982 -0.056144357 0.1067605
0.22634919 -0.0082542896 0.13604641
0.23884821 0.60689974 -0.2131424
0.2305122 0.42039472 0.019747257
0.2340782 -0.36134636 -0.079877377
0.23273019 -0.29973829 -0.042202473
0.22987519 -0.16931534 0.037554264
0.2215182 -0.055906296 0.10814047
0.2329362 0.60663474 -0.21883345
0.2296802 0.53203368 -0.12560034
0.2280322 -0.36102736 -0.078413486
0.2267172 -0.29943633 -0.040756702
0.2225332 -0.10347331 0.079058647
0.22564119 0.57412869 -0.18420839
0.2162452 0.35350269 0.09176445
0.2219902 -0.36070931 -0.076951504
0.20450419 0.20410067 0.26952744
0.2060612 0.24436867 0.22261858
0.2149602 0.45865071 -0.045645714
0.21595019 -0.36039329 -0.075489521
0.2120602 -0.16851628 0.041782379
0.2003092 0.12642771 0.22325945
0.2015512 0.2700277 0.18480539
0.21383519 0.57354772 -0.19550848
0.2059972 0.37988967 0.047149658
0.2086972 -0.2985363 -0.036423683
0.2062442 0.53074968 -0.14786243
0.1893332 0.24281669 0.20755148
0.1921602 -0.05473125 0.11502266
0.2019932 0.57296467 -0.20684242
0.19455619 0.37903267 0.036577702
0.20036219 0.53042668 -0.15344954
0.1978472 -0.35945129 -0.071115494
0.1854302 -0.0066943169 0.14559031
0.1839582 0.074499667 0.19517946
0.1960592 0.57267165 -0.21252251
0.18780419 0.35127169 0.065616608
0.19027619 0.4175927 -0.017701626
0.1766092 0.16331971 0.25063133
0.1790912 0.26801968 0.1644783
0.18579319 -0.35882926 -0.068205357
0.1824232 -0.16720533 0.048803329
0.17112119 0.20118272 0.24284649
0.18266119 0.52945268 -0.17025948
0.1811572 -0.43992126 -0.1164484
0.1742502 0.45602068 -0.083800316
0.17375019 -0.35821331 -0.065300465
0.16773319 -0.35790634 -0.063850403
0.16565719 -0.22797835 0.015441418
0.1556662 0.034354687 0.17675829
0.16487719 0.52847171 -0.18714666
0.16077119 -0.29618931 -0.024930477
0.14847019 0.12809569 0.23516369
0.1500102 0.23915267 0.17215157
0.15082319 0.2654807 0.13890648
0.1520192 0.30425167 0.089944363
0.1498652 0.034559667 0.17810154
0.1533872 0.34855866 0.03399229
0.1547922 -0.2959013 -0.023499489
0.1446422 -0.0051783323 0.15508032
0.1440682 0.034763694 0.17944241
0.1496992 -0.35699534 -0.059509754
0.14600919 -0.10031033 0.097056389
0.1394572 0.26445669 0.12862825
0.1426342 0.37512571 -0.01137352
0.14583519 0.4866257 -0.15242243
0.1470082 0.52748269 -0.20410872
0.1418972 -0.22689927 0.021089554
0.1309862 0.16346467 0.25068951
0.1319212 0.1973117 0.20783854
0.1337612 0.26394272 0.12347841
0.1399032 0.48626471 -0.15801048
0.1368752 -0.29504526 -0.019215584
0.12669219 0.035370708 0.18346262
0.12064419 0.1961937 0.19777346
0.12905319 0.52648669 -0.22114754
0.1266862 -0.43700635 -0.10323572
0.11499419 0.1956327 0.19273043
0.11597719 0.23596269 0.14153862
0.11464018 0.076834679 0.21116066
0.11898119 -0.29419935 -0.014942646
0.11532219 0.45218369 -0.13899374
0.10366819 0.1945067 0.18262625
0.10700619 0.34487969 -0.0085954666
0.10771819 -0.35491228 -0.049425602
0.097990192 0.19394171 0.17756128
0.099402189 0.26083368 0.092427254
0.097782187 0.036366701 0.19014168
0.10174919 0.3720277 -0.049099445
0.10173119 -0.35461926 -0.047988415
0.092306189 0.19337571 0.1724925
0.091616191 0.077587664 0.21645355
0.097462192 0.4510147 -0.15571356
0.098939188 0.52481067 -0.24972153
0.086613193 0.19280767 0.16741467
0.086596191 -0.0030872822 0.16854525
0.089463189 0.34348071 -0.024693489
0.08998619 0.37113267 -0.059948444
0.091490187 0.45062271 -0.16130257
0.088043191 -0.16318727 0.071073532
0.082802191 0.29834372 0.026928425
0.083598189 0.34301269 -0.03007555
0.07470119 0.037147701 0.19546366
0.076782189 -0.22402334 0.036516666
0.071141191 0.29734272 0.016318321
0.068936191 0.037340701 0.19679356
0.068631187 0.078327715 0.22173262
0.064342193 0.23108971 0.095132351
0.063174188 0.0375337 0.19811964
0.06004519 0.34112769 -0.051681519
0.060948193 0.40846771 -0.13791943
0.059901193 -0.35260725 -0.037979603
0.05827219 -0.096867323 0.11757851
0.052772187 0.22999269 0.084740639
0.045810193 0.12552267 0.21284437
0.046136193 0.15462267 0.17551565
0.04697419 0.22944272 0.079533577
0.048213191 0.34017867 -0.062530518
0.048525192 0.36796468 -0.098178387
0.049419194 0.44785368 -0.20066833
0.042282194 0.33970171 -0.067969322
0.042013191 -0.35176229 -0.033707619
0.041721195 -0.29065633 0.0034394264
0.04110419 -0.16127932 0.082092285
0.040793195 -0.096205354 0.12165356
0.042823195 -0.52128327 -0.13676548
0.034415193 0.12428272 0.20281649
0.034676194 0.15341967 0.16537333
0.034983195 0.18763667 0.12140036
0.035348192 0.22833669 0.069097519
0.035940193 0.29430968 -0.015688419
0.034401193 0.038482666 0.20474052
0.036949195 0.40675569 -0.1602025
0.028654194 0.038669705 0.20606136
0.030614192 0.36659068 -0.11468554
0.030402193 -0.43209434 -0.080024719
0.029875191 -0.2901293 0.0062484741
0.023187192 -0.048376322 0.15438032
0.022909192 0.038856685 0.20738268
0.022779191 0.079769671 0.23224449
0.017257191 0.12241071 0.18772364
0.018468192 0.33778471 -0.08979845
0.018625192 0.36566871 -0.12573051
0.018849192 0.4054597 -0.17700434
0.018413192 -0.43150425 -0.077147484
0.011521192 0.12178469 0.18268061
0.012289193 0.29226172 -0.037186623
0.012617191 0.36520672 -0.13126564
0.012423191 -0.43121135 -0.075711727
0.012252191 -0.35038126 -0.026617527
0.0057761911 0.12115568 0.17762852
0.0061291922 0.22555071 0.042872429
0.0056881923 0.039411724 0.21133757
0.005636191 0.079642713 0.23121452
0.0062101912 -0.28908825 0.011852264
0.0061021913 -0.22103834 0.053177357
0.0065761916 -0.51938426 -0.12799835
0.00045119133 -0.4306283 -0.072843552
0.00030119158 -0.28883135 0.013250351
9.5191412e-05 -0.094694257 0.13112068
-0.005733808 -0.047359288 0.16107225
-0.0054188082 0.4037177 -0.1995244
-0.0056058085 -0.28857529 0.01464653
-0.011512809 0.11926168 0.16243029
-0.011512809 0.18294567 0.080007553
-0.011512809 0.22386271 0.027047634
-0.011512809 0.25068468 -0.0076694489
-0.011512809 0.33536071 -0.11726952
-0.011512809 -0.34929836 -0.020967484
-0.011512809 -0.51845336 -0.12363338
-0.017292809 0.11862767 0.15734959
-0.017446809 -0.34903026 -0.019557476
-0.023225809 0.1817587 0.069585323
-0.023378808 0.24958968 -0.018365383
-0.023468807 0.2891537 -0.069667339
-0.023378808 -0.34876335 -0.018149376
-0.028753808 0.00083070993 0.19515848
-0.035163809 0.22159266 0.0058393478
-0.034413807 0.040676713 0.22053242
-0.034498811 0.075015664 0.19622946
-0.036163807 0.4421677 -0.28067875
-0.035107806 -0.28731227 0.021611691
-0.040503807 0.11607468 0.13695955
-0.040237807 0.0012027025 0.19779539
-0.046763808 0.17936772 0.048650265
-0.04799781 0.36051768 -0.18707848
-0.048271805 0.40062571 -0.23927164
-0.052161805 0.11478966 0.12672043
-0.054113805 0.36004269 -0.19270658
-0.058961809 0.2193017 -0.015488625
-0.059207812 0.2462697 -0.050646305
-0.058921807 -0.34719026 -0.0097265244
-0.058376811 -0.21844125 0.068300247
-0.058118805 -0.15744328 0.10526752
-0.064514808 0.17755872 0.032869339
-0.063935809 -0.15722728 0.10662031
-0.069719806 0.11284971 0.11130762
-0.070919812 0.21814668 -0.026203632
-0.071227811 0.24515271 -0.061472416
-0.06887681 0.0389027 0.2078743
-0.070751809 -0.34667528 -0.0069284439
-0.070070811 -0.21798229 0.071035385
-0.069405809 -0.092212319 0.14722967
-0.076308809 -0.28559232 0.031311512
-0.075913809 -0.21775532 0.072401524
-0.077642813 -0.51515031 -0.10773468
-0.081469811 0.11154872 0.10099649
-0.082913809 0.21698672 -0.036945343
-0.08328481 0.2440297 -0.072328568
-0.08539281 0.39793372 -0.27368259
-0.081754811 -0.2175293 0.073764324
-0.081367813 -0.15658426 0.11067247
-0.086083807 0.0026596785 0.20831251
-0.08992181 0.28333569 -0.12997675
-0.088059813 -0.28511131 0.034072399
-0.087175809 -0.15637231 0.1120224
-0.090037808 -0.5730083 -0.14024544
-0.094976813 -0.42615926 -0.050080299
-0.096060812 -0.57270634 -0.13879633
-0.099164814 0.1095857 0.085474491
-0.10212981 0.28226072 -0.14104939
-0.098442808 0.067588687 0.14056444
-0.10291381 0.32790971 -0.20093536
-0.10363781 -0.04407233 0.18363857
-0.10323781 0.0031917095 0.21224451
-0.10371981 0.034694672 0.17775154
-0.10686181 -0.42562425 -0.047257423
-0.10403481 -0.091023326 0.15522671
-0.11100681 0.10826868 0.075089455
-0.10937681 -0.043887317 0.18495655
-0.10895981 0.0032947063 0.21304131
-0.11437781 0.28118068 -0.15215445
-0.11873881 -0.42509425 -0.0444417
-0.12126381 0.03256768 0.16259432
-0.1276668 0.3258757 -0.2235713
-0.12325781 -0.28369629 0.042324543
-0.1269148 -0.64831936 -0.17820549
-0.12196881 -0.1551193 0.12009239
-0.12131981 -0.0904423 0.15921068
-0.12712881 0.031855702 0.15752745
-0.1277588 -0.15491426 0.1214323
-0.1337848 0.063454688 0.10983562
-0.13564481 -0.34393036 0.0083694458
-0.1381568 -0.57063031 -0.12869358
-0.13751081 -0.51229334 -0.093422413
-0.14077881 0.1049487 0.048993587
-0.14241681 0.16956872 -0.036315441
-0.1434698 0.21110171 -0.091148376
-0.1424648 -0.42404926 -0.038823605
-0.1450568 -0.64739227 -0.17383242
-0.14957881 0.21050471 -0.096613407
-0.1447828 0.029708683 0.14228535
-0.1501648 -0.57005036 -0.1258173
-0.15357681 0.13336366 -0.0008482933
-0.1545448 0.16831672 -0.047076702
-0.1498308 -0.0018402934 0.17796469
-0.15158181 0.06136471 0.094372272
-0.15616481 -0.5697633 -0.1243825
-0.1606238 0.16768867 -0.05246973
-0.1637758 0.27680671 -0.19692469
-0.1575328 0.060664713 0.089202404
-0.1621618 -0.56947625 -0.1229496
-0.16476381 0.10226369 0.027982712
-0.1679648 0.20870668 -0.11305571
-0.1699958 0.2762537 -0.20255852
-0.1634928 0.059963703 0.084028244
-0.16329481 -0.21447229 0.092752457
-0.1692118 -0.64617729 -0.16802073
-0.1785588 0.35028571 -0.30712175
-0.1802738 0.2075007 -0.12406063
-0.17438981 0.026095688 0.11673737
-0.17401281 -0.15330827 0.13212538
-0.1730608 -0.088747263 0.17111063
-0.1792828 -0.51037633 -0.083482742
-0.1828558 0.10023367 0.012140274
-0.1850398 0.1651597 -0.074123383
-0.1873638 0.2342627 -0.16593552
-0.1826718 -0.34202528 0.019406319
-0.1797848 -0.15311229 0.13345766
-0.18890581 0.099552691 0.0068454742
-0.18758281 -0.28120732 0.057350636
-0.1845348 -0.08838129 0.17374134
-0.2016238 -0.42152727 -0.02486372
-0.1970908 -0.15252936 0.1374464
-0.2096148 0.16260672 -0.095906734
-0.20303981 -0.0085682869 0.13235569
-0.21578281 0.16196471 -0.10137463
-0.2115178 0.054289699 0.04234457
-0.2119948 -0.34087431 0.026267529
-0.2183058 -0.69342136 -0.18637943
-0.2219618 0.16132069 -0.10684729
-0.22644781 0.27121568 -0.25366735
-0.21673781 -0.28012133 0.064135551
-0.2254108 0.095437706 -0.025094509
-0.2310708 0.23011971 -0.20519447
-0.23472181 0.31700271 -0.32137871
-0.22013581 -0.1517663 0.14275265
-0.2279928 -0.56642127 -0.10726452
-0.2343508 0.1600287 -0.11782074
-0.2311248 -0.42031431 -0.017930508
-0.22838581 -0.27969527 0.066842556
-0.2354598 -0.64296234 -0.15214968
-0.2389918 0.12408972 -0.076043606
-0.2329268 -0.012370288 0.10676336
-0.23285781 -0.21201825 0.10885525
-0.2303568 -0.086953282 0.18423653
-0.2499568 0.22832268 -0.22214937
-0.2429098 -0.41983736 -0.015163422
-0.24994481 0.092659712 -0.046544552
-0.25817981 0.26836771 -0.28237629
-0.2464098 0.01724571 0.05466938
-0.2506448 -0.5072453 -0.066587448
-0.26127481 0.19951469 -0.19641638
-0.25468782 -0.41936636 -0.012402534
-0.26227081 0.091261685 -0.057316303
-0.2570098 -0.015444279 0.086157322
-0.2601628 0.048505723 0.00016927719
-0.25747082 -0.27864826 0.073586464
-0.2630538 -0.016217291 0.080987453
-0.27528781 0.22590572 -0.24488258
-0.25942081 -0.088125348 0.17776346
-0.2761988 0.12001669 -0.10875654
-0.27803281 0.15545571 -0.15649748
-0.28164679 0.22529769 -0.25058651
-0.27436382 -0.50624526 -0.06099844
-0.2808378 0.089149714 -0.073539734
-0.28464779 -0.69022834 -0.17050266
-0.2713598 -0.089769363 0.16770363
-0.27926579 -0.055108309 0.11477232
-0.28124681 -0.018547297 0.065432549
-0.28409681 -0.41821027 -0.005522728
-0.29494181 0.11795771 -0.12522459
-0.28997281 -0.41798234 -0.0041484833
-0.2833488 -0.14975035 0.1572566
-0.28333381 -0.091420293 0.15761662
-0.29706281 0.044093668 -0.031786442
-0.29230779 -0.27742934 0.081645489
-0.29060981 -0.21008825 0.12216139
-0.30269581 -0.6893903 -0.16620255
-0.3119998 0.1944707 -0.24167347
-0.31597781 0.26315171 -0.33462954
-0.29810882 -0.27723026 0.082985401
-0.3074958 0.0096727014 0.0021104813
-0.3039068 -0.27703226 0.084323406
-0.31342182 -0.63939726 -0.13360643
-0.31824681 0.08488071 -0.10620356
-0.32222781 0.15080267 -0.19559336
-0.32186481 0.041115701 -0.053254604
-0.31932381 -0.41686428 0.0026955605
-0.31714281 -0.33697236 0.05072546
-0.31549579 -0.27663827 0.086998463
-0.3376188 0.1919117 -0.26451349
-0.32173079 -0.06077826 0.078760624
-0.3413288 0.14878368 -0.21248055
-0.32878882 -0.33656228 0.053421497
-0.3412928 -0.77776527 -0.21173048
-0.33517179 -0.56179333 -0.081936359
-0.3363578 -0.025641322 0.018352509
-0.33460879 -0.33635926 0.054767609
-0.34331679 -0.63809228 -0.12653351
-0.3394348 -0.50360525 -0.045724392
-0.35694981 0.18997467 -0.28174353
-0.3400788 -0.063238263 0.063213348
-0.3446278 0.0050407052 -0.029800415
-0.35074079 -0.68722332 -0.15479374
-0.34862879 -0.41577733 0.0095114708
-0.3424288 -0.20844126 0.13404751
-0.36273381 -0.68669736 -0.15195274
-0.35714281 -0.50291431 -0.041585445
-0.36333281 0.0026987195 -0.045863628
-0.36033881 -0.41535032 0.012232304
-0.3671988 -0.63707626 -0.12090063
-0.36483279 -0.56058836 -0.074974537
-0.38287881 0.18737072 -0.30484152
-0.36618981 -0.41513932 0.013589382
-0.3747178 -0.68617725 -0.14912033
-0.35867381 -0.15037227 0.15700436
-0.3914308 0.21472472 -0.34897852
-0.36948881 -0.33516431 0.062821388
-0.3675628 -0.27492535 0.098977566
-0.36824381 -0.10320532 0.086188316
-0.38459179 0.033544719 -0.10748959
-0.38508981 -0.63632929 -0.11668634
-0.40244281 0.18539971 -0.32226467
-0.39564779 -0.77526832 -0.19879436
-0.38852781 -0.55964935 -0.069425583
-0.38944581 -0.0698843 0.021419525
-0.3922838 -0.03289032 -0.02935648
-0.39726481 0.032007694 -0.11843634
-0.39444679 -0.55941832 -0.068041325
-0.4093928 0.1052807 -0.22565842
-0.4036158 0.031236708 -0.12392235
-0.39270779 -0.33439028 0.068169594
-0.4046458 -0.68490231 -0.14205933
-0.3928588 -0.10664535 0.065513611
-0.4158538 0.10455972 -0.23132038
-0.40997779 0.030463696 -0.12941647
-0.4137308 -0.77446532 -0.19450855
-0.41062582 -0.68465233 -0.14064932
-0.4062798 -0.55896032 -0.065276623
-0.4136658 -0.0036302805 -0.089057446
-0.41635081 0.029688716 -0.1349206
-0.40710381 -0.41369534 0.023061275
-0.4043068 -0.33401132 0.070836544
-0.4021948 -0.27383232 0.10691643
-0.4013398 -0.1566143 0.12152863
-0.4143728 -0.073255301 0.00033569336
-0.41010481 -0.33382225 0.072169304
-0.42082679 -0.63487434 -0.10829449
-0.4159008 -0.33363628 0.07349968
-0.4285568 -0.68391132 -0.1364336
-0.42689779 -0.074954271 -0.010254383
-0.4216938 -0.33345032 0.074830532
-0.4299258 -0.55806029 -0.059763432
-0.44569081 0.070188701 -0.21729469
-0.45142379 0.13705671 -0.30969572
-0.4331758 -0.075805306 -0.015559673
-0.43044579 -0.4128983 0.028449535
-0.42275679 -0.20604527 0.15237951
-0.4386698 -0.63416731 -0.10411739
-0.4548558 0.10019672 -0.26548958
-0.43327782 -0.33308232 0.077487469
-0.44985279 -0.77290225 -0.18596935
-0.42848381 -0.20588231 0.15368366
-0.43632579 -0.11274636 0.029036522
-0.46139482 0.099462688 -0.27121449
-0.43906581 -0.33289933 0.078814507
-0.45586681 -0.77264726 -0.18455362
-0.45243981 -0.68294334 -0.13082838
-0.46566981 -0.87029231 -0.24175549
-0.4535448 -0.55718231 -0.054269314
-0.46178281 -0.041969299 -0.088555336
-0.4678888 -0.77214336 -0.18172073
-0.48442382 0.13351172 -0.33879757
-0.46472481 -0.080097318 -0.042211533
-0.46816379 -0.042806327 -0.093986511
-0.45642281 -0.33235931 0.082789421
-0.47778779 -0.86975825 -0.23888636
-0.4703328 -0.68223333 -0.12663841
-0.4613888 -0.11627829 0.0080223083
-0.46304882 -0.49901628 -0.016969681
-0.48766682 0.096509695 -0.29421329
-0.4589988 -0.21001434 0.13178158
-0.4631418 -0.16571426 0.070215702
-0.4676818 -0.11716735 0.0027484894
-0.48399079 -0.012536287 -0.14932156
-0.46517381 -0.21096432 0.12670755
-0.4802478 -0.63256836 -0.094411373
-0.50086981 0.095022678 -0.30576754
-0.48378181 -0.082697272 -0.058301449
-0.49367881 0.020238698 -0.20163059
-0.49595481 -0.86896825 -0.23459053
-0.47128481 -0.27176332 0.12268734
-0.4979158 -0.77090931 -0.17466259
-0.4866198 -0.11984634 -0.013117313
-0.48892379 -0.55590725 -0.046061516
-0.49237281 -0.49800932 -0.010197639
-0.51766181 0.061792672 -0.27989864
-0.50607783 -0.68085527 -0.11829138
-0.50070482 -0.55549335 -0.04333353
-0.52741778 0.092025697 -0.32899046
-0.49686879 -0.33113825 0.092026711
-0.52015382 -0.86794031 -0.22888231
-0.49426579 -0.27110934 0.12791348
-0.49620181 -0.21574926 0.10122347
-0.5007118 -0.17128026 0.039065361
-0.50565481 -0.12254429 -0.029057503
-0.5065918 -0.55528831 -0.041973591
-0.52637082 0.016217709 -0.22980165
-0.51247782 -0.55508435 -0.040612698
-0.52943182 -0.018331289 -0.18820953
-0.5086838 -0.21767926 0.090978622
-0.53952777 0.014594674 -0.24113369
-0.52478582 -0.12526226 -0.045070648
-0.53507483 -0.089725256 -0.10156631
-0.53988779 -0.76924932 -0.16483736
-0.51722181 -0.27047229 0.1331234
-0.53012782 -0.55448234 -0.036539555
-0.5275088 -0.49684536 -0.0021076202
-0.56086481 0.08823669 -0.35823154
-0.52936381 -0.40972733 0.051156521
-0.53950578 -0.63040829 -0.08065176
-0.54800582 -0.091504335 -0.11246729
-0.5593468 0.012145698 -0.25819874
-0.55186379 -0.76878929 -0.16204166
-0.53377479 -0.22156727 0.070396423
-0.54542279 -0.63019931 -0.079280376
-0.55134082 -0.62999332 -0.077912331
-0.54505777 -0.49628031 0.0019216537
-0.5430038 -0.32981229 0.10252333
-0.56847382 -0.86596632 -0.21753263
-0.54876381 -0.32965136 0.10383368
-0.56333882 -0.13075733 -0.077313423
-0.5910238 0.053163707 -0.34362555
-0.57833481 -0.057362318 -0.18761539
-0.55452281 -0.32949233 0.10513926
-0.57580078 -0.76788831 -0.15646648
-0.5534898 -0.27377033 0.11783552
-0.56980282 -0.13168132 -0.082717419
-0.56538582 -0.55331433 -0.028422356
-0.58053082 -0.095988274 -0.13986635
-0.58178079 -0.76766825 -0.1550765
-0.56537282 -0.22647929 0.04449749
-0.56843281 -0.49554527 0.0072784424
-0.6045168 0.051568687 -0.35533762
-0.59930182 0.0071936846 -0.29257536
-0.59259778 -0.86501932 -0.21188974
-0.56604582 -0.27580833 0.10765457
-0.57712883 -0.55293536 -0.025725365
-0.58680481 -0.62878335 -0.069727421
-0.6127128 0.0055257082 -0.30411053
-0.57754481 -0.32886529 0.11035633
-0.59270978 -0.62858629 -0.068367481
-0.58985478 -0.18458629 -0.034715652
-0.61135578 -0.061760306 -0.21563339
-0.58735079 -0.40802634 0.064371586
-0.61503881 -0.94972825 -0.25858641
-0.61067379 -0.86432827 -0.2076726
-0.59084278 -0.2304523 0.023638248
-0.62198281 -0.030225277 -0.26729774
-0.62617379 0.0038506985 -0.31568146
-0.5912798 -0.27991235 0.087207317
-0.60276383 -0.18652427 -0.045384407
-0.62464678 -0.063535333 -0.22690439
-0.62868083 -0.031090319 -0.27301455
-0.5947988 -0.32840729 0.11426067
-0.62873781 -0.86365128 -0.20346546
-0.60395879 -0.28197932 0.076938629
-0.63798183 -0.065318346 -0.23820972
-0.62482482 -0.67664933 -0.090790749
-0.62221879 -0.62762535 -0.061584473
-0.63978678 -0.10420036 -0.18972731
-0.64884382 -0.033700287 -0.2902236
-0.61203778 -0.3279593 0.11815357
-0.62292278 -0.23547328 -0.0026125908
-0.62870878 -0.19042826 -0.066818714
-0.63505381 -0.14104426 -0.13721132
-0.64642978 -0.10512531 -0.19531441
-0.64678979 -0.86298931 -0.19927168
-0.62937278 -0.23648429 -0.0078873634
-0.63401282 -0.62725127 -0.058879375
-0.6416418 -0.14199328 -0.14270735
-0.62677979 -0.49380028 0.020597458
-0.6580748 -0.06801033 -0.25523567
-0.6278618 -0.40690827 0.073562622
-0.62944782 -0.2861433 0.05630827
-0.63583177 -0.23749828 -0.013169289
-0.63990778 -0.6270653 -0.057527542
-0.6482408 -0.14294529 -0.14821243
-0.6691168 -0.036329329 -0.30751562
-0.63023382 -0.32951033 0.11163235
-0.65881681 -0.86255729 -0.19648266
-0.63584578 -0.28719127 0.051131248
-0.64580083 -0.62688231 -0.05617857
-0.65484983 -0.14389825 -0.15372658
-0.66642278 -0.10790932 -0.21211958
-0.66482782 -0.86234331 -0.19508934
-0.65169281 -0.62669933 -0.054829597
-0.68269283 -0.038093328 -0.31909132
-0.64293981 -0.33166528 0.1014514
-0.68503082 -0.071631312 -0.2780695
-0.69419378 -0.0046553016 -0.37411261
-0.6551078 -0.29034829 0.035553455
-0.66796678 -0.19635725 -0.099221706
-0.67474979 -0.14677429 -0.17031956
-0.7010628 -0.0055183172 -0.38000774
-0.6556868 -0.33383036 0.091239452
-0.70314479 -0.040755332 -0.33652544
-0.68886179 -0.86150432 -0.18953037
-0.67086381 -0.55010331 -0.0043125153
-0.66754383 -0.49265528 0.029856682
-0.70998681 -0.041647315 -0.34235668
-0.71483779 -0.0072492957 -0.39182949
-0.66830981 -0.40584934 0.082701683
-0.72174579 -0.0081183314 -0.39775753
-0.6951468 -0.76376534 -0.12888956
-0.69436479 -0.20035827 -0.12099361
-0.68255877 -0.54977334 -0.0016565323
-0.72370982 -0.043438315 -0.3540473
-0.68131179 -0.33819234 0.070726395
-0.70109981 -0.76357532 -0.12752438
-0.68499678 -0.49218428 0.033808708
-0.6987868 -0.62529325 -0.044082642
-0.7076208 -0.67405832 -0.071822643
-0.69662482 -0.49187636 0.036438465
-0.72833079 -0.15454626 -0.21495962
-0.72081983 -0.25090635 -0.082576752
-0.72762179 -0.20541525 -0.1483984
-0.72002679 -0.30103934 -0.01688242
-0.72230482 -0.62462425 -0.038734436
-0.71405983 -0.49142432 0.04037571
-0.74100578 -0.20745528 -0.15941954
-0.71986783 -0.49127626 0.041687489
-0.74868381 -0.76211429 -0.11663961
-0.73972178 -0.30429733 -0.032770634
-0.74735683 -0.2551173 -0.10421658
-0.74303383 -0.67303729 -0.063763618
-0.7544378 -0.20950532 -0.17047834
-0.73148382 -0.49098325 0.044304371
-0.78607482 -0.051607311 -0.40713835
-0.73175579 -0.40430331 0.096970558
-0.73960578 -0.34816134 0.024119377
-0.75167578 -0.6238203 -0.032075405
-0.7679168 -0.21156633 -0.18157148
-0.7430948 -0.49069631 0.046918392
-0.80007279 -0.053448319 -0.41904736
-0.75268179 -0.35040629 0.01367569
-0.76737982 -0.25830328 -0.12053347
-0.80176878 -0.087429285 -0.37679672
-0.75845683 -0.54776132 0.015512466
-0.75688279 -0.40756726 0.083367348
-0.77251178 -0.67222631 -0.057077408
-0.7692858 -0.62335432 -0.028092384
-0.80939978 -0.12799931 -0.3320775
-0.79501879 -0.21571732 -0.20386553
-0.81634283 -0.12898231 -0.33789349
-0.78607178 -0.31199229 -0.070127487
-0.80098879 -0.26366627 -0.14790154
-0.79275078 -0.62275326 -0.022798538
-0.83725083 -0.13194633 -0.35540056
-0.80196381 -0.67145133 -0.050419331
-0.79600078 -0.41460431 0.052542686
-0.82916778 -0.22096527 -0.23193455
-0.79924881 -0.54677129 0.024683475
-0.79529083 -0.48946726 0.058632374
-0.85796082 -0.095101357 -0.42423439
-0.8108958 -0.54650033 0.027294636
-0.85670882 -0.22521031 -0.2545557
-0.86566579 -0.17466736 -0.32911634
-0.85327882 -0.32321727 -0.1242075
-0.86006582 -0.32435536 -0.12966442
-0.87749583 -0.22842228 -0.27161837
-0.84879178 -0.42414832 0.011003494
-0.86686379 -0.32549632 -0.13512754
-0.8736738 -0.32663929 -0.14059973
-0.8689028 -0.62095535 -0.0057063103
-0.90362579 -0.28015733 -0.23133755
-0.9123928 -0.23383033 -0.30024433
-0.8888678 -0.43142831 -0.020486355
-0.90636879 -0.37702227 -0.10876751
-0.88650483 -0.5448693 0.04417038
-0.89088678 -0.49242425 0.056397438
-0.92002982 -0.37940931 -0.11962461
-0.94760883 -0.23930526 -0.32911062
-0.94546181 -0.28692734 -0.26528358
-0.94244981 -0.3382293 -0.19581032
-0.90974182 -0.54441333 0.049328327
-0.97919178 -0.19150734 -0.42321444
-0.98067683 -0.29264736 -0.29382944
-0.93296582 -0.54397726 0.054472446
-0.99133778 -0.3465153 -0.23499441
