# .PCD v0.7 - Point Cloud Data file format
VERSION 0.7
FIELDS x y z
SIZE 4 4 4
TYPE F F F
COUNT 1 1 1
WIDTH 1
HEIGHT 1024
VIEWPOINT 0 0 0 1 0 0 0
POINTS 1024
DATA ascii
1.1184307 -0.027422547 -0.32048559
1.0319327 -0.0022695661 -0.14860058
1.0103358 0.10263646 -0.036220551
1.0015798 0.10527146 -0.016112804
0.99293679 0.10783547 0.0034413338
0.99517578 0.17066646 -0.10203266
0.98266578 0.17631143 -0.05365181
1.0009058 -0.0073955655 -0.19034672
0.96824777 0.10903144 0.0097923279
0.98623079 -0.049606502 -0.2187748
0.94671077 0.18719947 0.038145542
0.97226375 -0.040790558 -0.15860462
0.96379375 0.0065274835 -0.093388557
0.94180578 0.14643043 0.030249119
0.93816078 0.23137945 0.012420177
0.94505477 -0.023620546 -0.041393757
0.94087577 0.018504441 -0.0087704659
0.9373318 0.25769347 -0.0277915
0.9393158 -0.075413525 -0.090812683
0.91852677 0.030181468 0.073752403
0.91989779 0.11055845 0.015892506
0.91244274 0.14661646 0.028090477
0.96242476 -0.22664756 -0.37319279
0.90658975 0.14663243 0.027501583
0.88097477 0.016803443 0.23462915
0.90952677 0.26125044 0.0037555695
0.90207076 0.067486465 0.064042568
0.90163279 0.18575346 0.019631386
0.89675677 0.11030543 0.010990143
0.88942879 0.11184144 0.02249527
0.88905579 0.18659848 0.025584221
0.8928228 0.26051247 -0.0055508614
0.86983377 0.083796442 0.18442059
0.90770477 -0.18543154 -0.12852764
0.88579178 0.23111844 0.0034584999
0.87125576 0.0012894273 0.12446928
0.89480776 0.29848546 -0.07158947
0.86875677 -0.081605494 0.1452713
0.8775928 0.18639344 0.02239418
0.8712818 -0.0057095289 0.075321198
0.88175678 -0.16589659 -0.01252985
0.87105477 0.14715546 0.02760458
0.8546508 -0.03561753 0.16619635
0.87130779 -0.012810528 0.025462151
0.85010278 0.086758435 0.20462322
0.84746277 0.13174248 0.17807055
0.86773276 0.18461949 0.0055265427
0.85179979 0.078401446 0.14115715
0.86519074 0.25901544 -0.023569584
0.89492679 -0.33068651 -0.27861977
0.85437077 0.18625343 0.018429279
0.85435879 -0.057604492 0.01853323
0.85554278 -0.014992535 0.0083022118
0.88167578 -0.31934851 -0.21756458
0.85421675 0.25830847 -0.031790733
0.8211568 0.16906047 0.20603418
0.8345418 0.19443744 0.088553429
0.84112275 0.025573432 0.030795574
0.81791675 -0.12414855 0.23447037
0.83181775 -0.050916493 0.060850143
0.84330577 -0.28652257 -0.040769577
0.82788479 0.11533445 0.043497562
0.81449479 0.16401649 0.16287136
0.83919877 0.25588143 -0.057365417
0.83095276 -0.27595657 0.016144276
0.81593978 -0.13797849 0.14998531
0.81851476 0.031941473 0.074725151
0.81469578 -0.14467758 0.10904121
0.79917979 0.20711744 0.19673634
0.80937678 -0.044056535 0.10437441
0.82234079 0.26057845 -0.013057709
0.80686575 -0.25535852 0.12711716
0.80848676 -0.085628569 0.11243343
0.79703975 0.20340943 0.16371632
0.80196476 -0.041792572 0.11874914
0.80285877 0.00042945147 0.11058235
0.80440176 0.073242486 0.096499443
0.80108577 -0.083272517 0.12677145
0.79868978 0.15618247 0.095287323
0.79041779 0.25010443 0.17143631
0.79458678 -0.039538562 0.1330595
0.81823778 0.29807544 -0.084654808
0.78961575 0.07723248 0.12525415
0.78638279 -0.078594506 0.15525913
0.78471875 0.19823843 0.11666632
0.78227478 0.079212427 0.13953447
0.7773788 0.19994646 0.1309824
0.77264875 -0.03284353 0.1756072
0.7742188 0.044401467 0.1607995
0.76912576 -0.2919516 0.20884657
0.77181375 -0.07396251 0.18349028
0.76695275 0.046442449 0.17491913
0.7613858 0.13229448 0.17297935
0.76369178 0.24822044 0.15085459
0.75544679 -0.23571056 0.2299633
0.75700879 0.27884448 0.1594882
0.75274277 0.050191462 0.20077038
0.74869877 0.20630544 0.18418837
0.74678677 0.01443547 0.20284653
0.74986374 0.32328844 0.17281723
0.74714178 0.050079465 0.1993804
0.74237579 0.13462043 0.18975639
0.74381775 0.28061748 0.17555428
0.7374658 0.20611846 0.18139553
0.73861176 0.32313043 0.1700182
0.73147178 0.16754848 0.18374348
0.73228478 0.25119048 0.17560339
0.72998178 0.014082432 0.19867516
0.72705275 -0.28750354 0.22801447
0.7286188 -0.12621754 0.21232939
0.72397077 -0.028253555 0.20139551
0.72694278 0.28036243 0.1713562
0.72302675 -0.12635356 0.21094322
0.71693075 -0.17903954 0.21467352
0.71316576 0.013724446 0.19450426
0.71350276 0.049394429 0.1910305
0.71133977 -0.1791845 0.21328735
0.70899677 0.16714543 0.17815924
0.70789176 0.049278438 0.18963814
0.70574778 -0.17933053 0.21190357
0.70373076 0.20554346 0.1730113
0.70155275 -0.028757572 0.19583559
0.7006408 -0.1269086 0.20539618
0.69774878 0.16694045 0.17536449
0.6959458 -0.028885543 0.19444656
0.69355577 -0.2884565 0.21972847
0.69556278 -0.070437491 0.19849348
0.69138575 0.085975468 0.18184757
0.68619674 0.13356447 0.17580223
0.68725377 0.25046146 0.16440725
0.6857658 0.085861444 0.1804533
0.68237877 -0.28878158 0.21696329
0.68434978 -0.0707075 0.19571447
0.68187976 0.27965945 0.16015148
0.67980975 0.048684478 0.18267155
0.67494279 0.13334644 0.17300844
0.67523676 0.16652244 0.16977358
0.67597979 0.25027347 0.16160536
0.67387277 0.012860477 0.18475819
0.6762408 0.27956843 0.1587472
0.67119378 -0.28911155 0.21419716
0.67164677 -0.23798949 0.20922232
0.67215979 -0.18022257 0.20358849
0.66931379 0.13323647 0.17161131
0.67034179 0.25017846 0.16020441
0.66560078 -0.28927749 0.21281433
0.66604877 -0.23814958 0.20783615
0.66655678 -0.18037456 0.20220041
0.66751778 -0.07111758 0.19154358
0.66430777 0.20484644 0.16321516
0.65701276 0.012479484 0.18057728
0.65628976 -0.071394503 0.18876123
0.64880878 -0.28978151 0.20866346
0.64637876 0.085039437 0.17067957
0.6432088 -0.2899515 0.20727921
0.64142376 0.16587746 0.16137552
0.64013678 0.012091458 0.17639256
0.64237076 0.27901644 0.1503334
0.63647777 0.24959844 0.15178728
0.63672078 0.27892244 0.14892721
0.63707376 0.32162046 0.14476633
0.63480479 0.047697484 0.17150736
0.63242775 -0.23912555 0.19952059
0.62010175 0.32135344 0.14054537
0.61559576 -0.23962659 0.19535923
0.61648375 -0.12910753 0.18455744
0.61320275 0.16532344 0.15436935
0.61386979 0.24920046 0.14617157
0.61444175 0.32126343 0.13913822
0.61255878 0.084308445 0.16228914
0.60957575 -0.29099256 0.19896841
0.60821378 0.24909943 0.14476538
0.6084438 0.27844447 0.14190626
0.60877979 0.32117248 0.13773251
0.60662478 0.04705745 0.16452026
0.60396475 -0.29116958 0.19758129
0.6016438 0.13186145 0.1548152
0.60220277 0.20369244 0.14778948
0.60255575 0.24899745 0.14335918
0.59599477 0.13174248 0.15341234
0.59273678 -0.29152554 0.19480848
0.59313077 -0.24030751 0.18980551
0.59441876 -0.072977602 0.17343712
0.59034377 0.13162243 0.15201044
0.58469075 0.13150245 0.15060949
0.58346277 -0.031609535 0.16657114
0.58150375 -0.29188651 0.19203234
0.58314878 -0.073275506 0.17064619
0.57867974 0.08355248 0.15388632
0.57588273 -0.29206854 0.19064522
0.57217878 -0.031899571 0.16377544
0.57445776 0.27785248 0.13346338
0.57106578 -0.18309253 0.17857647
0.56824577 0.20303148 0.13935852
0.56290573 0.24827248 0.13351536
0.56088877 -0.032192528 0.16097927
0.56145173 0.045995474 0.15332127
0.56171876 0.083165467 0.14968157
0.55938476 -0.24135751 0.18146515
0.56018078 -0.1306805 0.17062616
0.55339074 -0.29280549 0.18509054
0.55375475 -0.24153548 0.18007517
0.55494577 -0.074035585 0.16366529
0.55073774 0.13076848 0.14218616
0.54507375 0.13064343 0.1407814
0.53940773 0.13051844 0.13937616
0.53907877 0.082639456 0.14406824
0.53396475 0.16368747 0.13470459
0.53160876 -0.18428749 0.16882324
0.52697778 -0.033088565 0.15258312
0.52726173 0.0093334317 0.14842319
0.52905077 0.27703345 0.12218142
0.52933675 0.31985044 0.11798525
0.52750075 0.045168459 0.14490843
0.52523577 -0.29374856 0.17813921
0.52317178 0.24751943 0.12365437
0.52131873 -0.03324157 0.15118217
0.52208078 0.082237482 0.13985443
0.51959878 -0.29394048 0.17674828
0.52031976 -0.18463653 0.16603231
0.52066773 -0.13183254 0.16085339
0.51748878 0.24740946 0.1222415
0.51593578 0.0090414286 0.14561844
0.51767975 0.27682346 0.11935759
0.51795876 0.31965345 0.11515856
0.51616979 0.044887483 0.14210129
0.51538777 -0.075134575 0.1538763
0.51104975 0.12988144 0.13234234
0.50999779 -0.033547521 0.14838028
0.51199275 0.27671748 0.11794615
0.51050174 0.044745445 0.14069653
0.50865078 -0.24299556 0.16893435
0.50506878 0.081829429 0.13563824
0.50267977 -0.29452151 0.17257357
0.49990177 0.16294843 0.12625551
0.50042778 0.24707645 0.11800718
0.49805176 -0.13250953 0.15526056
0.49445778 0.20152748 0.12104559
0.49473774 0.24696445 0.11659336
0.49206674 -0.18552655 0.15905237
0.48853374 0.16269648 0.1234355
0.48605675 -0.24374849 0.16335535
0.48641074 -0.18570656 0.15765429
0.48284674 0.16257048 0.12202549
0.48335177 0.24673843 0.11376715
0.48166376 -0.03432852 0.14136744
0.48191977 0.0081464648 0.13719559
0.48075378 -0.18588859 0.15625715
0.47765678 0.24662447 0.11235428
0.47127175 0.12896347 0.12248039
0.46879274 -0.2957105 0.16421223
0.46909279 -0.24432355 0.15916729
0.46943176 -0.18625456 0.1534605
0.46974075 -0.13337559 0.14826441
0.46625876 0.24639547 0.10952425
0.46488577 0.0076884627 0.13297939
0.46642774 0.27585047 0.10662937
0.46667475 0.31874144 0.10241652
0.46030074 0.20079947 0.11257124
0.46055776 0.24627948 0.10810947
0.45961976 0.080710471 0.1243782
0.45748377 -0.2961145 0.16142225
0.45419878 0.12855947 0.11824942
0.45438474 0.16192746 0.11496735
0.45328474 -0.035129547 0.13434649
0.45525879 0.31853348 0.099580288
0.45305073 -0.07694155 0.1384573
0.44889873 0.20055246 0.1097455
0.44914776 0.24604648 0.10527754
0.44760174 -0.035291553 0.13294029
0.44705874 -0.13408452 0.14265919
0.44280475 0.12828648 0.11542559
0.44191873 -0.035454571 0.13153458
0.44214875 0.0070674419 0.12735128
0.44383377 0.31832248 0.096742153
0.44138378 -0.13426453 0.14125633
0.43710679 0.12814945 0.11401224
0.43728477 0.16153347 0.11072636
0.43773276 0.24581146 0.10244513
0.43623376 -0.035619557 0.13012838
0.43811876 0.31821644 0.095323563
0.43511474 -0.2454986 0.15078259
0.43158078 0.16140145 0.10931444
0.42944574 -0.24569756 0.14938354
0.42975074 -0.1875636 0.14366245
0.41938174 0.0064344406 0.1217165
0.42096174 0.31789649 0.091061115
0.41429079 0.12759346 0.10835838
0.41502476 0.27483344 0.093869209
0.41216874 -0.29777151 0.15024948
0.41242576 -0.24630159 0.14518452
0.41326475 -0.078143537 0.12862349
0.40816379 0.042069435 0.11535645
0.40649575 -0.29798359 0.14885139
0.40703374 -0.18833154 0.13805342
0.40287179 0.12731248 0.10553026
0.40303278 0.16072947 0.10223722
0.40228778 0.0059514642 0.11748934
0.40358174 0.27460146 0.091029167
0.40106976 -0.24670857 0.14238358
0.39749974 0.19940746 0.097005367
0.39805877 0.31746143 0.085374355
0.39675379 0.041757464 0.11253023
0.39566278 -0.1887216 0.13524628
0.39591378 -0.13573056 0.13002443
0.39159977 0.16045648 0.099403381
0.39199173 0.24484748 0.091095448
0.38572776 0.12688446 0.10128212
0.38605773 0.19914645 0.094167233
0.38497978 -0.037131548 0.11745358
0.38550878 0.078796446 0.10602236
0.38086176 0.31712943 0.081103325
0.37356877 -0.03747654 0.11463213
0.37512577 0.31701744 0.079679489
0.36887676 0.19875044 0.089907169
0.36695278 -0.24795359 0.13397026
0.36284178 0.12630445 0.09561348
0.36248076 0.040803432 0.10405016
0.36104274 -0.29971355 0.13765049
0.36150676 -0.1899125 0.12681818
0.35643673 -0.038000524 0.11039734
0.35676175 0.040641427 0.10263634
0.35089475 0.0044614673 0.10477638
0.35010576 -0.1903165 0.12400627
0.35055178 -0.080115497 0.11312532
0.34396476 -0.3003785 0.13344431
0.33298677 -0.19093055 0.11978436
0.32871976 0.19780445 0.079953194
0.32314074 0.24333346 0.074019432
0.32227176 0.0036064386 0.097699165
0.32340378 0.31598943 0.066840172
0.32240278 0.03965646 0.094135284
0.31738877 0.24320245 0.072591305
0.31638974 -0.039250553 0.10050154
0.31666777 0.039489448 0.092718124
0.31546175 -0.30150753 0.12642336
0.31564376 -0.24988657 0.12132454
0.31603876 -0.13843256 0.11030626
0.31147778 0.19738948 0.07568121
0.30993277 -0.25010651 0.11991739
0.30548275 0.12480748 0.081409454
0.30597976 0.27253944 0.066813469
0.30421975 -0.25032657 0.11850929
0.30478776 -0.0816136 0.10182428
0.29984576 0.15817946 0.07667923
0.29850477 -0.25054854 0.11710119
0.29398477 0.12450045 0.078563213
0.29262078 -0.3024295 0.1208005
0.28833777 0.15788347 0.073830128
0.28869277 0.27215844 0.062524319
0.28759176 -0.082188547 0.097578526
0.28269976 0.19668543 0.068549156
0.28283775 0.24241048 0.064026356
0.28233474 0.075947464 0.080489159
0.28168276 -0.13964349 0.10183048
0.27707177 0.24227643 0.062596321
0.27096677 0.12387747 0.07286644
0.27106276 0.15743345 0.069551468
0.27049774 -0.040726542 0.089165211
0.27061874 0.002019465 0.084932327
0.27037776 -0.082772553 0.09332943
0.26540577 0.19625545 0.064265251
0.26561376 0.27164346 0.056801319
0.26507175 0.07545048 0.076219559
0.26463377 -0.082968533 0.091911316
0.25953275 0.15713048 0.066698551
0.25963676 0.19611144 0.06283617
0.25975975 0.24187046 0.05830431
0.25931376 0.075282454 0.074795246
0.25859275 -0.19368654 0.10144234
0.25367874 0.12340343 0.068590164
0.25398576 0.24173445 0.056873322
0.25355375 0.075114429 0.073372364
0.25256976 -0.3040815 0.11094332
0.24820876 0.24159747 0.055442333
0.24749877 -0.041484535 0.083486557
0.24760576 0.0012934804 0.079247475
0.24683976 -0.30432159 0.10953331
0.24711576 -0.19412452 0.098614216
0.24242775 0.24145943 0.054009438
0.24174276 -0.041676521 0.082065582
0.23549175 -0.25305158 0.10158348
0.23059675 0.12276143 0.062883377
0.23076075 0.19537944 0.055683136
0.22489376 0.15620548 0.058122158
0.22497876 0.19523144 0.054252148
0.22514176 0.27071947 0.046766281
0.22424977 -0.14173359 0.087668419
0.21911375 0.15604943 0.056690216
0.21886475 0.036539435 0.068539143
0.21894276 0.074091434 0.064813137
0.21849376 -0.14194757 0.086248398
0.21349776 0.24076247 0.046839237
0.21301876 0.00018048286 0.070702553
0.21262875 -0.19546157 0.090118408
0.21273476 -0.1421625 0.08482933
0.20687376 -0.19568759 0.088700294
0.20708476 -0.084976494 0.077710152
0.20139477 -0.043040514 0.072104454
0.20091575 -0.30628055 0.098237514
0.20100975 -0.25446755 0.093095303
0.20131776 -0.085182488 0.076289177
0.19596577 0.15541643 0.050962448
0.19616476 0.27004343 0.039583206
0.19575876 0.035813451 0.062830448
0.19582376 0.073395431 0.05909729
0.19535676 -0.19614249 0.085864544
0.19554876 -0.085388601 0.074865341
0.19011676 0.12161148 0.052868366
0.18991576 -0.00057655573 0.064997196
0.18949676 -0.25494653 0.090263367
0.18968076 -0.14303154 0.079146385
0.18432476 0.12144345 0.051436424
0.18437776 0.15509647 0.048094273
0.18406776 -0.043637514 0.067828178
0.18391176 -0.14325052 0.07772541
0.18400176 -0.085803568 0.072018147
0.17797576 -0.25543052 0.08742857
0.17256476 -0.0011525154 0.060712337
0.17261577 0.035075486 0.057111263
0.17213976 -0.30753857 0.091164589
0.16652176 -0.19729656 0.078764439
0.16122176 0.19355947 0.038466454
0.16127776 0.23947144 0.033901215
0.16107476 0.072328448 0.050508499
0.15484576 -0.30830556 0.086912155
0.15503076 -0.14436156 0.07060957
0.14952376 0.12042648 0.042830467
0.14955977 0.15411943 0.039478302
0.14959976 0.19324648 0.035588264
0.14939675 -0.0019325614 0.054992199
0.14947376 0.071966469 0.047642231
0.14913176 -0.25665849 0.080333233
0.14919275 -0.19800049 0.074498177
0.14378576 0.19308949 0.03414917
0.14382976 0.23902947 0.029580116
0.14359877 -0.0021295547 0.053561211
0.14341176 -0.1982376 0.073075294
0.13790576 0.12008244 0.039957523
0.13796876 0.19293147 0.032708168
0.13800876 0.23888147 0.028137207
0.13779876 -0.0023275614 0.052129269
0.13753276 -0.30908257 0.082657337
0.13211676 0.15362245 0.035164356
0.13220675 0.26850444 0.023732185
0.13175575 -0.30934352 0.081239223
0.12637876 0.26836044 0.022288322
0.12613076 -0.087932527 0.057748318
0.12045775 0.11955947 0.035643578
0.12050176 0.19245446 0.028387547
0.12035675 -0.045889556 0.052111149
0.12022775 -0.25791055 0.073226452
0.12033076 -0.088150561 0.056319237
0.11463676 0.11938447 0.034205437
0.11465476 0.15311944 0.030844212
0.11444075 -0.25816351 0.071802139
0.10881276 0.11920846 0.032764435
0.10882775 0.15295047 0.02940321
0.10874076 -0.046310544 0.049246311
0.10877576 0.032981455 0.041345119
0.10867376 -0.19967753 0.064526558
0.10283776 -0.31066459 0.074133396
0.097047761 -0.3109315 0.072713375
0.097076759 -0.20016557 0.061672211
0.097105756 -0.089029491 0.050595284
0.091329761 0.11867547 0.028443336
0.091300756 -0.046947539 0.04494524
0.091314755 0.032394469 0.037036419
0.09129376 -0.089251578 0.049163342
0.085496761 0.11849648 0.027000427
0.085486755 -0.0041425228 0.039221287
0.085463762 -0.25944656 0.064679146
0.085473761 -0.14712149 0.053477287
0.073809758 0.26704448 0.0092663765
0.067981757 0.11795545 0.022672176
0.067969754 0.19098848 0.015387535
0.068003759 -0.0047625303 0.034908295
0.068047762 -0.26022857 0.060399532
0.062171757 -0.0049705505 0.033468246
0.062100761 0.26674545 0.0063662529
0.062251758 -0.31255859 0.064168453
0.056349758 -0.048244536 0.036327362
0.050412759 0.19048846 0.011045456
0.050392758 0.23658448 0.0064435005
0.044593759 0.11722344 0.016893387
0.044818759 -0.31338555 0.059888363
0.044791758 -0.26128548 0.054685116
0.038815759 -0.0058105588 0.02770853
0.038971759 -0.26155251 0.053256512
0.03297076 -0.0060235262 0.026267529
0.027155757 -0.049347579 0.02913332
0.026908759 0.26583546 -0.002348423
0.027363759 -0.31422251 0.055604458
0.021271758 -0.0064505339 0.023382187
0.021206759 0.067795455 0.015969276
0.021540757 -0.31450349 0.054175377
0.021494757 -0.26235849 0.048962116
0.021443758 -0.20342952 0.043072224
0.015268758 0.15015143 0.006272316
0.01550176 -0.092218578 0.030493259
0.0098317564 -0.26290148 0.046099186
0.0097697601 -0.20394653 0.040202141
0.009653762 -0.092452586 0.029053211
0.0036197603 0.067198455 0.011628151
-0.0023062453 0.11572647 0.0053062439
-0.0023482442 0.14960748 0.0019192696
-0.0023962408 0.18895245 -0.0020165443
-0.0024522394 0.23514044 -0.0066356659
-0.0021562427 -0.0073135495 0.017605305
-0.0022012442 0.029146433 0.01396513
-0.0017792434 -0.31563956 0.048453331
-0.0019812435 -0.15075856 0.03195715
-0.0082252398 0.14942443 0.00046634674
-0.008276239 0.18877947 -0.0034694672
-0.0081172436 0.066796482 0.0087313652
-0.00776124 -0.2047295 0.035894394
-0.0079072416 -0.093161523 0.024730206
-0.014105238 0.14924145 -0.00098752975
-0.014224239 0.23481244 -0.0095486641
-0.013825245 -0.050928533 0.019036293
-0.013885245 -0.0077505708 0.014715195
-0.014266245 0.26474643 -0.012543678
-0.013454244 -0.31621355 0.045589447
-0.013610244 -0.20499259 0.034457207
-0.020159245 0.26458848 -0.0140028
-0.019864239 0.066391468 0.0058312416
-0.019296244 -0.31650251 0.044155121
-0.019461244 -0.20525652 0.033019543
-0.02582024 0.11496043 -0.00050067902
-0.025874242 0.14887244 -0.0038957596
-0.026008241 0.23448247 -0.012464523
-0.025559239 -0.051388562 0.016146183
-0.026055239 0.26442945 -0.015461445
-0.031429239 -0.051619589 0.014699459
-0.031358242 -0.094118536 0.018956184
-0.037802242 0.23415047 -0.015382767
-0.037854239 0.26411045 -0.018381596
-0.036838241 -0.3173756 0.039853573
-0.036929242 -0.26511353 0.034618378
-0.037228242 -0.094359577 0.017512321
-0.043483242 0.11437845 -0.0048627853
-0.043758243 0.26395047 -0.019842625
-0.049519241 0.18754345 -0.01366663
-0.049608245 0.23381543 -0.018302441
-0.049284235 0.065366447 -0.0014266968
-0.048761249 -0.20659059 0.025821209
-0.055342242 0.14793843 -0.011175632
-0.05493924 -0.052552521 0.0089101791
-0.061423242 0.23347747 -0.021225452
-0.061486244 0.26346648 -0.02423048
-0.061069235 0.064950466 -0.0043344498
-0.060611248 -0.15330058 0.017539501
-0.067335248 0.23330843 -0.022687435
-0.066803247 -0.0097555518 0.0016765594
-0.073250249 0.23313743 -0.024151802
-0.073318243 0.26314044 -0.027158737
-0.077863246 -0.31944948 0.029794216
-0.078391239 -0.096075594 0.0073833466
-0.085089236 0.23279548 -0.027078629
-0.084493235 -0.010438561 -0.0026798248
-0.085163236 0.26281148 -0.030090809
-0.090285242 -0.053977549 0.00020742416
-0.090584248 0.063898444 -0.011614799
-0.089608237 -0.32005149 0.02691412
-0.09002924 -0.15460652 0.010308266
-0.09548524 -0.32035452 0.025475502
-0.10209024 -0.054458559 -0.0026965141
-0.10295025 0.26231444 -0.034491539
-0.10230725 0.025472462 -0.010716438
-0.10241024 0.063471437 -0.014532566
-0.10167024 -0.20905453 0.012825489
-0.10855924 0.14621246 -0.024319649
-0.10867023 0.18572146 -0.028286457
-0.10888524 0.26214749 -0.035960674
-0.10724925 -0.32096356 0.022592545
-0.10756224 -0.2093336 0.011379242
-0.10771424 -0.15540153 0.0059623718
-0.10787724 -0.097328484 0.00012922287
-0.11403024 -0.011594534 -0.0099544525
-0.11313424 -0.32126957 0.021150589
-0.11981724 -0.055188596 -0.0070614815
-0.12076224 0.26181245 -0.038899422
-0.11917925 -0.2691465 0.014438152
-0.12661324 0.23157644 -0.037347794
-0.12573224 -0.055433571 -0.0085167885
-0.12507524 -0.26944155 0.012993336
-0.13217825 0.11137146 -0.026756763
-0.13178824 -0.012298524 -0.01432848
-0.13202424 0.062392473 -0.02183342
-0.13097525 -0.26973957 0.011545181
-0.13133225 -0.15647656 0.00015926361
-0.13151625 -0.098346531 -0.0056848526
-0.13687624 -0.27003652 0.010099411
-0.13743325 -0.098603547 -0.0071396828
-0.14416625 0.14503044 -0.033111572
-0.14363924 -0.012771547 -0.01724577
-0.14376225 0.023891449 -0.020932674
-0.14260525 -0.3228175 0.013929367
-0.14868724 -0.2706365 0.0072021484
-0.14889124 -0.21131355 0.0012354851
-0.14927524 -0.099120557 -0.010050774
-0.15636124 0.23068744 -0.044703484
-0.15550424 -0.01324755 -0.020167828
-0.15520224 -0.099379599 -0.011506557
-0.16188625 0.11033243 -0.034086704
-0.16200924 0.14442945 -0.037516594
-0.16128424 -0.056921542 -0.017265797
-0.16242725 0.26061845 -0.049204826
-0.16051224 -0.27123958 0.004304409
-0.16072623 -0.21188754 -0.0016684532
-0.16092025 -0.1578396 -0.0071077347
-0.16113023 -0.099640548 -0.012966633
-0.16783625 0.11012244 -0.035554409
-0.16721924 -0.057172596 -0.018725872
-0.16642824 -0.27154356 0.0028543472
-0.17391823 0.14402544 -0.040455818
-0.17360424 0.060849428 -0.032083511
-0.17214824 -0.3243925 0.0066943169
-0.17806526 -0.32471055 0.0052452087
-0.18584125 0.14361846 -0.043398857
-0.18618225 0.22978246 -0.052074432
-0.18521623 -0.014454544 -0.027481556
-0.18487523 -0.10069257 -0.018802643
-0.19166823 0.10927546 -0.041432858
-0.19036324 -0.21334249 -0.008939743
-0.19081824 -0.10095757 -0.020263672
-0.19793825 0.18286443 -0.050338745
-0.19727226 0.021801472 -0.034114838
-0.19583623 -0.32567257 0.00089454651
-0.19676425 -0.10122353 -0.021724701
-0.20307724 -0.015188515 -0.031878471
-0.20339425 0.059723437 -0.039426804
-0.20271324 -0.10149056 -0.023186684
-0.20885123 -0.058953583 -0.028958797
-0.20936225 0.059495449 -0.040897846
-0.20792525 -0.2736966 -0.007314682
-0.20866723 -0.10175854 -0.02464962
-0.21554823 0.10841644 -0.047321796
-0.21569823 0.14258945 -0.050767422
-0.21587326 0.18227446 -0.054766655
-0.21386524 -0.27400857 -0.0087695122
-0.21436523 -0.16035658 -0.02023077
-0.21462224 -0.1020276 -0.026112556
-0.22152524 0.10819948 -0.048796654
-0.22167926 0.14238143 -0.052242756
-0.22220226 0.25886148 -0.063987732
-0.22130425 0.05903846 -0.043839455
-0.22007523 -0.21482259 -0.016226768
-0.22728024 0.058808446 -0.045311451
-0.22575323 -0.27463549 -0.011683464
-0.22654124 -0.10256749 -0.029041767
-0.23364826 0.14196348 -0.055196762
-0.23383425 0.18167847 -0.059202671
-0.23270525 -0.059991539 -0.034824848
-0.23325925 0.058577478 -0.046784878
-0.23170225 -0.27495056 -0.013139725
-0.23198025 -0.2154215 -0.019145489
-0.23947723 0.10754544 -0.053222656
-0.23982824 0.18147844 -0.06068182
-0.24005024 0.22811347 -0.06538868
-0.23906125 0.020130455 -0.044402599
-0.23819725 -0.16150051 -0.026081562
-0.24563225 0.14154243 -0.058153629
-0.24582525 0.18127847 -0.062162876
-0.24465324 -0.060515583 -0.037761688
-0.25063026 -0.060778558 -0.039230824
-0.25121623 0.057881474 -0.051208496
-0.25782627 0.18087447 -0.065125465
-0.25806123 0.22754544 -0.06983757
-0.25582922 -0.21663254 -0.02499485
-0.25610125 -0.1623686 -0.030473709
-0.25639522 -0.10393554 -0.036375523
-0.26383424 0.18067145 -0.066607475
-0.26259625 -0.061308563 -0.042172432
-0.26300824 0.019157469 -0.050298691
-0.26180023 -0.21693856 -0.026457787
-0.26237726 -0.10421151 -0.037843704
-0.26718724 -0.32961959 -0.0165658
-0.27457327 -0.061841547 -0.045116425
-0.27499926 0.018665433 -0.053251743
-0.28187025 0.18005943 -0.071060658
-0.28767025 0.14004546 -0.068522453
-0.28788823 0.17985445 -0.072545528
-0.28830922 0.25685847 -0.080329418
-0.28538227 -0.27783555 -0.026284695
-0.28570926 -0.21816951 -0.032317638
-0.29369026 0.13982946 -0.070007801
-0.30037123 0.25648546 -0.08330965
-0.29704827 -0.3313126 -0.023868561
-0.30573523 0.13939345 -0.072977543
-0.30623221 0.22600245 -0.081736565
-0.30457127 -0.063191593 -0.052488804
-0.30482227 -0.019492567 -0.056907654
-0.30503422 0.017422438 -0.060642719
-0.31176323 0.13917446 -0.074464798
-0.31105125 0.017171443 -0.062121868
-0.30901426 -0.33199757 -0.026795864
-0.30998826 -0.16502649 -0.043691635
-0.31685221 -0.020015538 -0.059865475
-0.31599122 -0.16532654 -0.045164585
-0.32362324 0.10440147 -0.073964596
-0.32332623 0.055022478 -0.068966866
-0.33039522 0.22521448 -0.087704659
-0.32889622 -0.020541549 -0.062827587
-0.32912123 0.016412437 -0.066567421
-0.33590722 0.13829148 -0.080417633
-0.33515024 0.016157448 -0.068050861
-0.34268624 0.25516248 -0.093766689
-0.33931923 -0.28080851 -0.039483547
-0.33969522 -0.22100157 -0.045543671
-0.34003723 -0.16653854 -0.05106163
-0.34040523 -0.10788959 -0.05699873
-0.34800023 0.13784647 -0.083399773
-0.34855324 0.22461748 -0.092188835
-0.34670627 -0.065117538 -0.062839508
-0.34746623 0.054043472 -0.074910641
-0.35302126 -0.021604538 -0.068758488
-0.35480726 0.25477946 -0.096761703
-0.35208023 -0.16714948 -0.054013729
-0.35700923 -0.33478457 -0.038526535
-0.35810626 -0.16745752 -0.055491447
-0.36642623 0.17711943 -0.091924667
-0.36673826 0.22401446 -0.096679688
-0.37249124 0.17690349 -0.093421459
-0.37085325 -0.066239536 -0.068769455
-0.36904025 -0.33549255 -0.041467667
-0.37016827 -0.16807455 -0.058448792
-0.37828726 0.13671845 -0.090864658
-0.37888026 0.22360843 -0.099676609
-0.37908822 0.25400448 -0.10275888
-0.37583321 -0.22293657 -0.054392815
-0.38463122 0.17647147 -0.09641552
-0.38377422 0.052550435 -0.083845615
-0.38265026 -0.10993654 -0.067365646
-0.38748425 -0.28352755 -0.051264763
-0.38790423 -0.22359055 -0.057348728
-0.39505625 -0.067374527 -0.0747118
-0.39733225 0.25341648 -0.10726547
-0.39314324 -0.33692259 -0.047355652
-0.40257823 0.13580346 -0.096851826
-0.40143126 -0.023773551 -0.080655575
-0.39999121 -0.22424859 -0.060307503
-0.40895027 0.17559743 -0.10241365
-0.40717822 -0.06794852 -0.077689648
-0.41448927 0.10086644 -0.096349716
-0.41324323 -0.06823653 -0.07917881
-0.41560924 0.25282246 -0.11177969
-0.4208312 0.13510948 -0.10135078
-0.42113024 0.17515647 -0.10541868
-0.41964024 -0.024601519 -0.085129738
-0.41991723 0.012504458 -0.088898659
-0.41814321 -0.22524256 -0.064750671
-0.41899025 -0.11172849 -0.07627964
-0.42781025 0.25242347 -0.11479282
-0.42334723 -0.33873659 -0.054733753
-0.43275523 0.10013849 -0.10084772
-0.43026423 -0.22591156 -0.067717552
-0.43068224 -0.17122453 -0.07327652
-0.43754125 -0.069398582 -0.085141659
-0.43816823 0.011700451 -0.093385696
-0.43632925 -0.22624749 -0.069200516
-0.4428252 -0.17186552 -0.076250553
-0.44328523 -0.11294252 -0.082236767
-0.45005822 -0.025998533 -0.092601776
-0.45035225 0.01115948 -0.096379757
-0.44799221 -0.28702551 -0.066058636
-0.44890124 -0.17218858 -0.077739716
-0.45363724 -0.34058052 -0.062129498
-0.4545452 -0.22726148 -0.073657513
-0.45498323 -0.17251259 -0.079227448
-0.46354622 0.13346344 -0.11187458
-0.46425223 0.22069544 -0.12074947
-0.4610672 -0.1728366 -0.08071661
-0.46937925 0.098661482 -0.10986567
-0.47062624 0.25100744 -0.12536573
-0.46897221 0.048953474 -0.10480642
-0.47650421 0.22026944 -0.12377167
-0.47508323 0.048690438 -0.10630846
-0.47185224 -0.34169954 -0.066574574
-0.48289025 0.25059646 -0.1283946
-0.47793025 -0.34207553 -0.068058491
-0.47983223 -0.1147936 -0.091198444
-0.48774022 0.097912431 -0.11438465
-0.48401421 -0.34245259 -0.069544792
-0.49279225 -0.02799356 -0.10309553
-0.49344122 0.047895432 -0.11082363
-0.4999972 0.097409427 -0.1174016
-0.50029624 0.13202345 -0.12092543
-0.50105125 0.21940744 -0.1298275
-0.5067842 0.17198843 -0.12653446
-0.50464725 -0.072671592 -0.1016078
-0.50375223 -0.17513758 -0.091166496
-0.51148921 0.0084044337 -0.11140251
-0.50986624 -0.17547053 -0.092663765
-0.51796722 0.046824455 -0.11685467
-0.51447821 -0.34435552 -0.076976776
-0.52486825 0.13104743 -0.12697744
-0.52565724 0.21853447 -0.13589764
-0.52410722 0.046555459 -0.11836386
-0.52058125 -0.3447395 -0.078465462
-0.52160621 -0.23106259 -0.090060711
-0.52955925 -0.029737532 -0.11212158
-0.53209525 0.24892843 -0.14053965
-0.52717423 -0.2917425 -0.085400581
-0.52822423 -0.17647558 -0.097156525
-0.53717625 0.13055545 -0.1300087
-0.53754622 0.17082244 -0.1341157
-0.53529423 -0.074196517 -0.10912371
-0.53279924 -0.34551054 -0.081445694
-0.53329021 -0.2921136 -0.086894512
-0.53435022 -0.17681259 -0.098656654
-0.5418452 -0.030326545 -0.11513567
-0.54443425 0.24850446 -0.14358568
-0.54219222 0.0069934726 -0.11894464
-0.54255122 0.045740485 -0.12289667
-0.53891522 -0.34589857 -0.082937717
-0.54950023 0.13005948 -0.13304186
-0.54987723 0.17035145 -0.13715458
-0.54757923 -0.074813545 -0.11213541
-0.54799324 -0.030622542 -0.11664486
-0.54503322 -0.34628755 -0.084429741
-0.5461002 -0.23247749 -0.096047878
-0.54661626 -0.17749053 -0.10165787
-0.5564962 0.21742845 -0.14350462
-0.55779123 -0.29360956 -0.092876434
-0.56719524 0.044642448 -0.12895346
-0.57458323 0.16939944 -0.14324188
-0.57219124 -0.076058567 -0.11817074
-0.58037221 0.12880749 -0.14064264
-0.58153725 0.24721748 -0.15273952
-0.57915723 0.0052724481 -0.12802172
-0.57567924 -0.3482495 -0.091902733
-0.58695823 0.16891944 -0.14628983
-0.58451921 -0.076686561 -0.12119246
-0.58773321 0.24700046 -0.1542697
-0.58181924 -0.34864658 -0.093399525
-0.58235025 -0.29512256 -0.098871708
-0.58796322 -0.34904355 -0.094897747
-0.5896582 -0.17989451 -0.11218786
-0.59025323 -0.12055856 -0.11825466
-0.5998292 0.21585047 -0.15418959
-0.59582323 -0.18024153 -0.11369658
-0.60603422 0.21562147 -0.15571976
-0.60387623 0.004106462 -0.13409185
-0.61098021 0.092736483 -0.14470577
-0.60697025 -0.29665452 -0.10487747
-0.61540723 -0.078274548 -0.12876368
-0.61586821 -0.03393656 -0.13329887
-0.61376321 -0.23646051 -0.11258173
-0.62338823 0.092201471 -0.14775658
-0.62996525 0.12676448 -0.15284777
-0.62490726 -0.3514536 -0.10390186
-0.62547523 -0.29781657 -0.10939264
-0.62611622 -0.23719853 -0.11559677
-0.62670022 -0.18199652 -0.12124872
-0.63661325 0.16696846 -0.1585207
-0.63527524 0.041552484 -0.14568281
-0.6401872 -0.079561532 -0.13483477
-0.64066422 -0.035169542 -0.13938189
-0.63848221 -0.23794156 -0.11861753
-0.64824724 0.091120481 -0.15386963
-0.64728022 0.0020324588 -0.14474583
-0.65529823 0.16622543 -0.16312075
-0.6508652 -0.2386896 -0.12164164
-0.6514712 -0.18341857 -0.1273036
-0.66070223 0.090575457 -0.15693188
-0.66153425 0.16597545 -0.16465759
-0.66594124 0.0011304617 -0.14932585
-0.66637522 0.040113449 -0.15331984
-0.67401725 0.16547447 -0.16773176
-0.6712482 -0.081193507 -0.14244461
-0.67174721 -0.036732554 -0.14700174
-0.67008823 -0.18449754 -0.13185453
-0.67941225 0.089751482 -0.16153145
-0.6779772 -0.037047565 -0.14852953
-0.67567724 -0.24019855 -0.12770081
-0.68508321 0.039239466 -0.15791368
-0.68993324 -0.082184494 -0.14702177
-0.69044524 -0.03768152 -0.15158653
-0.69367725 0.24321246 -0.1804018
-0.6908772 -8.5532665e-05 -0.15544367
-0.69958621 0.21211445 -0.1787796
-0.6971212 -0.00039255619 -0.15697479
-0.70585424 0.21187544 -0.18032265
-0.71108723 0.12333643 -0.17280579
-0.70743322 -0.18668252 -0.14098263
-0.71783823 0.16369647 -0.17851973
-0.71840423 0.21139443 -0.18341541
-0.7154302 -0.038959563 -0.1577096
-0.71877223 0.24229348 -0.18658876
-0.72320825 0.087800443 -0.17229557
-0.72411424 0.16343945 -0.18006468
-0.72505522 0.24206144 -0.18813848
-0.71787423 -0.35767156 -0.12654543
-0.71851921 -0.3037836 -0.13208055
-0.72948021 0.087518454 -0.17383671
-0.7309702 0.21091044 -0.18651152
-0.73618525 0.12225443 -0.17897749
-0.73763621 0.24159646 -0.19123983
-0.73313624 -0.12839955 -0.15322351
-0.74246925 0.12198246 -0.18052244
-0.74296725 0.16266447 -0.18470383
-0.7372362 -0.30500954 -0.13664246
-0.75023222 0.24112844 -0.19434452
-0.74281621 -0.35937649 -0.13261652
-0.74423623 -0.2444405 -0.14443159
-0.75303024 -0.040905535 -0.16692543
-0.76134622 0.12116045 -0.18516445
-0.76027423 0.035665452 -0.17637253
-0.75744921 -0.18965858 -0.15320063
-0.75820023 -0.1298185 -0.15935469
-0.7681632 0.16161948 -0.19090366
-0.76559621 -0.041561544 -0.17000246
-0.76656824 0.035361469 -0.17791748
-0.77447224 0.16135645 -0.19245672
-0.77188522 -0.041891515 -0.17154455
-0.7754752 0.24018347 -0.20056677
-0.76782423 -0.36110252 -0.13870287
-0.76851124 -0.30707651 -0.14426184
-0.76999623 -0.19041353 -0.15626478
-0.78026223 0.12033045 -0.18981552
-0.7817952 0.23994547 -0.2021246
-0.77477825 -0.30749351 -0.14578867
-0.7877202 0.20869648 -0.20049143
-0.78035122 -0.36197251 -0.14174986
-0.78104925 -0.30791157 -0.1473155
-0.78255725 -0.19117254 -0.1593318
-0.79289323 0.11977446 -0.19291973
-0.78662121 -0.36240953 -0.14327478
-0.78811926 -0.24721259 -0.15513563
-0.7896232 -0.13161653 -0.16703749
-0.79875624 0.084359467 -0.19085646
-0.79921621 0.11949444 -0.1944747
-0.79809421 0.033830464 -0.18565273
-0.79360622 -0.30875152 -0.15037346
-0.79440725 -0.24761349 -0.15666962
-0.80441123 0.033521473 -0.18720245
-0.80773121 -0.1927045 -0.16547966
-0.81773621 0.083480477 -0.19551754
-0.81981122 0.23850346 -0.21149349
-0.81705922 0.032901466 -0.19030476
-0.81328821 -0.24882251 -0.16127348
-0.82454723 0.11836743 -0.20070076
-0.81803721 -0.36461455 -0.15091562
-0.82919222 -0.0070365667 -0.18935966
-0.82747126 -0.13380951 -0.1762886
-0.83723724 0.11779845 -0.2038188
-0.83606422 0.031963468 -0.19496775
-0.83221024 -0.2500425 -0.16588688
-0.83297223 -0.19425458 -0.17163944
-0.84415221 0.15841144 -0.20959759
-0.84524125 0.23752844 -0.21775866
-0.84012026 -0.13454849 -0.17938042
-0.85051221 0.15813947 -0.21116352
-0.8482092 -0.0080195665 -0.19402075
-0.84324324 -0.36640149 -0.15704584
-0.85798323 0.23703647 -0.22089863
-0.8503142 -0.31259352 -0.1641798
-0.86267221 0.11665243 -0.2100687
-0.86091125 -0.0086795688 -0.19713163
-0.86854225 0.081098437 -0.20799351
-0.8696202 0.15731746 -0.21586275
-0.87030023 0.20539546 -0.22082663
-0.86219424 -0.36775559 -0.16165257
-0.86296225 -0.31346053 -0.16725969
-0.86383021 -0.2520985 -0.17359352
-0.86547124 -0.13603956 -0.18557644
-0.87308824 -0.047297537 -0.19632864
-0.87419021 0.03006345 -0.20431662
-0.87182021 -0.13641554 -0.18712664
-0.87880725 -0.092587531 -0.19324446
-0.87562925 -0.31433254 -0.17034054
-0.87650925 -0.25292951 -0.17668343
-0.87817425 -0.13679153 -0.1886797
-0.88766724 0.080191433 -0.21268749
-0.88876826 0.15648746 -0.22057152
-0.88693523 0.029422462 -0.20744276
-0.88196921 -0.31477052 -0.17188358
-0.88285524 -0.2533465 -0.17823076
-0.8845312 -0.13716954 -0.19023275
-0.89405024 0.079886436 -0.21425581
-0.8945632 0.11520046 -0.21790457
-0.89515924 0.15621048 -0.2221427
-0.89631122 0.23554343 -0.23034048
-0.88831222 -0.31521052 -0.17342758
-0.88920522 -0.25376552 -0.17977667
-0.90043825 0.079581439 -0.2158227
-0.90095425 0.11490744 -0.21947479
-0.89790523 -0.093678534 -0.1979146
-0.90271425 0.23529243 -0.23191643
-0.90866321 0.20382947 -0.23026848
-0.90494221 -0.049039543 -0.20412683
-0.90550125 -0.011019528 -0.20805645
-0.90362823 -0.13830858 -0.19489765
-0.90656525 -0.37095958 -0.17243576
-0.90828222 -0.25502759 -0.18442488
-0.91000521 -0.13869053 -0.19645452
-0.92076826 0.15509045 -0.22843742
-0.92195225 0.23453444 -0.23665571
-0.91887122 0.027805448 -0.21527386
-0.91464925 -0.25545055 -0.1859746
-0.9279052 0.20303643 -0.23500347
-0.92410827 -0.050095499 -0.20881653
-0.92527223 0.027478456 -0.2168417
-0.92276824 -0.1394586 -0.19957161
-0.93939924 0.11313146 -0.22891665
-0.94002426 0.15424246 -0.23317242
-0.93748724 -0.012719572 -0.21589184
-0.93463326 -0.20063454 -0.19644165
-0.94331527 -0.051161587 -0.21351671
-0.94766724 0.23351347 -0.24298668
-0.94389725 -0.013062537 -0.21746063
-0.94102323 -0.20104355 -0.19799852
-0.95288217 0.15367246 -0.23633385
-0.94972622 -0.0515185 -0.21508551
-0.95031226 -0.013405561 -0.21903181
-0.95092022 0.026164472 -0.2231288
-0.94741929 -0.20145255 -0.19955969
-0.95931828 0.15338647 -0.23791456
-0.9600662 0.20169944 -0.24291849
-0.96055126 0.23299843 -0.24616051
-0.9567312 -0.013750553 -0.22060251
-0.95734417 0.025833428 -0.22470379
-0.95381927 -0.20186359 -0.20111942
