# .PCD v0.7 - Point Cloud Data file format
VERSION 0.7
FIELDS x y z
SIZE 4 4 4
TYPE F F F
COUNT 1 1 1
WIDTH 1
HEIGHT 1024
VIEWPOINT 0 0 0 1 0 0 0
POINTS 1024
DATA ascii
0.60215259 0.12220085 0.37406874
0.59706455 0.12178487 0.37018967
0.62550759 0.23419785 0.094948769
0.63028359 0.27249688 0.048737526
0.61118358 0.16904384 0.17880058
0.6160866 0.2087369 0.13094664
0.58687156 0.12095386 0.3624506
0.60098356 0.13625586 0.22352457
0.6050666 0.16962689 0.18332434
0.59895957 0.17020786 0.18784046
0.58851761 0.065501869 0.29154158
0.59761459 0.21039885 0.14471674
0.58281255 0.13806385 0.2368784
0.58677155 0.17136687 0.19685841
0.59455955 0.23687685 0.1181345
0.56642258 0.11927485 0.34689474
0.58534956 0.21149987 0.15386152
0.57140458 0.066322863 0.29607964
0.56129658 0.11885285 0.34299374
0.57462358 0.17251986 0.20584869
0.5657196 0.030361891 0.29747677
0.55156058 0.15630186 0.38691759
0.57610959 0.23846889 0.13196278
0.58050555 0.27655184 0.086310387
0.56251156 0.17366689 0.21481276
0.54013157 0.15705287 0.39213276
0.56093359 0.21368587 0.17207146
0.54866159 -0.0036981106 0.30189466
0.54865158 0.031206846 0.30200148
0.54864156 0.067404866 0.30211258
0.53477359 0.15698189 0.39103174
0.54298055 -0.0034071207 0.30339956
0.56200159 0.27805185 0.10028458
0.54295957 0.067672849 0.30361843
0.54441756 0.17537689 0.2282095
0.5606606 0.32191789 0.053112507
0.54971355 0.27904588 0.10956669
0.53161657 0.032044888 0.30651855
0.53160655 0.06820786 0.30663061
0.52526259 0.11586088 0.31552839
0.53339458 0.24213785 0.16399479
0.50919956 0.15495688 0.37170458
0.5146476 -0.083924115 0.31066561
0.5089336 0.11570185 0.31278038
0.50406957 0.15454888 0.36782169
0.51444358 0.17820185 0.25042343
0.51857358 0.21746087 0.20368767
0.51523155 0.24369186 0.1776228
0.51916558 0.28150988 0.13265133
0.50332958 -0.083301127 0.31366444
0.50251859 0.17932189 0.25926065
0.49201655 -0.04206413 0.31678772
0.49198657 0.070053875 0.31713343
0.49783456 0.36830389 0.24891758
0.49715358 0.24523485 0.19120264
0.50095356 0.28297287 0.14641857
0.49123859 0.36935288 0.26090956
0.48638058 -0.082373142 0.31815863
0.49114555 0.2457459 0.19570446
0.49489957 0.28345889 0.15099859
0.48070657 0.034513891 0.32001448
0.48075157 -0.13745308 0.31948471
0.48073655 -0.082066119 0.31965542
0.47504759 0.11717987 0.32176256
0.48262656 0.22064888 0.23055077
0.4851476 0.24625587 0.20020866
0.47599357 0.29882288 0.3103776
0.47505957 0.070832849 0.32162046
0.46941257 0.11742389 0.32325649
0.46200758 0.19717586 0.41332245
0.46944159 0.00030189753 0.32289648
0.47915959 0.2467649 0.20470333
0.46943361 0.035053849 0.32300472
0.46947658 -0.13680613 0.32247353
0.46946257 -0.081454158 0.32264471
0.46380156 0.035321891 0.3244977
0.46379256 0.071348846 0.32460642
0.47103059 0.40781388 0.23561573
0.45763755 0.1508199 0.33264637
0.45822859 -0.18762517 0.32530165
0.44658756 0.19607484 0.40237474
0.45884657 0.22274685 0.24832249
0.45257658 -0.08054316 0.32712173
0.44689858 0.15052587 0.32932234
0.44694456 -0.039724112 0.32873678
0.45529455 0.24879086 0.22264433
0.44691756 0.072115898 0.32908154
0.45318857 0.40898988 0.24939775
0.43956158 0.30316287 0.35290575
0.44130057 0.072369874 0.33056974
0.44389758 0.37271088 0.29719734
0.44136259 -0.18662214 0.32977247
0.43116659 0.19489789 0.39078665
0.43570256 0.0019648671 0.33184147
0.43568558 0.072623849 0.33205938
0.43569157 0.3474229 0.33198071
0.43572158 -0.07964015 0.33159065
0.43521258 0.22482389 0.26598549
0.43324658 0.25602388 0.29183865
0.43012258 -0.13457513 0.33290863
0.42452559 -0.1856271 0.33423758
0.41885158 0.11958385 0.33666039
0.41569358 0.19371086 0.37915277
0.42114958 0.25753486 0.30573845
0.41820857 0.34871489 0.34531164
0.42044857 0.37436485 0.31517363
0.41889659 -0.07874614 0.33605051
0.41327757 0.0030558705 0.33778572
0.41490158 0.25859588 0.31567669
0.41104457 0.3048299 0.36820078
0.41775957 0.41131487 0.27675343
0.40768057 0.0033268929 0.33927155
0.40771058 -0.13332212 0.33884954
0.40205157 0.15234685 0.3412118
0.40207759 0.038220882 0.34085941
0.40206957 0.074127853 0.34097052
0.40212658 -0.18431616 0.34017658
0.40210259 -0.07786113 0.34050369
0.39646858 0.12052488 0.34259462
0.39646158 0.15257186 0.34269238
0.39498359 0.19211388 0.36357355
0.39436159 0.30534089 0.37234735
0.39648658 0.038479865 0.34234333
0.39714459 0.37600285 0.33305359
0.40278956 -0.25652909 0.25332737
0.39652357 -0.13270116 0.34181643
0.39651158 -0.07756716 0.3419857
0.38979158 0.19171089 0.35966539
0.38474858 0.24287987 0.43178463
0.39091557 -0.036880136 0.34359264
0.39090657 0.0041338801 0.34371758
0.38863158 0.30575287 0.37624979
0.39734557 0.44978386 0.2516408
0.40072957 0.47907388 0.20324945
0.39754558 -0.25728917 0.24878073
0.38533157 -0.036601126 0.34507275
0.38535157 -0.13208413 0.34477854
0.37939057 0.19090384 0.35183239
0.37973458 0.039250851 0.34678364
0.37975857 -0.076693118 0.34642744
0.37413856 0.12145388 0.34851456
0.37413257 0.15346289 0.34861279
0.37567258 0.25990486 0.32573366
0.37398258 0.37762588 0.35083151
0.38177258 -0.25958419 0.23508549
0.37417957 -0.076403141 0.34790754
0.36699358 0.30564588 0.3736558
0.36858156 0.039760888 0.34973955
0.36821559 0.37802786 0.35525751
0.37103158 0.41436288 0.31286478
0.37621558 0.48126686 0.23480368
0.36860558 -0.076114118 0.34938478
0.36300358 0.075846851 0.35132742
0.35742757 0.12214285 0.35294342
0.35745859 -0.035216153 0.35246134
0.35624757 0.30547786 0.37119436
0.35743657 0.076088846 0.35280371
0.35546657 0.35244888 0.38327074
0.35747758 -0.13055909 0.35216951
0.35746658 -0.075539112 0.35233736
0.35186157 0.12237084 0.35441971
0.35184857 0.19142789 0.35463047
0.35306457 0.26105988 0.33556652
0.35164559 0.30422688 0.35780954
0.35187858 0.040519893 0.35416842
0.35187158 0.076330841 0.35427856
0.34993657 0.35259789 0.38460541
0.35365659 0.41549087 0.32629633
0.35638559 0.45224386 0.28350449
0.35232058 -0.18251312 0.34722757
0.35190058 -0.075253129 0.3538146
0.34554958 0.30522186 0.36783838
0.34631759 0.040771842 0.3556428
0.34523058 0.37963086 0.37290955
0.35057059 0.45259187 0.28803253
0.34635058 -0.12995613 0.35511875
0.34074357 0.12282586 0.35736656
0.34073758 0.15477788 0.35746336
0.33745158 0.24093789 0.41043758
0.34077358 -0.034396112 0.35688448
0.33539858 0.27219886 0.4435277
0.34692559 0.48290387 0.25772476
0.34192356 -0.18393517 0.33835554
0.34473059 -0.26501715 0.20285273
0.33522657 -0.074400127 0.35823441
0.32884559 0.35173088 0.37347364
0.33061558 0.41698086 0.34410763
0.33554757 0.48325187 0.26230145
0.32968557 -0.12905812 0.35953856
0.32408959 0.1235019 0.3617816
0.32411757 -0.033584118 0.36130142
0.31877658 0.27308589 0.45119858
0.32355157 0.35152584 0.37083673
0.32487556 0.41735086 0.3485527
0.31854457 0.12372488 0.36325169
0.31668857 0.23941988 0.39495373
0.31857258 -0.033315122 0.36277056
0.31348157 0.27296984 0.44975758
0.31781957 0.37999988 0.37564135
0.31303057 -0.03304714 0.36424065
0.31251058 0.35179788 0.37327051
0.32340857 -0.26817214 0.18425179
0.30746457 0.12417084 0.36618757
0.30745259 0.19306785 0.36640072
0.30749258 -0.032779157 0.36570835
0.30315259 0.27225089 0.4421258
0.30747959 0.042508841 0.36593962
0.30747259 0.078236878 0.36604834
0.31034458 0.45471588 0.31548166
0.31056759 -0.18825209 0.3115468
0.30749959 -0.072997153 0.36558533
0.30192259 0.15628088 0.36775255
0.30191657 0.19326985 0.36786556
0.30194858 0.0083108544 0.36730146
0.30193657 0.078471839 0.36751652
0.30196157 -0.07272011 0.36705351
0.29642257 -0.032247126 0.36864376
0.29641557 0.0085638762 0.36876774
0.29935658 0.45474887 0.31533337
0.30734259 -0.27056408 0.17021275
0.30006057 -0.18970811 0.3025465
0.29088658 0.0088178515 0.37023354
0.28761658 0.27116287 0.43061161
0.29087558 0.078938842 0.37044764
0.29167458 0.41804987 0.35568047
0.30859259 -0.34599817 0.043296337
0.28533658 0.15691489 0.37215042
0.28532359 0.23720086 0.37239552
0.28536758 -0.031719148 0.37157536
0.28802857 0.30112386 0.32163334
0.28653958 0.37796187 0.34957647
0.27980158 0.2373879 0.37385941
0.27984458 -0.031456113 0.37303972
0.28119758 0.37778789 0.34722376
0.29121357 -0.27297616 0.15609837
0.27429357 0.15733385 0.37507868
0.27432257 -0.03119415 0.37450361
0.27605957 0.37727189 0.34079933
0.27433759 -0.12612712 0.37421274
0.27089658 0.34859085 0.33470058
0.28171858 0.47412086 0.12106752
0.28664958 -0.34950018 0.023721695
0.26881257 -0.071071148 0.37584257
0.26160458 0.26933086 0.41132736
0.26328057 0.044446886 0.37765551
0.26327556 0.080093861 0.3777647
0.26618358 0.34725589 0.31934547
0.26837358 -0.19412708 0.27535963
0.26330659 -0.12555313 0.37713671
0.25778157 -0.030412138 0.37888861
0.25777057 0.044684887 0.37911654
0.26993957 0.47476986 0.13029957
0.27563357 -0.3512671 0.013879776
0.25778759 -0.070529103 0.37876558
0.25115657 0.26859087 0.40357876
0.26418257 -0.27704513 0.13239956
0.25227857 -0.070259154 0.38022566
0.24674559 0.12657088 0.38228559
0.24676159 0.010812879 0.38193178
0.24675158 0.080777884 0.38214445
0.24677357 -0.069990158 0.38168573
0.24510258 0.34567088 0.30038738
0.25071657 0.44522786 0.17907858
0.25233558 0.47573787 0.14410734
0.25331858 -0.2786901 0.12285852
0.24167958 -0.12584209 0.37434578
0.23574656 0.12699789 0.38519955
0.23183459 0.31570989 0.47132778
0.23956358 0.34575886 0.30112553
0.24275759 0.40856087 0.23080349
0.24648559 0.47605786 0.1486907
0.23577356 -0.069455147 0.38460159
0.23024657 0.15898287 0.38675451
0.23023558 0.23904687 0.38699865
0.23027259 -0.029128134 0.38617945
0.22664958 0.31536788 0.46751833
0.23909158 0.44590986 0.18814135
0.24242559 -0.28034413 0.11328459
0.22474858 0.19603187 0.38832378
0.22476357 0.081679881 0.38797474
0.23142856 0.40894988 0.23531866
0.23329058 0.44624987 0.19266558
0.24239558 -0.35663116 -0.015870571
0.23108158 -0.19938314 0.24327135
0.22478357 -0.068923116 0.38751459
0.21928859 -0.028619111 0.38909245
0.21928358 0.01203388 0.38921642
0.21925059 0.26735085 0.38999557
0.21625859 0.31468189 0.45990372
0.22387958 0.37253284 0.28180456
0.23150057 -0.28200817 0.1036725
0.21929356 -0.068659127 0.38896942
0.21378258 0.12784284 0.39102364
0.21376759 0.23958886 0.39136362
0.21379659 0.012275875 0.39067078
0.21379256 0.04656589 0.39077568
0.21817559 0.37292087 0.2861948
0.22171757 0.44692788 0.20169353
0.21380758 -0.068395138 0.39042664
0.20829058 0.19660687 0.39268541
0.20828557 0.23976785 0.3928175
0.20831859 -0.028115153 0.39200068
0.20584556 0.31399184 0.45225668
0.20832357 -0.068132102 0.39187956
0.20281757 0.12826186 0.39392948
0.20281358 0.15999186 0.3940258
0.20280857 0.19679689 0.39413834
0.20847356 0.41040286 0.25309467
0.21156657 0.47796687 0.17608452
0.20284158 -0.067871153 0.39333153
0.19734058 0.12846988 0.39538145
0.19732358 0.26803684 0.39580679
0.20111458 0.37407988 0.29932642
0.20577759 0.47828287 0.18062449
0.20748258 0.51636791 0.1372385
0.21448258 -0.36117411 -0.040920258
0.19184957 0.26820689 0.39725637
0.19187158 0.083008885 0.39669371
0.19544357 0.37446487 0.30369234
0.19704758 0.41112387 0.26195145
0.20405659 -0.28621113 0.079490662
0.19427158 -0.13213408 0.33420944
0.18639058 0.16058886 0.39837933
0.18638657 0.19736487 0.39849138
0.18494457 0.31260085 0.43690062
0.18640357 0.047715843 0.39803457
0.19134657 0.41148385 0.26637173
0.19584958 0.51694387 0.14642763
0.18093857 0.013708889 0.39938164
0.18093558 0.04794389 0.39948559
0.18093158 0.08344686 0.3995924
0.18412858 0.37523085 0.31240463
0.18720058 0.44894186 0.22861862
0.18365857 -0.13355517 0.32520533
0.17545158 0.19773984 0.40139055
0.17546758 0.048170865 0.40093565
0.18749757 -0.28876317 0.064871788
0.16999358 0.16117984 0.40272665
0.16998458 0.24100685 0.40296745
0.17284358 0.37599385 0.32109356
0.17718658 -0.20707917 0.1967268
0.17001757 -0.066318154 0.40203476
0.16453658 0.12970489 0.40407658
0.16453357 0.16137487 0.40417337
0.16452958 0.19811189 0.40428543
0.16160658 0.36273289 0.49013567
0.17005457 0.44993788 0.24200344
0.18072158 -0.3667171 -0.071299553
0.15907657 0.16156989 0.40561867
0.15907258 0.19829786 0.40573168
0.15906857 0.24135488 0.40586138
0.15909557 -0.025886118 0.4050498
0.15909158 0.014648855 0.40517378
0.15867957 0.31084085 0.41758347
0.16159357 0.37675285 0.32976055
0.16296558 0.41326788 0.28837967
0.16691658 0.51837188 0.16929436
0.17086858 -0.29133809 0.050171375
0.16234557 -0.13642216 0.30709553
0.15909958 -0.065807104 0.40492964
0.15363957 -0.025642157 0.40649652
0.15363258 0.049070895 0.40672255
0.15362857 0.084526896 0.40683174
0.15597858 0.37713087 0.33408546
0.15976958 0.48077786 0.21672535
0.16087158 -0.20943213 0.18259573
0.14816257 0.24170184 0.40875244
0.14815958 0.26954687 0.40883636
0.14817758 0.084740877 0.40827656
0.15037358 0.37750888 0.3384037
0.15405658 0.48108587 0.22121143
0.15540157 0.51893783 0.17839336
0.15541857 -0.21022117 0.1778698
0.14272457 0.13051385 0.40985966
0.14271457 0.24187386 0.41019773
0.14273557 0.015344858 0.40950966
0.14603558 0.41432786 0.30151272
0.14731057 0.45125586 0.25976467
0.15805058 -0.37046814 -0.091747284
0.15416658 -0.29393518 0.035387516
0.14995758 -0.21101213 0.17313337
0.14274357 -0.065048158 0.40926552
0.13727957 0.13071388 0.41130257
0.13727657 0.16234386 0.41139841
0.13729358 -0.024917126 0.41082954
0.13728958 0.015574872 0.41095257
0.13726358 0.31035584 0.41184855
0.15753058 -0.47619009 -0.27103424
0.13729757 -0.064797103 0.41070843
0.13182758 0.24221689 0.41308355
0.13598858 0.45190886 0.26860857
0.14666557 -0.37236011 -0.10203028
0.14299257 -0.29568017 0.025485516
0.12639558 0.13111287 0.41418743
0.12640858 -0.024437129 0.41371536
0.12640558 0.016033888 0.41383839
0.12638357 0.27020389 0.41460943
0.12917757 0.41538087 0.31459379
0.13033858 0.45223486 0.27302265
0.13128658 0.48231286 0.23909473
0.14583857 -0.47829711 -0.28187323
0.14095858 -0.37331009 -0.10718822
0.13352758 -0.21340013 0.1588726
0.12095258 0.19957685 0.41583538
0.12096758 0.016261876 0.41528034
0.12094757 0.27036589 0.41605139
0.11923058 0.36190689 0.47950077
0.12469858 0.45255986 0.27742863
0.13524558 -0.37426317 -0.11235428
0.11551857 0.19975787 0.41727638
0.11551358 0.27052784 0.41749144
0.11995158 0.48292187 0.24799776
0.11608258 -0.067040145 0.39576674
0.11010458 -0.023724139 0.41803646
0.11010158 0.016715884 0.41815948
0.11009657 0.086216867 0.41837168
0.12823458 -0.48148215 -0.29821253
0.12379257 -0.37617815 -0.12271929
0.12054558 -0.29920018 0.0055656433
0.11702758 -0.21580911 0.14453459
0.10466258 0.13190287 0.41994858
0.10466057 0.16348386 0.42004442
0.10465758 0.20011586 0.42015553
0.10467458 -0.023488104 0.41947746
0.10465258 0.2708509 0.42037058
0.10464957 0.31126887 0.42049265
0.11805257 -0.37714016 -0.12791729
0.11491257 -0.30008709 0.00056171417
0.099231571 0.20029485 0.42159462
0.09924458 0.01716584 0.42103863
0.099239573 0.086632848 0.42124939
0.098227575 0.36060387 0.46422958
0.097236574 0.39171487 0.50627136
0.10927257 -0.30097616 -0.0044522285
0.10015458 -0.069062114 0.38243961
0.093808576 0.20047289 0.42303133
0.093805581 0.24339688 0.42316055
0.093819574 0.05148387 0.42257833
0.10362358 -0.30186808 -0.0094742775
0.10045658 -0.21823919 0.13011456
0.08838357 0.27132988 0.42468166
0.092675582 0.52200288 0.22799635
0.10463658 -0.48577511 -0.32015324
0.089500576 -0.070419133 0.37351561
0.082975581 0.13268185 0.42569733
0.082971573 0.20082587 0.4259038
0.08298257 0.017835855 0.42534971
0.088048577 0.56130087 0.18349266
0.084577575 0.41815087 0.34921551
0.077550575 0.27164686 0.42755365
0.077563584 0.052125871 0.42688751
0.072153583 0.018278897 0.4282217
0.072149575 0.087657869 0.42843056
0.07350558 0.41883588 0.35781479
0.074934587 0.48532888 0.28337336
0.076550573 0.52030087 0.19919538
0.086841583 -0.4890281 -0.33672857
0.066735581 0.1647839 0.43009663
0.066739574 0.087860882 0.42986345
0.068767577 0.45562887 0.31924343
0.080891579 -0.4901191 -0.34227562
0.070427582 -0.14898217 0.2286706
0.061328579 0.16496688 0.43152952
0.061338577 -0.021630108 0.43096447
0.061322581 0.27211887 0.43185472
0.061761584 0.38342386 0.40673733
0.064951584 -0.1497401 0.22398138
0.062733576 -0.073847115 0.35106659
0.055924583 0.13363987 0.43286753
0.05591758 0.27227485 0.43328762
0.056287583 0.38378584 0.41096163
0.050522577 0.13382989 0.43429947
0.050512578 0.35810089 0.43497753
0.05295958 0.37273586 0.27922678
0.053265583 0.41125187 0.25970364
0.062984586 -0.49341214 -0.35898638
0.060180578 -0.38691711 -0.1804595
0.058131579 -0.30909908 -0.05000639
0.045121584 0.20204484 0.43593645
0.045241583 -0.022058129 0.42785072
0.045117583 0.27258486 0.43615055
0.04800858 0.45010188 0.24131155
0.049681578 0.51610184 0.12852859
0.052406583 -0.31001508 -0.055116653
0.039731581 0.053596854 0.43691778
0.041898582 0.37295687 0.2816968
0.043334577 0.47845188 0.17885733
0.044290584 0.5150249 0.11044168
0.044694584 -0.2264961 0.081458569
0.034334581 0.13439387 0.43859053
0.034327578 0.31317985 0.43913174
0.034337584 0.053804874 0.43834734
0.036627579 0.41155887 0.2634325
0.040931579 -0.31185508 -0.065368652
0.035776582 -0.077326119 0.32841253
0.028939579 0.20255685 0.4402256
0.029252578 -0.024012148 0.41459846
0.028936584 0.2730459 0.44043875
0.02894358 0.089260876 0.43988276
0.030846577 0.37317586 0.28416634
0.032569584 0.47609586 0.14310551
0.03678358 -0.3909111 -0.20176935
0.030361582 -0.078027129 0.32385778
0.023553584 0.13476789 0.44144964
0.023549583 0.24551386 0.44178247
0.023557577 0.020232856 0.44110155
0.023556579 0.054216862 0.4412055
0.023555581 0.08945787 0.44131136
0.025167581 0.34612185 0.29915333
0.025758583 0.41030386 0.24711466
0.027142581 0.47490886 0.12508345
0.027931582 0.51175386 0.05552578
0.029420581 -0.31370616 -0.075659275
0.027805578 -0.22902107 0.066681385
0.019659583 0.34623587 0.30038357
0.022418577 0.51064986 0.037012577
0.02365258 -0.31463516 -0.08082056
0.020856578 -0.15588617 0.18615341
0.01950958 -0.079436123 0.31472349
0.012784582 0.13513786 0.44430256
0.012782581 0.20306486 0.44450855
0.020874579 -0.50121307 -0.39838028
0.015308581 -0.15666509 0.18138647
0.014072582 -0.080144107 0.31014347
0.0074025802 0.20323187 0.44593477
0.0086505823 0.34646285 0.3028388
0.01019058 0.44194588 0.1263957
0.011296581 0.50842386 -0.00032520294
0.01324258 -0.39495218 -0.22325039
0.009752579 -0.15744507 0.17660952
0.0020215809 0.24614584 0.44748974
0.0024545789 -0.027307153 0.39235544
0.0032545812 0.34537888 0.29053974
0.0036215819 0.36981189 0.24380159
0.0087545812 -0.50347316 -0.4097414
0.0051685795 -0.23242116 0.04684639
-0.0021274202 0.34386086 0.27333546
-0.0017994195 0.36834985 0.22634172
-0.0013284199 0.40347987 0.15892458
-0.00045241788 0.46886685 0.033483505
0.0026815794 -0.50460708 -0.41543961
0.0014145821 -0.39699113 -0.23405838
-0.00051141903 -0.23327816 0.041863441
-0.0087214187 0.021499872 0.44965839
-0.0045114197 -0.39801514 -0.23947763
-0.0062004179 -0.23413718 0.036872387
-0.0077564195 -0.082995117 0.29174137
-0.01409442 0.13605189 0.45142841
-0.01409442 0.16746289 0.45152235
-0.013714418 -0.029307127 0.37891436
-0.01356142 0.26380587 0.34976768
-0.010448419 -0.39904213 -0.24490738
-0.011897419 -0.23499811 0.031871796
-0.01946342 0.16763586 0.45294666
-0.019018419 0.26393288 0.35097742
-0.01946242 0.091009855 0.45271444
-0.018452419 0.33925587 0.22115564
-0.01738842 0.46515387 -0.022741318
-0.01872042 -0.084433138 0.28248835
-0.024828419 0.16780889 0.45436764
-0.024456419 0.26359284 0.34763145
-0.024827419 0.056034863 0.45403147
-0.02378542 0.36241686 0.15553474
-0.02329942 0.43410888 0.016210556
-0.023319419 -0.23672915 0.021838665
-0.03019142 0.13659185 0.45569563
-0.02995842 0.23754984 0.36685562
-0.030190419 0.022329867 0.4553504
-0.029485419 0.33614087 0.18589544
-0.029358419 0.36091185 0.1375885
-0.02728942 -0.63366914 -0.65255165
-0.035551421 0.13677084 0.4571166
-0.035432421 0.19674987 0.38873768
-0.034962419 0.35939789 0.11954451
-0.034288421 -0.40318215 -0.26674223
-0.034774419 -0.23846912 0.011768341
-0.03499442 -0.16377318 0.13807058
-0.040909421 0.16832286 0.45863056
-0.040899418 0.021208882 0.44751453
-0.040768418 0.25838387 0.29668951
-0.040708419 0.29306585 0.22861242
-0.040909421 0.091768861 0.45839977
-0.040422421 0.46010086 -0.099206448
-0.04027142 -0.40422511 -0.27222824
-0.040625419 -0.16457415 0.13321161
-0.040739421 -0.087334156 0.26388454
-0.039928421 -0.63626111 -0.66479921
-0.046266418 0.05682385 0.45971441
-0.046266418 0.42872688 -0.059355259
-0.046266418 -0.32600915 -0.14355659
-0.046266418 -0.16537809 0.12834358
-0.051638421 0.019943893 0.43869543
-0.05179242 0.25486088 0.26226473
-0.052268419 -0.4063201 -0.28323555
-0.051913418 -0.16618419 0.12346554
-0.05179942 -0.088797152 0.25453043
-0.05261242 -0.63887012 -0.67710352
-0.057695419 0.35325485 0.046348572
-0.058969419 -0.64017916 -0.68327236
-0.062646419 -0.035410106 0.33815145
-0.063118421 0.28628886 0.15787745
-0.063647419 0.38775384 -0.043885231
-0.063838422 0.42460588 -0.11716747
-0.06533742 -0.64149308 -0.68945742
-0.067932419 0.15993989 0.38863564
-0.068556421 0.24950087 0.20992374
-0.069509417 0.38627285 -0.062960625
-0.069766417 0.42321587 -0.1366663
-0.068909422 -0.16861618 0.10877848
-0.071717419 -0.64281213 -0.69565725
-0.073199421 0.13249689 0.4229188
-0.073684424 0.18799287 0.3118124
-0.073207423 0.017392874 0.42096043
-0.074205421 0.2476939 0.19228554
-0.074512422 0.28284085 0.12192154
-0.07572642 0.42181686 -0.15627241
-0.075148419 -0.24464417 -0.023792267
-0.079886422 0.24587685 0.17455149
-0.078348421 0.057984889 0.46821833
-0.080949418 0.34696585 -0.028509617
-0.081721425 0.42040986 -0.17599344
-0.083399415 -0.52086508 -0.49649429
-0.084507421 -0.64546013 -0.70809555
-0.084488422 0.15391588 0.33838272
-0.084860414 0.18408984 0.27756643
-0.085305423 0.22022188 0.20474243
-0.084602416 -0.038173139 0.31981945
-0.083730415 0.092302859 0.46255255
-0.087293416 0.38177586 -0.1208272
-0.087660417 -0.33283317 -0.18085146
-0.086763419 -0.24643111 -0.034041405
-0.090067416 0.15188485 0.32145262
-0.090110421 -0.038869143 0.31521654
-0.089465424 0.015459895 0.40758038
-0.091342419 0.24220985 0.13878965
-0.089195415 0.090149879 0.44629574
-0.092776418 0.34376585 -0.06656456
-0.095859423 -0.52324414 -0.50827026
-0.095629424 -0.039567113 0.31060362
-0.094357416 0.058555841 0.47246265
-0.099325418 0.37873286 -0.15997267
-0.099573418 -0.33480918 -0.19160557
-0.097408421 -0.17271709 0.084113598
-0.09636642 -0.094734132 0.2167635
-0.10131742 0.14778787 0.28731155
-0.10474142 0.34052688 -0.10506248
-0.10539242 0.37719685 -0.1797123
-0.10836342 -0.52563918 -0.52009964
-0.10698742 0.14572185 0.27010536
-0.10758442 0.17614889 0.20794678
-0.10576942 0.083613873 0.39698458
-0.11149642 0.3756519 -0.19956636
-0.11894442 -0.41807008 -0.34459257
-0.11751242 -0.33779514 -0.2078166
-0.11596242 -0.25094616 -0.059845448
-0.11461142 -0.17520714 0.069200516
-0.11321642 -0.096996129 0.20245552
-0.11781941 0.11568987 0.28860664
-0.11778042 -0.042378128 0.29206848
-0.12381242 0.37253386 -0.23963261
-0.12351342 -0.33879709 -0.21324444
-0.12495942 0.17007184 0.15472269
-0.12588441 0.2067529 0.079017639
-0.12219942 0.011544883 0.38059473
-0.12844142 0.30814588 -0.1302166
-0.13002442 0.37095988 -0.25984144
-0.12770842 -0.25277114 -0.070237637
-0.12449342 -0.098515153 0.19286966
-0.12927942 0.11136788 0.2541194
-0.13081542 0.16802287 0.13678455
-0.12753043 0.046830893 0.38777637
-0.12828642 0.074727893 0.33000135
-0.13627341 0.3693769 -0.28016853
-0.13189642 -0.17771816 0.054198742
-0.13014442 -0.099277139 0.18806458
-0.14261742 -0.65758514 -0.76475859
-0.13581242 0.1352129 0.18265057
-0.13317442 0.010225892 0.37153673
-0.13847841 0.22710788 -0.0083203316
-0.13399142 0.072474897 0.31303263
-0.14349042 -0.42244017 -0.36725426
-0.13948941 -0.25460613 -0.08067131
-0.14006342 -0.04522115 0.27339745
-0.14563942 0.26128089 -0.10248423
-0.14692742 0.30290389 -0.18924856
-0.14965242 -0.42354119 -0.3729496
-0.14346442 -0.17940414 0.044149399
-0.14147241 -0.1008091 0.17842674
-0.15565442 -0.66032612 -0.77750444
-0.14858341 0.16180384 0.082370758
-0.14979942 0.19880486 0.0049405098
-0.14418341 0.0088988543 0.36244345
-0.16452542 -0.74860716 -0.93246126
-0.16219242 -0.66170311 -0.78390121
-0.15258342 0.10257488 0.18400335
-0.15671642 0.22125685 -0.065222263
-0.15031841 0.037522852 0.32060862
-0.15971442 -0.34486914 -0.24603748
-0.15506943 -0.18110108 0.034061432
-0.16873942 -0.6630851 -0.79031324
-0.15945542 0.12658584 0.11093664
-0.16196242 0.19475985 -0.032727242
-0.17151542 -0.53783214 -0.58001566
-0.17529842 -0.66447008 -0.79673624
-0.16442943 0.098101854 0.1483655
-0.16086242 0.0060638785 0.3429637
-0.16299242 0.061015844 0.22679138
-0.17208943 0.29576385 -0.26958942
-0.17310642 0.32198888 -0.32503843
-0.16910842 -0.25924313 -0.10694027
-0.18186942 -0.6658591 -0.8031745
-0.16773742 0.030401886 0.26927471
-0.17794943 -0.34794509 -0.26258564
-0.18047242 0.1886009 -0.090047359
-0.17246042 0.0011758804 0.30909252
-0.18152842 0.21329087 -0.14262962
-0.18309343 0.24990886 -0.22057962
-0.17360742 0.028001845 0.25197935
-0.19067442 -0.54156315 -0.59824657
-0.18404742 -0.34897709 -0.26812458
-0.18363543 0.11775386 0.037605762
-0.18503542 0.14903086 -0.029242516
-0.17830643 -0.0012891293 0.29202366
-0.18782242 0.21126986 -0.16226053
-0.18852542 0.088996887 0.075890541
-0.19123343 0.14685786 -0.048214436
-0.19299142 0.18443286 -0.1288085
-0.19415243 0.20923585 -0.18200731
-0.19627443 -0.35105014 -0.27923632
-0.20827143 -0.67146218 -0.82908058
-0.19930643 0.18232989 -0.14835739
-0.19070043 -0.05174011 0.23087072
-0.19597442 -0.1871171 -0.0015616417
-0.21832143 -0.76063716 -0.98628139
-0.20373742 0.14247185 -0.086493492
-0.20565942 0.18021387 -0.16802645
-0.19637042 -0.052474141 0.22610044
-0.19886842 0.046823859 0.12013865
-0.21097842 0.28471684 -0.3937335
-0.21233343 0.31133187 -0.45122051
-0.20854242 -0.35313511 -0.29039621
-0.20497042 -0.26489818 -0.13881636
-0.22510242 -0.76216316 -0.99308252
-0.22154543 -0.67429018 -0.8421216
-0.20695843 0.082026839 0.020457745
-0.21812342 -0.43587208 -0.43640757
-0.22819942 -0.67571115 -0.84866428
-0.21638642 0.13803285 -0.12520742
-0.20773542 -0.053950131 0.21653366
-0.21700142 -0.26680517 -0.1495266
-0.22276643 0.13579386 -0.14473438
-0.21343142 -0.054691136 0.21173763
-0.23095642 0.27903688 -0.4574976
-0.23071042 -0.43815911 -0.44810438
-0.22303243 -0.26776314 -0.1548996
-0.22730142 0.1017859 -0.094780445
-0.21913743 -0.055435121 0.20693064
-0.23514642 0.23407584 -0.38468933
-0.22175643 0.0082918406 0.1101408
-0.23769942 0.27711886 -0.47901726
-0.25234941 -0.76831317 -1.0204372
-0.24823542 -0.67999911 -0.86838341
-0.23953342 0.19464588 -0.32350636
-0.24183042 0.23204088 -0.40575933
-0.22970042 0.034611881 0.028506756
-0.23140442 -0.19237316 -0.032494545
-0.24456543 0.16724688 -0.28843641
-0.23057343 -0.056927145 0.19729137
-0.23413442 0.0032198429 0.073689461
-0.24967343 -0.4416151 -0.46574736
-0.26165241 -0.68288112 -0.88160658
-0.24866542 0.1266979 -0.22399235
-0.25118542 0.16503888 -0.3089242
-0.23919742 -0.11419618 0.09499073
-0.2552354 0.12438887 -0.24409628
-0.26212943 0.22585887 -0.46973944
-0.24665242 -0.001912117 0.036828518
-0.24862443 0.027109861 -0.027722359
-0.25802842 -0.36160219 -0.33550549
-0.24502842 -0.11500418 0.089995384
-0.27979842 -0.77454019 -1.0480494
-0.25959441 0.089961886 -0.19265556
-0.25103742 -0.032009125 0.079648495
-0.26633242 0.18601787 -0.40706062
-0.25500742 0.024578869 -0.046684265
-0.26426241 -0.36267519 -0.34119844
-0.25086942 -0.11581516 0.084990501
-0.28187242 -0.68723714 -0.90155649
-0.25931641 -0.0071061254 -0.00045633316
-0.28142542 -0.55944014 -0.68494749
-0.27511042 -0.44627213 -0.48945332
-0.27050641 -0.36375117 -0.34690332
-0.29360241 -0.77768409 -1.0619564
-0.28863743 -0.68869817 -0.9082365
-0.26364142 -0.037341118 0.042859554
-0.27997741 0.18162286 -0.44959736
-0.28149742 -0.44744515 -0.49540854
-0.27676043 -0.36483014 -0.35261965
-0.26717943 -0.19772208 -0.063797474
-0.27733141 0.055376887 -0.19109344
-0.28489441 0.1537869 -0.41323042
-0.30745742 -0.78084815 -1.0759273
-0.2785854 -0.015012145 -0.057180405
-0.29285443 0.077771842 -0.29343748
-0.2954964 0.11023289 -0.36724949
-0.29866841 0.1491859 -0.45584726
-0.2801944 -0.077708125 0.06024456
-0.28747442 0.011694849 -0.14312649
-0.28520042 -0.20043218 -0.079592228
-0.29732442 0.047794878 -0.25117445
-0.29962641 0.075287879 -0.31395245
-0.28658143 -0.080507159 0.041796684
-0.30777743 0.17266184 -0.53624821
-0.30188742 -0.36918008 -0.3756094
-0.29618943 -0.27948308 -0.22023535
-0.32833943 -0.78563309 -1.0970154
-0.30406743 0.045236886 -0.27143621
-0.29300442 -0.083323121 0.023242474
-0.29819041 -0.02306211 -0.11488438
-0.32101843 -0.56734109 -0.72294331
-0.30819541 -0.37027514 -0.38138723
-0.31964642 0.14217484 -0.52074432
-0.30480242 -0.025778115 -0.13434267
-0.30852643 -0.28147709 -0.23128366
-0.30330941 -0.20316613 -0.095481396
-0.33634543 -0.6990571 -0.95544052
-0.31767842 0.040070891 -0.31233025
-0.32018843 0.067745864 -0.37622547
-0.32672742 0.13980788 -0.54264927
-0.31145442 -0.028511107 -0.15391922
-0.31553143 -0.059314132 -0.10855436
-0.31814441 -0.031260133 -0.17360544
-0.31543443 -0.20500314 -0.10613155
-0.35637042 -0.79208314 -1.1253653
-0.33145142 0.034841895 -0.35370827
-0.34101942 0.13502789 -0.58685637
-0.32151043 -0.20592511 -0.11147165
-0.36341143 -0.79370916 -1.1324973
-0.33840144 0.03220284 -0.3745842
-0.34823343 0.13261485 -0.60916758
-0.32568243 -0.097658157 -0.071131229
-0.35079542 0.15878189 -0.6703043
-0.35434541 -0.5740391 -0.75500727
-0.33332741 -0.28550112 -0.25352049
-0.34539443 0.029546857 -0.39558458
-0.35151142 0.090507865 -0.53855753
-0.35549343 0.13018489 -0.63162231
-0.34145042 -0.009753108 -0.30340242
-0.36104941 -0.57539117 -0.7614665
-0.35250741 -0.46058917 -0.56182051
-0.35870942 0.087970853 -0.56056452
-0.34530342 -0.042426109 -0.25351524
-0.37014943 0.12527984 -0.67694664
-0.34921142 -0.073595107 -0.20679522
-0.37292442 0.15163589 -0.73925257
-0.37449041 -0.57810712 -0.77442122
-0.35906541 -0.37916017 -0.42806244
-0.34241742 -0.13811815 -0.054239273
-0.36662742 0.021479845 -0.45934534
-0.37754741 0.12280285 -0.69982243
-0.35606644 -0.076503158 -0.22679043
-0.38039443 0.14922285 -0.76252747
-0.35912743 -0.048113108 -0.29418039
-0.36547443 -0.3802861 -0.43395329
-0.35205042 -0.21057618 -0.13833857
-0.39164841 -0.71117914 -1.0103536
-0.38791242 0.14679289 -0.78594828
-0.37867543 -0.46547914 -0.58637142
-0.35818943 -0.21151519 -0.14374542
-0.35581943 -0.14419913 -0.092549324
-0.39248642 0.11779988 -0.74601936
-0.36990342 -0.082376122 -0.26713943
-0.39474842 -0.58221412 -0.79397345
-0.37832743 -0.38254809 -0.44577742
-0.37085041 -0.29162908 -0.28722858
-0.39538541 0.07503587 -0.67269039
-0.40002742 0.11527389 -0.76933527
-0.40309742 0.14188486 -0.83325243
-0.38017842 -0.056778133 -0.35610056
-0.40152544 -0.58359218 -0.80052042
-0.37714243 -0.29266119 -0.29288864
-0.39555743 0.010478854 -0.54621935
-0.38390443 -0.088320136 -0.30796337
-0.39085343 -0.029413104 -0.45004034
-0.39122543 -0.38482416 -0.45765066
-0.37666944 -0.21434808 -0.16003323
-0.41961941 -0.71735716 -1.0382066
-0.40290242 0.0076848865 -0.56827259
-0.40632641 0.036094844 -0.6370635
-0.38975844 -0.29473412 -0.30424356
-0.41380242 0.033344865 -0.65969229
-0.41795543 0.067069888 -0.74168062
-0.42294642 0.10759288 -0.84019423
-0.39397341 -0.12766218 -0.26826525
-0.42132244 0.030577898 -0.68245745
-0.42557442 0.064379871 -0.76496744
-0.41268343 -0.038106143 -0.5148015
-0.39698541 -0.16289008 -0.21019363
-0.43275043 -0.0036771297 -0.65788126
-0.44631341 0.09975785 -0.91242933
-0.41965944 -0.1035111 -0.41219854
-0.42746341 -0.043996155 -0.55865335
-0.44246042 -0.59194815 -0.84012222
-0.43159142 -0.4754411 -0.63614464
-0.41103444 -0.16927409 -0.25033045
-0.45489043 -0.72518909 -1.0734005
-0.42244643 -0.14018917 -0.35042524
-0.43020043 -0.39173412 -0.49358749
-0.41391641 -0.22008908 -0.19291639
-0.46198541 -0.72677112 -1.0804896
-0.42967543 -0.14337015 -0.37128162
-0.45621043 -0.59476912 -0.85344839
-0.44569442 -0.083773136 -0.54872942
-0.44998443 -0.052976131 -0.62546349
-0.46310443 -0.59618509 -0.86013365
-0.42643043 -0.22205818 -0.20416737
-0.47622043 -0.72995019 -1.0947232
-0.47819641 0.089058876 -1.0109782
-0.44426143 -0.14979315 -0.4133606
-0.45320141 -0.086870134 -0.57079649
-0.45834443 -0.48051512 -0.66137123
-0.48335743 -0.73154616 -1.1018643
-0.48031643 0.045035839 -0.93224955
-0.45162141 -0.15303409 -0.43459034
-0.47693244 -0.59903312 -0.87355328
-0.44708744 -0.30421913 -0.35595322
-0.44690543 -0.18558514 -0.35279322
-0.48834243 0.042197883 -0.95677233
-0.46403643 -0.12238514 -0.54152632
-0.46835741 -0.093122125 -0.61534262
-0.48386541 -0.60046208 -0.88028622
-0.45351341 -0.30528915 -0.36176062
-0.45503244 -0.23562014 -0.28475332
-0.49477541 -0.027313113 -0.84403658
-0.47920144 -0.12883818 -0.58569956
-0.49777544 -0.60333717 -0.89380121
-0.47621241 -0.39995813 -0.53612328
-0.48152342 -0.16621017 -0.52083254
-0.49206743 -0.48694611 -0.6932292
-0.48283342 -0.40114713 -0.54225349
-0.47639641 -0.19900715 -0.43701029
-0.51078838 -0.033420146 -0.89208651
-0.48911443 -0.16955614 -0.54272556
-0.48388243 -0.20241511 -0.45838451
-0.51218039 -0.077801108 -0.80992126
-0.51874042 -0.60768211 -0.91419744
-0.51217943 -0.17972815 -0.60922861
-0.50944239 -0.40594018 -0.56691456
-0.49882841 -0.31286812 -0.40277147
-0.50662243 -0.21277308 -0.52330542
-0.51996243 -0.18316019 -0.63166142
-0.51612538 -0.40714717 -0.5731163
-0.51429641 -0.21627009 -0.54521227
-0.55692244 -0.019407153 -1.0927563
-0.52779639 -0.18661714 -0.65424442
-0.5118804 -0.31506312 -0.41460323
-0.55395645 -0.61501515 -0.94851065
-0.53982043 -0.49611914 -0.73845339
-0.52953041 -0.40957308 -0.58555937
-0.52197844 -0.26740718 -0.47332764
-0.54986745 -0.15894616 -0.79153156
-0.57700342 -0.058700144 -1.0907226
-0.58248144 -0.028846145 -1.1700583
-0.56347644 -0.13241816 -0.89482021
-0.5693084 -0.1006341 -0.97928429
-0.5535804 -0.49877608 -0.75151062
-0.54548138 -0.23048711 -0.63421965
-0.55963939 -0.2006731 -0.74602842
-0.57525241 -0.61947215 -0.96929932
-0.54973143 -0.41324115 -0.60432959
-0.5998134 -0.035250127 -1.2224736
-0.56773043 -0.20424616 -0.76934767
-0.55294442 -0.28212917 -0.5605216
-0.58261442 -0.17291415 -0.8868804
-0.5884394 -0.14274514 -0.96813822
-0.58952242 -0.62246609 -0.98324156
-0.5530684 -0.32594812 -0.47469664
-0.58126342 -0.50414109 -0.77780867
-0.5687204 -0.28963208 -0.60493135
-0.62023145 -0.075223148 -1.2203627
-0.62625843 -0.04502511 -1.3024392
-0.61176944 -0.11762416 -1.1051273
-0.60774344 -0.18364012 -0.96003532
-0.59376842 -0.25251818 -0.77198553
-0.59276342 -0.30107307 -0.67260742
-0.62544543 -0.63003612 -1.0183954
-0.59731841 -0.42193007 -0.64863443
-0.60087943 -0.30493712 -0.69544935
-0.62585044 -0.22993314 -0.93681431
-0.6333794 -0.19458818 -1.0346537
-0.63267344 -0.63156414 -1.0254774
-0.60416842 -0.42318714 -0.65502167
-0.61862344 -0.26386714 -0.84288025
-0.63991541 -0.63309717 -1.0325775
-0.65075845 -0.20201409 -1.0852356
-0.65750343 -0.17134416 -1.1709275
-0.66465741 -0.13880718 -1.2618365
-0.66028839 -0.24516809 -1.0360165
-0.6617344 -0.63772714 -1.0539832
-0.63170242 -0.42825317 -0.68072224
-0.66904241 -0.24904215 -1.0612273
-0.68622744 -0.21717608 -1.1884456
-0.65851843 -0.51924407 -0.8514204
-0.66982043 -0.28726518 -0.98888445
-0.69524944 -0.22103417 -1.2146955
-0.66773242 -0.33678615 -0.88354254
-0.67855543 -0.29125917 -1.0137882
-0.65945143 -0.43338215 -0.70666027
-0.68499744 -0.34501815 -0.93210554
-0.69419944 -0.5262841 -0.88552761
-0.70137841 -0.52770507 -0.8923955
-0.71133143 -0.35758018 -1.0061655
-0.72311145 -0.31164515 -1.1408086
-0.70857143 -0.52913117 -0.89928246
-0.69799441 -0.44723511 -0.77958965
-0.72706342 -0.41192818 -0.95817232
-0.72392344 -0.46056116 -0.85063124
-0.73267943 -0.46506214 -0.87461853
-0.74491143 -0.42076516 -1.0077314
-0.75392342 -0.42522812 -1.0327535
-0.76665241 -0.54070008 -0.95498848
-0.7682904 -0.4833771 -0.97215366
-0.78132242 -0.54363918 -0.96908522
-0.80344242 -0.54808211 -0.99036455
