# .PCD v0.7 - Point Cloud Data file format
VERSION 0.7
FIELDS x y z
SIZE 4 4 4
TYPE F F F
COUNT 1 1 1
WIDTH 1
HEIGHT 1024
VIEWPOINT 0 0 0 1 0 0 0
POINTS 1024
DATA ascii
0.76208776 0.4110868 0.21415806
0.7741518 0.15534377 0.066504955
0.75218576 0.4100858 0.19996786
0.74899578 0.076411784 0.027915955
0.74619979 0.15406781 0.051892757
0.74023378 0.4795458 0.10306501
0.7387318 0.15565783 0.065092087
0.75237077 0.34709281 -0.052792072
0.73415279 0.11432081 0.053346157
0.72258681 0.2856918 0.15408278
0.73216277 0.19771582 0.018706799
0.72791076 0.23210979 0.056027889
0.7407468 0.31599277 -0.056628227
0.72468978 0.47843081 0.084296703
0.72188878 0.11489981 0.056817055
0.70708281 0.33780283 0.18778372
0.70673478 0.36784577 0.19086504
0.71578079 0.4460018 0.1108427
0.7172488 0.20071781 0.045309067
0.7016598 0.33754879 0.18428898
0.7096408 0.11547482 0.060282707
0.7150948 0.22770679 0.011276722
0.69980377 0.078835785 0.041897774
0.69465679 0.15891081 0.08890295
0.70327681 0.024823785 0.010192871
0.6905818 0.33254379 0.12610769
0.7031458 0.5168708 0.011389732
0.68684781 0.33085579 0.10649395
0.67512476 0.37010181 0.21440697
0.68535477 0.4045288 0.12023401
0.68746376 -0.016534209 -0.0093502998
0.66320276 0.37048179 0.21767473
0.68284976 0.4754158 0.03383112
0.66725081 0.2097528 0.12492895
0.67757976 0.4750348 0.027476788
0.66427779 0.16024578 0.097446918
0.66362679 0.23766983 0.10364389
0.68477476 0.58953881 -0.097570896
0.67230076 0.4746528 0.021112919
0.6794048 0.58924979 -0.10415792
0.66171879 0.4432078 0.065534115
0.64914376 0.21049178 0.1299901
0.65821177 0.35588181 0.042240143
0.65513581 0.44371581 0.072010994
0.6420148 0.2418468 0.14243889
0.64889681 0.27894878 0.075269699
0.65412676 0.02735281 0.024227142
0.66863579 0.5886668 -0.11738396
0.65433979 0.35423779 0.022142887
0.65640879 0.47350079 0.001953125
0.64259279 0.1185798 0.079228878
0.64005077 0.16129982 0.10425186
0.6370948 0.21097982 0.13335514
0.63273877 0.40927678 0.17624187
0.6420148 0.44472581 0.08491993
0.6498878 0.47390381 0.0074100494
0.63446277 0.28157878 0.10140705
0.64437181 -0.014227211 0.0029997826
0.65445977 0.5558548 -0.097184181
0.62796181 0.16182178 0.10764694
0.63964278 0.35172981 -0.0093741417
0.6570648 0.63265383 -0.1839242
0.6190508 0.21170777 0.13839197
0.61720479 0.24358881 0.15705299
0.63209778 -0.01357621 0.0065169334
0.65160578 0.63239682 -0.19066906
0.62985981 0.4754658 0.029137135
0.6392808 0.51265776 -0.066092014
0.61589181 0.16234082 0.11103487
0.6130448 0.21194881 0.14006901
0.63824779 0.55489081 -0.11697626
0.62506878 0.3540898 0.017438889
0.6070528 0.41140079 0.20118189
0.6159358 0.44672981 0.11058712
0.61228681 0.11995679 0.087777138
0.6059438 0.28677177 0.15305901
0.61744577 0.029209793 0.03467989
0.63282579 0.55456781 -0.12359524
0.60383779 0.1628558 0.11441708
0.59925181 0.24427581 0.16204405
0.59888577 0.28805578 0.1658411
0.61372077 -0.012608171 0.011776924
0.61134779 0.029515803 0.036416054
0.6061148 0.33019882 0.090762138
0.5950498 0.21266782 0.14508772
0.60988379 -0.053184211 -0.010393143
0.59327376 0.24450278 0.16370392
0.58792579 0.41297883 0.21976185
0.5965178 0.44821981 0.12970686
0.60362077 0.47735381 0.055254936
0.60148877 -0.011968195 0.015274048
0.63186479 0.70904082 -0.30606699
0.59709579 0.4778218 0.061751842
0.60602677 0.51483583 -0.032724857
0.58307481 0.21314281 0.1484251
0.57881778 0.29091179 0.1938858
0.59307677 0.030427814 0.041616917
0.60879278 0.55455184 -0.12620306
0.57523978 0.41402382 0.23208904
0.59058481 0.4782888 0.068234921
0.57287776 0.29112083 0.19552708
0.60208678 0.55494881 -0.11933517
0.58205676 0.36104482 0.096584797
0.57111377 0.21361578 0.15175772
0.56940681 0.24540579 0.17033386
0.5669418 0.29132879 0.19716692
0.58317381 -0.011014223 0.020508766
0.5707798 0.33618182 0.1553998
0.57498878 0.36218679 0.10959387
0.56260377 0.41506279 0.24436903
0.57760078 0.47921979 0.081164837
0.56345081 0.24562979 0.17198706
0.56100976 0.29153681 0.19880486
0.57707781 -0.010699213 0.022251129
0.57484376 0.031331778 0.046803951
0.59568781 0.58588481 -0.18223095
0.60507679 0.66195583 -0.2854023
0.55630678 0.4155798 0.2504921
0.5659548 0.08520478 0.079817772
0.58894277 0.58625078 -0.17524815
0.56467277 0.48014581 0.094043732
0.54915977 0.29195082 0.20207596
0.56489778 -0.010070205 0.025728703
0.58221281 0.5866158 -0.16827726
0.59390378 0.66148376 -0.29926729
0.54724377 0.21455181 0.15840673
0.56343079 -0.099238157 -0.024769306
0.56091779 -0.050535202 0.0036621094
0.54560578 0.24629778 0.17693806
0.55664879 0.032227814 0.051974773
0.57549781 0.58697879 -0.16132307
0.58830178 0.66124582 -0.30621815
0.55179781 0.48106679 0.10687304
0.55117679 -0.0985502 -0.02123785
0.53372681 0.2467398 0.18023396
0.54453778 0.032820821 0.055415154
0.5621078 0.58770382 -0.14745188
0.53317976 0.36893177 0.18654776
0.53581476 0.086592793 0.088329792
0.53397179 0.12343878 0.10982275
0.53258276 0.4824388 0.12602091
0.52620578 0.48289379 0.13237715
0.51990581 0.16637683 0.13792515
0.51593876 0.24739683 0.18516588
0.5136978 0.29317778 0.21185875
0.51119679 0.34423977 0.24163294
0.51264876 0.37223983 0.22434807
0.5137468 0.4545348 0.21127176
0.53519076 -0.14580524 -0.044102192
0.52239478 -0.0079011917 0.037853718
0.52036577 0.033993781 0.062277794
0.54432076 0.63133681 -0.22601223
0.55062878 0.66152281 -0.30193329
0.50747079 0.45501179 0.21746206
0.50797981 0.16686779 0.14125872
0.5056178 0.2161628 0.16998816
0.52061677 -0.096850157 -0.012441158
0.52271777 0.55963278 -0.038002014
0.53759378 0.63165283 -0.21893501
0.52292776 -0.14509416 -0.040557861
0.50403076 0.12473983 0.11823511
0.51451677 -0.096514225 -0.010685921
0.49601981 0.29378277 0.21673203
0.52228481 0.58985376 -0.1061883
0.53088081 0.6319688 -0.21187305
0.49745384 0.41199982 0.19910288
0.49606982 0.16735482 0.14458799
0.5018698 0.52164781 0.072495937
0.48783579 0.21684182 0.17493105
0.48779681 0.088767827 0.10187006
0.48417279 0.16783983 0.14791203
0.48909184 0.52247882 0.08541584
0.47823182 0.16807979 0.14957094
0.47456983 0.24890679 0.1966238
0.51000881 0.66323179 -0.25874996
0.46867481 0.24911982 0.19825411
0.47821882 0.036012828 0.074224949
0.46434984 0.34570283 0.25446701
0.50328976 0.66351378 -0.25160503
0.4627828 0.24933279 0.19988489
0.4577108 0.4587808 0.26656199
0.46388182 0.089835823 0.10860491
0.45689583 0.24954379 0.20151377
0.46803781 -0.0051832199 0.053328991
0.45052281 0.41902578 0.28626299
0.46021381 0.036863804 0.079321861
0.46996883 0.59266484 -0.051956177
0.45600182 -0.0045892 0.056748867
0.44101381 0.34642082 0.26085377
0.43969581 0.37727582 0.27879477
0.43925682 0.46017379 0.28478193
0.44598681 0.090626776 0.11363983
0.44443983 0.12728179 0.13495016
0.44999081 -0.0042942166 0.058457851
0.4517048 0.56379282 0.034834862
0.4351888 0.3465988 0.26244688
0.43388781 0.37744379 0.28037786
0.4645398 0.63507676 -0.14206696
0.43312982 0.4606348 0.29083395
0.43850282 0.52575779 0.13658905
0.42881081 0.21905982 0.1913147
0.4396418 -0.044197202 0.038342953
0.42228082 0.37777781 0.28354311
0.44360781 -0.1405772 -0.017662048
0.42492282 0.17021477 0.16444397
0.41979882 0.29633677 0.23771191
0.43197581 -0.0034142137 0.063575745
0.41773582 0.34712982 0.26722097
0.44491082 0.63599277 -0.12140512
0.4197368 0.49044281 0.23860502
0.41192582 0.34730577 0.2688098
0.41311783 0.17068082 0.16773272
0.4111768 0.21971178 0.19620371
0.41833782 0.038818777 0.091164112
0.42490882 0.59507382 -0.0052170753
0.4102948 0.092186809 0.12367201
0.40886581 0.1287688 0.14490986
0.40721881 0.1709128 0.1693759
0.4040738 0.25141782 0.21611404
0.4254058 0.63690078 -0.10086727
0.40132281 0.49173981 0.25699282
0.3994368 0.22014278 0.19945574
0.40801081 -0.0022531748 0.070374966
0.41893181 0.63720179 -0.094050884
0.39520982 0.4921698 0.26309776
0.4158248 -0.20494115 -0.047270298
0.39703882 0.1292578 0.14821815
0.40540183 -0.090633154 0.020618916
0.39064783 0.29729182 0.24572515
0.4004468 0.039642811 0.096215725
0.41724482 0.66710979 -0.1600771
0.38910881 0.49259779 0.26919413
0.4072248 -0.13855624 -0.0071902275
0.38955081 0.17160279 0.17429495
0.39937681 -0.090316176 0.022344112
0.3817718 0.37893182 0.29457808
0.40602481 0.63780177 -0.080458164
0.40365082 -0.20422924 -0.043744087
0.38657582 0.093209803 0.13033199
0.39156982 -0.041774213 0.052039146
0.39311782 0.59676683 0.027770042
0.37713581 0.34834778 0.27831697
0.39512581 -0.13789117 -0.0037112236
0.37319881 0.29785681 0.25051689
0.3825888 0.040458798 0.10125589
0.38679981 0.59710276 0.034327984
0.37134981 0.3485198 0.27989483
0.39772382 0.66792083 -0.13930225
0.40442881 0.71138978 -0.24587727
0.37262583 0.49203679 0.25962305
0.37473881 0.093715787 0.13365173
0.37959081 -0.041178226 0.055448055
0.38541681 -0.20316815 -0.038468838
0.37531382 -0.089060187 0.029223919
0.38477883 0.66845882 -0.12552309
0.3620038 0.49123681 0.24684906
0.37700981 -0.13690221 0.0014929771
0.36291581 0.094218791 0.13696671
0.36017281 0.1727398 0.18246889
0.36930782 -0.08874917 0.030940056
0.36476582 0.041265786 0.10628176
0.3636218 0.56891084 0.12526798
0.35294181 0.37973982 0.302423
0.37328082 -0.2024672 -0.034958839
0.3526248 0.22183782 0.21241379
0.34998283 0.29860181 0.25688791
0.36721781 -0.20211923 -0.033207893
0.34986982 0.13118178 0.16139793
0.34572482 0.2534368 0.23221016
0.34418783 0.29878581 0.25847816
0.3484838 0.52900183 0.18509007
0.3367078 0.3495388 0.28935099
0.35492682 0.64016676 -0.026625156
0.33811483 0.1316548 0.16467905
0.3340978 0.25383282 0.23541594
0.34023181 0.5690968 0.12739897
0.34292981 0.59942877 0.079874992
0.33094582 0.34970683 0.29092216
0.33334181 0.45809981 0.24872398
0.3490538 -0.2010802 -0.027963161
0.33224082 0.13189077 0.16631794
0.3268218 0.29933679 0.26324081
0.33647183 0.0011367798 0.090633869
0.32565582 0.41949183 0.28409481
0.32989681 0.48881179 0.20824385
0.34500682 -0.26259816 -0.06202507
0.32753181 0.095708787 0.1468811
0.32503581 0.17407882 0.19223404
0.32348183 0.22287482 0.22047186
0.33181581 -0.038834214 0.069021702
0.3268688 0.52751279 0.15892982
0.32164681 0.095953822 0.14852905
0.31526282 0.2997008 0.26640892
0.31274882 0.38080382 0.31281805
0.31866983 0.0019637942 0.095665932
0.31739381 0.04338181 0.11962509
0.30743381 0.38030177 0.30654573
0.32341683 0.6416198 0.0065851212
0.3289088 -0.33024621 -0.096497059
0.30371681 0.30006182 0.26957178
0.31148881 0.043641806 0.12128496
0.30428681 0.41761482 0.25870991
0.32630581 0.71406877 -0.1614399
0.30829182 0.4871738 0.18227577
0.31055081 0.5263868 0.13918591
0.3228088 -0.32986319 -0.094716072
0.3002288 0.22369182 0.2268939
0.3055858 0.043901801 0.12294388
0.29442382 0.22389477 0.22849607
0.29742682 0.48634779 0.16921806
0.2922748 0.09716779 0.15674496
0.28642181 0.30059981 0.27430916
0.29639482 0.56637979 0.073989868
0.29020482 -0.036835194 0.080821037
0.28790182 0.044674814 0.12791491
0.29086781 0.56603682 0.067259789
0.27926981 0.35113782 0.30439997
0.29490182 0.64077377 -0.015213966
0.29655781 0.67145479 -0.049072266
0.28698882 0.5969668 0.025964737
0.2892988 0.64049876 -0.02212429
0.29235882 -0.32796717 -0.08583498
0.29045582 -0.25936925 -0.046210289
0.28141382 0.59664977 0.019137859
0.2699458 0.37675178 0.26231384
0.26675081 0.17625183 0.20840406
0.2713508 0.0041278005 0.10901976
0.26650381 -0.035713196 0.08753109
0.26458582 0.48384479 0.12975597
0.25192282 0.30165881 0.28375006
0.2595568 0.0046588182 0.11234474
0.26678181 0.63938779 -0.049889088
0.25907582 0.4834238 0.123137
0.26102883 0.52295184 0.079285145
0.2473198 0.2567178 0.25928879
0.26200283 -0.32610321 -0.07699728
0.26027682 -0.25761724 -0.037479877
0.24156179 0.25690579 0.26087093
0.24675579 0.04644978 0.13946581
0.2590588 0.71456778 -0.14806223
0.25745681 -0.38708615 -0.11062622
0.25425282 -0.25727117 -0.035738945
0.25273281 -0.19571316 -0.00022697449
0.23962079 0.099302828 0.17145014
0.23874481 0.13554978 0.19235516
0.23580681 0.25709182 0.2624507
0.25121883 0.66945881 -0.10526228
0.2424808 0.4821538 0.10320187
0.2443298 0.52178776 0.059091091
0.23378779 0.099535823 0.17307615
0.22917281 0.047196805 0.14439774
0.23500381 0.56254876 -0.00077009201
0.22820981 0.41088682 0.16838789
0.24178581 0.71393979 -0.16962385
0.24326979 0.74707079 -0.20657825
0.22212879 0.099999785 0.17632771
0.2262408 -0.081581235 0.071676731
0.22425179 0.0062327981 0.12228584
0.2257898 0.48087379 0.083156109
0.22753279 0.5206148 0.038783073
0.23173679 -0.32427216 -0.068199158
0.23018779 -0.25589621 -0.028789997
0.22879581 -0.19441617 0.0066437721
0.2155038 0.13643378 0.19881201
0.2128168 0.25783181 0.26876211
0.21552981 0.37156677 0.19814873
0.23021279 0.71351779 -0.1840682
0.22020479 0.48044479 0.076448917
0.22569381 -0.32390916 -0.066444874
0.2228208 -0.19409525 0.0083580017
0.22137381 -0.12873721 0.046018124
0.2097028 0.13665283 0.20042372
0.21251179 0.0067498088 0.12558794
0.21162181 0.047936797 0.14931488
0.20302381 0.1785568 0.22604084
0.2066468 0.007006824 0.12723684
0.21491279 -0.3844012 -0.09819603
0.2136208 -0.32318819 -0.062941074
0.2121778 -0.25487721 -0.02359724
0.2108808 -0.19345617 0.011780739
0.1972488 0.17876279 0.22763777
0.1956078 0.25837982 0.27348471
0.1961678 0.29939181 0.25782394
0.20970181 0.6365568 -0.12026024
0.2075868 -0.32282925 -0.061190128
0.20491379 -0.19313824 0.013491154
0.20515279 0.66741884 -0.16234016
0.2001868 -0.25420415 -0.020140171
0.19895279 -0.19282222 0.015197754
0.18476181 0.22761482 0.25870895
0.1882638 0.048910797 0.15585375
0.19524381 0.56005079 -0.049169064
0.1993418 0.66716081 -0.16953707
0.1797388 0.29761481 0.23869896
0.18137079 0.34134179 0.18950796
0.1823798 0.36838979 0.15908098
0.1923558 0.63569283 -0.14163923
0.1935208 0.66690183 -0.17675114
0.1838178 0.40692979 0.11572075
0.1749578 0.13795179 0.21006393
0.1782198 0.40642881 0.10908079
0.1822578 0.5174408 -0.015944004
0.1846298 -0.38252318 -0.089369297
0.1715218 0.0085318089 0.13710403
0.1780338 0.5589658 -0.070114136
0.1791618 0.59079683 -0.1060009
0.17654879 0.51703978 -0.022842884
0.1800448 -0.46300316 -0.13410902
0.1751388 -0.19156623 0.022014141
0.1640368 0.10226983 0.19250298
0.1733738 0.5904628 -0.11308193
0.1647248 0.3396638 0.16998816
0.1576848 0.29522377 0.21303272
0.1701138 0.66585881 -0.20574617
0.1613628 0.40491879 0.089090824
0.16509581 0.51623279 -0.036683083
0.1621408 -0.12578726 0.06287384
0.16176181 0.58979279 -0.12728405
0.1594568 -0.32000518 -0.047250271
0.1466708 0.10293579 0.19733095
0.1495748 -0.077940226 0.093389988
0.15492681 0.55750579 -0.098230839
0.1583378 0.66533381 -0.22033119
0.15359581 0.51542181 -0.050577164
0.1544338 -0.38067818 -0.080581188
0.1523618 -0.25156021 -0.0063810349
0.1524318 0.66506982 -0.22764587
0.1496608 -0.46103823 -0.12520695
0.14840581 -0.38031316 -0.078829288
0.13546079 0.29280782 0.18717813
0.1358978 0.051052809 0.17048883
0.1395188 -0.18971515 0.032195091
0.13853981 -0.12463617 0.069574833
0.1312708 -0.029560208 0.12568092
0.12987781 0.29219979 0.18068409
0.13626181 0.51419783 -0.071518898
0.1375308 -0.46026218 -0.12165689
0.1363588 -0.37958717 -0.075330257
0.13547181 -0.31862319 -0.040318012
0.1254288 -0.029303193 0.12732506
0.1242948 0.051518798 0.17372799
0.12767079 -0.18910825 0.035574913
0.1173038 0.14005482 0.22603083
0.11764181 0.25229681 0.21169901
0.11986379 0.33512282 0.11740112
0.1216408 0.40134782 0.041998863
0.1208728 -0.12378418 0.074586868
0.1143758 -0.076316178 0.103333
0.1130648 0.29036582 0.16112995
0.1219058 0.63216281 -0.22844791
0.1166328 -0.24962616 0.0038738251
0.10626081 0.10446179 0.20855188
0.1052908 0.18194979 0.25301313
0.1064738 0.25100279 0.19879913
0.10024381 0.2239908 0.22244406
0.10209879 -0.028288186 0.13388014
0.1008738 0.25035381 0.19232988
0.10162079 0.011484802 0.15669394
0.1011288 0.052441776 0.1801877
0.10286079 0.33339483 0.097476959
0.10539579 0.43934181 -0.023547173
0.1055668 -0.31692421 -0.031688213
0.094327807 0.1408748 0.23238373
0.10299081 0.5863868 -0.19916391
0.1012768 0.51171881 -0.11377621
0.099593803 -0.31658721 -0.029964924
0.088987797 0.10510379 0.2133441
0.088591799 0.14107877 0.23396873
0.096338794 0.55378377 -0.16950321
0.093801796 0.43837279 -0.037379265
0.085756809 0.33165282 0.077437878
0.086332798 0.35910678 0.045973778
0.078363806 0.24773878 0.16633892
0.082810804 0.46979681 -0.088433266
0.083625808 0.51046383 -0.13509226
0.082308799 -0.37638521 -0.059657097
0.073452801 -0.074466228 0.11487103
0.067619801 -0.07420522 0.11651373
0.066835806 0.01291281 0.16641903
0.069755808 0.39665782 -0.019482136
0.069785804 -0.31492519 -0.021381855
0.060258802 0.10615778 0.22130394
0.061789807 -0.073946178 0.11815596
0.067147806 0.58429879 -0.24298811
0.065864801 0.50919878 -0.15653706
0.055583801 -0.026300192 0.14692879
0.055677805 0.24509579 0.14015293
0.056306805 0.28414679 0.095150948
0.056338806 -0.12073815 0.092854977
0.048964802 0.1772868 0.21103477
0.049577806 0.21786481 0.16422415
0.050137807 -0.073430181 0.12143373
0.053347807 0.46748981 -0.12376308
0.043056805 0.10678178 0.22606611
0.043318804 0.17656177 0.20459604
0.043891806 0.21717483 0.15769386
0.047417801 0.46702379 -0.13087416
0.046420801 -0.37430918 -0.049279213
0.037663806 0.17583579 0.19814777
0.038496803 -0.072917223 0.1247077
0.040525805 0.39400178 -0.054102898
0.041049805 0.4339478 -0.10028887
0.040057804 -0.31329322 -0.012835979
0.039222803 -0.18468821 0.060752869
0.0388018 -0.11992824 0.097808838
0.031603802 0.10719281 0.22923374
0.032681804 -0.072663188 0.12634182
0.032813806 0.24242479 0.11377096
0.034165803 0.35401881 -0.015405178
0.025881801 0.10739779 0.23081493
0.026167806 0.055349827 0.2010479
0.030493807 0.54956979 -0.24956417
0.028750803 0.39292979 -0.068046093
0.027482804 -0.1841172 0.06408596
0.021043804 0.21439779 0.13145494
0.021059804 -0.072157204 0.12960815
0.020626802 0.014768779 0.17931414
0.020422805 0.055567801 0.20264292
0.015545804 0.24040282 0.093850136
0.014678802 0.055785775 0.20423889
0.016329803 -0.31201017 -0.006026268
0.015462805 -0.11886322 0.10439491
0.009448804 -0.071654201 0.13286972
0.0091018043 0.015224814 0.18252611
0.0032028034 0.056216776 0.20742512
0.0053428039 0.43093681 -0.14285612
0.0055758022 0.46373281 -0.18102884
-0.0024091974 0.015675783 0.18573189
-0.000575196 -0.59741426 -0.16453409
-0.0064921957 0.46277979 -0.19548988
-0.013301196 0.27646178 0.014304161
-0.013910197 0.016124785 0.18893385
-0.013117196 0.32151282 -0.038311958
-0.012689196 -0.59662318 -0.16098022
-0.019505197 0.16846782 0.13298798
-0.019597197 -0.023195207 0.16795683
-0.019168196 -0.31012118 0.0041451454
-0.019360196 -0.18187726 0.077363014
-0.025415197 0.10374779 0.20128298
-0.025355197 0.13318479 0.16682911
-0.024752196 0.42838979 -0.17871809
-0.024934195 -0.45032918 -0.074375153
-0.025201196 -0.18160117 0.079015732
-0.025266197 -0.11703825 0.11586714
-0.024789196 -0.59583819 -0.15743399
-0.031110197 0.13240582 0.16031313
-0.030849196 0.38747978 -0.1385951
-0.030774197 0.46085981 -0.22458696
-0.030834196 -0.59544826 -0.15566111
-0.036878195 0.31905878 -0.066107273
-0.036878195 0.38692677 -0.14572906
-0.048600197 0.20588583 0.051531792
-0.048737198 0.27252477 -0.026825905
-0.048969194 0.3858158 -0.16003704
-0.049120195 0.45940581 -0.24656487
-0.048728198 -0.36899924 -0.021875858
-0.054911196 0.34525979 -0.12012529
-0.054559194 -0.30827618 0.014263153
-0.054368198 -0.18024123 0.087263107
-0.060833197 0.31657779 -0.094122887
-0.061113194 0.38469881 -0.17440414
-0.060728196 -0.44825721 -0.064023972
-0.065524198 0.018099785 0.20328093
-0.067203194 0.38413781 -0.18160725
-0.066016197 -0.17970514 0.0905509
-0.0715352 0.09725678 0.1493578
-0.073557198 0.4242408 -0.23686028
-0.077264197 -0.068005204 0.15716171
-0.077100195 -0.020910203 0.18398905
-0.0785992 0.26919478 -0.061470032
-0.079715192 0.4237158 -0.24419308
-0.082678199 0.018743813 0.20804596
-0.083972201 -0.30677223 0.02265501
-0.085410193 -0.66833019 -0.18326616
-0.083464198 -0.17890716 0.095477104
-0.090006195 0.20079279 0.0040521622
-0.088568196 -0.020464182 0.18718004
-0.091692194 0.38187879 -0.2105732
-0.090474196 -0.44656825 -0.055440903
-0.095540196 0.15859181 0.046415806
-0.094298199 -0.020242214 0.18877506
-0.097137198 0.31280482 -0.13656521
-0.097846195 0.38130981 -0.21785021
-0.097134195 -0.59125519 -0.13628531
-0.10073319 0.093129814 0.11650705
-0.1027102 0.2664988 -0.089434147
-0.099881202 0.018349826 0.2053318
-0.10323119 0.3121708 -0.1436882
-0.10355319 0.34043878 -0.17726803
-0.1023512 -0.44590116 -0.052018166
-0.10356019 -0.66714525 -0.17793989
-0.1005362 -0.11377823 0.13700771
-0.1066082 0.092297792 0.1099
-0.1098962 -0.71592224 -0.20414591
-0.10630719 -0.11353421 0.1386261
-0.1163872 0.3795948 -0.23977423
-0.1169402 0.42053479 -0.28851891
-0.1147812 -0.53240216 -0.098187923
-0.1193382 0.15548378 0.019341946
-0.1203412 0.22434777 -0.062745094
-0.1209252 0.26445681 -0.11055326
-0.12159219 0.31025583 -0.16514492
-0.12200519 0.33860278 -0.19893408
-0.1263942 0.22362679 -0.069714069
-0.12364019 0.047333777 0.14065981
-0.12408219 -0.17708516 0.10691977
-0.12360319 -0.11280918 0.14346981
-0.1289722 0.013851821 0.17305279
-0.1295162 0.046456814 0.13410187
-0.1319962 -0.44425917 -0.043486118
-0.1303532 -0.23724425 0.074203968
-0.13414019 -0.71431625 -0.19702005
-0.1326872 -0.53135026 -0.092999935
-0.1361592 0.088103771 0.076669693
-0.13472719 -0.065690219 0.17320299
-0.1354042 0.045576811 0.12753201
-0.13724519 -0.3643142 0.003469944
-0.1367372 -0.30413818 0.037672997
-0.1426692 0.11720181 0.034130096
-0.1401062 -0.019095182 0.19733095
-0.14463019 0.22145277 -0.090704918
-0.14755119 0.3767038 -0.27661419
-0.14312519 -0.36401224 0.005147934
-0.1414492 -0.17631924 0.11180592
-0.1465672 0.011123776 0.1535387
-0.1538232 0.37612081 -0.28402901
-0.1497502 -0.44329023 -0.038385868
-0.1518302 -0.66405523 -0.16381311
-0.14723219 -0.17606616 0.11343193
-0.1531412 0.042924821 0.10774803
-0.1586602 0.30637783 -0.20845127
-0.16010919 0.37553579 -0.29145813
-0.1530132 -0.17581415 0.11505604
-0.16067719 0.11472982 0.013783932
-0.15763819 -0.064790189 0.17958403
-0.15835519 0.0092937946 0.14046907
-0.1590762 0.042035818 0.1011281
-0.16386721 -0.6632992 -0.16029692
-0.1660122 0.083853781 0.043118954
-0.1675202 0.1491648 -0.035448074
-0.1642682 0.0083748102 0.13391304
-0.1762542 0.25822979 -0.17467785
-0.17098419 0.040250778 0.08784914
-0.17338219 -0.44201517 -0.031605244
-0.1764542 -0.71156919 -0.18461418
-0.17437319 -0.52894723 -0.080951214
-0.1780372 0.082137823 0.029608727
-0.1747952 -0.06412518 0.18436003
-0.1753372 -0.024757206 0.15849209
-0.18363421 0.30375677 -0.23761702
-0.1843572 0.33237481 -0.27212524
-0.1792832 -0.44170117 -0.029916286
-0.18579219 0.14675981 -0.05621624
-0.1899102 0.30309778 -0.24494505
-0.1851822 -0.44138718 -0.028223991
-0.1841982 -0.36193025 0.016857147
-0.1901112 0.080411792 0.01604414
-0.1862192 -0.063685179 0.18754196
-0.18803421 0.0046747923 0.10757399
-0.18928219 -0.30160022 0.05257988
-0.19219521 -0.52793825 -0.075810909
-0.1961682 0.079545796 0.0092420578
-0.19311219 -0.027622223 0.138906
-0.1959102 -0.3613472 0.020189762
-0.2017622 -0.79917717 -0.22811604
-0.1942132 -0.23432815 0.092224121
-0.1981322 -0.52760422 -0.074099064
-0.2031312 0.1088838 -0.034162045
-0.1990612 -0.028582215 0.13235283
-0.2062452 0.21407378 -0.16159201
-0.1999902 0.0028098226 0.094326973
-0.20093019 -0.30104923 0.055878162
-0.1982792 -0.10976517 0.16433382
-0.20831721 0.077805817 -0.0044031143
-0.2038932 -0.066321194 0.17038584
-0.21247721 0.21332479 -0.16875887
-0.21372619 0.25399178 -0.21808195
-0.2059862 0.0018727779 0.087684155
-0.2069982 0.034838796 0.047708035
-0.2126112 -0.70927823 -0.17404509
-0.22001719 0.25327879 -0.22536707
-0.2134562 -0.36048019 0.025179863
-0.21930119 -0.36019421 0.026839733
-0.2154512 -0.10908616 0.16912079
-0.22297721 -0.032448173 0.10601282
-0.2342252 0.29842681 -0.29667711
-0.23276719 0.074298799 -0.031849861
-0.23508219 0.14024878 -0.11221027
-0.2289862 -0.033421218 0.099396706
-0.2336892 -0.52563322 -0.063867092
-0.24283519 0.1817928 -0.17095804
-0.2336712 -0.071326196 0.137815
-0.2368172 -0.35934317 0.031811714
-0.23581021 -0.29942322 0.065740108
-0.2426662 -0.70741224 -0.16528225
-0.2336752 -0.1723932 0.13766909
-0.2462022 0.10292482 -0.082777023
-0.25020719 -0.79600024 -0.21389389
-0.2394172 -0.17215717 0.13927507
-0.2512382 0.071643829 -0.052582264
-0.2456672 -0.073346198 0.12470007
-0.24957719 0.028412819 0.00027799606
-0.2484822 -0.35878122 0.03512001
-0.2474172 -0.29889119 0.069016933
-0.25245419 -0.58206224 -0.091256142
-0.2600382 0.13693982 -0.14054585
-0.25314718 -0.037339211 0.072802067
-0.2557582 -0.43772221 -0.0080561638
-0.25321621 -0.29862618 0.070653915
-0.25199521 -0.23179221 0.10847187
-0.25089619 -0.17168617 0.14248371
-0.26050419 -0.0066661835 0.027322769
-0.26833019 -0.79483724 -0.20858908
-0.2643252 -0.58139622 -0.087834835
-0.27553719 0.20571882 -0.24124718
-0.26662418 -0.0076282024 0.020549774
-0.27436519 -0.79445219 -0.20682192
-0.26480719 -0.29810023 0.073923111
-0.26236418 -0.17122126 0.14568615
-0.2760472 0.068068802 -0.080415249
-0.26980519 -0.077420235 0.0983181
-0.28191918 0.20494682 -0.24857998
-0.26928118 -0.23105323 0.11332273
-0.2776002 -0.35739923 0.043366909
-0.27638918 -0.29757917 0.077187061
-0.2836442 -0.65607524 -0.125494
-0.2742812 -0.11453915 0.13608408
-0.29153118 0.13275182 -0.17629099
-0.2850562 -0.43625116 0.00028896332
-0.28341618 -0.35712516 0.045013905
-0.29245618 -0.79330921 -0.20153713
-0.28960517 -0.65573025 -0.12377119
-0.2795482 -0.17052925 0.15048409
-0.29984617 0.17462778 -0.23615408
-0.28803819 -0.080504179 0.078398705
-0.28654519 -0.2303232 0.11815977
-0.30251518 0.0950948 -0.14629221
-0.30422118 0.13106078 -0.19068909
-0.30624917 0.17382079 -0.24347305
-0.29414019 -0.0815382 0.071732998
-0.29590619 -0.044297218 0.025765896
-0.30953318 0.24308378 -0.32897186
-0.29099217 -0.17007315 0.15367603
-0.29242417 -0.11772215 0.11639595
-0.31266719 0.17301178 -0.25080919
-0.3105242 -0.79218221 -0.19626522
-0.29952419 -0.29655015 0.08369875
-0.30855417 -0.70344925 -0.14614296
-0.29671219 -0.16984618 0.1552701
-0.31696817 0.12935978 -0.20514917
-0.31148419 0.019018829 -0.068622112
-0.3187342 -0.88853323 -0.24913597
-0.32336017 0.12850583 -0.21240091
-0.31442219 -0.047320187 0.0054078102
-0.31604418 -0.015416205 -0.034111977
-0.30953118 -0.22936523 0.12459373
-0.30820319 -0.16964722 0.15693903
-0.31762019 -0.57847118 -0.072514057
-0.31629318 -0.52122915 -0.040194035
-0.3206192 -0.048333228 -0.0014028549
-0.33346018 0.19869077 -0.30778027
-0.32402119 0.017109811 -0.082566261
-0.33618918 0.12679082 -0.22695112
-0.32484418 -0.086748242 0.038207054
-0.32262018 -0.29554021 0.090190887
-0.33243617 -0.70205617 -0.1392312
-0.32291418 -0.12308323 0.083323956
-0.32805517 -0.52062225 -0.036836147
-0.33898818 0.058958828 -0.15098619
-0.34262419 0.12592977 -0.23424625
-0.32838818 -0.29529119 0.091810703
-0.35145819 0.16810679 -0.29513311
-0.34313819 -0.65269315 -0.10832596
-0.34735319 -0.020370185 -0.068717957
-0.34925619 0.013258815 -0.11062622
-0.35032019 -0.70102823 -0.1340642
-0.34567618 -0.51972222 -0.031807899
-0.35365319 -0.021369219 -0.075680256
-0.35858718 -0.78924823 -0.18228006
-0.36636418 0.086162806 -0.21824121
-0.35586619 -0.092028141 0.0043540001
-0.3580792 -0.054469228 -0.042562008
-0.35512018 -0.4328512 0.020175934
-0.35741419 -0.5191282 -0.028461933
-0.36832318 0.01034379 -0.1318202
-0.37319219 -0.88504422 -0.23319626
-0.3705802 -0.78853118 -0.17879915
-0.35719317 -0.29405916 0.099894047
-0.3681832 -0.70001316 -0.12891006
-0.36686718 -0.65138316 -0.10150003
-0.36482519 -0.57596922 -0.058996201
-0.3683652 -0.094160199 -0.0092802048
-0.3645902 -0.35343122 0.067913055
-0.37071419 -0.57566321 -0.057311058
-0.38385019 0.052431822 -0.20124388
-0.38256019 -0.78782117 -0.17532492
-0.36869919 -0.29357421 0.10311604
-0.38091817 -0.096304178 -0.0229702
-0.37615019 -0.35292315 0.071162701
-0.39130017 -0.88391221 -0.22791195
-0.3785902 -0.13291621 0.022984028
-0.3967942 0.050542772 -0.2157383
-0.38721418 -0.097381234 -0.029835224
-0.38421318 -0.43148923 0.028403759
-0.38837019 -0.57475317 -0.052269936
-0.39790618 -0.69835424 -0.12034893
-0.40454918 -0.029459178 -0.1318922
-0.39105019 -0.23057318 0.12146187
-0.39841619 -0.51709521 -0.016798973
-0.39923918 -0.35192025 0.07765007
-0.41797617 -0.96671021 -0.26832008
-0.40977818 -0.69770122 -0.1169343
-0.42501518 0.077909827 -0.28427792
-0.41516218 -0.063863218 -0.1052351
-0.4050082 -0.35167217 0.079268932
-0.41571218 -0.6973772 -0.11523104
-0.41420919 -0.64883626 -0.087919235
-0.4118782 -0.57355917 -0.045567036
-0.42442018 -0.78538918 -0.16321611
-0.43596017 0.044814825 -0.25958109
-0.43039018 -0.78504717 -0.16149092
-0.41906717 -0.19018126 0.037909031
-0.42262217 -0.14073122 -0.024691105
-0.43443218 -0.067046225 -0.12637711
-0.43947819 -0.88097322 -0.21389389
-0.42896518 -0.14186025 -0.031555176
-0.42763618 -0.51568317 -0.0085101128
-0.44329518 -0.035645187 -0.17465496
-0.44582719 -0.0015642047 -0.21790695
-0.42805317 -0.35069323 0.08573103
-0.43782219 -0.64759815 -0.081166267
-0.44735017 -0.069183171 -0.14054823
-0.44980317 -0.036687195 -0.18183613
-0.45237818 -0.0025742054 -0.2251792
-0.43453118 -0.23900223 0.07521677
-0.43795118 -0.19370115 0.017661095
-0.44121119 -0.57209921 -0.037220955
-0.46758518 0.10910481 -0.37583399
-0.4407942 -0.24021924 0.068558693
-0.44961718 -0.64698815 -0.077795029
-0.45735517 -0.10941517 -0.10626507
-0.4635112 -0.87954617 -0.20692396
-0.46020719 -0.78336716 -0.15289402
-0.47564217 0.038989782 -0.30397606
-0.47812718 0.070397794 -0.34403229
-0.4668282 -0.072410226 -0.1619072
-0.4510662 -0.34973216 0.092174053
-0.4494772 -0.29172826 0.11777496
-0.4784852 -0.96293116 -0.25066423
-0.46262717 -0.51403415 0.001393795
-0.48534319 -0.0076681972 -0.26176214
-0.46537417 -0.42784321 0.051272869
-0.48151219 -0.87849414 -0.20171213
-0.4780702 -0.78237915 -0.14775419
-0.47491318 -0.69422019 -0.098265171
-0.46968818 -0.19963217 -0.016354084
-0.47633818 -0.5703932 -0.027248859
-0.50503922 0.066577792 -0.37429523
-0.48978618 -0.11500716 -0.14157295
-0.4929992 -0.076754212 -0.1905942
-0.4986302 -0.0097252131 -0.27650023
-0.49350119 -0.87780118 -0.198246
-0.48666617 -0.15215719 -0.0939641
-0.50541222 -1.0363503 -0.28565598
-0.48802918 -0.56983519 -0.023938179
-0.51858717 0.064651787 -0.38952303
-0.5119772 -0.011795223 -0.29130507
-0.50185722 -0.78108418 -0.14092302
-0.49532118 -0.20443416 -0.043809891
-0.51867223 -0.012833178 -0.29872799
-0.49775818 -0.2513212 0.0080480576
-0.50258118 -0.64431822 -0.06270504
-0.52937919 0.031068802 -0.36405611
-0.49976218 -0.30195618 0.064860821
-0.51032817 -0.69240117 -0.08815527
-0.51266921 -0.15681517 -0.12206793
-0.50335121 -0.5121702 0.012888908
-0.52899623 -0.049407184 -0.26915026
-0.50579721 -0.42611325 0.062614918
-0.52343422 -0.87609923 -0.1896081
-0.51056319 -0.25382519 -0.0055470467
-0.51622218 -0.69210315 -0.086474895
-0.52575618 -0.15916419 -0.13620806
-0.54977924 0.028051794 -0.38685417
-0.53935122 -0.08447516 -0.24137497
-0.5456022 -0.017018199 -0.3285861
-0.51883721 -0.30584919 0.044800758
-0.52767122 -0.21051216 -0.07844305
-0.54603022 -0.085590243 -0.24869108
-0.53389519 -0.69121826 -0.081442833
-0.53193122 -0.64288521 -0.054369926
-0.5341832 -0.21173823 -0.085412025
-0.53889924 -0.16152525 -0.15040302
-0.55586219 -0.05374223 -0.29874706
-0.5507912 -0.95863914 -0.22969294
-0.5347122 -0.56766117 -0.010737896
-0.53237718 -0.51088023 0.02105999
-0.57031524 0.025008798 -0.40979624
-0.55943322 -0.087830186 -0.26336622
-0.56261522 -0.054834187 -0.3061862
-0.56595623 -0.020188212 -0.35114527
-0.53461021 -0.42491424 0.070678711
-0.54365522 -0.64232326 -0.051045895
-0.54724824 -0.21419823 -0.099390984
-0.55209821 -0.16390026 -0.16465712
-0.55928421 -0.87411416 -0.1792922
-0.56907219 -0.12874615 -0.22780895
-0.54661524 -0.35568821 0.067408085
-0.55301023 -0.35704517 0.060743809
-0.55735123 -0.31373024 0.004327774
-0.5555622 -0.50987124 0.027575016
-0.58978224 -0.059231222 -0.33609819
-0.56918323 -0.6894902 -0.071416855
-0.56708223 -0.64121616 -0.04441309
-0.58922219 -0.13225317 -0.24970818
-0.5754202 -0.26655221 -0.074343204
-0.58016223 -0.22041118 -0.13459396
-0.59596819 -0.13342822 -0.25703716
-0.60345721 -0.061448216 -0.35115194
-0.60272819 -0.1346072 -0.26438093
-0.59514922 -0.27043819 -0.095253944
-0.58449924 -0.50864017 0.035688877
-0.61629522 -0.13697517 -0.27911901
-0.62785321 -0.029860198 -0.41970491
-0.59166324 -0.3652662 0.020489693
-0.60256821 -0.7758702 -0.11215115
-0.63099223 -0.065921187 -0.38145208
-0.60440123 -0.68781614 -0.061441898
-0.61343521 -0.2267102 -0.17015696
-0.59606123 -0.50815725 0.038927078
-0.61437923 -0.77528715 -0.10879421
-0.60449624 -0.56456721 0.0089020729
-0.60183924 -0.50791824 0.040543079
-0.62925524 -0.3285172 -0.071148872
-0.66189122 -0.10503721 -0.37545109
-0.65297019 -0.18213725 -0.27348423
-0.64251119 -0.33125424 -0.085052967
-0.65981519 -0.18338025 -0.2808609
-0.67117721 -0.14658022 -0.3387022
-0.64976221 -0.77357626 -0.098753929
-0.6450752 -0.56285417 0.020274162
-0.65719819 -0.3792702 -0.047684193
-0.66638821 -0.8685292 -0.1486702
-0.66154224 -0.77301919 -0.095417976
-0.66250724 -0.33538723 -0.10601711
-0.65709722 -0.68540716 -0.046570301
-0.68044221 -0.18713117 -0.30308819
-0.64799619 -0.5060482 0.053431988
-0.69201422 -0.15023816 -0.36131096
-0.66742921 -0.77274323 -0.093752861
-0.67824924 -0.86794317 -0.14529705
-0.67590922 -0.33816123 -0.12006426
-0.68215322 -0.28765714 -0.18737221
-0.66629821 -0.63676918 -0.016461849
-0.70167923 -0.24350321 -0.26437712
-0.72001821 -0.1551652 -0.39168501
-0.6832872 -0.44291723 -0.0067000389
-0.6961242 -0.34235215 -0.14124298
-0.71513021 -0.19345319 -0.3404541
-0.70289123 -0.34375715 -0.14833403
-0.69537824 -0.6355412 -0.008313179
-0.6913442 -0.56097817 0.033196926
-0.74118823 -0.15889621 -0.41463614
-0.70118821 -0.63530016 -0.0066871643
-0.73613119 -0.19728923 -0.36306715
-0.72416621 -0.39366221 -0.11725187
-0.72033024 -0.77032721 -0.078824043
-0.73694819 -0.29856515 -0.24531126
-0.72619921 -0.77006721 -0.077172279
-0.7213012 -0.6826272 -0.028537273
-0.71861124 -0.63458514 -0.0018162727
-0.7144382 -0.56007326 0.039628983
-0.73666722 -0.45492518 -0.061522961
-0.75775021 -0.30272019 -0.26729298
-0.7329542 -0.68214118 -0.025276184
-0.73021823 -0.63411522 0.0014257431
-0.73501623 -0.51641822 0.012744904
-0.79284823 -0.20768118 -0.42409515
-0.77192521 -0.40397525 -0.16680908
-0.75623524 -0.6811862 -0.018765926
-0.78528923 -0.36092114 -0.23456907
-0.7857092 -0.40695918 -0.18110323
-0.76786721 -0.68071818 -0.015520096
-0.80649924 -0.41146624 -0.20265484
-0.79064924 -0.76730525 -0.059087276
-0.82820022 -0.26779115 -0.39921427
-0.83538222 -0.2691772 -0.40685987
-0.78960222 -0.56947124 0.0045137405
-0.79551119 -0.5307132 -0.048581123
-0.79691821 -0.67957318 -0.0074238777
-0.80230623 -0.53232324 -0.055462837
-0.80272323 -0.67934823 -0.0058102608
-0.81403619 -0.76634824 -0.05255127
-0.8485592 -0.37417722 -0.3006959
-0.83931422 -0.4781642 -0.16677189
-0.87154722 -0.27616823 -0.44534826
-0.83023924 -0.57938015 -0.036321163
-0.83650821 -0.54044116 -0.090092182
-0.83706319 -0.58104718 -0.04317522
-0.88427424 -0.38168919 -0.33798885
-0.87429923 -0.48612916 -0.20259428
-0.90011722 -0.33133423 -0.41751385
-0.84911323 -0.6776042 0.0070681572
-0.90813524 -0.28326023 -0.4842639
-0.86414421 -0.54701722 -0.1180563
-0.89867419 -0.38472319 -0.35301924
-0.85490423 -0.6773932 0.0086717606
-0.88840324 -0.48934615 -0.21702719
-0.8920272 -0.55366516 -0.14625216
-0.88345522 -0.64482319 -0.028249264
-0.89220822 -0.59455323 -0.098520279
-0.94412524 -0.34024119 -0.46387625
-0.88479221 -0.67814815 0.0091180801
-0.89917022 -0.59626222 -0.10550308
-0.92394519 -0.49746823 -0.25338316
-0.89163619 -0.67992425 0.0023670197
-0.90614724 -0.59797621 -0.11250019
-0.93110424 -0.49910617 -0.26070213
-0.94546622 -0.50239623 -0.275383
-0.95605022 -0.44410014 -0.35743427
-0.96431124 -0.39859617 -0.42147923
-0.9633522 -0.44570315 -0.36498117
-0.94142723 -0.56548023 -0.19616508
-0.97067422 -0.44731116 -0.3725462
