# .PCD v0.7 - Point Cloud Data file format
VERSION 0.7
FIELDS x y z
SIZE 4 4 4
TYPE F F F
COUNT 1 1 1
WIDTH 1
HEIGHT 1024
VIEWPOINT 0 0 0 1 0 0 0
POINTS 1024
DATA ascii
1.0188798 -0.028467894 0.074318886
1.0218577 0.00054711103 0.013307095
1.0017657 -0.028904855 0.068732738
0.99034274 -0.029197872 0.065022945
0.99033874 0.030353129 -0.062499046
1.0077778 0.13311213 -0.27589512
0.99227577 0.099089146 -0.208951
0.98633277 0.098953128 -0.210917
0.97243673 0.070121109 -0.15445805
1.0010297 0.17332113 -0.36455011
0.96278477 -0.15372783 -0.17432594
0.92359376 -0.07098192 0.073117733
0.92033476 -0.023202896 0.097541809
0.94372076 0.02919513 -0.077730179
0.92061073 -0.029866874 0.050702095
0.98397076 0.19960111 -0.42733908
0.95973778 0.13204211 -0.29187632
0.93701375 0.069268107 -0.16608715
0.97171378 0.19934714 -0.43145132
0.90907675 -0.11822289 0.047556877
0.90466475 -0.11999792 0.035538673
0.95239073 0.17227912 -0.38082933
0.90937275 0.078560114 -0.094592094
0.89397377 -0.18115681 0.02561903
0.89267576 -0.082930863 -0.011266232
0.89518976 -0.0031388998 -0.031023979
0.87687474 0.055327117 0.11294508
0.89070475 -0.0047418475 -0.043309212
0.86784077 0.058721125 0.13768101
0.88620478 -0.0063508749 -0.055634975
0.86766678 0.096445143 0.044574738
0.90093374 0.14072114 -0.22250605
0.87787974 -0.13078791 -0.037417889
0.87602174 -0.046399891 -0.071233273
0.87957078 0.14925712 -0.1495533
0.86692178 -0.049782872 -0.096115112
0.84171075 0.13355911 0.061916828
0.86102074 -0.095200837 -0.097651005
0.86463976 0.023982108 -0.12755394
0.82347172 0.11194211 0.164258
0.86879176 0.19117314 -0.21301317
0.85643673 -0.09698087 -0.1101613
0.86004174 0.022399127 -0.14016819
0.84665978 -0.30682391 -0.02876997
0.83817875 0.16578913 -0.0081882477
0.84566873 -0.09095782 -0.070995331
0.84853375 -0.049311876 -0.09502697
0.85096776 -0.013946891 -0.11543989
0.83907074 -0.18681282 -0.015669346
0.83680576 -0.042319894 -0.047322273
0.83086073 -0.2393859 0.0029120445
0.83315474 0.083058119 -0.067644119
0.82249576 -0.076537907 0.023092747
0.87026376 0.25265712 -0.38354111
0.82726574 0.20696414 -0.069067955
0.81611973 0.0060591102 0.02653265
0.82238477 -0.30601889 -0.027200222
0.80137676 0.13893014 0.10233164
0.81631976 -0.30582088 -0.026810169
0.79891676 0.1009081 0.072357655
0.80098075 0.13323414 0.054382801
0.79368174 0.018936157 0.11794376
0.79596376 0.054661155 0.098075867
0.78983778 0.13881212 0.10001087
0.79724377 0.2183761 0.035009861
0.79413575 -0.11375183 0.062294006
0.77231675 0.1904971 0.20278788
0.78572077 -0.066799819 0.084223747
0.77047575 0.11309612 0.16740704
0.78944474 0.24525112 -0.001709938
0.78550673 -0.17774385 0.033399105
0.78218275 -0.11342686 0.063035011
0.76936078 0.020270109 0.12492895
0.75477678 0.19083315 0.20380211
0.76344478 0.020408154 0.12528467
0.75952673 -0.019016862 0.10741472
0.80944175 0.34165514 -0.34835529
0.77055275 -0.23754293 0.0067386627
0.75156176 0.25871813 0.12651587
0.75829774 -0.1127879 0.064509869
0.73979777 0.020955145 0.12670565
0.76660275 0.32953715 -0.12411928
0.77852273 0.35133815 -0.23565102
0.73454577 0.25833011 0.12087584
0.74251878 0.29487211 0.045652866
0.75266576 -0.36349684 -0.050084114
0.74974674 -0.30371088 -0.022548199
0.74648273 -0.23683482 0.0082550049
0.74040377 -0.11231786 0.065609932
0.72798574 0.021224141 0.1274128
0.77526975 0.38936216 -0.3224659
0.74659973 -0.36330289 -0.049695015
0.73444277 -0.11216289 0.065975666
0.71762574 0.11419213 0.17052364
0.71390975 0.19159812 0.20617676
0.71789777 0.23340911 0.16791296
0.74053675 -0.36310881 -0.049304962
0.72848374 -0.11200887 0.066341877
0.71005076 0.15024513 0.18741894
0.71214277 -0.017891884 0.11027479
0.71954876 0.29437113 0.037993908
0.71027875 0.021621108 0.12847185
0.70835572 0.062372148 0.14723969
0.74501973 0.39823711 -0.21060896
0.69835877 0.15046912 0.18809986
0.70097476 0.23300314 0.16234875
0.70247376 0.062496126 0.14758778
0.72262675 0.33638811 -0.050814152
0.73604274 0.40044713 -0.18289328
0.75144875 0.43392015 -0.33455801
0.72235572 -0.36253482 -0.048144341
0.71361876 -0.17574686 0.037871838
0.72226578 0.3625651 -0.10700893
0.71043175 -0.23580283 0.010512829
0.70466375 -0.11140293 0.067797661
0.68667275 0.15069014 0.18877983
0.71097773 0.33614612 -0.054726124
0.71639377 0.36244816 -0.1089921
0.72417372 0.40022713 -0.18693495
0.70442873 -0.23563486 0.010886669
0.68849277 -0.017349899 0.11169386
0.68907177 0.25727415 0.10584497
0.68483877 0.062866151 0.14862871
0.73445874 0.46935612 -0.35292912
0.67896378 0.062988102 0.14897585
0.66730475 0.19243413 0.20887089
0.67878473 -0.06415385 0.090726852
0.72050077 0.47039112 -0.33858395
0.66491377 0.11523211 0.17360878
0.66332275 0.15112412 0.19013309
0.67077374 -0.016951859 0.11275291
0.67198175 0.25687015 0.1002121
0.68339872 -0.30173391 -0.018360138
0.67737573 -0.30155987 -0.017981052
0.66898477 -0.1105209 0.069966793
0.65321773 0.11545515 0.17429066
0.68112075 0.36174113 -0.12089014
0.66791177 -0.36087388 -0.044692039
0.66533977 -0.3012169 -0.017230034
0.65710676 -0.11023384 0.070685863
0.64917874 -0.063468874 0.092506886
0.64717078 -0.016432881 0.11415911
0.64916074 0.25632513 0.092701912
0.67660177 0.39933211 -0.20310736
0.63241774 0.19303513 0.21087503
0.64794374 -0.1740399 0.041903973
0.62660873 0.19313312 0.21120787
0.63929975 -0.10981089 0.071762085
0.62948477 -0.016051888 0.11520767
0.63201976 0.25591111 0.087070942
0.65871978 0.39899015 -0.20917511
0.67189378 0.46958712 -0.3553462
0.63307774 0.29242313 0.0092840195
0.65991277 0.43760115 -0.29140425
0.63527673 -0.30037791 -0.015357018
0.61770278 -0.015801847 0.11590481
0.62729377 0.29229015 0.0073690414
0.65971673 0.46938214 -0.35953712
0.62411374 -0.17344791 0.043354988
0.62150878 -0.10939485 0.072833061
0.60357678 0.19327313 0.21038866
0.61037374 0.23076016 0.13269901
0.60858876 0.064390123 0.15310097
0.62916774 0.33441013 -0.082116127
0.63394773 0.36077315 -0.13675499
0.64783877 0.43738312 -0.29553032
0.62057775 -0.23338586 0.016066074
0.60066575 0.11642516 0.17733479
0.60592574 -0.015555859 0.11660099
0.61460078 -0.23323184 0.016431808
0.61220676 -0.17315787 0.04407692
0.60992575 0.29188615 0.0016298294
0.59848577 0.023973107 0.13508081
0.59688175 0.064613104 0.15378189
0.59767574 0.25507015 0.075812817
0.59103173 0.064723134 0.15412188
0.57546675 0.1925171 0.20131969
0.58193773 0.2300331 0.12344265
0.58418673 -0.062036812 0.096378803
0.58620673 0.25478512 0.072062016
0.59253675 0.29147911 -0.0041089058
0.58841276 -0.17258888 0.045516014
0.56435877 0.15285015 0.19582176
0.56420678 0.19221014 0.19769382
0.57473075 0.25449914 0.068310738
0.56764078 0.065158129 0.15547895
0.58126473 -0.29893488 -0.012022018
0.57652676 -0.17230982 0.046230793
0.55857378 0.19205713 0.19588089
0.56329978 0.02465713 0.13713598
0.57058477 -0.17217189 0.046587944
0.55274373 0.15304112 0.19648266
0.55914474 0.22944212 0.11604166
0.55888075 -0.014601886 0.11936474
0.56324178 0.25421113 0.064559937
0.56931573 0.29092914 -0.011760235
0.55743974 0.024768114 0.13747692
0.56927776 -0.29862589 -0.01128912
0.54693878 0.15313512 0.19681406
0.55749476 0.25406611 0.062685013
0.58096075 0.39746416 -0.23547411
0.56544274 -0.35798687 -0.038299084
0.55942976 -0.35782784 -0.037928104
0.55729973 -0.29832083 -0.010556221
0.55276877 -0.17176384 0.047656059
0.55047977 -0.10781485 0.077070713
0.55865276 0.33285213 -0.10559225
0.56288278 0.35927111 -0.16055918
0.55341774 -0.35766882 -0.037558079
0.52953076 0.15341413 0.19780302
0.53539377 -0.014143884 0.12073803
0.54023772 0.25362813 0.057059765
0.53401673 0.025206149 0.13883591
0.53259677 0.06578815 0.15750074
0.56909972 0.43593514 -0.32236814
0.54532474 -0.2980209 -0.0098261833
0.52471876 0.19112211 0.185009
0.53059977 0.22869313 0.10679293
0.54686373 0.33258611 -0.10950613
0.55100077 0.35901511 -0.16452932
0.56302375 0.43582112 -0.32443333
0.53934073 -0.29787284 -0.0094623566
0.53703976 -0.23133487 0.021138668
0.5287208 0.25333411 0.053310871
0.52092779 0.065992117 0.15817165
0.53539073 -0.35719985 -0.03645134
0.51341575 0.19080615 0.18138695
0.53315973 0.35862714 -0.17048216
0.52338177 -0.35689288 -0.035716057
0.50172579 0.1181041 0.18300104
0.51691979 0.28966314 -0.028974056
0.49475479 0.15395415 0.19977188
0.50173175 -0.060362875 0.10122585
0.49892578 0.02583915 0.14086294
0.49760479 0.06639111 0.15950871
0.52686179 0.39636713 -0.25369501
0.50532478 -0.17071682 0.050483704
0.49940979 0.28923315 -0.034711361
0.48723978 0.02604413 0.14153481
0.50933278 0.35810316 -0.17842102
0.49145079 -0.10659581 0.080552101
0.47738478 0.15421516 0.20074987
0.48409978 -0.060026824 0.10225296
0.48263079 -0.013161898 0.12379885
0.49960279 0.33150411 -0.12515831
0.50336879 0.35797113 -0.18040514
0.48738378 -0.35599989 -0.03352499
0.47676578 0.25198513 0.036441803
0.49670979 0.39574313 -0.26382399
0.47754577 -0.2299909 0.024699688
0.47571677 -0.17009383 0.05223465
0.47376779 -0.10624784 0.081585884
0.49600178 0.43453914 -0.34717417
0.45530277 0.11882514 0.18562794
0.45921379 -0.012745857 0.12514877
0.47590679 0.33095211 -0.13298798
0.46388477 -0.16985089 0.052931786
0.44950479 0.11891311 0.18595505
0.45220977 0.026640117 0.14354181
0.46997479 0.33081311 -0.13494396
0.46167177 -0.29603893 -0.0047793388
0.4536078 0.25137311 0.028948784
0.4502098 -0.10579592 0.082958698
0.44299978 -0.059269845 0.10463285
0.44781178 0.25121915 0.027074814
0.4615458 0.3570351 -0.19430399
0.4664878 0.3951081 -0.27395916
0.43111777 0.15488315 0.20335102
0.46043479 0.39498013 -0.27598429
0.44545078 -0.35500783 -0.030996323
0.43307477 0.22604811 0.07537365
0.44622579 0.33025211 -0.14277411
0.45437878 0.3948521 -0.27801228
0.4359808 -0.22910887 0.027160645
0.42540479 -0.058957875 0.10564709
0.42412677 -0.01214689 0.12715864
0.43499377 0.28761715 -0.055745125
0.42194977 0.067608118 0.16381073
0.43348077 -0.35473388 -0.03027916
0.43185979 -0.29538089 -0.0030021667
0.41474777 0.11942112 0.1879077
0.41378677 0.1551221 0.20431995
0.41722777 0.027209103 0.14553404
0.42324677 0.28731716 -0.059569359
0.41660079 -0.16891783 0.055698872
0.40317178 0.11958414 0.18855476
0.40223977 0.1552791 0.20496368
0.40553078 0.18770111 0.14701509
0.42558879 0.35621613 -0.20622206
0.43012577 0.39433312 -0.28612518
0.41553777 -0.35433286 -0.02920723
0.41069677 -0.1688059 0.056042671
0.39738378 0.11966515 0.18887901
0.39646679 0.15535611 0.20528603
0.40076077 -0.011762857 0.12849188
0.41958478 0.35607815 -0.20820904
0.40803277 -0.29487389 -0.0015912056
0.41798177 0.39407212 -0.29018116
0.39024878 -0.058357894 0.10766172
0.38710177 0.068128109 0.16577291
0.37917978 0.15553814 0.20586586
0.3812978 0.068213105 0.16609907
0.38855278 -0.22816187 0.029941082
0.38708979 -0.1683659 0.057413101
0.37126878 0.18668014 0.13617086
0.36969277 0.068379104 0.166749
0.36956677 0.22425711 0.05505991
0.36683479 -0.057973921 0.10899687
0.35653177 0.15483016 0.19877005
0.36377779 0.22409111 0.053214073
0.36098379 -0.057879865 0.10932779
0.36638477 0.24900514 0.00085401535
0.35901779 0.028095126 0.14882088
0.36350077 -0.16793984 0.058774948
0.35410279 0.18616313 0.13075495
0.36054778 0.24884313 -0.0010180473
0.36434677 0.28578913 -0.078691959
0.36872578 0.32837814 -0.16823006
0.37145877 0.35495615 -0.22410917
0.36043879 -0.29390985 0.0012068748
0.35894978 -0.22760183 0.031663895
0.35843977 0.28563315 -0.08060503
0.36274278 0.32823014 -0.1701889
0.36928678 0.39300811 -0.30642033
0.35171279 -0.16773289 0.059453011
0.34157678 0.028346121 0.14979792
0.33691278 0.18564016 0.12533569
0.3430208 0.24835414 -0.0066370964
0.34662077 0.2853201 -0.084431171
0.35336179 0.35452813 -0.23007298
0.34260979 -0.29356688 0.002245903
0.33174679 -0.05742389 0.11098385
0.33077279 -0.010688901 0.13244677
0.34478179 0.32778513 -0.17606592
0.32331878 0.069014132 0.16933489
0.33194178 -0.35258883 -0.024270058
0.3196978 0.18511212 0.11991978
0.33279178 0.32748616 -0.17998505
0.32098678 -0.10356182 0.090376854
0.31961179 0.24769515 -0.014127254
0.31885278 -0.29312283 0.0036249161
0.31637779 -0.16713482 0.061475754
0.30820778 0.18475813 0.11631107
0.30747679 -0.01035589 0.13375187
0.3231428 0.35380614 -0.24001789
0.32652178 0.39205515 -0.32064009
0.30926678 -0.10337991 0.091039658
0.29918379 0.12093711 0.19432068
0.31109378 0.28437114 -0.095905304
0.31478578 0.32703412 -0.18586302
0.32040077 0.39191711 -0.32267332
0.30956978 -0.43029886 -0.058771133
0.29436678 0.069388151 0.17093897
0.31427377 0.39177811 -0.32470512
0.29922777 0.28405011 -0.099730015
0.28858078 0.069460154 0.17125893
0.30276579 0.32673115 -0.18978405
0.28188479 0.12114114 0.19527102
0.28502178 -0.056736887 0.11361074
0.29160377 -0.42994481 -0.057721138
0.27770579 0.029209137 0.15335369
0.27035677 0.12127411 0.19590187
0.27367279 0.18368113 0.10548401
0.27731979 -0.29238588 0.0060167313
0.27520078 -0.16647881 0.063812733
0.26459378 0.12133914 0.19621706
0.26751578 -0.056492865 0.11458969
0.27265877 0.24635214 -0.029104233
0.27869079 0.32611811 -0.19762516
0.26951179 0.28324014 -0.10929632
0.25965878 0.069813132 0.17285204
0.27266479 0.32596314 -0.19958591
0.27131379 0.39079815 -0.3389411
0.26167977 -0.42937785 -0.055981159
0.25657377 -0.10260385 0.094003677
0.24731278 0.12153214 0.19716167
0.25325078 0.22083813 0.018152714
0.25760576 0.28291315 -0.11312103
0.24871278 0.029571116 0.15495491
0.24349578 -0.0095068812 0.13730669
0.25456777 0.32549715 -0.20547009
0.24855879 -0.35106188 -0.019445896
0.23903579 0.18258512 0.094661713
0.24852878 0.32534111 -0.20743132
0.24373679 -0.42905182 -0.054943085
0.23120779 0.15077114 0.15980673
0.23187578 -0.0093618631 0.13794899
0.23972179 0.28241813 -0.11886311
0.23775879 -0.42894584 -0.054599285
0.22428179 0.12177914 0.19841671
0.22670278 -0.055952847 0.1168561
0.22168079 0.18202913 0.089251995
0.21920878 0.070275128 0.17506504
0.23039678 0.32486916 -0.21331501
0.23202579 0.35157216 -0.26988029
0.22232778 -0.16570193 0.066784859
0.21343178 0.070339143 0.17537975
0.22434378 0.32471114 -0.21527719
0.22592479 0.35141915 -0.271873
0.21882679 -0.35056883 -0.017748356
0.21722078 -0.22525686 0.039750099
0.20701778 0.12195712 0.19935369
0.20827979 0.15000415 0.1527319
0.21226978 0.21959114 0.0052409172
0.21370578 0.24462712 -0.04782629
0.20765778 0.070401132 0.17569399
0.21982278 0.35126615 -0.27386427
0.20254079 0.14981115 0.15096378
0.20339978 -0.05566287 0.11814308
0.20985678 0.28158313 -0.12842989
0.20236978 0.030111134 0.15749598
0.20622978 -0.29124182 0.01005888
0.20543578 -0.22508782 0.040410995
0.20395578 -0.10189885 0.096930027
0.20031278 -0.29115385 0.010391712
0.18976079 0.12212914 0.20028782
0.19505678 -0.35019392 -0.016401291
0.18401079 0.12218511 0.20059967
0.18878879 0.21886712 -0.0021371841
0.18593179 -0.055453897 0.11910295
0.18542679 -0.0088168979 0.14049673
0.18500379 0.030301154 0.15844202
0.19730179 0.38906813 -0.363379
0.18643078 -0.10167891 0.097898006
0.17826378 0.12222612 0.2008009
0.17598578 -0.22467989 0.042054653
0.17475379 -0.10153693 0.098540783
0.17226279 0.24338812 -0.060932159
0.16726078 0.070819139 0.17788506
0.17701578 0.35018212 -0.28782034
0.17009878 -0.22460085 0.042383671
0.16891578 -0.10146683 0.098860741
0.16222279 -0.0085628629 0.14176083
0.16608179 -0.4277609 -0.050508976
0.16536379 -0.34974986 -0.014728069
0.15542978 0.12141812 0.19384766
0.15832478 -0.22444791 0.043035984
0.15101677 -0.055057883 0.12101173
0.15414879 -0.42757982 -0.049835205
0.14818278 -0.42749089 -0.049499035
0.13842578 0.071095109 0.17943764
0.14162378 -0.34941489 -0.013399124
0.14021878 -0.16464287 0.071333885
0.13973577 -0.10113186 0.1004591
0.13254978 0.12060112 0.18689775
0.13344678 0.14744616 0.12975597
0.13625278 -0.42731684 -0.048828125
0.13569078 -0.34933287 -0.013069153
0.13478878 -0.22415084 0.044336796
0.12164378 -0.008148849 0.14395905
0.12113579 0.071253121 0.18036604
0.12264478 -0.16443986 0.072295666
0.11699578 0.17858911 0.05681181
0.11979578 0.27900213 -0.15714836
0.11537378 0.071304142 0.18067503
0.11678877 -0.16437382 0.072617054
0.11196578 -0.34901887 -0.011751175
0.11057578 -0.10081786 0.10204601
0.10453478 0.14643615 0.1209259
0.10450578 -0.054575861 0.12353373
0.10474578 -0.1007579 0.10236168
0.099453777 0.17799711 0.051408768
0.098090783 0.071453154 0.18159771
0.10325678 0.3482691 -0.31176901
0.099824786 -0.28980583 0.015984058
0.099221781 -0.16418189 0.073574066
0.094380781 0.21588212 -0.031644344
0.092885777 -0.054463863 0.12415981
0.093920782 -0.28973693 0.016306877
0.08774478 0.17760015 0.04780674
0.086889774 -0.0078238845 0.14582682
0.089617774 0.27811611 -0.16672611
0.090917781 0.34794414 -0.31576395
0.087260783 -0.1005829 0.10330772
0.082523778 0.2154991 -0.035332203
0.082325779 -0.34865183 -0.010115147
0.076965779 0.24045813 -0.090895176
0.077521779 0.27775812 -0.17055798
0.076648779 -0.42651588 -0.045513153
0.072382778 0.3474521 -0.32176018
0.070692778 -0.42644185 -0.045185089
0.069779783 -0.10041481 0.10424995
0.063732781 -0.0076228976 0.14706564
0.06455078 -0.34844393 -0.009139061
0.064249784 -0.22335488 0.048191071
0.058036778 -0.054146886 0.12603188
0.057784781 0.071775138 0.18373966
0.05254278 0.17639512 0.037000656
0.05301578 0.23970413 -0.098387241
0.047229782 0.27685416 -0.18014193
0.046323776 0.031578124 0.16588783
0.046778779 -0.34824592 -0.0081701279
0.040565781 0.11723512 0.15912676
0.04062178 -0.053999901 0.12695885
0.040919781 -0.42608982 -0.043550968
0.040709779 -0.16360086 0.076736927
0.03476778 0.071944118 0.18495607
0.035220779 0.34645611 -0.33375835
0.034885779 -0.22306389 0.049777985
0.03483678 -0.10010284 0.10612106
0.029012779 0.23894215 -0.10588217
0.029012779 0.031707108 0.16680479
0.029012779 0.071985126 0.18525982
0.029012779 0.34628814 -0.33575916
0.029012779 -0.16349488 0.077363014
0.023123778 0.17537612 0.027998924
0.02293478 0.27612114 -0.1878109
0.02280378 0.34612012 -0.33775997
0.023092778 -0.34799689 -0.0068850517
0.023166779 -0.16344386 0.077675819
0.02319178 -0.10000592 0.10674191
0.01734978 0.1433171 0.094451904
0.017408779 -0.053814888 0.12819195
0.01711078 -0.42582983 -0.042253017
0.010526778 0.31886715 -0.2840662
0.011551779 -0.099911869 0.10736084
0.0051477794 0.21295613 -0.059309006
0.0049587786 0.2381711 -0.11337614
0.0046787784 0.2755661 -0.19356489
0.0053337794 -0.34782189 -0.0059261322
0.0054277796 -0.28881186 0.021110058
0.005533779 -0.22279793 0.051352024
-0.0004692208 0.1745491 0.020797729
9.6779317e-05 -0.0071358681 0.15043783
-0.0010632202 0.23797613 -0.11525011
-0.0018172208 0.31851512 -0.28800535
-0.0063752197 0.17434114 0.018997669
-0.0070882216 0.23778212 -0.11712313
-0.0066892207 -0.42558783 -0.040964127
-0.0059072226 -0.099777877 0.10828686
-0.011903223 -0.16315585 0.079542637
-0.017718222 0.14203215 0.08386898
-0.017247222 -0.0070188642 0.15135002
-0.025184222 0.23719412 -0.12274694
-0.025815222 0.27463114 -0.20315599
-0.028994221 -0.053483844 0.13064003
-0.031222221 0.23699713 -0.12462091
-0.032734223 0.31762612 -0.29785728
-0.030169223 -0.34750086 -0.0040221214
-0.035295222 0.14138114 0.078579903
-0.036085222 -0.34745091 -0.0037059784
-0.042739224 0.21134412 -0.074065208
-0.040589225 -0.053409874 0.13124895
-0.039986219 0.0724141 0.18887091
-0.041999225 -0.34740287 -0.0033912659
-0.046146218 -0.0068398714 0.15286064
-0.050272223 0.27387315 -0.21083307
-0.046957221 -0.16289991 0.081396103
-0.046628218 -0.099495828 0.11043167
-0.052190218 0.1137141 0.13139868
-0.051924217 -0.0068068504 0.15316296
-0.055410217 0.23620415 -0.13212013
-0.05426522 -0.42515892 -0.038413048
-0.053829219 -0.34730881 -0.002764225
-0.058013219 0.11348814 0.12966681
-0.058257218 -0.099422872 0.11103964
-0.066763222 0.21052516 -0.081445217
-0.066154227 -0.42506284 -0.037782192
-0.068717226 0.072563112 0.19036198
-0.071569219 -0.3471759 -0.0018239021
-0.070316225 -0.16274887 0.082619667
-0.077500224 0.17179912 -0.002603054
-0.078043222 -0.42497188 -0.037149906
-0.077059224 -0.28815693 0.025490761
-0.076156214 -0.16271287 0.082925797
-0.084817216 0.20990413 -0.086980343
-0.085721225 0.23520011 -0.14149618
-0.086958215 -0.053144872 0.13366508
-0.086274222 0.032399118 0.17282772
-0.085952222 0.072644114 0.19125509
-0.088835225 -0.28807992 0.026107788
-0.087326214 -0.099254906 0.11255598
-0.093021214 0.11212313 0.11927891
-0.098868221 0.11189413 0.11754799
-0.10550521 0.27213711 -0.22811794
-0.098952219 -0.099193871 0.11315775
-0.10391322 -0.0065408945 0.15585804
-0.11165921 0.27194214 -0.23003912
-0.10534622 -0.16254789 0.084446907
-0.10968722 -0.0065148473 0.15615511
-0.11781722 0.2717461 -0.2319603
-0.11295122 -0.34690291 0.00034809113
-0.11467022 0.072765112 0.19273186
-0.11761321 -0.22194391 0.057837009
-0.11701922 -0.16248792 0.085052013
-0.12048621 -0.50953585 -0.07379818
-0.12360922 0.13804615 0.052139759
-0.12123522 -0.0064658523 0.15674782
-0.13014422 0.27135211 -0.23580313
-0.12041222 0.072787106 0.19302797
-0.12814522 0.11073613 0.10889482
-0.12952422 0.13781911 0.050377846
-0.13115522 0.16983712 -0.01880312
-0.12701122 -0.0064428449 0.15704489
-0.13004622 -0.28784293 0.028255939
-0.13401021 0.11050212 0.10716391
-0.13234822 0.032592118 0.17519474
-0.14477722 0.31432015 -0.33338308
-0.13593122 -0.28781289 0.028560638
-0.13382022 -0.099031866 0.11495781
-0.14728522 0.13713312 0.045090675
-0.15484221 0.27055812 -0.24349403
-0.14386222 0.032633126 0.17578411
-0.15508921 0.16894913 -0.026003361
-0.15431821 -0.34668285 0.0024957657
-0.16108122 0.16872513 -0.027801991
-0.16340421 0.20715415 -0.11097527
-0.16721322 0.2701571 -0.24734116
-0.16983722 0.31356311 -0.3412919
-0.15947321 -0.28770286 0.02977705
-0.15706022 -0.098940909 0.1161499
-0.16230522 -0.50929493 -0.071619034
-0.16164821 -0.0063188672 0.15881681
-0.16100122 0.071097136 0.18127871
-0.16613422 -0.34662992 0.0031046867
-0.16370422 -0.16228682 0.087452888
-0.16742022 -0.0063008666 0.15910864
-0.17959821 0.26975513 -0.25118923
-0.16681221 0.070852101 0.17959595
-0.16867822 -0.098899901 0.11674309
-0.17515822 0.10885012 0.095057011
-0.18330322 0.23189414 -0.17151928
-0.17620322 -0.2216869 0.060854912
-0.17448622 -0.098880827 0.11703873
-0.19199921 0.26935011 -0.25503731
-0.17840421 0.032738149 0.17754078
-0.19495821 0.31279814 -0.34920406
-0.18497622 -0.42435986 -0.031579018
-0.18385822 -0.34655887 0.0040130615
-0.18301022 -0.28761083 0.030983925
-0.18694621 0.10837311 0.09159708
-0.18542422 -0.052754879 0.13871479
-0.18416022 0.03275311 0.17783308
-0.18976521 -0.34653682 0.0043158531
-0.18791921 -0.22164685 0.061452866
-0.18704122 -0.1622079 0.088644981
-0.19216822 -0.50915891 -0.07008028
-0.19710521 0.16737211 -0.038603306
-0.19685222 -0.42431492 -0.030970097
-0.19870822 -0.16217393 0.089235783
-0.20411122 -0.50911385 -0.069468021
-0.20670922 0.13480812 0.027473927
-0.20142822 0.032794118 0.17870474
-0.21359222 -0.006184876 0.161448
-0.22060421 -0.42423791 -0.029761314
-0.21620822 -0.16212982 0.090123653
-0.22202623 -0.50905389 -0.068553925
-0.2303642 0.20475113 -0.13129091
-0.21926221 0.068617105 0.16443777
-0.22419322 -0.28748792 0.033076763
-0.22595021 -0.052662849 0.14076185
-0.23859623 0.22997016 -0.18842506
-0.22891721 -0.22153789 0.063530922
-0.23929423 0.16576511 -0.051204205
-0.23174021 -0.052652895 0.14105368
-0.23095423 0.068113148 0.16107082
-0.24870223 0.20408416 -0.13683319
-0.23680422 0.067860126 0.15938807
-0.24850923 0.13314313 0.015144825
-0.25137922 0.16530114 -0.054805279
-0.25482121 0.2038601 -0.13868093
-0.26046622 0.26708513 -0.27622128
-0.25742722 0.16506815 -0.056605339
-0.26671222 0.26687515 -0.27814817
-0.24851522 0.067352116 0.15602303
-0.25622723 -0.42415792 -0.027961254
-0.25360623 -0.28743082 0.034557819
-0.25234321 -0.22149688 0.06470871
-0.24998921 -0.098712862 0.12085295
-0.26216522 -0.42414886 -0.027663231
-0.25579822 -0.098705828 0.12114286
-0.27320322 0.20318514 -0.14422512
-0.27562621 0.22866112 -0.19970226
-0.28336421 0.31005412 -0.37694407
-0.26979423 -0.50894982 -0.066143036
-0.26983121 0.1049571 0.067394733
-0.2724722 0.13217813 0.0081009865
-0.26870123 -0.16204685 0.092758656
-0.27197921 0.066328108 0.14929295
-0.29605621 0.3096531 -0.3809123
-0.27713621 -0.28740388 0.035736084
-0.27576721 -0.22147089 0.065879822
-0.27453321 -0.16204184 0.093050003
-0.29418921 0.22799915 -0.2053442
-0.28619921 -0.16203493 0.093629837
-0.28860721 -0.00610286 0.1651969
-0.31055123 0.2653951 -0.29164696
-0.28961322 0.065553129 0.14424801
-0.29437622 -0.0061018467 0.16548395
-0.31682822 0.26518112 -0.29357624
-0.30852121 0.13071215 -0.0024671555
-0.3012042 -0.052596867 0.14451694
-0.31158823 -0.50892287 -0.064063072
-0.31454423 0.13046515 -0.0042290688
-0.31810921 0.16270214 -0.074613094
-0.32939723 0.26475215 -0.29743624
-0.31749922 0.10294813 0.053569794
-0.31745723 -0.0061068535 0.16662264
-0.33764121 0.22643411 -0.21851492
-0.31967422 -0.09868592 0.12431288
-0.32950121 -0.50892991 -0.063179016
-0.32227722 0.032890141 0.18473196
-0.32702422 -0.16204089 0.095647812
-0.32548121 -0.0986889 0.12459898
-0.33866221 0.12947214 -0.011271954
-0.33741722 -0.34634489 0.011710644
-0.35324523 0.20019913 -0.1682663
-0.34528121 -0.42413789 -0.023546219
-0.3405382 -0.0061228871 0.16775799
-0.34529722 0.032871127 0.18586397
-0.34861422 0.062926114 0.12743807
-0.36284122 0.12846816 -0.01831913
-0.35775322 -0.22150284 0.069921017
-0.3545182 -0.098717868 0.12602282
-0.36539221 0.10089713 0.039751053
-0.36537221 -0.28744692 0.040082932
-0.3924742 0.26257312 -0.31675434
-0.37496823 -0.42418891 -0.022099972
-0.38101321 0.12770915 -0.023602009
-0.3988032 0.26235211 -0.31868601
-0.37231323 0.061856151 0.12071609
-0.37532422 -0.22153383 0.070776939
-0.37194222 -0.098745883 0.12687111
-0.38341221 0.10011715 0.034567833
-0.39141223 0.15978014 -0.096231937
-0.3892132 -0.50903183 -0.06027317
-0.38093421 -0.0061818957 0.16972971
-0.38019523 0.032005131 0.18164301
-0.38418323 0.061318099 0.11735773
-0.39278123 -0.4242329 -0.021239281
-0.38890621 -0.28749782 0.041224003
-0.3867062 -0.006192863 0.17001104
-0.41781822 0.26168513 -0.32448912
-0.40239221 -0.34647292 0.014867783
-0.39875323 -0.22158891 0.071910858
-0.40829921 -0.34649092 0.015151978
-0.40461123 -0.22160584 0.072192669
-0.40098423 -0.098809898 0.12827969
-0.4135192 0.098804116 0.025932789
-0.43139321 0.22298312 -0.24677229
-0.40868923 -0.16218585 0.099620819
-0.42963722 0.12565511 -0.03769207
-0.41556621 -0.0062618852 0.17140579
-0.43102223 -0.50917584 -0.058269024
-0.42133823 -0.0062788725 0.17168474
-0.42584321 0.059409142 0.10560274
-0.43435422 -0.42437583 -0.019247055
-0.42422122 -0.098875821 0.12939787
-0.4565452 0.22204012 -0.25431633
-0.42735022 0.029770136 0.16849566
-0.43784121 -0.34659785 0.016563892
-0.43003023 -0.098893821 0.12967873
-0.44894221 -0.5092569 -0.0574193
-0.45404023 0.12461215 -0.044738293
-0.46514621 0.19589412 -0.20159912
-0.47508124 0.2596541 -0.34191322
-0.44595322 -0.052858889 0.15156078
-0.47545221 0.22132611 -0.25997734
-0.4817622 0.22108716 -0.26186514
-0.48785225 0.2591961 -0.34578991
-0.45101321 0.028636158 0.16192675
-0.45734021 -0.2217949 0.074716091
-0.46169221 0.057747126 0.095530987
-0.45908222 -0.098999918 0.13106775
-0.47284123 -0.50938088 -0.056293011
-0.46175221 -0.0064128637 0.17362309
-0.4628652 0.028065145 0.15864277
-0.47329822 -0.34676188 0.01824379
-0.46906021 -0.22184783 0.075272083
-0.4670442 -0.16239792 0.10241175
-0.49000821 0.15574312 -0.12507629
-0.46879822 0.027778149 0.15700102
-0.47288224 -0.16242391 0.10268879
-0.48479423 -0.5094499 -0.055735111
-0.50273323 0.19441515 -0.21272421
-0.4749172 -0.0529719 0.15294075
-0.47330222 -0.0064588785 0.17417383
-0.48512122 -0.34682482 0.018799782
-0.49271622 -0.56554693 -0.081046104
-0.49376521 -0.42467886 -0.016446114
-0.49103221 -0.34685785 0.019075871
-0.48664424 -0.2219339 0.07610178
-0.48233023 -0.099100888 0.13217211
-0.49694422 -0.34689182 0.019353867
-0.49250624 -0.2219649 0.076377869
-0.4903942 -0.1625089 0.10351706
-0.50471425 -0.56562692 -0.080490112
-0.49062923 -0.0065328479 0.17499685
-0.51071525 -0.56566888 -0.080211163
-0.52102524 0.15444815 -0.1340971
-0.52724028 0.15418714 -0.13590002
-0.50389028 -0.053105891 0.15431404
-0.50969923 0.055491149 0.082107067
-0.53345925 0.15392512 -0.13770628
-0.52059525 -0.34703988 0.020455837
-0.51373523 -0.0066418648 0.17608976
-0.53488427 0.09338212 -0.008605957
-0.52776426 0.054634154 0.077074051
-0.53537524 -0.42495888 -0.014516354
-0.53242326 -0.34712082 0.021002769
-0.53607726 -0.28818482 0.04818964
-0.56570524 0.19190013 -0.23128128
-0.53287125 -0.05325985 0.15567684
-0.57772726 0.25592613 -0.37296295
-0.53982526 0.054058135 0.073719025
-0.54425228 -0.34720486 0.021552086
-0.54196823 -0.28822488 0.048463821
-0.55055225 -0.50991982 -0.052695274
-0.57202524 0.19164413 -0.23313808
-0.57691824 0.21742713 -0.29021025
-0.56461924 0.11978912 -0.076457024
-0.57086223 0.15234113 -0.14853525
-0.56251425 -0.51002187 -0.052150249
-0.55223024 0.023689151 0.13403273
-0.56510723 -0.42519289 -0.013152122
-0.56200027 -0.34734088 0.022367954
-0.55463725 -0.16288787 0.10652208
-0.55606425 -0.053397894 0.15676165
-0.59734827 0.19061816 -0.24056911
-0.60245425 0.2164281 -0.29778099
-0.58386022 0.091137111 -0.02242136
-0.59587824 0.15127212 -0.15575695
-0.60884827 0.21617711 -0.29967308
-0.56955928 -0.099598825 0.13626003
-0.58216327 0.052023113 0.061980724
-0.59614527 0.090569139 -0.025874138
-0.62165225 0.21567214 -0.30346203
-0.62946826 0.25400513 -0.38852215
-0.58220524 0.022194147 0.12583685
-0.58634925 -0.22258788 0.080733776
-0.60229325 0.090283155 -0.027603149
-0.60797024 0.11785412 -0.088797092
-0.62805927 0.21541911 -0.30535507
-0.59750724 -0.34763986 0.023985863
-0.60844523 0.089998126 -0.0293293
-0.61417925 0.11757511 -0.090559959
-0.62909722 0.18932015 -0.24986315
-0.60342723 -0.34769386 0.024254799
-0.63546127 0.18905914 -0.25172329
-0.60644126 0.05084312 0.055273056
-0.59865922 -0.099807918 0.13760376
-0.61636722 -0.51053888 -0.049723148
-0.60044724 -0.007162869 0.18014574
-0.61252022 0.050547123 0.053597927
-0.61865824 -0.42568785 -0.010729313
-0.62479424 -0.56670886 -0.075043201
-0.63283223 0.11673313 -0.095850945
-0.61227524 0.020681143 0.11764383
-0.62461025 -0.42574793 -0.010463238
-0.61570024 -0.22283286 0.082077026
-0.62833923 -0.51066691 -0.049188137
-0.62449622 -0.28890389 0.052237034
-0.61893427 -0.16337782 0.10947895
-0.64528728 0.11616915 -0.099378109
-0.61988324 -0.053844869 0.15971565
-0.63651627 -0.42587286 -0.0099301338
-0.62568927 -0.053890884 0.15998077
-0.64247227 -0.42593688 -0.0096650124
-0.64630425 -0.51086885 -0.048391342
-0.66502023 0.1482771 -0.17563629
-0.67372823 0.18747711 -0.26288605
-0.67948127 0.21337014 -0.32051992
-0.63640022 0.019457102 0.11109066
-0.65229326 -0.51093882 -0.048128128
-0.68592823 0.2131111 -0.32241726
-0.67024922 0.11503112 -0.10643435
-0.64310622 -0.054032862 0.16077805
-0.64214927 -0.0091688633 0.17020082
-0.64818227 -0.16363686 0.1108079
-0.67650127 0.11474514 -0.10819912
-0.65453625 0.018531144 0.10617781
-0.65472227 -0.054130852 0.16130686
-0.66058922 0.01822114 0.10453987
-0.66741222 0.047845125 0.038510799
-0.66858327 -0.34835583 0.027176857
-0.66856724 -0.22333592 0.084461689
-0.68224925 -0.51130682 -0.046813965
-0.67444426 -0.22339588 0.084724903
-0.67214924 -0.054284871 0.16209888
-0.68578023 0.046932101 0.033483028
-0.70121527 0.085625112 -0.055240154
-0.71562827 0.14604712 -0.19010401
-0.73118925 0.21128011 -0.33570623
-0.69191325 0.046626151 0.031805992
-0.69609225 -0.4265669 -0.0072999001
-0.70743322 0.085327148 -0.056968212
-0.68377125 -0.054391861 0.16262484
-0.69532526 -0.28964692 0.055400848
-0.70622623 -0.51162285 -0.045772076
-0.74416023 0.21075112 -0.3395071
-0.70801425 -0.42671984 -0.0067801476
-0.71500224 -0.56785887 -0.071105957
-0.72665924 0.11243212 -0.12231922
-0.74429727 0.18451512 -0.28337812
-0.69769925 -0.10067981 0.14210606
-0.72611225 0.084431112 -0.062151909
-0.74103725 0.14491612 -0.1973443
-0.71647924 0.045394123 0.025103092
-0.70672625 -0.16422492 0.11343479
-0.73234624 0.084131122 -0.063879013
-0.70702225 -0.054614842 0.16367388
-0.71524322 0.015397131 0.08980608
-0.71560526 -0.22384888 0.08655405
-0.73858422 0.083831131 -0.065607071
-0.74553925 0.11155313 -0.12761402
-0.77016026 0.2096861 -0.34711218
-0.71844327 -0.16435391 0.11395597
-0.75184125 0.11125815 -0.12938118
-0.71865225 -0.054731846 0.16419601
-0.72032523 -0.01333189 0.1493907
-0.77667123 0.20941812 -0.34901428
-0.78318626 0.20914912 -0.35091591
-0.75732625 0.082924128 -0.070793152
-0.78302026 0.18286616 -0.29456997
-0.73963827 0.014122128 0.083260059
-0.74727827 0.043838143 0.016722679
-0.75715625 -0.5684939 -0.069311142
-0.75421727 -0.5123139 -0.043714046
-0.77928126 0.14319915 -0.20820904
-0.76318127 -0.56858987 -0.069057941
-0.77709323 0.11007315 -0.13644409
-0.78567123 0.14291114 -0.21002102
-0.74192023 -0.054974854 0.165236
-0.75185925 0.013480127 0.079987049
-0.74774826 -0.16469091 0.11525202
-0.74437428 -0.10117692 0.14418793
-0.76622224 -0.51249987 -0.043205261
-0.75057024 -0.014967859 0.14139271
-0.76350123 -0.34955388 0.03132391
-0.75680023 -0.22434789 0.088362694
-0.75021225 -0.10124189 0.14444685
-0.77523327 -0.56878585 -0.06855011
-0.77222627 -0.51259392 -0.042952061
-0.78237623 0.081705153 -0.077706337
-0.77823228 -0.51268989 -0.042699337
-0.80486822 0.14204013 -0.21545792
-0.77818125 0.04226315 0.0083446503
-0.77217025 -0.29061884 0.058757782
-0.79492527 0.081090152 -0.081165314
-0.81127524 0.14174914 -0.2172699
-0.78132027 -0.34980887 0.032088757
-0.77446824 -0.22457689 0.089131832
-0.80120623 0.080783129 -0.082891941
-0.78726125 -0.34989685 0.032343864
-0.78400326 -0.29078382 0.059267044
-0.78035825 -0.22465593 0.089388847
-0.79934925 -0.56919283 -0.06754303
-0.78862327 0.011535108 0.070170879
-0.79677325 0.041309118 0.0033168793
-0.82145327 0.10797215 -0.1488142
-0.84141427 0.18034714 -0.31137991
-0.79476625 0.01120913 0.068535805
-0.81141323 -0.56940383 -0.067044258
-0.82007825 0.079854131 -0.08808136
-0.82780826 0.10766912 -0.15057993
-0.78849524 -0.055500865 0.16729975
-0.79308325 -0.01729089 0.13020277
-0.80509228 -0.3501659 0.033101082
-0.84338224 0.14028215 -0.226336
-0.79432124 -0.055569887 0.16755581
-0.81540424 0.040349126 -0.001709938
-0.83268023 0.079231143 -0.091538906
-0.84053028 0.10706115 -0.15411615
-0.86832422 0.2055971 -0.37568331
-0.82162225 0.040027142 -0.003385067
-0.81937426 0.0098941326 0.061994076
-0.82553822 0.009563148 0.060358047
-0.83407426 0.039381146 -0.0067372322
-0.83339924 -0.42860192 -0.0014381409
-0.81448227 -0.10202485 0.14726782
-0.86915123 0.13909513 -0.23359394
-0.88055325 0.17863715 -0.32259989
-0.82403725 -0.16567689 0.1185751
-0.82032925 -0.10210186 0.14752197
-0.88709325 0.17834914 -0.3244729
-0.82346123 -0.055928886 0.16883373
-0.82968122 -0.019312859 0.12061691
-0.83341527 -0.22540385 0.09167099
-0.83202726 -0.10225683 0.14802885
-0.87059623 0.077345133 -0.10191727
-0.90789324 0.20392013 -0.38713694
-0.84521627 -0.22558087 0.092174053
-0.84166425 -0.16592592 0.11933279
-0.89499426 0.13789713 -0.24085522
-0.89160424 0.10459912 -0.16826534
-0.85416323 -0.020676851 0.11422777
-0.86458427 -0.35113186 0.035602093
-0.88961226 0.076392114 -0.10710716
-0.93436825 0.20278913 -0.39478207
-0.93300825 0.17631912 -0.33758211
-0.88725924 -0.42956585 0.00078487396
-0.88474226 -0.29235393 0.063532829
-0.92139924 0.074788153 -0.11576033
-0.94039923 0.13577312 -0.25357294
-0.89245522 -0.22632784 0.094167709
-0.92777127 0.074465156 -0.11749125
-0.95935225 0.17514312 -0.34508324
-0.91122323 -0.43002492 0.0017619133
-0.90254927 -0.29266292 0.064272881
-0.94297326 0.10209012 -0.18242598
-0.92171425 0.034775138 -0.030199051
-0.91821325 -0.3520959 0.037813663
-0.95586026 0.10145611 -0.18596792
-0.92472225 0.0041671395 0.034196854
-0.91225827 -0.16700786 0.12232876
-0.97297525 0.13423514 -0.26266432
-0.91402423 -0.10344189 0.15154409
-0.93224925 -0.29319793 0.065497875
-0.97522926 0.10049814 -0.19128227
-0.98604023 0.13361412 -0.26630306
-0.99901521 0.17335916 -0.35634422
-0.92345923 -0.058084905 0.16797972
-0.97249627 0.072184145 -0.12961102
-0.98169422 0.10017812 -0.1930542
-0.94568223 -0.22724491 0.096383095
-0.98531723 0.071525156 -0.13307619
-0.94336027 -0.10390586 0.15278292
-0.99173427 0.071194112 -0.13480806
-0.94923025 -0.10400182 0.15302992
-0.95406824 -0.059899867 0.16022682
-0.97473323 0.0013931394 0.021122932
-0.97137725 -0.027329862 0.08390379
-0.99118626 0.031050146 -0.048636913
-0.97272229 -0.10439283 0.15401173
