# .PCD v0.7 - Point Cloud Data file format
VERSION 0.7
FIELDS x y z
SIZE 4 4 4
TYPE F F F
COUNT 1 1 1
WIDTH 1
HEIGHT 1024
VIEWPOINT 0 0 0 1 0 0 0
POINTS 1024
DATA ascii
0.4552505 0.55227482 0.073242188
0.45570451 0.50826681 0.066903591
0.4434635 0.55240881 0.074932575
0.44468349 0.43123186 0.057480335
0.4443365 0.46572185 0.062447548
0.44390649 0.50841784 0.068596363
0.43253651 0.46588784 0.064145565
0.4262245 0.50864184 0.071138382
0.41991448 0.55267483 0.078316212
0.42113951 0.58446485 0.059879303
0.42218348 0.31541085 0.044155598
0.40815449 0.55280483 0.080006599
0.40299049 0.58499384 0.069653511
0.41437349 0.73453885 -0.10879374
0.39899951 0.26591587 0.040385246
0.39640149 0.55293489 0.081693172
0.39695451 0.58516884 0.07290554
0.39749649 0.43193784 0.06428051
0.39679849 0.50900888 0.075372219
0.39309049 0.26603281 0.041240215
0.3905285 0.55299884 0.082538605
0.40198049 0.62285584 -0.1020565
0.39130151 0.46645683 0.070084572
0.39092049 0.50908184 0.076217175
0.39132449 0.62605786 -0.025623798
0.38572249 0.43211085 0.065976143
0.37888449 0.58569288 0.082642555
0.38058048 0.34661382 0.054512501
0.38020951 0.38944483 0.060674191
0.3798385 0.43219686 0.066826344
0.39043149 0.70098186 -0.10888767
0.3894605 0.73498082 -0.092784405
0.37953949 0.46661586 0.07177639
0.37917051 0.50922585 0.077907562
0.3760145 0.19133782 0.03301239
0.37575251 0.22194082 0.037415504
0.37287349 0.58586681 0.085883617
0.38466051 0.70088285 -0.11252451
0.38331848 0.73506182 -0.089937687
0.37010351 0.19146687 0.03387022
0.36492351 0.10376883 0.022096157
0.36458749 0.14423782 0.027917385
0.36419451 0.19159484 0.034728527
0.3611955 0.55331683 0.086750507
0.36092249 0.58617085 0.09147644
0.37468851 0.65341383 -0.14726877
0.36255151 0.38972282 0.063223362
0.35900551 0.10391182 0.022958279
0.35803849 0.22230786 0.039983273
0.35726851 0.31659287 0.053542614
0.3552115 0.63093984 0.089767456
0.3676005 0.65412384 -0.12839985
0.35632148 0.43253484 0.070214272
0.35569349 0.50950885 0.081284523
0.3699705 0.78812283 -0.17013979
0.35949251 0.70158285 -0.090732574
0.35017049 0.46700785 0.076005459
0.34881648 -0.10332119 -0.005150795
0.3458865 0.26695085 0.048078537
0.34784949 0.018888831 0.012415409
0.34549251 0.31680083 0.055245399
0.3452515 0.34721184 0.059616566
0.34457549 0.43270284 0.071908474
0.35376149 0.70146382 -0.095005512
0.34094849 0.14477783 0.031354427
0.3419275 0.01904583 0.013279438
0.3375105 0.58639586 0.094833374
0.33960849 0.31690484 0.056096554
0.3381075 0.50971782 0.083811283
0.33535349 0.10447884 0.026399612
0.3319135 0.55362684 0.090955257
0.33596051 0.62787783 0.015017509
0.3331655 0.39017683 0.067462444
0.33283851 0.43286785 0.073597431
0.34105149 0.73535985 -0.08052969
0.33100849 -0.10278821 -0.0025477409
0.3300885 0.019356847 0.015006542
0.3260645 0.55368781 0.091795444
0.33562151 0.70162684 -0.090575695
0.3235395 0.10475785 0.02811718
0.32324049 0.14517683 0.033926487
0.32021451 0.55374885 0.092634201
0.32496849 0.62729383 0.00038433075
0.32110849 0.43303186 0.075288296
0.3258535 -0.20771921 -0.016780853
0.3188175 -0.057451129 0.005651474
0.32292351 0.73551285 -0.075389385
0.31499749 0.46746585 0.081069469
0.31468749 0.50999284 0.08717823
0.31289649 -0.05728513 0.0065155029
0.31234449 0.019817829 0.01759243
0.30938849 0.43319383 0.076975346
0.31741151 0.78965586 -0.084187508
0.31396949 -0.20733213 -0.015039444
0.3058365 0.10517186 0.030691147
0.30500549 0.22337985 0.047671318
0.30643451 0.019969821 0.018453598
0.2993325 0.19296384 0.044138432
0.2968415 0.55398881 0.095989227
0.29847249 0.31761485 0.062041283
0.29743749 0.46768984 0.083594322
0.3029125 -0.32591712 -0.030382633
0.2937685 0.14582783 0.038205147
0.2932415 0.22361183 0.049375534
0.29461849 0.020271838 0.020176411
0.2918205 0.43343484 0.079506397
0.28814951 0.10557985 0.033263206
0.28756651 0.19320583 0.045845509
0.28952551 -0.10157311 0.0035195351
0.28653648 0.34817183 0.068095207
0.2887485 0.62819588 0.02031517
0.2859695 0.43351483 0.080350399
0.29369751 0.78963286 -0.086622715
0.29431051 0.82432282 -0.099849701
0.29022351 -0.20657015 -0.011556625
0.28982049 -0.14592314 -0.0028486252
0.28331551 -0.056465149 0.010836601
0.28148749 0.22384185 0.051077366
0.2811985 0.26815784 0.057440281
0.28281349 0.020570874 0.021895409
0.28067648 0.34826583 0.068941593
0.28741848 0.70203084 -0.079526424
0.2798965 0.46791086 0.086119175
0.2884075 0.82430887 -0.1013155
0.2850675 -0.32528818 -0.027758598
0.27580851 0.19344383 0.047549248
0.27481851 0.34835887 0.069787502
0.27672648 0.62849385 0.026934147
0.27994251 -0.45312715 -0.045263767
0.2787255 -0.26273119 -0.017934799
0.2699315 0.19356287 0.048401356
0.27149549 -0.056142151 0.012560368
0.2694625 0.26836985 0.059137344
0.2710135 0.020867825 0.023614407
0.26767051 0.55428284 0.10017538
0.26869351 0.39113986 0.076759338
0.27560249 0.73541486 -0.081496716
0.2682105 0.46805686 0.087800503
0.26794448 0.51052582 0.093896389
0.26434749 0.14646387 0.042476177
0.26329249 0.31820583 0.067124367
0.2647295 0.62879086 0.033542156
0.2628445 0.39122486 0.07760334
0.26258251 0.43382785 0.083716393
0.26758051 -0.38005018 -0.033085823
0.26723951 -0.3246671 -0.025137424
0.25871149 0.10624683 0.037540436
0.25800151 0.22429383 0.054480553
0.25773549 0.26858085 0.060834408
0.2558195 0.58715081 0.10654736
0.25874048 0.62893784 0.036841393
0.25528949 0.70806181 0.11918736
0.26419449 0.78954083 -0.093277454
0.26484048 0.82423085 -0.10870075
0.26207149 -0.4524442 -0.042628765
0.2616345 -0.3798362 -0.032210827
0.26130149 -0.32446218 -0.024264812
0.26254451 -0.53099918 -0.053901672
0.25283051 0.10637885 0.038395405
0.25333151 0.021306872 0.026188374
0.25140351 0.34872586 0.07316637
0.2527585 0.62908584 0.040138245
0.2584025 0.73503184 -0.097394466
0.25044951 0.51071984 0.096408367
0.25499851 -0.26195216 -0.014451504
0.25466651 -0.20545316 -0.0063467026
0.25658149 -0.53076017 -0.053020477
0.24678148 0.62923288 0.043431282
0.24461947 0.51078385 0.097245216
0.2534385 0.82407081 -0.12232971
0.24943049 -0.32405519 -0.022519588
0.2506195 -0.53052211 -0.052139759
0.24015747 0.26889187 0.06337738
0.24177147 -0.017545164 0.022289276
0.23854749 0.55456984 0.10435438
0.23987748 0.31858885 0.070504189
0.24421848 -0.45177114 -0.039996624
0.24380948 -0.37919915 -0.029585838
0.23538749 0.071957827 0.035963535
0.23497449 0.14708382 0.046737194
0.2327285 0.55462587 0.10518837
0.23402847 0.31868386 0.071350574
0.23362647 0.39164382 0.081813335
0.23320349 0.46848384 0.092834473
0.24168749 0.82400787 -0.12801075
0.22950949 0.072091818 0.036817551
0.22910549 0.14720583 0.047588348
0.22818148 0.31877786 0.072193146
0.22889148 0.62967181 0.053294182
0.23432548 0.73520583 -0.091465473
0.23514147 0.78921688 -0.11320066
0.23597948 0.82391882 -0.13550282
0.2310005 -0.20472813 -0.0028796196
0.22345048 0.10702485 0.04266119
0.22299048 0.19448984 0.055203438
0.22453748 -0.099747181 0.013012409
0.22410348 -0.017098129 0.024862289
0.22590248 0.65821087 -0.024195671
0.22172949 0.43436286 0.089597225
0.22132649 0.51103783 0.10059118
0.22954349 0.78904188 -0.12348652
0.22600348 -0.37857211 -0.026966572
0.22764948 -0.69163513 -0.071856499
0.22742349 -0.64850414 -0.065672398
0.21737248 0.14744884 0.049291611
0.21674648 0.26929986 0.066761494
0.21988249 0.65834284 -0.020834446
0.21589948 0.43443784 0.090437412
0.21727848 0.70607781 0.051903248
0.22466949 0.82369184 -0.15458584
0.22044249 -0.45088911 -0.036492825
0.22207649 -0.76919818 -0.082128525
0.22110948 -0.58084917 -0.055125713
0.21274549 -0.09942615 0.014734268
0.21213648 0.022304833 0.032184601
0.21105549 0.63010788 0.063130379
0.20564848 0.14768887 0.050991535
0.20541848 0.19482785 0.057748318
0.20526949 0.22527885 0.062112331
0.20625949 0.022444844 0.03303957
0.20350148 0.58760989 0.11404657
0.20512348 0.63025188 0.066403389
0.20689748 0.70495582 0.014303207
0.20408149 0.46883085 0.097022533
0.20706949 -0.14351213 0.0092525482
0.19956449 0.19493985 0.058595181
0.20074949 -0.054274142 0.022879601
0.19920948 0.26960087 0.069295406
0.19897348 0.31924182 0.07640934
0.20166348 0.70438886 -0.004655838
0.20263249 -0.45023918 -0.033869743
0.20146048 -0.20384216 0.0014424324
0.20324948 -0.58013618 -0.052485466
0.19336648 0.26969987 0.070140362
0.19450948 0.022721827 0.034748554
0.19327548 0.63054085 0.07294035
0.19279948 0.39221185 0.087694168
0.19636248 -0.37754917 -0.022610664
0.19610648 -0.32227612 -0.014689445
0.18841249 0.073013842 0.042787552
0.18786249 0.19516087 0.060288429
0.18772548 0.22559786 0.064650536
0.18881448 -0.016224146 0.030002594
0.18736248 0.63068384 0.076205254
0.18678348 0.43480584 0.094626427
0.18602648 0.79325283 0.11870241
0.18689948 0.82669586 0.090923309
0.19076648 -0.44981217 -0.032123566
0.19219849 -0.76786017 -0.077692509
0.18201448 0.19527084 0.061135292
0.18330048 -0.098637104 0.019030571
0.18133849 0.34978384 0.083271503
0.18115148 0.39236987 0.089372158
0.17962548 0.74107981 0.1393342
0.18081549 0.46910185 0.10036516
0.18483749 -0.4496001 -0.031249523
0.18719248 -0.98780811 -0.10835457
0.18659548 -0.85138416 -0.088811398
0.18427849 -0.32189214 -0.012954712
0.18540548 -0.5794332 -0.049850464
0.17722748 -0.053677142 0.026306152
0.17690048 0.023132861 0.03730917
0.17564048 0.31960386 0.079776287
0.18042949 0.70208985 -0.081576824
0.17482448 0.51152885 0.10726833
0.18026148 -0.76733518 -0.075922489
0.17993048 -0.68960214 -0.064788818
0.17924248 -0.52776217 -0.041603565
0.17082748 0.073398829 0.045341492
0.17103449 0.023267865 0.038161278
0.16965748 0.63111281 0.085981369
0.17504549 0.70150685 -0.10108042
0.16807248 0.74112988 0.14098454
0.16919449 0.46923485 0.10203552
0.17196849 -0.20297921 0.0057563782
0.16516848 0.023401856 0.039014339
0.16304149 0.5552808 0.1151824
0.16376649 0.63125485 0.089233398
0.16369249 0.39260483 0.091887474
0.16623048 0.79122883 0.00099420547
0.16757749 -0.57874215 -0.0472188
0.15897748 0.10838985 0.052015305
0.15835048 0.27028382 0.07519722
0.15945749 -0.015517175 0.034273148
0.15711948 0.58799887 0.12069035
0.15815848 0.31987083 0.082298279
0.15652548 0.74117982 0.1426363
0.15757948 0.46936685 0.10370636
0.16297248 -0.92271316 -0.095629692
0.16040148 -0.2589922 -0.00059080124
0.16143948 -0.52709913 -0.03897953
0.15233548 0.31995887 0.083137512
0.15683548 0.82451886 -0.088728428
0.15521649 -0.44855714 -0.026892662
0.15723248 -0.98633516 -0.10388851
0.15429348 -0.20247221 0.0083403587
0.15406749 -0.14205313 0.016990185
0.15570249 -0.57828712 -0.045466423
0.14685348 0.22632086 0.070560455
0.14651348 0.32004583 0.083977222
0.14815149 0.65990281 0.019262314
0.14624949 0.39283484 0.094398499
0.14609548 0.43530485 0.10047722
0.15113248 0.70160282 -0.098517418
0.15091848 0.78966182 -0.090051651
0.15166648 0.82414484 -0.11961365
0.14883548 -0.32076514 -0.0077576637
0.15001148 -0.6453352 -0.05422163
0.14155348 0.074025869 0.049589157
0.14172849 0.023933828 0.042420387
0.13975449 0.58814085 0.12317848
0.14069249 0.32013285 0.08481741
0.14043748 0.39291185 0.095234394
0.14016949 0.46956185 0.10620546
0.14002149 0.51188385 0.1122632
0.14572148 0.78912985 -0.12095547
0.14526048 -0.98575711 -0.10210562
0.14293349 -0.32058012 -0.0068936348
0.14251949 -0.20213914 0.010059357
0.14383349 -0.57783818 -0.043716431
0.13570349 0.074148834 0.050439358
0.13519049 0.22652185 0.072247505
0.13462849 0.39298683 0.09607029
0.14007448 0.78888983 -0.13501167
0.13927749 -0.98547018 -0.10121346
0.13881849 -0.84922111 -0.08171463
0.13827449 -0.68789411 -0.058626652
0.13663548 -0.2019732 0.010920525
0.12985648 0.074271858 0.051286221
0.12936148 0.22662187 0.0730896
0.13014549 -0.014829159 0.038536549
0.12829348 0.55559283 0.12016439
0.12855348 0.63210183 0.10869455
0.13671048 0.86534685 -0.25074577
0.13744049 0.90241182 -0.28292179
0.13329749 -0.98518515 -0.10032463
0.12363048 0.19633585 0.069582462
0.12440649 -0.052379131 0.033995152
0.12339748 0.27084887 0.080244541
0.12324248 0.32039183 0.087333202
0.12288348 0.43558085 0.10381556
0.12699848 0.70203483 -0.084766388
0.12277648 0.46975383 0.10870457
0.12541449 -0.37520218 -0.012195587
0.12468448 -0.14127314 0.021277428
0.12604548 -0.57717216 -0.041095734
0.11794248 0.14940786 0.063696384
0.11662748 0.58832681 0.12649155
0.11698249 0.46981683 0.10953522
0.12254149 0.78853583 -0.15587282
0.12044948 -0.68718112 -0.05599165
0.11257948 -0.014425159 0.041089535
0.11327748 -0.2576052 0.0063033104
0.10638748 0.10944784 0.059639454
0.10695349 -0.096685171 0.030155182
0.10606448 0.22701687 0.076454163
0.10671748 0.66079283 0.042457581
0.10528149 0.51222682 0.11724854
0.11486848 0.86455584 -0.38205242
0.10939048 -0.98406112 -0.096767426
0.10845548 -0.6437192 -0.048087597
0.10813048 -0.52517414 -0.031132698
0.10055248 0.10956186 0.060484409
0.10012949 0.27121484 0.083602428
0.099297494 0.58846283 0.12897348
0.10082249 0.66091883 0.045757294
0.099697486 0.43585184 0.10714722
0.099497482 0.5122838 0.11807728
0.10490248 0.78817886 -0.17685461
0.10284248 -0.76405513 -0.064453602
0.10252649 -0.64349318 -0.047213554
0.10136649 -0.20100117 0.016069412
0.10120849 -0.1406641 0.024699211
0.094934493 0.66104484 0.04905653
0.094011486 0.39350486 0.10191536
0.093715489 0.51233888 0.11890841
0.10222249 0.82112682 -0.36850166
0.10363749 0.86414886 -0.44956446
0.09670648 -0.68625021 -0.052485466
0.095344484 -0.14051414 0.025553226
0.088969484 0.075111866 0.057216167
0.088887483 0.10978884 0.062172413
0.088504493 0.27139485 0.085279465
0.088605493 0.73961484 0.079200268
0.087932482 0.51239485 0.11973619
0.091478482 -0.98323417 -0.094104767
0.091156483 -0.84715116 -0.074647427
0.090957493 -0.7635721 -0.062697411
0.089903489 -0.31896615 0.00087022781
0.090391487 -0.52455413 -0.028523445
0.083135486 0.07522887 0.058062553
0.082056493 0.55599284 0.12679052
0.081982493 0.58859682 0.13145256
0.082516491 0.35117084 0.097509384
0.082420483 0.39364886 0.10358143
0.08500348 0.70278084 -0.060825825
0.082905486 0.73945284 0.072687149
0.082153484 0.51244986 0.12056637
0.087157488 0.78781986 -0.19795942
0.084306493 -0.44616818 -0.016476631
0.084144488 -0.37390411 -0.0061473846
0.085368484 -0.9191761 -0.084098816
0.077303484 0.075345874 0.058907509
0.07757248 -0.051280141 0.040806293
0.076980487 0.22749686 0.080654144
0.076466486 0.47024885 0.11535454
0.07941249 -0.91891515 -0.083215714
0.079081491 -0.76309419 -0.060943604
0.078826487 -0.64260316 -0.043719769
0.071814492 -0.095830202 0.035270214
0.070837483 0.39379185 0.1052494
0.071474493 0.73912787 0.05962944
0.075268492 0.78757787 -0.21209764
0.077868491 0.82076985 -0.39824343
0.073456481 -0.9186542 -0.082331657
0.073312491 -0.84639919 -0.072005749
0.065643489 0.075576842 0.060596466
0.064826488 0.51261383 0.12305117
0.07174848 0.82067984 -0.40571785
0.066483483 -0.37336314 -0.0035614967
0.067212492 -0.76262212 -0.059187412
0.059602488 0.19744086 0.078836441
0.058919486 0.58877283 0.13475418
0.058841486 0.63350284 0.14114428
0.065614492 0.82058883 -0.41320658
0.061877485 -1.1055212 -0.10734177
0.061661486 -0.9818871 -0.089675426
0.060502488 -0.3181051 0.0051703453
0.060950484 -0.57482815 -0.03151083
0.054266486 -0.095414162 0.037822247
0.054070484 0.025821865 0.055143356
0.053085487 0.63353986 0.14196825
0.053404484 0.43637484 0.11379862
0.054242488 0.73863584 0.039948463
0.05483349 -0.44522011 -0.012154579
0.054716486 -0.37300813 -0.0018377304
0.055347484 -0.76215518 -0.057435513
0.054435488 -0.19975519 0.022915363
0.054338489 -0.13948715 0.031526566
0.048421483 -0.095278144 0.038672447
0.047871489 0.27200884 0.091139317
0.047446486 0.55628181 0.1317482
0.04779749 0.32145983 0.098204613
0.047330488 0.63357687 0.14279127
0.048037488 0.66203886 0.075343609
0.047625486 0.43643785 0.11462831
0.047217485 0.70926386 0.15360737
0.051345486 0.78709185 -0.2405386
0.048836488 -0.37283218 -0.0009765625
0.049851488 -1.0510782 -0.097867489
0.049746487 -0.9813602 -0.087907791
0.048754487 -0.31776714 0.0068893433
0.049302485 -0.6844511 -0.045493603
0.042239483 0.15078485 0.07464838
0.042577486 -0.095141172 0.039521217
0.042411488 0.026061833 0.056833267
0.04269949 0.73830587 0.0267663
0.041743491 0.5128268 0.12636042
0.047139484 0.82031685 -0.43576384
0.043605488 -0.84517515 -0.067609787
0.043491486 -0.76169312 -0.05568552
0.042797487 -0.2556392 0.016597271
0.036277488 0.27217984 0.092811584
0.036632486 -0.012753129 0.052118301
0.035922486 0.55637485 0.13339949
0.035882488 0.58894384 0.13805151
0.035826486 0.63364983 0.14443636
0.035732485 0.70931685 0.1552496
0.039311487 0.78684586 -0.25484371
0.040955488 0.82022583 -0.44331169
0.036934488 -0.2554822 0.01745224
0.037331488 -0.57401216 -0.028038502
0.030842487 -0.050230145 0.047594547
0.030756488 0.026298821 0.058524609
0.030161489 0.55642188 0.13422537
0.030391488 0.35185182 0.10501146
0.030343488 0.39427787 0.11107016
0.031109486 0.73797482 0.013536453
0.031552486 -0.68379819 -0.042878628
0.030941486 -0.13892019 0.034931183
0.031429488 -0.57381117 -0.027171612
0.024808489 0.15108883 0.077168465
0.024729487 0.66252887 0.088419437
0.024447486 0.51298386 0.12884045
0.025157489 -0.1990062 0.027182579
0.019001488 0.15118784 0.078008175
0.019176487 -0.049975157 0.049289227
0.018933486 0.22841686 0.089033604
0.018619489 0.58906883 0.14052248
0.018917486 0.66265082 0.09168148
0.018722486 0.47083783 0.1236434
0.018685486 0.51303583 0.12966633
0.019932486 -0.9163841 -0.074403763
0.019691486 -0.64046812 -0.035012722
0.019588485 -0.52217913 -0.018125534
0.013225488 0.11119884 0.073124409
0.013160486 0.19819987 0.085543156
0.013345487 -0.049849153 0.050135612
0.013137486 0.22850484 0.089869499
0.013104487 0.27251482 0.096151352
0.012804486 0.70927083 0.1535573
0.015093487 0.78635186 -0.2836256
0.013586488 -0.37179816 0.004178524
0.013877489 -0.76056421 -0.051317692
0.013545487 -0.31677914 0.012032509
0.0074144863 0.11130285 0.073964596
0.0073894877 0.15138584 0.079685211
0.0073094871 0.66289383 0.09819746
0.0072384868 0.39454687 0.11439133
0.007212488 0.43687284 0.12043238
0.0077604875 -0.44376218 -0.0052585602
0.0016244873 0.07679987 0.069867611
0.0016874876 -0.049599171 0.051826477
0.0015494879 0.22868186 0.091540337
0.0016684867 -0.012025177 0.057189465
0.0016494878 0.02687782 0.06274128
0.0013694875 0.58919287 0.14299059
0.0015024878 0.32207787 0.10487032
0.0014874879 0.35221487 0.10917044
0.0018474869 -0.37146211 0.0058932304
0.0020834878 -0.84352219 -0.0614748
0.0020034872 -0.68273616 -0.038528442
0.001731487 -0.13822913 0.039178371
0.001948487 -0.57282412 -0.022842407
0.0019224863 -0.52161217 -0.015534401
-0.0041985121 0.11150783 0.075644493
-0.0041525122 -0.011906147 0.058033466
-0.0043645129 0.55669487 0.13916826
-0.0043935124 0.63389885 0.15018559
-0.0043205135 0.43699384 0.12208939
-0.0043485127 0.51323885 0.13296843
-0.0038725138 -0.75990319 -0.048700809
-0.0040385127 -0.31629813 0.014599323
-0.010024513 0.19856685 0.088890553
-0.010032513 0.22885585 0.093212605
-0.010092513 0.47111785 0.12777519
-0.010103513 0.51328886 0.1337924
-0.0098645128 -0.44323313 -0.0026798248
-0.0098825125 -0.37113011 0.0076084137
-0.0097655132 -0.84306312 -0.059725761
-0.0097865127 -0.75968516 -0.047829628
-0.0098055126 -0.68232012 -0.036791801
-0.0099255126 -0.19813716 0.032290459
-0.015785513 -0.049230158 0.054363251
-0.015795514 0.027216852 0.065268517
-0.015832514 0.32230186 0.10736418
-0.015846513 0.43711284 0.12374353
-0.015752513 -0.31598318 0.016308308
-0.021609513 0.27300286 0.10115337
-0.021609513 0.027328849 0.066111565
-0.021609513 0.32237583 0.10819435
-0.021609513 0.70811784 0.11523342
-0.021609513 -1.1017172 -0.094938755
-0.021609513 -0.31582713 0.017162323
-0.021609513 -0.25395811 0.025988579
-0.027398512 0.19883484 0.091397285
-0.027424512 -0.011438131 0.061407566
-0.027419513 0.027438819 0.066951275
-0.027349513 0.58939284 0.14709949
-0.027383514 0.70792383 0.10880518
-0.027770512 0.78547287 -0.33454561
-0.027553514 -1.0476751 -0.086384773
-0.027454512 -0.25381112 0.026839256
-0.027440513 -0.13756013 0.043418407
-0.033258513 -0.093445182 0.05053854
-0.033178512 0.22919685 0.096549511
-0.033147514 0.35263485 0.11415148
-0.033077512 0.6340698 0.15428448
-0.033126511 0.43728983 0.12622356
-0.033943512 0.78534585 -0.34187651
-0.033284515 -0.19757617 0.0356884
-0.039004512 0.11211085 0.080675602
-0.038989514 0.15215284 0.086384296
-0.038972512 0.19901085 0.093066216
-0.039064512 -0.048749149 0.057739258
-0.038838513 0.55695784 0.14410448
-0.03939151 0.73594683 -0.066895485
-0.038855515 0.51353484 0.13791227
-0.039184511 -0.37031817 0.011886597
-0.039457515 -1.100944 -0.092291832
-0.03943751 -1.0471772 -0.084626675
-0.039411515 -0.9776032 -0.074704647
-0.03912051 -0.19743717 0.036538601
-0.03909751 -0.13729918 0.04511261
-0.044743516 0.22936487 0.098216534
-0.044697512 0.32266587 0.11151838
-0.044774514 0.70733881 0.089450359
-0.045042515 -0.3701582 0.012742519
-0.045379512 -1.0469291 -0.08374548
-0.045344513 -0.97736514 -0.073828697
-0.044926513 -0.13716912 0.045959473
-0.050618514 0.077739835 0.077422619
-0.050596513 0.11230582 0.0823493
-0.050523512 0.22944784 0.099047184
-0.050420515 0.39518982 0.12267542
-0.050373513 0.47149685 0.1335535
-0.050346512 0.51363087 0.13956022
-0.051317513 -1.0466841 -0.082868576
-0.051274512 -0.97712815 -0.072951794
-0.050823513 -0.25323117 0.030241489
-0.056415513 0.077841818 0.078260422
-0.056359515 0.15242982 0.088891506
-0.056057513 0.55708587 0.1465683
-0.056033514 0.58958685 0.15120125
-0.056178514 0.39525086 0.1235013
-0.057282511 0.73542982 -0.087292671
-0.057254512 -1.0464401 -0.081988811
-0.057101514 -0.8412832 -0.052746773
-0.062210511 0.077941835 0.079098225
-0.062320512 -0.04828018 0.061109543
-0.062288512 -0.010758162 0.066456318
-0.061793514 0.55712783 0.14739037
-0.061831512 0.51372588 0.14120436
-0.06266351 -0.44170713 0.0050401688
-0.062833518 -0.63769317 -0.022891521
-0.067884512 0.19944185 0.097235203
-0.067496508 0.58966285 0.15284061
-0.067689508 0.39537382 0.1251545
-0.06917651 -1.0996902 -0.087890625
-0.068334512 -0.25280714 0.032790184
-0.068218514 -0.13665915 0.049341202
-0.073761508 0.11268985 0.085695267
-0.073855512 0.028300822 0.073672295
-0.073263511 0.5572108 0.14903116
-0.074381515 -0.44138014 0.0067505836
-0.07490851 -0.91264915 -0.060395718
-0.074107513 -0.19662821 0.041623592
-0.074468508 -0.51927614 -0.0043478012
-0.079548508 0.11278385 0.086531162
-0.079498515 0.15279186 0.09223032
-0.078995511 0.55725181 0.14985132
-0.078900516 0.63433182 0.16083336
-0.079102516 0.47175685 0.13767242
-0.080147512 -0.36922514 0.01786232
-0.080902517 -0.9759692 -0.068577766
-0.080079511 -0.31431913 0.025684357
-0.079858512 -0.13640916 0.051030159
-0.080397516 -0.57022417 -0.010771751
-0.085381508 0.078336835 0.082446575
-0.086918518 -1.0452441 -0.077603817
-0.086637512 -0.84021819 -0.048397541
-0.086359516 -0.63694513 -0.019442558
-0.085675508 -0.13628614 0.051875591
-0.091358513 -0.047711134 0.065315247
-0.090878516 0.27392387 0.11112642
-0.090583518 0.47185886 0.13931656
-0.096399516 0.78405684 -0.41602755
-0.09183751 -0.36892116 0.01956749
-0.092237517 -0.63676214 -0.018580437
-0.096959516 0.078530848 0.084118366
-0.096643507 0.27399683 0.11195517
-0.096379519 0.43790683 0.13529634
-0.096324518 0.47190884 0.14013958
-0.098861516 -1.0984771 -0.083500385
-0.098662511 -0.97529221 -0.065957546
-0.098115519 -0.63657916 -0.017720699
-0.097924516 -0.51859617 -0.00091743469
-0.10274552 0.078626871 0.084954262
-0.10296552 -0.047489166 0.066996574
-0.10283251 0.028815866 0.077861309
-0.10185651 0.58988488 0.15775442
-0.10232051 0.32335883 0.11980152
-0.10226752 0.35342783 0.12408447
-0.10219452 0.39573282 0.1301074
-0.10469951 -1.0445461 -0.074977398
-0.10332151 -0.25198317 0.037878513
-0.10869551 -0.0098941326 0.073174477
-0.10862352 0.028916836 0.078699589
-0.10749452 0.63448882 0.16491747
-0.10752352 0.66525781 0.1627593
-0.11160651 0.73385382 -0.14918852
-0.10779752 0.47200885 0.14178419
-0.10771951 0.51409185 0.1477766
-0.10949852 -0.4404242 0.011877537
-0.11049451 -0.9748491 -0.064213753
-0.11037651 -0.91134715 -0.055170536
-0.10904251 -0.19585013 0.04669857
-0.10893051 -0.13579917 0.05524826
-0.11424552 0.11333585 0.091539383
-0.11441351 0.029016852 0.079537392
-0.11368452 0.39584887 0.13175726
-0.11537051 0.70495182 0.010946274
-0.11770351 0.73367685 -0.15613174
-0.11628251 -0.91113615 -0.054301739
-0.11573552 -0.63604021 -0.015140533
-0.11485951 -0.19572318 0.047542572
-0.11474051 -0.1356802 0.056089401
-0.12009652 0.078909874 0.087461472
-0.12002352 0.11342585 0.092373371
-0.12036252 -0.047162175 0.069514275
-0.12028351 -0.0096851587 0.074849606
-0.11892352 0.63455081 0.16655016
-0.11942752 0.39590687 0.13258219
-0.11926651 0.47210684 0.14342737
-0.11917752 0.51418084 0.14941549
-0.12258051 -1.0975361 -0.079995632
-0.12232052 -0.9744122 -0.062469482
-0.12160552 -0.63586211 -0.014280796
-0.12067652 -0.19559717 0.048387527
-0.12587851 0.079002857 0.08829546
-0.12544252 0.27435583 0.11609745
-0.12456751 0.66558182 0.1717782
-0.12507552 0.43817183 0.1394124
-0.12703951 -0.43996119 0.014435291
-0.12850851 -1.0973051 -0.079120636
-0.12838851 -1.0436381 -0.071482658
-0.12809151 -0.91071713 -0.052564621
-0.12675551 -0.31318521 0.032477379
-0.13148251 0.15356982 0.099727154
-0.13137251 0.20033884 0.10638332
-0.13119751 0.27442682 0.11692524
-0.13177651 0.029313862 0.082045555
-0.13091052 0.39602083 0.13422823
-0.13288352 -0.4398092 0.015287399
-0.13399351 -0.91051018 -0.051696777
-0.13786051 -0.09132117 0.065702438
-0.13774951 -0.046841145 0.072031498
-0.13706051 0.23062587 0.11151123
-0.13756052 0.029410839 0.082881451
-0.13598052 0.66563582 0.17341137
-0.13654551 0.43827584 0.14105749
-0.14221951 0.73296183 -0.18404484
-0.13646051 0.47225085 0.14589119
-0.13989452 -0.91030419 -0.050828457
-0.13950951 -0.75524414 -0.028766632
-0.13891852 -0.51745319 0.0050683022
-0.14301951 0.15373582 0.10139036
-0.14365852 -0.09121114 0.066542149
-0.14354251 -0.046736181 0.072869301
-0.14528652 0.70393485 -0.022287846
-0.14207952 0.51435387 0.15269423
-0.14614052 -1.0429741 -0.068865776
-0.14579351 -0.9101001 -0.049961567
-0.14423652 -0.31277514 0.035020351
-0.14392951 -0.19510412 0.051760197
-0.14866051 0.20057184 0.10887337
-0.14945652 -0.09110117 0.067381382
-0.14933552 -0.046631157 0.07370615
-0.14747451 0.63469982 0.17063522
-0.15186651 -0.97334516 -0.058119774
-0.15169352 -0.90989721 -0.049094677
-0.15076052 -0.56818318 -0.00048446655
-0.15476552 0.079458833 0.092464447
-0.15340051 0.55776185 0.16049862
-0.15386152 0.39624286 0.13752127
-0.15374051 0.43842784 0.14352131
-0.15812251 -1.0961742 -0.074750423
-0.15796952 -1.0425391 -0.067122459
-0.15680552 -0.63482416 -0.0091304779
-0.15554951 -0.1948632 0.053445339
-0.16053952 0.079547822 0.093296528
-0.16017851 0.20072383 0.11053038
-0.15981051 0.32400483 0.12806225
-0.15972152 0.35404086 0.13233423
-0.15959552 0.39629787 0.13834333
-0.16338152 0.70331788 -0.042379856
-0.16388151 -1.0423242 -0.066251755
-0.16367452 -0.97293019 -0.05638361
-0.16302352 -0.75450718 -0.025319576
-0.16170652 -0.31237519 0.037560463
-0.16231552 -0.51682413 0.0084843636
-0.16631152 0.079636872 0.094129562
-0.16670252 -0.046322167 0.076218605
-0.16584152 0.23099184 0.11565256
-0.16646552 0.029887855 0.087054253
-0.16540952 0.58875382 0.13543749
-0.16792051 -0.43892014 0.020392418
-0.16957651 -0.9727242 -0.055515766
-0.17169152 0.20087487 0.11218834
-0.17236751 -0.0087821484 0.082378387
-0.17106052 0.39640582 0.13998938
-0.17375551 -0.43877614 0.021240234
-0.17587452 -1.0955162 -0.072136402
-0.17547752 -0.97252011 -0.054647446
-0.17773752 0.11428982 0.10069561
-0.17827551 -0.046120167 0.07789135
-0.17734651 0.23113483 0.11730719
-0.17789352 0.55419588 0.094078541
-0.17653751 0.47257686 0.15163851
-0.18092452 -0.83704913 -0.034549713
-0.17895952 -0.25031316 0.048864365
-0.17857052 -0.13442111 0.065338612
-0.18550752 0.58312285 0.019451618
-0.18236852 0.47231984 0.14789343
-0.18542251 -0.43849015 0.022939205
-0.18610151 -0.63399315 -0.0048494339
-0.18912151 0.15437686 0.10803223
-0.19364652 0.62461388 -0.070761681
-0.19317351 -0.97191715 -0.052047729
-0.19015951 -0.1342032 0.067017555
-0.19470452 0.20116782 0.11549854
-0.20159352 0.65373588 -0.14759064
-0.20297052 0.69853085 -0.20017052
-0.19708352 -0.4382081 0.024637222
-0.19737251 -0.51591611 0.013594151
-0.20092152 0.080153823 0.099119186
-0.19998151 0.32442987 0.13383532
-0.20872252 0.65219486 -0.18918276
-0.20523152 -1.0408632 -0.060168743
-0.20242752 -0.31147516 0.043473244
-0.20620452 0.20131087 0.11715221
-0.21744151 0.69595683 -0.28514767
-0.20874152 -0.43793118 0.026332378
-0.20753452 -0.13388216 0.069530487
-0.21230651 0.11477685 0.10567617
-0.21195152 0.20138186 0.11798048
-0.21296252 -0.045532167 0.082904339
-0.21265052 0.03061384 0.093720436
-0.21952951 0.54140282 -0.14508772
-0.22062851 0.57327986 -0.18322372
-0.21199852 0.32285482 0.11635447
-0.22323951 0.64905381 -0.27387667
-0.21670352 0.45937586 -0.046954632
-0.21649052 -0.9077642 -0.039584637
-0.21554151 -0.67588615 -0.0066428185
-0.21356852 -0.19370818 0.061853409
-0.21820852 0.080403864 0.10161352
-0.21789552 0.15475786 0.11217356
-0.21769851 0.20145285 0.11880636
-0.21873951 -0.045437157 0.083737373
-0.21738651 0.27542287 0.12932014
-0.21841852 0.030701816 0.094553471
-0.22790952 0.57123888 -0.22524071
-0.22126652 0.38533682 -0.0014038086
-0.23227252 0.69331783 -0.37223148
-0.22525552 0.49698284 -0.13583374
-0.22315852 -1.0938311 -0.065177441
-0.22264051 -0.97094321 -0.047721386
-0.22237352 -0.90757918 -0.038722515
-0.22207151 -0.83577716 -0.028522491
-0.22121651 -0.63303816 0.00027418137
-0.21911152 -0.13367319 0.071204185
-0.22072051 -0.51533413 0.016993523
-0.22364652 0.15483284 0.11300039
-0.22344352 0.20152283 0.11963558
-0.22435252 -0.0079381466 0.089884281
-0.22418451 0.030788839 0.095384598
-0.23408651 0.53692782 -0.22869968
-0.23811851 0.6458348 -0.36067867
-0.22590552 -0.3657341 0.039068222
-0.22724952 -0.67556715 -0.0049347878
-0.22489752 -0.13356912 0.072041512
-0.22918952 0.20159185 0.12046432
-0.24274352 0.56707883 -0.31084585
-0.23298451 0.31248784 -0.00030565262
-0.23310351 -0.67540812 -0.0040798187
-0.23095252 -0.19337916 0.064370155
-0.23626852 -0.089555144 0.079935551
-0.23571552 0.030959845 0.097047329
-0.24900451 0.53234088 -0.31439161
-0.24567752 0.44844586 -0.21138763
-0.23875852 -0.63257718 0.0028333664
-0.24183652 -0.045062184 0.087073326
-0.2566025 0.53000486 -0.35803175
-0.24853052 0.33311284 -0.11469555
-0.25483251 0.48683485 -0.30467844
-0.24253452 -0.19316411 0.066046238
-0.24428852 -0.56572914 0.013154507
-0.24404852 -0.51477015 0.020389557
-0.24699952 0.080806851 0.10576344
-0.24683352 0.11524284 0.11065531
-0.24828452 0.14962882 0.068039417
-0.25114852 0.21727186 -0.016094685
-0.26569352 0.56064188 -0.44327784
-0.25177252 -0.90667617 -0.034416676
-0.24859351 -0.2489121 0.058956146
-0.2539545 0.11062282 0.072280407
-0.25546449 0.14516485 0.029029369
-0.25359949 -0.089267135 0.082439423
-0.2601715 0.25278682 -0.10573959
-0.2633785 0.32611787 -0.19758272
-0.27017751 0.48156783 -0.39227486
-0.25532252 -0.43686712 0.033101559
-0.25796452 -0.96982515 -0.042543411
-0.2568835 -0.75177515 -0.011595726
-0.2562905 -0.63212717 0.0053873062
-0.2557075 -0.51449513 0.022084236
-0.2761015 0.43696386 -0.38403749
-0.26352552 -0.90632415 -0.032696724
-0.26273951 -0.75161517 -0.010739803
-0.2595965 -0.13296521 0.077057362
-0.26153451 -0.51435912 0.022931576
-0.26514751 -0.089079142 0.084105492
-0.26510751 0.029261827 0.085203171
-0.27008852 -1.0387251 -0.050649643
-0.2690255 -0.83440912 -0.021657467
-0.2795175 0.17316383 -0.14408064
-0.2706835 -0.044612169 0.091238499
-0.28828949 0.35597783 -0.37774038
-0.27560851 -0.9692862 -0.039959431
-0.2744475 -0.75130117 -0.0090308189
-0.2720975 -0.31004417 0.053575516
-0.27403751 -0.67433715 0.0018892288
-0.27115351 -0.13277018 0.078727245
-0.2780965 -0.013801157 0.049194336
-0.2775605 -0.24836814 0.063148499
-0.2908625 0.08660084 -0.12717056
-0.28246251 -0.088802159 0.086610317
-0.2871455 0.013593853 -0.032585621
-0.30422151 0.34899485 -0.4671936
-0.28775349 -1.0381751 -0.048061848
-0.2827065 -0.13257921 0.080397606
-0.28483149 -0.5138272 0.02631855
-0.28980249 -0.36440015 0.04833746
-0.29363951 -1.0379951 -0.047199726
-0.2888225 -0.19233918 0.072741508
-0.29094249 -0.56461716 0.019940376
-0.3046115 0.046102822 -0.1703167
-0.3104825 0.15496385 -0.3133688
-0.29952452 -1.0378162 -0.046337605
-0.29875252 -0.90530717 -0.027545452
-0.29528549 -0.30959821 0.056933403
-0.30431649 -0.10482621 -0.019449711
-0.3081345 -0.035976171 -0.11054039
-0.30183151 -0.43587112 0.039852619
-0.3010805 -0.30948913 0.057771206
-0.3029905 -0.63098216 0.012186527
-0.32027552 0.035512865 -0.25458241
-0.3220315 0.066301823 -0.29561853
-0.32654849 0.14551783 -0.40120077
-0.30687451 -0.30938113 0.058611393
-0.30650151 -0.24784613 0.067336559
-0.30908349 -0.67347014 0.0069913864
-0.3070955 -0.19564712 0.053455353
-0.33006549 0.06106782 -0.33903456
-0.33639652 0.16908586 -0.48403883
-0.31300551 -0.3639462 0.051698208
-0.3163535 -0.90481818 -0.02497673
-0.31228551 -0.24774313 0.06817627
-0.31492051 -0.67333019 0.0078392029
-0.31749851 -0.15337014 -0.051210403
-0.3381995 0.055767834 -0.38299465
-0.3316305 -0.05332917 -0.2354846
-0.31880349 -0.3638351 0.052538395
-0.32305351 -1.0371182 -0.042895794
-0.32261649 -0.96791613 -0.033086777
-0.3217645 -0.8329761 -0.013958454
-0.32227251 -0.2087642 -0.025364399
-0.3353135 -0.1294632 -0.18254852
-0.34175751 -0.025255144 -0.32446861
-0.3250615 -0.43539917 0.043219566
-0.32893249 -1.0369471 -0.042034626
-0.32721749 -0.26040411 -0.004257679
-0.35712451 0.081909835 -0.52327251
-0.34777951 -0.065260172 -0.32136059
-0.34994951 -0.031085134 -0.36824846
-0.3348105 -1.0367782 -0.041176796
-0.3343575 -0.96758914 -0.031371593
-0.3321445 -0.63030612 0.016424179
-0.3366715 -0.43517017 0.044901371
-0.33752951 -0.5635792 0.026707172
-0.3696605 0.0021088719 -0.52024841
-0.34453949 -0.3735311 0.0027332306
-0.3460955 -0.96726811 -0.029657841
-0.34740052 -0.3307451 -0.056825638
-0.3506895 -0.28155518 -0.12530041
-0.34409049 -0.67264712 0.012081146
-0.34380051 -0.63004518 0.018118382
-0.3537375 -0.23596716 -0.18876171
-0.3705045 -0.11675119 -0.40792751
-0.37515152 -0.049026132 -0.50294161
-0.35244149 -1.0362802 -0.038599491
-0.35102749 -0.83223021 -0.0096955299
-0.34962651 -0.62991619 0.018963337
-0.34916452 -0.5633322 0.028396606
-0.35738251 -0.90372813 -0.018990517
-0.35575151 -0.67238414 0.013776302
-0.37360051 -0.19964015 -0.34476185
-0.38755849 -0.1298002 -0.49817753
-0.36830351 -0.39671612 -0.11805964
-0.36419049 -1.0359561 -0.036885738
-0.36272749 -0.83194113 -0.0079927444
-0.36213249 -0.74911118 0.003739357
-0.37143052 -0.35335815 -0.17979574
-0.37502751 -0.30349314 -0.25079966
-0.37006351 -1.0357962 -0.036026478
-0.3690975 -0.9034301 -0.01728344
-0.3685745 -0.83179915 -0.0071406364
-0.3679485 -0.51914012 0.005004406
-0.4020665 -0.18256021 -0.53378963
-0.37380651 -0.74884212 0.0054364204
-0.37323651 -0.67199719 0.016316414
-0.38128349 -0.96634114 -0.024525642
-0.4002775 -0.32626319 -0.38100576
-0.3790625 -0.67187119 0.017161369
-0.40791351 -0.2279582 -0.52429962
-0.3839725 -0.53625214 -0.074986458
-0.3968595 -0.48549521 -0.20305061
-0.4089075 -0.3340472 -0.42550373
-0.38488752 -0.67174613 0.018007278
-0.4126555 -0.28693712 -0.49471378
-0.39354551 -1.0351732 -0.032602787
-0.3930065 -0.96604419 -0.022817612
-0.39886549 -0.9658972 -0.02196455
-0.40703651 -0.6907742 -0.06182766
-0.40968451 -0.65977621 -0.10845566
-0.41390651 -0.6103462 -0.1828084
-0.43105552 -0.52041316 -0.37534046
-0.40948251 -0.83084214 -0.0011916161
-0.4223775 -0.61965716 -0.22483969
-0.41532251 -0.83071017 -0.00034379959
-0.4490875 -0.42648911 -0.57717752
-0.44880649 -0.53854418 -0.46477175
-0.42229551 -0.96532714 -0.018554688
-0.43963951 -0.63863218 -0.31047773
-0.45785052 -0.54778421 -0.51033974
-0.4407725 -0.73001814 -0.22706461
-0.4494665 -0.74013317 -0.26964378
-0.4663465 -0.66799617 -0.44296885
-0.47022751 -0.62842715 -0.50552368
-0.45068151 -0.92525911 -0.094137669
-0.45564249 -0.87580013 -0.17298746
-0.46718249 -0.76075017 -0.35640574
-0.4794645 -0.63830519 -0.55162859
-0.47041652 -0.8276931 -0.30984163
-0.46346352 -0.99050117 -0.10698557
-0.46796149 -0.94761312 -0.17654753
-0.47318551 -0.89780521 -0.25733566
-0.46721649 -1.0479902 -0.072897434
-0.48093349 -1.0137012 -0.18971157
-0.49771249 -0.86066914 -0.44232464
-0.50397152 -0.80357516 -0.53656864
-0.49468851 -0.98219621 -0.30400467
-0.51649553 -0.88336718 -0.53348446
